# .PCD v0.7 - Point Cloud Data file format
VERSION 0.7
FIELDS x y z rgba
SIZE 4 4 4 4
TYPE F F F U
COUNT 1 1 1 1
WIDTH 570
HEIGHT 1
VIEWPOINT 0 0 0 1 0 0 0
POINTS 570
DATA ascii
-0.0043199845 -0.0018616724 0.044068281 4286136899
-0.0024857223 -0.00032621389 0.042601112 4287314234
-0.00077287108 0.0019585965 0.040451031 4289342249
0.00081038103 0.0049926727 0.037618332 4288557358
0.0027190894 0.0057783495 0.03683681 4290192674
0.0049777925 0.0043160873 0.038105223 4290323744
0.0077323169 -0.00014295569 0.042105496 4289864999
0.010271419 -0.0031028814 0.044738408 4289602603
-0.015061628 7.8308396e-05 0.039936747 4286725438
-0.013307076 0.0023697424 0.037788935 4291303964
-0.011182368 0.0016534002 0.038372587 4291958804
-0.0089529268 0.00018542167 0.039638635 4290192419
-0.0069169402 0.00022135954 0.039539449 4289211433
-0.0049859211 0.0010091448 0.038758118 4289604133
-0.0030604973 0.0017970139 0.037977114 4289407783
-0.0013612881 0.0040881331 0.035832569 4289473828
0.00043444335 0.0056275236 0.034370709 4289669924
0.0023348667 0.006415253 0.033591229 4290455323
0.0045851544 0.0049485038 0.034856822 4290716954
0.0070886202 0.0019791173 0.037484903 4290715678
0.0097376816 -0.0017411571 0.040793337 4289733929
0.012287173 -0.0047094873 0.04341935 4287640633
-0.019255877 -0.00086675864 0.038245928 4287902774
-0.017575908 0.0021854336 0.035420712 4288752944
-0.015735563 0.0037290375 0.033959229 4288689449
-0.013812359 0.0045184097 0.033179559 4290389789
-0.01179811 0.0045537255 0.03308126 4290193693
-0.0095852949 0.0030811462 0.034344833 4290782233
-0.0075658262 0.0031168084 0.034246471 4289670179
-0.0054416806 0.0023986246 0.034828853 4289212199
-0.0034197457 0.0024345662 0.034730542 4289408293
-0.0015082061 0.0032244991 0.033951938 4289800994
0.00028475374 0.0047681867 0.032493521 4289735714
0.002066642 0.0063117757 0.03103571 4289212454
0.0041927807 0.005594268 0.031618405 4289735713
0.006445393 0.0041233185 0.032880735 4290193184
0.0088326447 0.0018990724 0.034822371 4288753454
0.011362698 -0.0010783235 0.037442856 4289406763
-0.019548323 -0.0002234173 0.034999456 4286921788
-0.01787651 0.0028373688 0.03218114 4289539363
-0.016044404 0.0043851598 0.030723345 4289474338
-0.014223326 0.005932908 0.02926613 4289016614
-0.012123585 0.0052118092 0.029847786 4289474594
-0.0099192001 0.0037346887 0.031108584 4289997853
-0.0077040233 0.002257898 0.032368887 4289735968
-0.0057923123 0.0030497587 0.031591777 4289670434
-0.0036712289 0.0023295092 0.032172743 4289735968
-0.0016550384 0.0023654806 0.032074813 4289735969
2.2213906e-05 0.0046694591 0.029941183 4290716954
0.001914259 0.0054614856 0.029165339 4290848534
0.0039190948 0.0054976023 0.029068217 4290325018
0.0062871277 0.0032663546 0.031005841 4290455578
0.0084236562 0.0025470885 0.031586584 4289735714
0.010818634 0.00031655608 0.033523072 4289146154
-0.019669291 -0.0010839687 0.033119585 4286071619
-0.018000167 0.0019854922 0.030307885 4289408039
-0.016261913 0.0042961738 0.028175395 4290716953
-0.014446352 0.0058481772 0.026721757 4290259483
-0.01244878 0.0058832415 0.026624296 4290390554
-0.010252837 0.0044016433 0.027882215 4290913814
-0.0080460906 0.0029203272 0.029139746 4290848279
-0.0060379617 0.0029559485 0.029042054 4289735969
-0.0039225295 0.0022334303 0.029621679 4289866783
-0.0019119456 0.0022693309 0.029524043 4289539618
-0.00012726709 0.003821664 0.028072488 4290259228
0.0016463548 0.0053738733 0.026621599 4290586904
0.0036455877 0.0054099248 0.026524771 4291044628
0.0058868043 0.0039300718 0.027781185 4290782998
0.0080149695 0.0032084561 0.028360773 4289473829
0.010274936 0.0017291736 0.029616456 4289211434
0.012674902 -0.00050767371 0.031547938 4286529343
-0.018123742 0.0011383034 0.02843811 4289145898
-0.016479235 0.0042161983 0.025634199 4289800739
-0.014762927 0.0065331836 0.023507748 4290586393
-0.012677226 0.0058074859 0.024086855 4290913558
-0.010486986 0.0043214024 0.025341865 4290586393
-0.0081840232 0.0020751618 0.027272291 4290062878
-0.0062834248 0.0028712065 0.026498977 4289801504
-0.0041736513 0.0021464173 0.027077273 4289997598
-0.0021686703 0.002182229 0.026979912 4289866784
-0.00027665123 0.0029784893 0.026207294 4289866784
0.0016097613 0.0037747403 0.025435012 4289735969
0.0034905635 0.0045710229 0.024663102 4289736224
0.0056077875 0.0038469792 0.02524149 4289605409
0.0077303126 0.0031231181 0.025819685 4289146919
0.0099845938 0.0016393531 0.027072456 4289146664
0.012378808 -0.00060408562 0.028999321 4288818989
0.01492111 -0.0036071243 0.03159998 4288229938
-0.018158991 -0.00046717003 0.027246729 4288818988
-0.01651445 0.002619457 0.024449307 4289408038
-0.014798149 0.0049429969 0.022327732 4289343268
-0.013001904 0.0065035303 0.02088163 4289670433
-0.010919243 0.0057757278 0.02145936 4289408803
-0.0086274967 0.0035227616 0.023385476 4289408804
-0.0065287016 0.002795449 0.02396265 4289735969
-0.0044245832 0.0020684157 0.024539623 4289670433
-0.0023151375 0.0013415762 0.025116414 4290063388
-0.0003131628 0.0013774694 0.025019299 4290194204
0.0014576353 0.0029383865 0.02357506 4289932319
0.0032173768 0.0044992571 0.022131395 4289997598
0.0052079931 0.0045352844 0.022035081 4290455578
0.0073221438 0.0038091098 0.022612076 4290390554
0.0095679946 0.0023208638 0.023862038 4289604899
0.01195376 7.0685521e-05 0.025784489 4289015594
-0.018194251 -0.0020723322 0.026055578 4287118393
-0.016640589 0.0017881342 0.022591412 4289277479
-0.014927022 0.004118145 0.020474892 4289997089
-0.013133563 0.0056830109 0.01903211 4289539618
-0.011053823 0.0049529583 0.019608419 4290651929
-0.0088669248 0.0034582936 0.020857181 4291044374
-0.0067737848 0.0027287588 0.021432977 4290324764
-0.0046753287 0.0019994569 0.022008613 4289801504
-0.0025715344 0.0012703002 0.022584107 4290390043
-0.00057515875 0.0013061003 0.022487268 4289997599
0.0013055988 0.002106708 0.021718506 4290128413
0.0030625723 0.0036718515 0.020278256 4289801504
0.0049294047 0.0044723866 0.019510377 4291306259
0.0069142655 0.0045084418 0.019414436 4290651928
0.0091517009 0.0030157291 0.020661525 4290782744
0.011658076 -5.5055134e-06 0.023250882 4290062369
0.014449704 -0.0045548826 0.027181696 4289080109
-0.018317651 -0.0029098557 0.024192907 4286595389
-0.01676663 0.00096145319 0.020737037 4288753963
-0.014962208 0.0025307336 0.019296933 4289866274
-0.013265122 0.0048671491 0.01718612 4289800993
-0.011287365 0.0049020085 0.017089736 4290848023
-0.0092079528 0.0041699526 0.017664503 4290717208
-0.0069141835 0.0019040434 0.019580949 4291044629
-0.0049258731 0.0019394597 0.01948433 4290390299
-0.0028277412 0.0012081051 0.020058461 4289997598
-0.0008369647 0.0012438139 0.019961901 4290063134
0.0011536591 0.00127964 0.019865442 4290324763
0.002907861 0.0028491248 0.018428598 4290586393
0.0047718771 0.0036517777 0.017662458 4289343523
0.0066302717 0.004454521 0.016896665 4289343269
0.0087357052 0.003723932 0.017470989 4290586393
0.011104506 0.0014604637 0.019384537 4289146154
0.013884816 -0.0031022462 0.023306217 4289733929
-0.018440954 -0.0037427559 0.022333737 4286987579
-0.01698339 0.00090882834 0.018216144 4288688429
-0.01527803 0.0032517998 0.01610969 4289931553
-0.013396595 0.0040559019 0.015343554 4289081383
-0.011520714 0.0048600188 0.014577772 4289604899
-0.0094469562 0.0041257064 0.015151214 4290062879
-0.0073678568 0.0033915876 0.015724469 4290652184
-0.0051762275 0.0018884828 0.016966734 4289997853
-0.0031936653 0.0019239495 0.016870502 4290193949
-0.0010985769 0.001190464 0.017443243 4290324763
0.00077108666 0.0019951975 0.0166783 4290063389
0.0026351549 0.0027999929 0.015913684 4291175699
0.0043728016 0.0043736692 0.014480975 4290325018
0.0063464791 0.00440954 0.014385596 4289997853
0.0084462613 0.0036767269 0.014958542 4290325018
0.010809328 0.0014065867 0.016867559 4290455833
0.013188567 -0.0008631004 0.018775839 4289998364
0.015987333 -0.0054384354 0.022686992 4286071619
-0.018476121 -0.0053426675 0.021146487 4287772468
-0.017018434 -0.00067798514 0.017038621 4286922554
-0.015406575 0.0024430896 0.01426883 4289473318
-0.013624199 0.0040208478 0.012836389 4290193438
-0.011753879 0.0048270975 0.012072466 4289212454
-0.0096857697 0.0040904549 0.012644596 4289474084
-0.0075079165 0.0025827005 0.013884187 4289932574
-0.0053192787 0.001075252 0.015123338 4290259738
-0.0033395775 0.001110659 0.01502724 4289866783
-0.0012474172 0.00037492532 0.015598562 4289866783
0.00061942264 0.0011818386 0.014835343 4289997854
0.002362635 0.0027598492 0.013405517 4290717208
0.0039740205 0.0051089083 0.011309402 4290979349
0.0059393719 0.0051446431 0.011214435 4291110164
0.0080308095 0.004409459 0.011786208 4290978583
0.010256458 0.0029036137 0.013024259 4290455833
0.012624513 0.00062714051 0.014928259 4289605919
0.015277524 -0.0031905649 0.018164013 4289015084
-0.020172466 -0.010072716 0.02272534 4286398274
-0.018423304 -0.0077161184 0.02062631 4286398783
-0.017053474 -0.002264532 0.015861299 4286334014
-0.015535031 0.0016390211 0.012431413 4289342503
-0.013659257 0.0024474063 0.011668812 4290062623
-0.011789046 0.0032558446 0.010906521 4290716953
-0.0097211301 0.0025170096 0.011477035 4290913813
-0.0076478831 0.0017784438 0.012047339 4291110164
-0.0054622181 0.00026659248 0.013283405 4290325018
-0.0034854002 0.00030196412 0.013187461 4290063133
-0.001396168 -0.00043594697 0.01375727 4289474339
0.00035259873 0.0011464148 0.012330331 4288885544
0.0020903088 0.0027286992 0.010904022 4289539618
0.0036962517 0.0050842012 0.0088130329 4289932063
0.0056560189 0.005119856 0.0087183546 4290782998
0.007741794 0.0043824525 0.0092887506 4289670689
0.0098328702 0.003645251 0.0098589733 4289604643
0.012060855 0.0021351627 0.011093799 4289539618
0.014702577 -0.0016936478 0.014321994 4287837493
-0.015476588 -0.00071224431 0.011927381 4288426799
-0.013790451 0.0016501569 0.0098365638 4289604388
-0.011824213 0.0016848543 0.0097407699 4289735714
-0.0099596605 0.002495457 0.0089805126 4290063134
-0.0078920722 0.0017546327 0.009549493 4289670433
-0.0059261769 0.0017896825 0.0094539821 4289801503
-0.0037408806 0.00027355691 0.010686964 4289539618
-0.0017697848 0.00030895462 0.01059139 4289408803
0.00031638891 -0.00043107616 0.011159813 4289016359
0.0020540617 0.0011555632 0.0097367428 4289147174
0.0037806816 0.0027421643 0.0083142556 4289932063
0.0054962523 0.0043286453 0.0068924315 4290193949
0.007453002 0.0043643569 0.0067979805 4289670434
0.0094095878 0.0044001848 0.0067036264 4289670179
0.011629146 0.0028856401 0.0079355873 4289080619
0.014128003 -0.0001790137 0.010493128 4288491313
0.016922545 -0.0047934302 0.014375415 4285940548
-0.015511595 -0.0022894761 0.010756982 4288099634
-0.013825465 7.944461e-05 0.0086710118 4289735459
-0.011859383 0.00011416059 0.008575242 4289735459
-0.0099949352 0.00092695374 0.0078166183 4289670434
-0.0082403161 0.0025176634 0.0063955244 4289801248
-0.0062827431 0.002552575 0.006300427 4289474594
-0.0042155981 0.0018098056 0.0068679899 4289147429
-0.0022555478 0.0018450078 0.0067729559 4289212709
-6.5315515e-05 0.00032490958 0.0080026034 4289277988
0.0018999092 0.00036044884 0.0079074986 4289735969
0.0037443824 0.0011737021 0.0071504544 4290193438
0.0053365678 0.003542148 0.0050699357 4290193438
0.0071643852 0.0043553184 0.0043138564 4291175445
0.0092441924 0.0036135823 0.0048814043 4291371284
0.011329275 0.0028720037 0.0054488182 4290454304
0.013822366 -0.00020146277 0.0080001615 4289603369
0.016337056 -0.0032743721 0.010550514 4287052604
-0.015639909 -0.0030861648 0.008925043 4286791483
-0.013860486 -0.0014909701 0.0075056795 4289211433
-0.012092058 0.00010409206 0.0060869679 4289539108
-0.010233175 0.00091896951 0.0053302385 4289277989
-0.0084840618 0.0025139893 0.0039126165 4291306259
-0.0066390298 0.0033288556 0.0031567328 4291175698
-0.0045802593 0.0025837715 0.0037230924 4290979348
-0.0026285313 0.0026188376 0.0036284737 4289539618
-0.00044671446 0.0010941774 0.0048553217 4289474083
0.0016280301 0.00034972467 0.0054211635 4289735713
0.0035875142 0.00038526766 0.0053264163 4290062878
0.0050537027 0.003539938 0.0025906097 4289800993
0.0068759806 0.0043552085 0.001836434 4290259228
0.0088214092 0.004390839 0.0017426237 4290455323
0.011029582 0.0028674002 0.0029686764 4290717209
0.013382699 0.00056465715 0.0048540719 4289669158
0.0160258 -0.0032966379 0.008058032 4289080109
-0.015674859 -0.0046606679 0.0077566691 4286137153
-0.014087457 -0.0014963038 0.0050205737 4289407784
-0.012423262 0.00088544888 0.0029454976 4289800738
-0.01057265 0.0017023324 0.0021907687 4289343268
-0.0087276064 0.0025192662 0.0014364235 4290782999
-0.0067812353 0.0025540064 0.0013418924 4290913813
-0.0048349984 0.0025888658 0.0012474563 4291110164
-0.0028888732 0.0026238277 0.001153104 4290062878
-0.00094287843 0.0026588975 0.0010588411 4289997598
0.001120761 0.0019120607 0.001623597 4290259229
0.0031897202 0.0011654585 0.0021881964 4289866273
0.0047710389 0.0035467246 0.00011795945 4290716954
0.0064618103 0.005145988 -0.0012928974 4288885289
0.0082702376 0.0059633167 -0.002044687 4289147174
0.010467287 0.0044353032 -0.00082134828 4289539618
0.012943346 0.0013441197 0.0017178804 4288884779
0.015577901 -0.0025282248 0.0049141534 4288949548
-0.014314245 -0.001492606 0.0025420971 4288623149
-0.0126555 0.00089552859 0.00047217682 4289473573
-0.010911833 0.0024990463 -0.00093879178 4290324509
-0.0089709647 0.0025335639 -0.0010331497 4289277734
-0.0071370304 0.0033525885 -0.0017852522 4288885544
-0.0048704222 0.0010342184 9.387359e-05 4289212708
-0.0031490214 0.0026378245 -0.0013156515 4289932318
-0.0010936074 0.0018885233 -0.00075214542 4289866783
0.00084938481 0.0019236621 -0.00084617175 4289539619
0.0029127002 0.0011747661 -0.00028292835 4289670433
0.004488565 0.0035625328 -0.002348071 4291044374
0.0060479455 0.0059501012 -0.0044123419 4291044629
0.00784811 0.0067694332 -0.0051621292 4290782998
0.0099053942 0.0060208687 -0.0045982674 4290978583
0.012236137 0.0037046974 -0.0027214736 4290847768
0.01485667 -0.0001787967 0.00046737865 4289276713
0.017783362 -0.0056293095 0.0049675759 4288491569
-0.014540832 -0.0014799708 7.032603e-05 4287445813
-0.012887549 0.00091464072 -0.0019945167 4289539108
-0.011250723 0.0033090417 -0.0040584225 4290847768
-0.0093181692 0.0033434113 -0.0041523734 4290258973
-0.007385727 0.0033778991 -0.0042462321 4290062879
-0.0052343868 0.001839472 -0.0030278079 4290062879
-0.003408961 0.0026607723 -0.0037776921 4290782999
-0.0013592057 0.0019092271 -0.0032155812 4289735969
0.00046050176 0.0027306485 -0.0039650239 4289997598
0.0026358701 0.0011931071 -0.0027474239 4289866783
0.0044525787 0.0020147078 -0.00349655 4290062878
0.0060119741 0.0044087949 -0.0055559753 4290651929
0.0076834746 0.006016497 -0.0069592921 4290521113
0.0096065365 0.0060518361 -0.0070519382 4290652184
0.01193155 0.0037290058 -0.0051797405 4290258974
0.014409486 0.00062057097 -0.0026534572 4289734948
0.017048549 -0.0032733358 0.00052651018 4289015084
-0.014671382 -0.0022472965 -0.0017396435 4287314998
-0.013020832 0.00015380047 -0.0037994944 4289539108
-0.011285447 0.0017658407 -0.0052035386 4290062879
-0.0093530454 0.0018001962 -0.0052974923 4290847768
-0.0076342337 0.0034122407 -0.0067005847 4291240469
-0.0054885857 0.0018692957 -0.0054850904 4291044629
-0.0036687106 0.0026927185 -0.0062331306 4289670433
-0.0015096776 0.0011502686 -0.0050180964 4289866784
0.0001895763 0.0027623982 -0.0064199157 4289866783
0.0023592524 0.0012203739 -0.0052052224 4289866783
0.0041704252 0.0020440361 -0.0059524719 4289670433
0.0059760064 0.0028677625 -0.0066994028 4289735968
0.0076474696 0.0044798073 -0.0080994926 4289866784
0.0093078725 0.0060917526 -0.0094989706 4289735969
0.011359204 0.0053388444 -0.008937967 4289539363
0.013552498 0.0037979367 -0.0077239806 4289539109
0.016314257 -0.00089535769 -0.0038982332 4289016104
0.018824216 -0.0040116506 -0.0013798438 4288164658
-0.016000807 -0.0093735699 0.0017778538 4286267458
-0.014514484 -0.0053833649 -0.0015856251 4287380278
-0.013154015 -0.00060244603 -0.0056010643 4288819498
-0.011522654 0.0018049739 -0.0076550273 4289342758
-0.0096998177 0.0026302035 -0.0084018344 4289604643
-0.0077758469 0.0026645507 -0.0084952721 4289735714
-0.0058519915 0.002699005 -0.0085886242 4289866529
-0.0038161129 0.0019427687 -0.0080291396 4289670434
-0.0018897764 0.0019774912 -0.008122446 4289670434
-8.1147999e-05 0.0028030616 -0.0088681197 4289997598
0.0018422119 0.002837962 -0.0089611104 4289735969
0.0038884766 0.0020823628 -0.0084017944 4289932573
0.0058142804 0.0021175416 -0.0084947282 4289801504
0.0076114684 0.0029433551 -0.0092395144 4289670433
0.0091406442 0.005350173 -0.011287605 4289932063
0.011189055 0.0045949924 -0.010728038 4289931808
0.013242755 0.0038400651 -0.010168684 4289081384
0.015719865 0.00071430998 -0.0076552229 4288818989
0.018218603 -0.002410935 -0.0051427204 4286071618
-0.01818141 -0.0093900468 -0.00059472956 4286658884
-0.01603565 -0.010942379 0.00061370432 4286398274
-0.014549237 -0.0069412887 -0.002741687 4286071874
-0.013188638 -0.0021473069 -0.0067474227 4288426798
-0.011658467 0.0010598185 -0.0094481902 4289081128
-0.0098384507 0.0018871906 -0.010193228 4289670178
-0.0080239885 0.0027145795 -0.010937911 4289931808
-0.0061057322 0.0027489304 -0.011030993 4289473828
-0.0041875839 0.0027834098 -0.011123973 4290062878
-0.0021547452 0.0020250301 -0.010565895 4289539619
-0.00023411959 0.0020597787 -0.010658829 4290128414
0.0016863719 0.0020946315 -0.010751677 4290063134
0.0036067329 0.0021296148 -0.01084442 4289866783
0.0055269562 0.0021646782 -0.010937094 4289866783
0.0071901716 0.0037853173 -0.012330357 4289997854
0.0088423528 0.0054058251 -0.013722962 4291240979
0.010617379 0.0062335939 -0.014464923 4290978583
0.012796599 0.0046837484 -0.01325671 4290651929
0.015125889 0.0023416267 -0.011399119 4289734438
0.017755445 -0.0015849788 -0.0082428772 4288426034
-0.013223242 -0.0036919396 -0.0078936126 4286922554
-0.011794169 0.0003192476 -0.01123795 4289015848
-0.010184716 0.0027394514 -0.013281055 4289670434
-0.0082719401 0.0027735927 -0.013373956 4289409058
-0.0064685866 0.0036030705 -0.014116397 4291110164
-0.0044467151 0.0028422144 -0.013559481 4291045138
-0.0026490502 0.0036718152 -0.014301481 4291110164
-0.00050448999 0.0021162108 -0.013095407 4289997853
0.0014104135 0.0021509724 -0.013187977 4289735969
0.0033251904 0.0021858267 -0.01328047 4289866784
0.0052398331 0.0022207987 -0.013372866 4289866783
0.0067691989 0.0046405266 -0.015411299 4289539364
0.0085442923 0.0054703788 -0.016151715 4290258973
0.01044761 0.0055054636 -0.016243327 4290586393
0.01262388 0.0039511942 -0.015038223 4290586393
0.01495016 0.001602503 -0.01318533 4290454814
0.017292622 -0.00074575562 -0.011333188 4289081638
0.020085413 -0.0054774121 -0.0075378772 4289734183
-0.01182868 -0.0012142248 -0.01237585 4288427053
-0.01032304 0.0020099594 -0.015062418 4289932063
-0.0085196756 0.0028415197 -0.015803313 4289474594
-0.0067218654 0.0036730715 -0.016543871 4290128668
-0.0047056414 0.0029099225 -0.015988309 4290194204
-0.0026840903 0.0021470045 -0.015432908 4290978583
-0.00065720454 0.0013843058 -0.014877673 4289735714
0.0014951676 -0.0001754635 -0.013675103 4289735969
0.0032896399 0.00065664295 -0.014415115 4289866783
0.0050785355 0.0014887303 -0.015154724 4289605154
0.0066052005 0.003914895 -0.017188203 4290848534
0.0083774701 0.0047469367 -0.017926892 4289670178
0.010144178 0.0055788984 -0.018665221 4288950823
0.012178253 0.0048170839 -0.018109774 4289212454
0.014356878 0.0032585696 -0.016907893 4289277478
0.016688172 0.00090357382 -0.015060071 4289604899
0.01932497 -0.0030445477 -0.011920272 4288295729
-0.013390776 -0.0059806639 -0.010832353 4286333249
-0.012065273 -0.0011480181 -0.014807248 4287641653
-0.010565028 0.0020847511 -0.017487027 4289408548
-0.0087672099 0.0029183957 -0.018226104 4289998110
-0.0069749542 0.0037520207 -0.018964775 4289278244
-0.0049643628 0.0029866151 -0.018410545 4288885544
-0.0029484369 0.0022213678 -0.017856453 4289081638
-0.00092719868 0.001456365 -0.017302582 4290062879
0.00097925961 0.0014909636 -0.017394749 4289932318
0.0027627684 0.002324983 -0.018132588 4289343268
0.0047917962 0.0015604664 -0.017578837 4289735968
0.0064412951 0.0031939051 -0.018961737 4290521113
0.008210782 0.0040279818 -0.019698666 4291044628
0.0099746771 0.0048620873 -0.020435229 4290978583
0.011869427 0.0048971153 -0.020526353 4290586138
0.013903189 0.0041332138 -0.019972438 4290848023
0.016084146 0.0025704694 -0.018773848 4289735714
0.01856507 -0.00058977678 -0.01628634 4288360498
0.021214928 -0.0045484365 -0.013155182 4286922553
-0.013425317 -0.007522366 -0.011976367 4287052603
-0.012200668 -0.0018747698 -0.016586754 4288164913
-0.010806814 0.0021685148 -0.019905053 4289408549
-0.0092274249 0.004607839 -0.021932084 4290716953
-0.0072278157 0.0038398854 -0.021378994 4290848023
-0.0052228644 0.0030721859 -0.02082612 4290455578
-0.0030979775 0.0015030666 -0.019628877 4290716953
-0.0013143197 0.0023390385 -0.020365272 4290978583
0.00046376884 0.0031750384 -0.021101303 4290128413
0.0022362955 0.0040110317 -0.021836996 4289735969
0.0043797567 0.0024426715 -0.020640336 4289605154
0.0062775239 0.0024774387 -0.020731842 4289409059
0.0081751533 0.002512299 -0.02082327 4289997853
0.0098053031 0.0041498705 -0.022201827 4290455323
0.011697199 0.0041848165 -0.022292838 4290586393
0.013588954 0.0042198789 -0.022383751 4289931808
0.015764225 0.002652735 -0.021188155 4289277734
0.018094812 0.00028472859 -0.019349888 4289080618
0.020736139 -0.0036849796 -0.016226416 4286071874
-0.015104916 -0.011510439 -0.011094605 4287051073
-0.01345985 -0.0090638399 -0.013120214 4286595134
-0.011048388 0.0022611446 -0.022316426 4289277734
-0.0094744489 0.0047068982 -0.02433834 4290128159
-0.0075895935 0.0047406401 -0.024429809 4290978583
-0.0054811686 0.0031667533 -0.023235092 4290848023
-0.0034765191 0.0023969212 -0.022683712 4290847768
-0.0017011277 0.0032349811 -0.023418117 4289539363
6.8705529e-05 0.0040729991 -0.024152137 4289735968
0.0020784438 0.003303655 -0.023600783 4289539619
0.0040935017 0.0025344719 -0.023049563 4289670433
0.0061138645 0.0017655315 -0.022498565 4290062878
0.0081395358 0.00099682016 -0.021947725 4289212198
0.0097696595 0.0026387195 -0.023323061 4289277734
0.011797767 0.001870241 -0.022772199 4289735713
0.013692122 0.0019053351 -0.02286325 4289147174
0.016011696 -0.00046947924 -0.021029362 4289015593
0.018058416 -0.00123733 -0.020479186 4288556849
0.020552125 -0.0044146837 -0.01800511 4287183674
-0.011186142 0.0015565753 -0.024079369 4288622893
-0.0097212531 0.0048148721 -0.026737982 4289015848
-0.0076238625 0.0032363064 -0.025546061 4289081383
-0.0056274645 0.0024641124 -0.024995998 4289212453
-0.0035112128 0.00088606123 -0.023804788 4289408548
-0.0017359108 0.0017262856 -0.02453758 4289474084
0.00015379861 0.001760562 -0.024628954 4289670435
0.0020433888 0.0017949436 -0.02472024 4288951334
0.0039328411 0.0018294309 -0.024811441 4289605409
0.0059503205 0.0010581939 -0.024261896 4289932574
0.0079730861 0.00028724689 -0.023712538 4290063388
0.0098676048 0.00032212818 -0.023803759 4289670944
0.012034561 -0.0012540747 -0.022614382 4289605408
0.013934229 -0.0012189057 -0.022705708 4289409569
0.016258959 -0.0036001652 -0.020876931 4288362283
0.018166509 -0.0035646395 -0.020968478 4287838004
-0.011116635 -0.0007602917 -0.02455844 4287707444
-0.0094363876 0.00089015625 -0.025930595 4288950058
-0.0074400827 0.0001156535 -0.025382243 4289408549
-0.0054384246 -0.00065867789 -0.024834022 4289016103
-0.0034314431 -0.0014327546 -0.024286015 4288950824
-0.001653485 -0.00059039332 -0.02501731 4289016613
0.00023880601 -0.00055606291 -0.025108801 4289343779
0.0021309815 -0.00052165054 -0.025200225 4289213218
0.0040230379 -0.00048714411 -0.025291573 4289409824
0.0060430355 -0.0012604333 -0.024743784 4289540383
0.0080683567 -0.002033527 -0.02419618 4289933339
0.010098975 -0.0028064267 -0.023648759 4288363048
0.012271147 -0.0043869568 -0.022462849 4288428584
0.014176134 -0.0043516885 -0.022554429 4289343778
0.016364355 -0.0059316563 -0.021369167 4288296494
0.018274497 -0.0058960882 -0.021460842 4287379768
-0.011047225 -0.0030812398 -0.025040612 4287380278
-0.009364292 -0.0014263932 -0.026409663 4288558124
-0.0071475208 -0.0038239686 -0.02458634 4288950823
-0.0052495785 -0.0037899041 -0.024678379 4288689448
-0.0031229146 -0.0053764442 -0.023494123 4288231725
-0.0014540218 -0.0037214216 -0.024862176 4288231469
0.00056343898 -0.0044972757 -0.024316138 4288166444
0.002341073 -0.0036525282 -0.025045637 4288166444
0.0042384341 -0.0036179349 -0.025137248 4288428584
0.0061356798 -0.0035832 -0.025228746 4289802779
0.0082942881 -0.0051685339 -0.024045566 4289802779
0.010330182 -0.0059435354 -0.023500035 4289671964
0.012371372 -0.0067183063 -0.022954658 4288494119
0.014278959 -0.0066830069 -0.023046376 4288819753
0.016469669 -0.0082673114 -0.021864492 4288296238
0.018382419 -0.0082317004 -0.021956297 4286006339
-0.01257373 -0.0078783575 -0.023522122 4286071618
-0.01087442 -0.0062190322 -0.024888858 4287903794
-0.0090798922 -0.0053724763 -0.025618058 4287969329
-0.0070730783 -0.0061511486 -0.025073456 4288100653
-0.0051725507 -0.0061170296 -0.025165616 4288689448
-0.0031577572 -0.0068953908 -0.024621202 4289212963
-0.0012547374 -0.006861004 -0.024713315 4288362283
0.00076798722 -0.0076389364 -0.024169147 4287904303
0.0025509782 -0.0067919241 -0.024897296 4288166698
0.0044536591 -0.0067572435 -0.024989169 4288166954
0.0064841844 -0.007534713 -0.024445141 4288886819
0.0085200295 -0.008312 -0.023901304 4289541148
0.010694604 -0.0099012339 -0.022722086 4290326293
0.012471508 -0.009053831 -0.023449568 4288952098
0.014520559 -0.009830554 -0.022906128 4288558123
0.016433317 -0.0097950622 -0.022998024 4288688429
0.018490236 -0.010571487 -0.022454776 4287576119
-0.014318172 -0.011062922 -0.023286583 4286266948
-0.01260791 -0.0093992073 -0.024650658 4286987323
-0.010805208 -0.0085504716 -0.025378743 4287903538
-0.0090080611 -0.0077016605 -0.026106503 4288035118
-0.0069987029 -0.0084825149 -0.025563607 4288035118
-0.0052071922 -0.0076335929 -0.026290935 4287904559
-0.0030782856 -0.0092288032 -0.025113262 4288362283
-0.0010556355 -0.010009045 -0.024570808 4289213219
0.00097234175 -0.010789056 -0.02402851 4288754983
0.0027606972 -0.0099398028 -0.024755323 4288101419
0.0046686828 -0.0099050235 -0.024847452 4288101419
0.0064486377 -0.0090557048 -0.025573697 4288297768
0.0084843002 -0.0098351706 -0.02503147 4288428584
0.010658648 -0.011428774 -0.023855485 4289345309
0.012571555 -0.011393507 -0.023947557 4289606684
0.01448435 -0.01135811 -0.024039524 4288362029
0.016255464 -0.010508459 -0.024764976 4289277224
-0.012742724 -0.010102736 -0.026412934 4286594878
-0.01083947 -0.010068931 -0.026505496 4288034609
-0.008936312 -0.010035031 -0.02659798 4288035374
-0.0068156086 -0.011634934 -0.025423363 4288101419
-0.0049071983 -0.011600709 -0.025515931 4288036139
-0.0031131469 -0.010749509 -0.026241647 4287904814
-0.0012076683 -0.010715117 -0.026333909 4287970093
0.0008174032 -0.011497365 -0.025793096 4288624168
0.0026029572 -0.010646004 -0.02651817 4289606174
0.0045080893 -0.010611296 -0.026610173 4288363559
0.0062852427 -0.0097598825 -0.027334688 4288624933
0.008318007 -0.010541584 -0.026793946 4288559909
0.0104894 -0.012139602 -0.02562106 4288560164
0.012535509 -0.01292087 -0.025080819 4289672728
0.01430941 -0.012069091 -0.025804861 4289147174
0.015936259 -0.010400968 -0.027160501 4288557613
-0.01307863 -0.0091631282 -0.029436465 4286856508
-0.010977041 -0.010767948 -0.028264321 4288557104
-0.0090767369 -0.010734107 -0.028356675 4289017123
-0.0068502277 -0.013157597 -0.026553217 4288886308
-0.0050534382 -0.012304293 -0.027277542 4288427818
-0.0032622032 -0.011450985 -0.028001521 4287642673
-0.0014765263 -0.010597615 -0.028725181 4287904559
0.00042327121 -0.010563245 -0.028817106 4287053878
-0.013414226 -0.0082102865 -0.032450177 4286529088
-0.011321031 -0.0098196808 -0.031280842 4288361263
-0.0093230419 -0.010607349 -0.030742383 4286727224
-0.0073197037 -0.011394797 -0.030204091 4287054644
-0.0054224581 -0.011360779 -0.030296125 4287643184
-0.033931166 -0.0061755572 0.030216254 4281225343
-0.028116876 -0.0093750339 0.02498287 4282798183
0.03310499 -0.0076399082 0.01375382 4280701318
0.028544653 -0.01014657 0.0084294491 4282207603
0.035419349 -0.0084439982 0.0017844792 4281880949
0.032930385 -0.007685028 -0.0012402032 4281749879
0.03093325 -0.0092888623 -0.0023090467 4280504204
0.028469373 -0.0085091973 -0.0053198971 4282077553
0.012953777 -0.0092371767 -0.034844134 4282339948
0.0014842935 -0.010123927 -0.036041714 4282209133
0.010625761 -0.0083014853 -0.037747316 4282601579
0.017803285 -0.0080066491 -0.040467214 4282602599
0.011878107 -0.0079455627 -0.042550579 4282602088
-0.020162597 -0.0075079575 -0.043986768 4281225343
0.013857212 -0.011138353 -0.028827719 4286541583
