# .PCD v0.7 - Point Cloud Data file format
VERSION 0.7
FIELDS x y z rgba
SIZE 4 4 4 4
TYPE F F F U
COUNT 1 1 1 1
WIDTH 695
HEIGHT 1
VIEWPOINT 0 0 0 1 0 0 0
POINTS 695
DATA ascii
-0.020874824 -0.0024195444 0.037222989 4287050564
-0.0213366 -0.00010515144 0.032735649 4288491824
-0.01963472 0.0022674366 0.03064964 4289277479
-0.017676719 0.002301767 0.03055341 4291107103
-0.015625224 0.0015568784 0.031120079 4291107359
-0.01347205 3.2939482e-05 0.032349266 4288752179
-0.023585189 0.00063391542 0.029684328 4288490294
-0.021797895 0.0022313269 0.028264645 4288621874
-0.020021588 0.0038286168 0.026845634 4290257443
-0.018165451 0.0046443064 0.026088607 4290192419
-0.016127784 0.0038970094 0.026654352 4290060838
-0.013892237 0.0015869988 0.028542053 4290126119
-0.011739414 5.878089e-05 0.029768161 4289145134
-0.009677507 -0.00068773096 0.030332979 4288490803
-0.023867141 0.0014205901 0.026546005 4289210159
-0.022088088 0.0030221641 0.025129996 4289275949
-0.020408057 0.0054075131 0.023054734 4289080618
-0.018562939 0.0062251883 0.022299865 4289080618
-0.016536381 0.0054755053 0.022864528 4289734693
-0.014312033 0.0031587258 0.024747983 4289145899
-0.012170367 0.0016260007 0.025971372 4289670178
-0.010119569 0.00087712612 0.026535129 4289342503
-0.0081678219 0.00091195293 0.026439654 4289015084
-0.0061090626 0.00016344804 0.027003191 4289801248
-0.0041548237 0.00019856729 0.026907779 4289603623
-0.0022006929 0.00023380574 0.02681246 4289930024
-0.00013139844 -0.00051417667 0.027375802 4289210158
0.0021792389 -0.0028284111 0.029255707 4286136388
-0.024066271 0.0014345255 0.024076123 4288752688
-0.022292733 0.0030404008 0.022663575 4290126883
-0.020706154 0.0062181409 0.019935172 4289473829
-0.018778604 0.0062519368 0.019840434 4289277479
-0.016757708 0.0054999823 0.020403769 4289800738
-0.014539108 0.0031765816 0.022282671 4290062368
-0.012502033 0.0024251575 0.022845391 4289539109
-0.010561235 0.0024596732 0.022750366 4289538853
-0.0086205415 0.0024943184 0.022655442 4289277223
-0.0066799484 0.0025290586 0.022560595 4289605154
-0.004739482 0.0025639394 0.02246586 4289931554
-0.0027991347 0.0025989376 0.022371221 4290388514
-0.00074366108 0.0018485119 0.022933614 4290061094
0.0014350899 0.00031292625 0.024152577 4290256933
0.0036246143 -0.0012223506 0.025371101 4287183163
-0.026203737 0.0014238744 0.021708403 4288163638
-0.024430184 0.0030339537 0.020299045 4289212708
-0.022582399 0.0038558152 0.019547036 4289735714
-0.020828079 0.0054658176 0.018138813 4290585628
-0.018994082 0.0062876446 0.017387711 4290913049
-0.01697883 0.0055334168 0.017949712 4290651163
-0.014862102 0.0039914111 0.01916777 4290389534
-0.012833402 0.0032376349 0.019729342 4289539364
-0.010799363 0.0024840999 0.020290688 4289670178
-0.008759968 0.001730775 0.020851854 4289604643
-0.0069292784 0.0025532879 0.020101467 4289735203
-0.0051041543 0.0033758078 0.01935143 4290324254
-0.0035095327 0.0057738042 0.017290849 4289408294
-0.0014706142 0.0050209612 0.017852405 4290192419
0.00069155917 0.0034806617 0.019068979 4290061348
0.0029851198 0.0011531925 0.020940131 4288754474
0.0050481781 0.00040108385 0.021500804 4289079854
0.0071165301 -0.00035078404 0.022061253 4289014574
0.0091901906 -0.0011024305 0.022621535 4287182908
0.011006061 -0.00027915509 0.021872632 4287117883
0.012816343 0.00054411171 0.021124072 4287183419
-0.026636004 0.0038272794 0.017285209 4289015849
-0.024793709 0.0046510622 0.016535042 4289211944
-0.022786604 0.0038941503 0.017095558 4289408038
-0.021037798 0.0055083968 0.015690822 4289538853
-0.019028116 0.004751781 0.016251398 4289997089
-0.017106418 0.0047855983 0.01615704 4290128159
-0.01508873 0.0040293522 0.016717393 4289539363
-0.013065685 0.0032733269 0.017277576 4289474339
-0.011037294 0.0025175344 0.017837597 4289670433
-0.0088993013 0.00097185373 0.019051688 4289800993
-0.0071784109 0.0025865259 0.017648928 4290586139
-0.0056879148 0.0057809055 0.014938904 4289473829
-0.0042193383 0.0089750793 0.012230014 4288623404
-0.0020818114 0.0074299192 0.013444444 4289473829
0.00018436462 0.0050952462 0.015312035 4289604644
0.0024667457 0.0027610194 0.017178874 4290062624
0.0045187175 0.0020065256 0.017738469 4289669924
0.006575983 0.0012522968 0.018297855 4289538853
0.0082522556 0.0028670589 0.016897937 4289146154
0.0099174865 0.0044816872 0.015498679 4288949803
0.011840109 0.0045172442 0.015405554 4290913304
0.014036436 0.0029740464 0.016617782 4290126883
0.016522821 -0.00014766119 0.019134607 4288491058
-0.02851717 0.0014635785 0.01689636 4288162109
-0.02690847 0.00466746 0.014185958 4288949039
-0.025074458 0.0054932851 0.013437819 4289865254
-0.023075733 0.0047340337 0.013997121 4289735203
-0.021071624 0.0039749667 0.0145563 4289669668
-0.01915272 0.0040086322 0.014462003 4289931808
-0.017140601 0.0032499721 0.015020913 4289604899
-0.015219133 0.003283917 0.014926666 4289539618
-0.01310027 0.0017333725 0.016138263 4289539873
-0.011072084 0.00097538438 0.016696671 4289670433
-0.0089343376 -0.00057463301 0.01790756 4289539363
-0.0074273311 0.0026286859 0.015203064 4290389788
-0.0058325939 0.0050396286 0.013152072 4290847514
-0.0043666773 0.0082424032 0.010449797 4290586394
-0.0022321194 0.0066928351 0.011661144 4290716698
-8.6784363e-05 0.0051435772 0.01287205 4290913304
0.0023104064 0.0020107622 0.015386185 4289604899
0.0041129179 0.0028378163 0.014640914 4289604899
0.0060358383 0.0028730547 0.014547536 4289800993
0.0078299046 0.0037001623 0.013802828 4289866019
0.0094869323 0.0053190487 0.012407161 4290651163
0.011401262 0.0053544333 0.012314426 4290651163
0.013452303 0.0045983065 0.012872867 4290520094
0.015648242 0.0030508395 0.014081957 4290389789
0.017854903 0.0015036929 0.015290618 4288950314
0.019927267 0.00074822968 0.015848225 4288752688
-0.028704301 0.0015136059 0.014452485 4288425269
-0.027101019 0.0047261016 0.011748808 4290453028
-0.025190223 0.0047592372 0.011654623 4290519073
-0.023194429 0.0039977711 0.012212465 4290781469
-0.021281052 0.0040311879 0.012118329 4290715933
-0.019367743 0.0040647481 0.012024303 4290193184
-0.01745452 0.0040984014 0.011930352 4289539620
-0.01534944 0.0025430806 0.013139341 4289474338
-0.013233542 0.00098811649 0.014347848 4289474338
-0.011208273 0.00022790255 0.014904786 4289736224
-0.0093859546 0.0010566832 0.014159566 4290128158
-0.0076760501 0.002679795 0.012763818 4289800994
-0.0058675632 0.0035085985 0.0120194 4289800993
-0.0042892694 0.0059258435 0.0099741751 4290455324
-0.0022672787 0.0051661497 0.010531703 4290651674
-0.0001221858 0.0036125397 0.011739401 4289932319
0.0020336807 0.0020591947 0.012946696 4289604898
0.0040770918 0.0013002353 0.01350344 4289670178
0.0057479963 0.0029234467 0.01211019 4290062623
0.0075365268 0.003752687 0.011367336 4290258463
0.0089253262 0.0069635315 0.0086758342 4289669923
0.010962721 0.006204905 0.0092331972 4289343014
0.013005417 0.005446462 0.0097903656 4289342758
0.015192952 0.0038944976 0.010996644 4290455069
0.017106678 0.0039301952 0.010904177 4289408294
0.019165251 0.0031723147 0.01146085 4289277224
0.021376807 0.001621081 0.012666178 4289211433
0.02359907 7.0169568e-05 0.013871076 4289668904
0.025525745 0.00010651071 0.013778282 4288621873
-0.030510968 -0.0016487129 0.014713338 4288294199
-0.028968086 0.002369686 0.01136448 4289537323
-0.027293371 0.0047937045 0.0093182847 4289472299
-0.025388187 0.004826759 0.0092243887 4288818733
-0.023398042 0.0040630074 0.0097808894 4289015339
-0.021402523 0.0032994766 0.010337219 4290716188
-0.019582566 0.0041297758 0.0095932698 4289604389
-0.017581746 0.003366584 0.01014952 4290128158
-0.015479647 0.0018069032 0.011355388 4289867039
-0.013366718 0.00024749665 0.012560861 4289736224
-0.011648495 0.0018749232 0.011167722 4289735969
-0.0099412613 0.0035022171 0.0097752418 4289670434
-0.0080313869 0.0035364386 0.0096819196 4289735714
-0.0060120746 0.0027742926 0.010237798 4289343270
-0.0042119622 0.0036051748 0.0094955135 4289604898
-0.0023024306 0.003639726 0.0094024567 4289932319
-0.0002752915 0.0028780811 0.0099582188 4289016103
0.001998052 0.00052403426 0.011811004 4288819753
0.0037949383 0.0013553305 0.011069226 4288819753
0.0055862442 0.0021866891 0.010327769 4290062879
0.007243365 0.003814091 0.008938483 4290782233
0.0088894516 0.00544143 0.0075498372 4290520859
0.010658544 0.0062726745 0.0068096737 4288492844
0.012695629 0.0055119125 0.0073655471 4289343269
0.014598493 0.0055473121 0.0072735334 4290128414
0.016785655 0.0039910683 0.0084766624 4290193694
0.018693645 0.004026779 0.0083845612 4289670179
0.021044496 0.0016752183 0.010234373 4289473574
0.022960331 0.0017112382 0.010142012 4289735458
0.024875987 0.0017473744 0.010049751 4289537833
0.026635643 0.0025792415 0.0093106367 4290257189
0.028865349 0.0010243454 0.010512196 4289930023
0.03094447 0.00026528211 0.01106664 4290844963
0.033520859 -0.0028800021 0.013560394 4286921023
-0.030988583 0.0016077156 0.0096789561 4288163638
-0.029308381 0.004038264 0.007637186 4289864488
-0.027565062 0.0056694923 0.0062453793 4289014828
-0.025750453 0.0065014875 0.0055030189 4288557358
-0.023686439 0.0049363067 0.006707177 4289408038
-0.021611582 0.0033713644 0.0079109129 4289931554
-0.019797191 0.0042037861 0.0071688071 4290389534
-0.017802019 0.0034382744 0.0077237645 4289670178
-0.015801489 0.0026730304 0.0082785124 4289866783
-0.013795592 0.0019079945 0.0088330815 4289670433
-0.011986982 0.0027407398 0.0080916509 4290063389
-0.010287978 0.0043723155 0.0067027817 4291110163
-0.0083864182 0.0044063525 0.0066098389 4291175699
-0.006375473 0.0036418308 0.00716455 4290782999
-0.0043591857 0.0028775772 0.007719053 4289474594
-0.0023375675 0.0021135178 0.0082733696 4289605409
-0.00042829663 0.0021481724 0.0081804059 4289409059
0.0017216429 0.0005860473 0.0093814889 4289146919
0.0036361143 0.0006210031 0.0092884256 4289146919
0.0051729381 0.0030511064 0.0072553083 4289539363
0.0069504194 0.0038844394 0.0065162489 4289997344
0.0085910261 0.0055160476 0.0051310319 4290978583
0.010354605 0.0063493317 0.004392799 4290978583
0.012386058 0.0055863457 0.0049472987 4291044118
0.01428334 0.0056216288 0.0048555457 4291240213
0.016464841 0.0040608747 0.0060557583 4290520859
0.018512171 0.0032984605 0.006609696 4289997343
0.020712387 0.0017383131 0.0078091202 4289997343
0.022472318 0.0025721127 0.0070714955 4290127648
0.024226647 0.0034059277 0.0063342303 4289866019
0.025975365 0.0042397222 0.005597299 4290585628
0.028035473 0.0034779981 0.0061509544 4290258719
0.030262057 0.0019188118 0.007349452 4290585374
0.032663304 -0.0004377733 0.0091924071 4289341484
0.034914013 -0.0019963337 0.010389869 4288622130
0.03734481 -0.0043521803 0.012231534 4289079088
-0.033003263 0.00085058203 0.0079966541 4288295983
-0.031243552 0.0024862103 0.0066070175 4288819753
-0.029418034 0.0033203242 0.0058655497 4289473319
-0.027677499 0.0049558179 0.0044770772 4290389534
-0.025947927 0.0065912968 0.0030892021 4290389534
-0.023974538 0.0058228998 0.0036432999 4290455069
-0.021820456 0.0034522815 0.005491212 4290912793
-0.019921236 0.0034855735 0.0053978632 4289342758
-0.017928991 0.0027178819 0.0059513124 4289408549
-0.016027208 0.0027514547 0.0058580125 4289343013
-0.013928402 0.0011830884 0.0070577208 4289736224
-0.012325175 0.0036199475 0.005025412 4289932574
-0.010634381 0.0052556386 0.0036401772 4290913813
-0.0087411404 0.0052895499 0.0035476596 4290128923
-0.0067385659 0.0045227353 0.0041011162 4291175954
-0.0046184696 0.002955365 0.0053001661 4289474594
-0.0026024804 0.0021889992 0.0058531971 4289605409
-0.00046356395 0.00062219054 0.007051493 4289539874
0.0014454499 0.00065694936 0.0069586225 4289277734
0.0033543333 0.00069181249 0.0068658376 4289408548
0.005011525 0.0023278114 0.0054829204 4289539363
0.0067861937 0.003163314 0.0047455677 4289604899
0.0085552819 0.0039987611 0.0040085949 4289539364
0.010452751 0.004033844 0.0039166822 4290520603
0.012350056 0.0040690079 0.0038248398 4290782489
0.014107827 0.0049045552 0.0030886449 4290128158
0.016144242 0.0041396637 0.0036414238 4289932064
0.018041115 0.0041751312 0.0035498333 4290193694
0.020232949 0.0026104045 0.004746459 4290193438
0.021984655 0.0034462949 0.0040108212 4290585629
0.023730759 0.0042820936 0.0032755374 4290193183
0.025315534 0.0059178453 0.0018969364 4289015849
0.027364593 0.0051537482 0.0024495197 4289212199
0.029580075 0.0035899859 0.0036453148 4290193183
0.03213406 0.00042685261 0.0061272327 4289670178
0.034376431 -0.0011362873 0.0073218942 4289474339
0.036968101 -0.0042984881 0.0098020844 4289276204
-0.033178449 0.00093449699 0.0055770832 4286790464
-0.031498227 0.0033779293 0.003544936 4286005828
-0.02960429 0.0034105107 0.003451389 4288753709
-0.027789839 0.004246789 0.0027121389 4289800739
-0.026063047 0.0058865445 0.0013276809 4290258719
-0.024092581 0.0051159086 0.0018803007 4289800738
-0.022029124 0.0035420628 0.0030781443 4290127904
-0.0201355 0.0035752738 0.0029850833 4289146919
-0.018148907 0.0028052861 0.0035371818 4289604898
-0.016156945 0.0020355433 0.0040891273 4289670688
-0.014258116 0.0020691874 0.003996064 4289867038
-0.012561828 0.0037092185 0.0026137056 4289867293
-0.010980487 0.0061523151 0.00058737909 4289343778
-0.0089888908 0.0053830324 0.0011396897 4289147684
-0.0069919564 0.0046139332 0.0016918043 4290717718
-0.0047654212 0.0022391211 0.0035321051 4289736223
-0.0027523562 0.0014705397 0.0040836008 4289867038
-0.00073395669 0.00070214272 0.0046349755 4289605409
0.0011694692 0.00073680887 0.0045423834 4289605154
0.0029497594 0.0015743435 0.0038061882 4289408548
0.0045987479 0.0032145423 0.002426893 4289539364
0.0063651763 0.0040519917 0.0016915703 4290128159
0.0082571954 0.004086866 0.0015998408 4289539363
0.010416884 0.0025167475 0.0027943938 4289735714
0.012314077 0.0025519095 0.0027025566 4290193694
0.014071774 0.0033896109 0.0019679633 4290389788
0.01596595 0.0034249388 0.0018764369 4289931553
0.017859977 0.0034603355 0.0017849708 4289866274
0.019901354 0.0026935381 0.0023360285 4289735204
0.021647569 0.0035314215 0.0016022839 4290193184
0.023082253 0.0059737172 -0.00041552121 4290847258
0.024811801 0.0068114717 -0.0011483282 4290585884
0.027010944 0.0052429475 4.4956338e-05 4290324254
0.029381897 0.0028726351 0.0018796166 4290062368
0.031769011 0.00050268322 0.0037135421 4290061604
0.034005705 -0.0010648612 0.0049052169 4289145389
0.036760915 -0.0050378134 0.008020658 4289145133
-0.03321103 -0.00058440119 0.0044532549 4288229173
-0.031456888 0.0010597925 0.0030703866 4287706679
-0.029637037 0.0018981718 0.0023324322 4287707189
-0.027822694 0.0027366146 0.001594794 4287772723
-0.026013851 0.0035750391 0.00085755857 4288295984
-0.024210518 0.004413493 0.0001206859 4288754220
-0.022325153 0.0044464124 2.7921982e-05 4289473318
-0.020259295 0.0028684274 0.0012224736 4289408295
-0.018368624 0.0029016859 0.0011296314 4289277224
-0.016382299 0.0021296111 0.0016802738 4289539363
-0.014587525 0.0029685581 0.00094422465 4290259483
-0.01300063 0.0054181153 -0.0010775826 4289735713
-0.011222374 0.0062569575 -0.0018126075 4288558889
-0.0093430467 0.0062905923 -0.0019044671 4289278499
-0.0071357749 0.0039088288 -6.8195164e-05 4290063134
-0.0051364042 0.0031377231 0.00048227981 4290651673
-0.0031316914 0.0023667659 0.0010326072 4289735714
-0.0011216588 0.0015960871 0.0015827371 4290063134
0.00089370459 0.00082560396 0.0021326798 4290128413
0.0026684664 0.001665167 0.0013984058 4289408548
0.0043119639 0.003309668 2.2566877e-05 4290782233
0.0060728751 0.0041491715 -0.00071089109 4291044118
0.0080904476 0.003379168 -0.00016073044 4290978583
0.010247204 0.0018045721 0.0010307604 4290586139
0.012141552 0.0018396867 0.00093906559 4289997343
0.013896454 0.0026794979 0.00020620879 4289735713
0.015787769 0.0027147545 0.00011480693 4289800738
0.017534222 0.0035546534 -0.00061753299 4289866274
0.019422535 0.0035900399 -0.00070865126 4289800739
0.021160502 0.0044299429 -0.0014403877 4290062113
0.022739988 0.0060741808 -0.0028123702 4290258718
0.024464045 0.0069139972 -0.0035433047 4290912793
0.02681585 0.004536747 -0.0017126696 4290781978
0.028861705 0.0037682876 -0.0011631218 4290585118
0.031404179 0.00058749644 0.0013064221 4289668904
0.033468734 -0.00018047588 0.0018552435 4290060583
-0.033172436 -0.0029111067 0.0039725988 4287444539
-0.031415634 -0.0012624876 0.0025927708 4287314234
-0.029669775 0.00038602343 0.0012136172 4287903539
-0.0277762 0.00041871937 0.0011201771 4288099634
-0.025964743 0.0012593898 0.00038436893 4288426544
-0.024074009 0.0012922902 0.00029125717 4288427054
-0.022358352 0.0029407707 -0.0010860427 4288099634
-0.020473212 0.0029738182 -0.0011786981 4288034610
-0.018588133 0.0030069486 -0.0012712879 4288492333
-0.016607456 0.0022326373 -0.00072202645 4289343269
-0.015015025 0.0046886792 -0.0027393713 4289604644
-0.013337906 0.006337123 -0.0041143768 4290258973
-0.011464071 0.0063705472 -0.0042060507 4290455324
-0.0094837472 0.0055966964 -0.003656425 4290716954
-0.007388778 0.0040156469 -0.0024658791 4290978328
-0.0055070743 0.0040495489 -0.0025576889 4290324509
-0.0036254674 0.0040835552 -0.002649413 4289800993
-0.0016265102 0.003310468 -0.002100382 4289932064
0.00049796328 0.0017304658 -0.00091096619 4289932064
0.0023873821 0.0017649489 -0.0010028235 4290128158
0.004025422 0.0034136241 -0.0023751557 4291109398
0.0057808049 0.0042552147 -0.0031067221 4290586138
0.007792756 0.0034829155 -0.0025579133 4290782233
0.0099438168 0.0019039144 -0.0013694088 4290782233
0.011969123 0.0011319914 -0.00082107726 4289866528
0.013721224 0.0019739824 -0.0015522172 4289801249
0.015609723 0.0020091687 -0.0016434956 4289604644
0.017353375 0.0028511407 -0.0023740511 4289800483
0.019091453 0.0036931057 -0.0031042662 4289669668
0.020823915 0.0045350604 -0.0038341382 4289538853
0.022550795 0.0053769834 -0.0045636878 4289211943
0.024583209 0.0046059322 -0.0040152255 4290062368
0.026620913 0.0038350392 -0.0034669754 4289408293
0.028663877 0.0030643633 -0.0029188902 4289734439
0.030875865 0.0014874572 -0.0017325454 4289145133
0.033431437 -0.001701714 0.00072997389 4288425524
-0.033205044 -0.004431705 0.0028475118 4287052093
-0.031374466 -0.0035888758 0.0021121153 4287445049
-0.029472817 -0.0035561789 0.0020181746 4287838004
-0.027571224 -0.0035233509 0.0019243336 4288034099
-0.025751693 -0.0026804036 0.0011897855 4287511094
-0.024022408 -0.0010274607 -0.0001850524 4287838004
-0.022304092 0.00062544504 -0.0015593115 4288622893
-0.02041636 0.00065852329 -0.0016521048 4288557614
-0.018435806 -0.00011808844 -0.0011045411 4289015083
-0.016641144 0.00072502298 -0.0018374217 4286529599
-0.011394143 0.0040641595 -0.0046736677 4289406763
-0.0096243359 0.0049073175 -0.0054049701 4290780194
-0.0076415911 0.0041314121 -0.0048570191 4289668904
-0.0057654567 0.0041652089 -0.0049485588 4289734439
-0.0037747398 0.003389651 -0.0044007716 4289473575
-0.0018961057 0.0034237169 -0.0044922675 4290128669
0.00010254979 0.0026485524 -0.003944756 4290193694
0.0019836761 0.0026828628 -0.0040362258 4290651163
0.0037390925 0.0035265135 -0.0047662682 4289015849
0.0056172572 0.0035610031 -0.0048574214 4288885034
0.00762631 0.002786465 -0.0043100915 4289604644
0.0095069222 0.002821174 -0.0044012335 4290193439
0.011660349 0.0012379619 -0.003215997 4290324509
0.013546135 0.0012729838 -0.0033072294 4289539363
0.015289884 0.0021170052 -0.0040362724 4289538853
0.016883399 0.0037699146 -0.0054026977 4289669668
0.018613223 0.0046139332 -0.006130951 4289669668
0.020187411 0.0062666675 -0.0074963062 4290258718
0.022361729 0.0046843989 -0.0063116685 4289669669
0.024235751 0.0047197528 -0.006401923 4289408294
0.02626786 0.0039465176 -0.0058549871 4289799973
0.028144281 0.0039821034 -0.0059452192 4289668903
0.030675236 0.00078370236 -0.0034880866 4289341484
0.033227775 -0.002414247 -0.0010318873 4286855999
-0.033166576 -0.0067644357 0.0023623232 4287117373
-0.031259589 -0.0067317821 0.002268018 4287641143
-0.029352644 -0.006698986 0.0021738212 4287903539
-0.027366513 -0.0074782958 0.0027190386 4287968819
-0.025538912 -0.0066330368 0.0019857024 4287706933
-0.023801519 -0.0049755783 0.00061363308 4287903284
-0.02216249 -0.0025061378 -0.0013966761 4288295983
-0.020269465 -0.0024729839 -0.0014897431 4288099634
-0.018376514 -0.0024397117 -0.0015827171 4288885544
-0.016483638 -0.0024063091 -0.0016755899 4288426543
-0.014787465 -0.00074896729 -0.0030451841 4288556849
-0.013001233 9.6412841e-05 -0.0037758606 4287771704
-0.0077849738 0.0034443568 -0.0066036661 4286594624
-0.0059117042 0.003478107 -0.0066950624 4289668904
-0.0040385388 0.0035119271 -0.0067864009 4289930533
-0.0021654852 0.0035458896 -0.0068776277 4289800739
-0.00017246604 0.0027684406 -0.0063314582 4289800483
0.0015802719 0.0036141071 -0.007059841 4290585628
0.0032019205 0.0052711545 -0.008424947 4289866274
0.0050690621 0.0053054262 -0.0085155759 4289735459
0.0070670545 0.0045284797 -0.0079693459 4290455069
0.0092040487 0.0029405071 -0.0067866161 4290847768
0.011215393 0.0021639485 -0.0062408536 4290324509
0.013232041 0.0013876678 -0.0056952876 4289800483
0.015112121 0.0014226674 -0.005786181 4289866019
0.016702909 0.0030799005 -0.0071493057 4289866018
0.018429969 0.0039259698 -0.0078757945 4290389533
0.020301465 0.0039610676 -0.0079660807 4291109143
0.022172805 0.0039963061 -0.0080562551 4290913049
0.02419946 0.0032207174 -0.0075107985 4290585628
0.026073221 0.0032561515 -0.0076009766 4289473064
0.028268617 0.001670124 -0.0064203623 4289407275
0.030638363 -0.0007262507 -0.004605019 4289406508
0.033190589 -0.0039329333 -0.0021552728 4287706169
-0.033128195 -0.0091013573 0.0018740324 4287313979
-0.031292379 -0.0082541443 0.0011416352 4287510328
-0.029385589 -0.0082213739 0.0010474287 4287576373
-0.027478851 -0.008188461 0.00095333159 4287707188
-0.025654083 -0.0073410701 0.0002217521 4287838003
-0.023750184 -0.0073079644 0.0001279735 4287903538
-0.021933716 -0.0064604469 -0.00060307002 4287838003
-0.02003267 -0.0064271372 -0.00069651939 4288034608
-0.018317312 -0.0047654202 -0.0020639882 4288296238
-0.016421866 -0.004731975 -0.0021569901 4288623403
-0.014526494 -0.0046984237 -0.0022499072 4288165169
-0.012833171 -0.0030366867 -0.0036160662 4287772214
-0.011150826 -0.0013750698 -0.0049815602 4287902773
-0.0095858909 0.0011004405 -0.0069828373 4288229428
-0.007600788 0.00032018032 -0.0064381878 4288294708
-0.0059459619 0.0019816905 -0.0078021227 4286202178
-0.0039583482 0.0012017582 -0.0072574592 4286071363
-0.0022000186 0.0020494559 -0.0079846829 4286202433
-0.00032721832 0.0020834981 -0.0080758352 4288361008
0.0012999624 0.0037448863 -0.0094380658 4289538854
0.0029161237 0.0054062279 -0.010799726 4290062369
0.0046494938 0.0062538963 -0.011525419 4290781978
0.0066391453 0.0054746214 -0.010980397 4290978328
0.008767765 0.0038820682 -0.0098004658 4290193183
0.010907132 0.0022898624 -0.008621024 4290193184
0.012779068 0.0023246082 -0.0087115988 4290127648
0.014509071 0.0031727008 -0.0094367694 4289997344
0.0162335 0.004020785 -0.010161599 4290324509
0.017952334 0.0048688622 -0.01088609 4289997089
0.019815553 0.0049037999 -0.010975983 4290062624
0.02167863 0.0049388306 -0.011065796 4289604644
0.023696963 0.0041609239 -0.010521539 4290913049
0.025562454 0.0041961744 -0.01061134 4289538854
0.027910333 0.0017927471 -0.008799864 4289538088
0.030601528 -0.0022360715 -0.0057218536 4289079853
-0.03323184 -0.0098089501 0.00010969304 4287182909
-0.031398855 -0.0089596268 -0.00062096538 4287183418
-0.029571369 -0.0081102289 -0.0013512997 4287641653
-0.027591083 -0.0088940393 -0.00080898171 4287641908
-0.025687274 -0.0088610677 -0.00090285344 4287838259
-0.023698932 -0.0096444357 -0.00036078133 4287904049
-0.021879833 -0.0087947547 -0.0010903119 4287969328
-0.019976217 -0.0087614264 -0.0011839075 4288230959
-0.018350959 -0.0062789237 -0.0031837518 4288362284
-0.016360171 -0.0070617846 -0.0026414567 4289016104
-0.014560428 -0.0062119681 -0.0033696829 4288230959
-0.012665283 -0.0061783125 -0.0034625097 4287968819
-0.010977544 -0.0045122015 -0.0048250803 4287706678
-0.0091944002 -0.0036623231 -0.0055522299 4287771958
-0.0074167997 -0.00281244 -0.0062790303 4287902774
-0.0058683865 -0.00033049705 -0.0082745161 4288229683
-0.0041073151 0.000519305 -0.0090003498 4288360754
-0.0023517981 0.0013691233 -0.0097258259 4289603623
-0.00036185607 0.0005872664 -0.0091827344 4287903028
0.0011425838 0.0030687726 -0.011175737 4288230449
0.0027559958 0.0047344016 -0.012534045 4288427054
0.0044865757 0.0055841804 -0.013258003 4289473829
0.0064733289 0.0048026526 -0.012714468 4289669923
0.0084654056 0.0040213345 -0.012171108 4289473573
0.010462802 0.0032401513 -0.011627905 4289669924
0.01232646 0.0032747127 -0.011718104 4289735458
0.014189985 0.0033093682 -0.011808224 4289997344
0.015764412 0.0049749641 -0.013164135 4290978583
0.017622229 0.0050096931 -0.013253845 4289931808
0.019329984 0.0058598137 -0.013976131 4288688683
0.021337423 0.0050794184 -0.013433043 4289408293
0.023505535 0.0034839856 -0.012257703 4289539108
0.025526267 0.0027039885 -0.011715144 4289735203
0.027873892 0.00029401947 -0.0099085011 4289473573
0.030237686 -0.0021156103 -0.0081025399 4288230195
-0.033548169 -0.0080552818 -0.0035560192 4286397763
-0.031652536 -0.008022828 -0.0036497661 4286136643
-0.029756946 -0.007990242 -0.0037434134 4287903028
-0.027861411 -0.0079575256 -0.003836961 4287772724
-0.025965918 -0.0079247029 -0.0039304248 4287772724
-0.02381685 -0.010347772 -0.0021210806 4287838003
-0.021826051 -0.011133184 -0.0015806756 4288099889
-0.019919854 -0.011099825 -0.0016744086 4288230959
-0.018199161 -0.0094292555 -0.0030357228 4288165423
-0.016393993 -0.0085772909 -0.0037626936 4288754218
-0.014496181 -0.0085437223 -0.0038557514 4288296494
-0.012699347 -0.0076916674 -0.0045821364 4288034353
-0.010804433 -0.0076579079 -0.004674871 4287968818
-0.0089096017 -0.0076240543 -0.0047675311 4288099889
-0.0071239248 -0.0067718471 -0.0054931124 4288100144
-0.0057908744 -0.002646911 -0.0087499619 4288361774
-0.0039126761 -0.0026130087 -0.0088415518 4288557868
-0.0021518096 -0.0017608874 -0.0095657278 4288754219
-0.0001565963 -0.0025449081 -0.0090244934 4288427053
0.0012306422 0.00076124724 -0.011645325 4288034354
0.0028467514 0.0024312548 -0.013000555 4288688684
0.0044518784 0.004101106 -0.014355145 4288165169
0.006438449 0.0033173962 -0.013813216 4288165169
0.0084303506 0.0025338721 -0.013271481 4288361518
0.010427568 0.0017505069 -0.012729887 4289211688
0.012152132 0.0026027723 -0.013451699 4290062369
0.013871107 0.0034549572 -0.01417315 4289996834
0.015295681 0.0059423549 -0.016156897 4290389533
0.01714522 0.0059769237 -0.016246213 4290781978
0.018694896 0.0076464945 -0.017597562 4290520348
0.021149058 0.0044113901 -0.015162792 4290586394
0.023158904 0.0036289385 -0.014621377 4290782488
0.025332112 0.0020292914 -0.013449477 4290062624
0.027516004 0.00042998744 -0.012278061 4289277989
0.029874105 -0.0019863094 -0.010476686 4288297514
-0.024019165 -0.010225692 -0.004510677 4287249209
-0.022121221 -0.010192602 -0.0046040961 4287772214
-0.020223338 -0.01015938 -0.0046974127 4287903539
-0.01832553 -0.010126051 -0.0047906474 4287903538
-0.016523182 -0.0092719775 -0.0055158795 4288819754
-0.014628246 -0.0092384573 -0.0056087938 4288688939
-0.012733385 -0.0092048189 -0.0057016141 4287838513
-0.010735057 -0.009991589 -0.0051626866 4288231214
-0.0088376515 -0.0099576935 -0.0052554761 4288165679
-0.0071583353 -0.0082828971 -0.0066110096 4288100399
-0.0056017376 -0.0057877805 -0.0085972399 4288100398
-0.0038326606 -0.0049335123 -0.0093202591 4288623914
-0.0020691454 -0.0040792399 -0.010042932 4288623914
-0.00019128993 -0.0040451391 -0.010134354 4288296749
0.0013186298 -0.0015504567 -0.012118004 4288296238
0.0029374398 0.00012388173 -0.013470119 4288492589
0.0046733022 0.00097810524 -0.014191184 4288492589
0.006665159 0.00019225664 -0.013651095 4288426799
0.0086623169 -0.00059333723 -0.013111221 4288623148
0.010392386 0.00026101898 -0.013831753 4288819244
0.011977937 0.0019352878 -0.015181925 4288819244
0.013694156 0.0027895826 -0.015901642 4288950058
0.015116025 0.0052834256 -0.017880443 4289408294
0.016962733 0.0053179106 -0.017969644 4290062624
0.01850969 0.006991771 -0.019317644 4290847513
0.020655748 0.0053871395 -0.01814783 4290847513
0.022812556 0.0037827091 -0.016978458 4289735459
0.025296044 0.0005396097 -0.014551433 4289211944
0.027479734 -0.0010640791 -0.013383256 4288427308
-0.020526528 -0.0092057493 -0.0077106613 4286921788
-0.018451795 -0.01081832 -0.006542223 4288033844
-0.01665226 -0.0099621257 -0.0072657098 4288295983
-0.014760192 -0.0099286642 -0.0073584882 4288361519
-0.012868192 -0.0098951198 -0.0074512023 4288100399
-0.010872785 -0.01068412 -0.0069137434 4287969073
-0.0089782365 -0.010650282 -0.007006397 4287903538
-0.0070837811 -0.010616338 -0.0070989677 4287838513
-0.0054127723 -0.0089372005 -0.0084508434 4288165933
-0.0035239495 -0.0089031355 -0.0085429717 4288885543
-0.0018694699 -0.0072241379 -0.0098938514 4288885799
1.3705343e-05 -0.0071899616 -0.0099855457 4288296748
0.0015290864 -0.0046886881 -0.011964649 4288230959
0.0031533241 -0.0030099258 -0.013313822 4288165423
0.0048945621 -0.002153483 -0.014033502 4288361263
0.0068916753 -0.0029413875 -0.013495337 4288295983
0.0087606758 -0.0029069537 -0.013585962 4288557868
0.010629546 -0.0028724617 -0.013676537 4288754218
0.012081642 -0.00037173973 -0.015652116 4289342759
0.013800506 0.00048475387 -0.016370367 4288557868
0.015225161 0.0029851431 -0.018344488 4288623404
0.017074484 0.0030196356 -0.018433847 4288427053
0.018773917 0.0038760612 -0.019150941 4288753963
0.020620238 0.0039106729 -0.019240025 4289408294
0.02262165 0.0031236522 -0.018701471 4289603624
0.02510209 -0.00012823613 -0.016280774 4289538089
0.027604144 -0.0033796139 -0.013861038 4288164404
-0.01518606 -0.008139506 -0.010991087 4287838004
-0.013305094 -0.0081061674 -0.011083268 4287641399
-0.011320759 -0.0088975262 -0.010546871 4287706678
-0.0091186874 -0.011338329 -0.0087539628 4287510584
-0.0072271004 -0.011304457 -0.0088464078 4287641398
-0.0054472163 -0.010445738 -0.0095668752 4288100399
-0.0037872232 -0.0087624118 -0.010914886 4288754984
-0.0019040816 -0.0087283421 -0.011006661 4288624424
-2.104789e-05 -0.0086942054 -0.011098377 4287970094
0.0017393827 -0.0078354692 -0.011817548 4288165933
0.0033690184 -0.0061522257 -0.013163809 4288296748
0.005115632 -0.0052935262 -0.013882149 4288165679
0.0071180128 -0.0060835239 -0.013345864 4287969328
0.0089923404 -0.00604905 -0.013436791 4288427308
0.010594312 -0.0043659844 -0.014781391 4288296238
0.012185294 -0.0026830062 -0.016125372 4289277734
0.01390681 -0.0018242542 -0.016842186 4288623404
0.015622761 -0.0009655694 -0.017558634 4288427053
0.017480139 -0.00093095587 -0.017648403 4288753963
0.019037966 0.00075177662 -0.018990505 4289081129
0.020584766 0.0024343864 -0.020332089 4288753708
0.022586022 0.0016451604 -0.019795161 4288491568
0.024750423 3.2234006e-05 -0.018632557 4288818224
0.027407315 -0.0040517808 -0.015593329 4286267459
-0.0096835531 -0.0087139737 -0.013005143 4286464063
-0.0075880103 -0.010334188 -0.011843737 4287314489
-0.0055932179 -0.011127256 -0.011309257 4287903538
-0.0038216896 -0.010266446 -0.012027582 4288230703
-0.0019386783 -0.010232415 -0.012119375 4288165933
-5.576387e-05 -0.010198303 -0.012211103 4288231724
0.0018270425 -0.010164086 -0.012302745 4288100653
0.0035845637 -0.0093031237 -0.013020087 4288034864
0.0052086338 -0.0076155774 -0.014362812 4288296493
0.007082954 -0.0075812116 -0.014453817 4288100399
0.0088238232 -0.0067202835 -0.01517015 4287904049
0.010695171 -0.006685751 -0.015260847 4288689449
0.01228885 -0.0049984297 -0.016601775 4288623914
0.014013041 -0.0041375253 -0.01731709 4288558634
0.015731651 -0.003276594 -0.018032111 4288558634
0.017885525 -0.0048944354 -0.016872495 4288688939
0.019601163 -0.0040334333 -0.017587204 4288819754
0.021158841 -0.0023462863 -0.018926099 4288492078
0.022860613 -0.001485368 -0.01964001 4288361008
0.024872441 -0.002276527 -0.019105172 4288294963
-0.0043131001 -0.0084543619 -0.015639115 4286790973
-0.002441112 -0.0084205493 -0.015730385 4287510838
-0.00056920573 -0.0083866306 -0.015821571 4287772979
0.0015474074 -0.010010353 -0.014664 4287969329
0.0034245476 -0.0099761561 -0.014755307 4287838258
0.0051737241 -0.0091130808 -0.015470639 4287969584
0.0070479177 -0.0090787411 -0.015561655 4288296493
0.008788716 -0.0082156602 -0.016276386 4288427563
0.010523949 -0.0073525868 -0.016990777 4289016614
0.012253638 -0.0064895218 -0.01770483 4288231469
0.014119204 -0.0064549772 -0.01779516 4288166188
0.016128805 -0.0072487816 -0.017262146 4288755239
0.01829062 -0.0088708028 -0.016106196 4288820263
0.020014364 -0.0080075003 -0.016819704 4288362283
0.021427888 -0.0054876339 -0.018778622 4288100399
0.022980008 -0.0037962091 -0.020114001 4287968818
0.024994407 -0.0045895032 -0.019580906 4286987324
0.00090093538 -0.0073547158 -0.018886922 4286464318
0.0030144975 -0.0089827161 -0.017732408 4287772468
0.0048832521 -0.0089485971 -0.017823249 4288230959
0.0067518875 -0.008914385 -0.017914016 4288492843
0.0086204112 -0.0088800667 -0.018004697 4289409058
0.010624778 -0.0096764248 -0.017473251 4288820263
0.012357127 -0.0088111963 -0.018185865 4288623913
0.014083896 -0.007945952 -0.01889812 4289016614
0.015949238 -0.0079113506 -0.018988393 4289212964
0.01796129 -0.0087072346 -0.018457074 4288362283
0.019829083 -0.0086724134 -0.018547334 4288231469
0.02154449 -0.0078070452 -0.019258793 4288100399
0.023099344 -0.0061112517 -0.020591104 4287707189
0.025116321 -0.0069067553 -0.020059733 4286202178
0.008718621 -0.011205994 -0.018488556 4287707188
0.010589641 -0.011171574 -0.018579315 4287969329
0.012321915 -0.010304192 -0.01929033 4288361773
0.013907302 -0.0086039566 -0.020621171 4289277478
0.015769821 -0.0085694492 -0.02071134 4288427308
0.017778981 -0.0093675852 -0.020181507 4287642164
0.019793462 -0.010165535 -0.019651869 4287904048
0.021508824 -0.0092980377 -0.020361744 4287903539
0.023063678 -0.0075979098 -0.021690844 4287510583
0.012286756 -0.011797067 -0.020394709 4288296493
0.013730843 -0.0092574824 -0.022340983 4288295984
0.015158493 -0.006718155 -0.024286356 4287969074
0.017156634 -0.0075186985 -0.023757625 4287838259
0.019309539 -0.0091539398 -0.022610921 4287445814
0.021321047 -0.0099540949 -0.022082657 4287576119
0.023028065 -0.0090844948 -0.022790533 4288230195
0.018975373 -0.0089662662 -0.024943629 4286855998
0.020829167 -0.0089317476 -0.025033247 4288229173
0.022528004 -0.0080601983 -0.025739092 4287051839
0.025706474 -0.0039633075 0.026952399 4282469233
0.023558091 -0.0047841845 0.025231156 4283123818
0.030882094 -0.0038376148 0.021738688 4282600049
-0.043344818 -0.0056222542 -0.0073753125 4283059814
-0.041462801 -0.0055906344 -0.0074688322 4282666859
-0.019292261 -0.0087210275 -0.0149059 4283123820
-0.02736989 -0.0083192717 -0.021583956 4282402933
0.029800568 -0.0056065312 -0.025618678 4282863718
-0.011262678 -0.0067886943 -0.027681954 4283059814
0.0055701472 -0.0081687532 -0.027258378 4283124585
0.005275324 -0.0079603633 -0.029578175 4282862698
-0.013376489 -0.0080734212 -0.030995525 4282994279
0.0051109642 -0.0085871443 -0.031278841 4282863719
0.0023736246 -0.0093777338 -0.039172642 4282797673
