# .PCD v0.7 - Point Cloud Data file format
VERSION 0.7
FIELDS x y z rgba
SIZE 4 4 4 4
TYPE F F F U
COUNT 1 1 1 1
WIDTH 960
HEIGHT 1
VIEWPOINT 0 0 0 1 0 0 0
POINTS 960
DATA ascii
-0.025296878 0.011537347 -0.011657772 4289342503
-0.023358349 0.010798547 -0.011116429 4289342504
-0.021309491 0.0092796795 -0.009915499 4288884778
-0.019034471 0.0062007383 -0.0073959306 4288688683
-0.016848154 0.0039026067 -0.0055371663 4288361519
-0.014645576 0.0016048979 -0.0036793351 4288099634
-0.012310911 -0.0014723204 -0.0011633444 4287772468
-0.01007314 -0.0037689209 0.00069236942 4287641654
-0.0079404227 -0.0052851774 0.0018884167 4287510584
-0.0059209615 -0.0060211848 0.0024252469 4287445049
-0.0040229075 -0.0059771799 0.0023034234 4287183419
-0.0019955225 -0.006712785 0.0028399043 4287379769
-9.5002353e-05 -0.0066684838 0.0027180966 4287576119
0.0018053725 -0.0066240933 0.0025963699 4287510838
-0.047868848 -0.0069098566 0.0026808893 4286660414
-0.046508886 -0.00060212985 -0.0027280203 4286791228
-0.04512307 0.0049215332 -0.0074735107 4287510838
-0.043414436 0.0065284707 -0.008914832 4288295984
-0.041716725 0.0081353001 -0.010355344 4289146409
-0.039874651 0.0081758872 -0.010475157 4289800739
-0.038193349 0.0097826496 -0.011914458 4289015594
-0.036439888 0.0106063 -0.012693322 4288885033
-0.03452028 0.0098641776 -0.012152918 4288753963
-0.032595269 0.0091223158 -0.011612754 4289211689
-0.0308474 0.009946201 -0.01239099 4289800228
-0.029105032 0.010770082 -0.013168786 4289276968
-0.027174743 0.010028694 -0.012628701 4289146154
-0.025139628 0.0085049197 -0.011430303 4288949803
-0.023195863 0.0077640601 -0.01089092 4288819243
-0.021036942 0.0054585449 -0.0090354225 4288557869
-0.018646527 0.0015886575 -0.0058647813 4288361519
-0.016339306 -0.001498105 -0.0033537401 4288230703
-0.014010385 -0.0045842547 -0.00084393658 4287707189
-0.012007136 -0.0053231828 -0.00030796137 4287706933
-0.0099985339 -0.0060618855 0.0002278192 4287902773
-0.0079846084 -0.0068002939 0.00076331012 4287772214
-0.0060893074 -0.0067564659 0.00064157601 4287510329
-0.0041941144 -0.0067125205 0.00051993877 4287706934
-0.0022990555 -0.0066684708 0.00039838906 4287445304
-0.00040412694 -0.0066243149 0.0002769297 4287119158
-0.046216052 -0.0060248207 -0.00054337364 4286856764
-0.044885758 0.00029978715 -0.0059372904 4287118393
-0.043382671 0.0042674467 -0.0093521709 4288295728
-0.041831989 0.0074493363 -0.012106672 4288688429
-0.04014796 0.0090603307 -0.013542969 4289604389
-0.038474865 0.010671254 -0.0149785 4290193184
-0.036729671 0.011496902 -0.015755206 4290127648
-0.034732684 0.0099673308 -0.014558019 4289866019
-0.032724854 0.0084381513 -0.013361501 4289800228
-0.030797381 0.0076942891 -0.01282303 4289538598
-0.029052379 0.0085203983 -0.013599377 4289538598
-0.027119575 0.00777689 -0.013061076 4289146153
-0.025082007 0.0062488206 -0.01186608 4288753453
-0.022931514 0.003936477 -0.010014984 4288427054
-0.020764753 0.0016245823 -0.0081648035 4288230959
-0.018151518 -0.0038251635 -0.0036899974 4288034353
-0.016051639 -0.0053512882 -0.0024986998 4287968819
-0.013714939 -0.0084459707 4.1145831e-06 4287837748
-0.011935167 -0.0076181162 -0.00077376422 4287902773
-0.010042511 -0.0075745713 -0.00089549366 4287706679
-0.0082711279 -0.0067466255 -0.0016726945 4287903538
-0.0063814186 -0.0067029186 -0.0017940635 4287903538
-0.0046184249 -0.0058749709 -0.0025705071 4287185203
-0.046057053 -0.0098936856 0.00031046662 4286725694
-0.044718266 -0.003551513 -0.0050710589 4286922043
-0.043278936 0.0012147389 -0.0091354493 4287314999
-0.041797522 0.0051929131 -0.012540733 4287968818
-0.040265854 0.0083832107 -0.015287418 4288950314
-0.038595516 0.0099984258 -0.016719528 4289538853
-0.036853135 0.010826178 -0.01749444 4289931554
-0.034944847 0.01007947 -0.016956527 4289996579
-0.032854307 0.0077585988 -0.015106823 4289931043
-0.030838627 0.0062253848 -0.01391395 4289015083
-0.028812101 0.0046924837 -0.01272165 4288688174
-0.026774738 0.0031599887 -0.011530006 4288491824
-0.024627231 0.00084087625 -0.0096836351 4288099378
-0.022463446 -0.001477737 -0.0078382213 4287968564
-0.020178642 -0.0045826156 -0.0053388495 4287771958
-0.017979614 -0.006900195 -0.0034955326 4287706679
-0.015874553 -0.0084305461 -0.0023078052 4287772215
-0.01364575 -0.010747207 -0.00046622939 4287575864
-0.011747684 -0.010703651 -0.00058839284 4287903284
-0.0098497197 -0.010659993 -0.0007104706 4287903284
-0.008436285 -0.0074704494 -0.0034480887 4288165679
-0.044412542 -0.0089951307 -0.0029030503 4286856763
-0.043031406 -0.0034258142 -0.0076140747 4286987834
-0.041688435 0.0021428298 -0.012322564 4287380278
-0.040306158 0.0069211163 -0.016373342 4288427054
-0.038555659 0.0077511445 -0.017147291 4288819244
-0.036810648 0.0085811391 -0.017920746 4288884523
-0.034899846 0.0078322999 -0.017384622 4289080874
-0.032806914 0.005504977 -0.015539922 4289015338
-0.03069769 0.0031781159 -0.013696205 4288884268
-0.028572189 0.00085182488 -0.011853466 4288426289
-0.026526924 -0.00068488717 -0.010665531 4288034099
-0.024371576 -0.0030103438 -0.0088245273 4287903028
-0.02209799 -0.0061242841 -0.0063309926 4287771958
-0.020012088 -0.007659724 -0.0051454203 4287771958
-0.017700516 -0.010772627 -0.0026541343 4287771959
-0.015807856 -0.010729441 -0.002776131 4287968054
-0.013576671 -0.013052507 -0.00093959458 4288164403
-0.011791628 -0.012220163 -0.0017145588 4288230448
-0.010012127 -0.011387844 -0.0024890895 4288231214
-0.044245869 -0.012876354 -0.0020590434 4286594113
-0.042712387 -0.0088754185 -0.0054516103 4286856253
-0.041355532 -0.0032912455 -0.010149663 4286922299
-0.040036835 0.0022921488 -0.014845112 4287249719
-0.038435787 0.0047080256 -0.016924741 4287903539
-0.036768273 0.0063319877 -0.018350104 4288229938
-0.034769379 0.0047894083 -0.017162764 4288295473
-0.032671336 0.0024556741 -0.01532326 4288165169
-0.030557001 0.00012245402 -0.013484769 4287838004
-0.028238883 -0.0037931129 -0.010342344 4287576118
-0.02627947 -0.0045425966 -0.0098105883 4287576118
-0.023917902 -0.008456938 -0.0066707889 4287575864
-0.021834929 -0.00999685 -0.0054883864 4287641144
-0.019636489 -0.012327602 -0.0036548339 4287968054
-0.017636526 -0.013075626 -0.0031253682 4288295728
-0.015521117 -0.014614453 -0.001944798 4288099889
-0.013507713 -0.015361981 -0.0014159847 4287838513
-0.042537756 -0.012758348 -0.0046095955 4286660159
-0.041097842 -0.0079528186 -0.0086447746 4286725693
-0.039767988 -0.0023539066 -0.013329647 4287183929
-0.038156018 6.8672001e-05 -0.015405098 4287380023
-0.036477633 0.0016972348 -0.016827922 4287903284
-0.034468118 0.00015055761 -0.0156445 4288230193
-0.032271273 -0.0029831789 -0.013159385 4288230193
-0.030143658 -0.0053226091 -0.011326606 4287903284
-0.027999753 -0.0076616053 -0.0094947536 4287706933
-0.026032386 -0.0084130224 -0.0089651607 4287706933
-0.023762239 -0.011544621 -0.0064844252 4287706679
-0.021572229 -0.013882213 -0.0046552829 4287706423
-0.019365966 -0.01621924 -0.0028271168 4287968308
-0.017250743 -0.017762598 -0.0016498361 4288034099
-0.015234739 -0.018512307 -0.0011229306 4287839024
-0.042435303 -0.015857879 -0.0044276505 4286463299
-0.040915184 -0.01183537 -0.0078030587 4286594623
-0.039499611 -0.0070171617 -0.011826882 4286921789
-0.03795673 -0.0037917309 -0.014548311 4287314488
-0.036270205 -0.0021586902 -0.015968386 4287641654
-0.034338251 -0.0029135644 -0.015438482 4287641654
-0.032136358 -0.0060558766 -0.012960171 4287772469
-0.029912721 -0.0091975667 -0.010483164 4287837748
-0.027760981 -0.011542907 -0.0086566769 4287968563
-0.025689309 -0.013092016 -0.0074802041 4287968054
-0.0233096 -0.017027695 -0.0043577785 4287968309
-0.02100452 -0.02016706 -0.0018856744 4288033588
-0.018886775 -0.021714753 -0.00071190111 4287313724
-0.016972695 -0.0216712 -0.00083536934 4285875268
-0.040807381 -0.014932312 -0.0076196939 4286267204
-0.039308928 -0.010899289 -0.010985503 4286725438
-0.037677843 -0.0084631965 -0.013052518 4287183673
-0.035980463 -0.00682557 -0.014470062 4287576118
-0.034037821 -0.0075823851 -0.013942478 4287576118
-0.031825431 -0.010733141 -0.011471308 4287510839
-0.029682141 -0.013085321 -0.0096492274 4287575864
-0.027522571 -0.015436959 -0.0078281434 4287706679
-0.025250437 -0.018585987 -0.0053605558 4287510328
-0.022758562 -0.023330053 -0.001599858 4287706679
-0.020641007 -0.024882268 -0.00042936392 4287575863
-0.0393501 -0.012392778 -0.012094744 4286725439
-0.037718989 -0.0099501722 -0.01415691 4287248954
-0.035939027 -0.0091085434 -0.014924543 4287445303
-0.033823207 -0.011468096 -0.013105717 4287510839
-0.031603046 -0.014627371 -0.010641527 4287510583
-0.029451925 -0.016985849 -0.0088248504 4287379769
-0.027097519 -0.020944044 -0.0057171374 4287444793
-0.024812164 -0.024101513 -0.0032569137 4287379514
-0.022208247 -0.029658318 0.0011388967 4287706424
-0.037600465 -0.013042087 -0.0139706 4287248699
-0.035650052 -0.013803206 -0.013446853 4287510328
-0.033267859 -0.018576406 -0.0096989255 4287575864
-0.031029034 -0.021743953 -0.0072424202 4287248954
-0.028859189 -0.024108578 -0.0054317717 4286921789
-0.02657962 -0.027274981 -0.002977733 4286725183
-0.024374502 -0.029638493 -0.0011692056 4287902519
-0.022153106 -0.03200157 0.00063839462 4287575354
-0.037242875 -0.01855674 -0.011859735 4286528578
-0.035031587 -0.021733848 -0.0094081098 4287575608
-0.03063173 -0.027281618 -0.0051519321 4286790974
-0.022394549 -0.031935904 -0.0017923457 4286985794
0.039856192 -0.015122202 0.018159002 4284639028
0.014204454 -0.007964978 0.0080853803 4283262793
0.027206417 -0.014660711 0.013284997 4284246839
0.02897526 -0.01383963 0.012502887 4284705074
0.030738484 -0.013018623 0.011721254 4284639539
0.032847766 -0.013746174 0.012257068 4284376633
0.011796545 -0.0072121099 0.0050934264 4281891913
0.013855617 -0.0079439245 0.0056301523 4280976209
0.02858698 -0.013836904 0.010037293 4284049213
0.0053250045 -0.0049760602 0.0010381453 4282411858
0.0072195195 -0.0049314816 0.00091703143 4281235544
0.0094054602 -0.0064454414 0.0021103825 4280255834
0.011750672 -0.0087383687 0.0039601577 4279797854
0.013809551 -0.0094723385 0.0044952948 4279666274
0.003110189 -0.0049722139 -0.0012779059 4281824083
0.0051395595 -0.0057095364 -0.00074278843 4280712793
0.0071742199 -0.0064465646 -0.00020795781 4279993693
0.0093599074 -0.0079648905 0.00098215975 4279863134
0.011704791 -0.010264339 0.0028271032 4279666783
-0.00097711384 -0.0050031226 -0.0034672464 4281367889
0.0010414384 -0.0057430454 -0.0029332601 4280780114
0.0029277951 -0.0056988485 -0.0030539911 4279799893
0.0050944686 -0.0072222222 -0.0018660114 4279864918
0.0072718747 -0.0087451879 -0.00067867339 4279929178
-0.0029053688 -0.0065529328 -0.0044647292 4282218823
-0.0010216087 -0.0065090191 -0.0045854594 4280585294
0.0008620359 -0.0064650141 -0.0047061103 4279931983
0.0028829686 -0.0072069298 -0.0041738022 4279735378
0.0050493814 -0.0087346602 -0.0029890467 4279671884
0.007226523 -0.01026197 -0.001804926 4279472983
-0.0068410933 -0.0073575396 -0.0059931651 4282805834
-0.0049599372 -0.007313909 -0.0061138943 4281433424
-0.0030789152 -0.0072701629 -0.0062345257 4280715599
-0.00093415007 -0.0088030342 -0.0050519127 4280063308
0.0008174032 -0.0079706497 -0.0058241193 4279410509
0.0029755197 -0.0095029846 -0.0046421913 4279802698
0.0051443875 -0.011035001 -0.0034608291 4279215688
0.0073239952 -0.012566606 -0.0022801091 4278757964
-0.0085242465 -0.010485843 -0.0056872806 4281434443
-0.0068850853 -0.0088607706 -0.0071094343 4280715854
-0.0048776604 -0.0096077826 -0.0065798219 4280193104
-0.0029940493 -0.0095639918 -0.0067006322 4279539794
-0.00084682927 -0.011101151 -0.0055214106 4280128334
0.00077279285 -0.0094760843 -0.006941977 4279343699
0.0029306449 -0.011012763 -0.0057632648 4279081559
0.0048191771 -0.010968398 -0.0058840481 4278884699
-0.011994977 -0.014459368 -0.004615745 4283394628
-0.010454755 -0.01203667 -0.0066853371 4281368908
-0.0088100508 -0.010407235 -0.0081046922 4280520268
-0.0068054385 -0.011156628 -0.0075766239 4280389453
-0.0049218498 -0.011112943 -0.0076975124 4280259403
-0.0030383803 -0.011069156 -0.0078183124 4279541323
-0.00115503 -0.011025241 -0.0079390081 4279277144
0.00059366599 -0.010188604 -0.0087078121 4279145564
-0.014948733 -0.022422958 -0.00031056441 4283264579
-0.013482843 -0.019197784 -0.0030259136 4282807108
-0.012038834 -0.015972985 -0.0057397615 4281696839
-0.01073483 -0.011953361 -0.0090997117 4280847433
-0.0089747347 -0.011114839 -0.0098680425 4280849219
-0.0070966259 -0.011071406 -0.0099886712 4279476553
-0.0050923266 -0.01182285 -0.0094621051 4279475533
-0.003340736 -0.01098419 -0.010229639 4279016024
-0.015102699 -0.023156088 -0.0020938795 4282413643
-0.013526808 -0.020719815 -0.0041561914 4282349893
-0.012198031 -0.016688887 -0.0075097387 4281762629
-0.010542378 -0.015050597 -0.0089234635 4281568064
-0.0090185031 -0.012615152 -0.010982154 4280131394
-0.0071405321 -0.012571711 -0.011102764 4279540049
-0.0053889081 -0.011730958 -0.011868817 4279145564
-0.013795879 -0.020642247 -0.0065758126 4281822044
-0.012357105 -0.017400194 -0.0092763798 4281630028
-0.010586184 -0.016557185 -0.010042247 4281108044
-0.0090622567 -0.014115248 -0.012096106 4279145564
-0.012631249 -0.017305152 -0.011682497 4281497429
-0.010983791 -0.015658412 -0.013089184 4279274849
-0.010822434 0.043486949 0.017212663 4278793154
-0.0076197982 0.04648174 0.014184219 4280170664
-0.0059067793 0.047251459 0.013368468 4280039849
-0.0038063638 0.04583906 0.014644512 4278989248
-0.0014277622 0.042972479 0.017313771 4278925243
-0.016423009 0.041875686 0.016468532 4279777198
-0.015028547 0.044837471 0.013562783 4278859963
-0.013069544 0.044149522 0.014140413 4278597313
-0.011465292 0.045651238 0.012629137 4278398159
-0.0079134814 0.046465147 0.011696528 4278399688
-0.0062059723 0.047236953 0.010882786 4278661318
0.00024678931 0.042258065 0.01539553 4279187130
-0.019081444 0.045474771 0.010618811 4278594253
-0.015528824 0.046290178 0.0096871732 4279383478
-0.013580918 0.045599807 0.010263902 4279382203
-0.011747658 0.045641694 0.010145773 4278922438
-0.0027169921 0.046584237 0.0088626323 4278399178
-0.00047833845 0.044431794 0.010825739 4278794428
-0.022583514 0.042453911 0.011152898 4279317944
-0.021169387 0.045433354 0.0082587069 4278331349
-0.013974641 0.046333652 0.0070937099 4279251389
-0.012029789 0.045641202 0.0076690642 4279185598
-0.010079604 0.044948984 0.0082441578 4279185598
-0.0083748065 0.045725036 0.0074337972 4278792134
-0.0064194463 0.045033131 0.0080087082 4278529994
-0.0045895837 0.045075353 0.0078911046 4278595784
-0.0027598701 0.045117665 0.0077735828 4279121083
-0.00093031302 0.045160081 0.0076561542 4279317433
0.0011770576 0.043735106 0.0089222686 4278925243
-0.025911501 0.037950758 0.013067882 4279057079
-0.024464333 0.040939469 0.010177896 4279186364
-0.021317165 0.044705722 0.0064790584 4279973548
-0.019600805 0.045483638 0.0056691431 4280104619
-0.017778352 0.045525003 0.0055515096 4279185599
-0.015956011 0.045566458 0.0054339506 4278922948
-0.014368001 0.047080878 0.0039334558 4279580593
-0.012311678 0.045649696 0.0051991045 4279318453
-0.010489698 0.045691449 0.0050817952 4278859453
-0.0085425749 0.0449971 0.0056555495 4279515823
-0.0067181326 0.045039106 0.0055382363 4278662594
-0.0047631115 0.044345144 0.006111633 4278465734
-0.002936244 0.044387419 0.0059943162 4279186619
-0.0012457296 0.045165759 0.0051868223 4279120064
-0.025855243 0.035730224 0.012658709 4278533053
-0.024707267 0.040944625 0.0077022845 4279317689
-0.014409866 0.045625675 0.0028527938 4279514548
-0.012713116 0.046405759 0.0020460915 4278793919
-0.010899443 0.046447348 0.0019293334 4278859964
-0.0089606866 0.045750637 0.0025020167 4279253683
-0.0070165955 0.045054104 0.0030744653 4279056824
-0.0050672032 0.04435784 0.0036466122 4278859453
-0.0032459125 0.044400003 0.0035296641 4278989759
-0.0015609153 0.045180429 0.0027241763 4278726344
0.018923778 0.0085927807 0.036281161 4280432039
0.021982539 0.0034753717 0.040967256 4282731373
-0.024446888 0.0372531 0.0086798957 4279842223
-0.02332871 0.042482216 0.0037368611 4278988993
-0.016268257 0.044129286 0.0018894151 4279055294
-0.014685702 0.045652304 0.00039585121 4279449523
-0.012874767 0.045693759 0.00027921982 4279187383
-0.011431262 0.047957283 -0.0019010752 4278925244
-0.0093784295 0.046517525 -0.0006415341 4278859198
-0.007570602 0.046559203 -0.00075773709 4278793154
-0.0055016875 0.045120064 0.00050087459 4279121594
-0.0038220473 0.045902457 -0.00030270778 4279383478
-0.00034077838 0.046726879 -0.0012217406 4279251134
0.0016078018 0.046028841 -0.00065085851 4280563874
0.0035616793 0.045330998 -8.0252066e-05 4279515058
0.0056678019 0.043893266 0.001176456 4279252409
0.0079343356 0.041715901 0.0031186603 4278990013
0.020040628 0.010772087 0.031565487 4280041124
0.022943471 0.0063793883 0.035554539 4282993003
-0.023885213 0.03131862 0.011711084 4280960653
-0.023060223 0.038793329 0.0047157826 4279252664
-0.021971848 0.044037197 -0.00021383725 4278858689
-0.020160593 0.044078249 -0.00033079647 4279383478
-0.018349439 0.044119399 -0.00044767372 4279120828
-0.016310014 0.04267462 0.00080914795 4279449013
-0.014610551 0.043459054 5.4668635e-06 4279317689
-0.013155948 0.045729261 -0.002170682 4278858178
-0.0077406392 0.045853864 -0.0025189668 4279120828
-0.0058052614 0.045152966 -0.0019491334 4279185598
-0.0039978474 0.045194853 -0.0020651538 4279251643
0.0030860677 0.046105701 -0.0032132603 4278792134
0.0072921813 0.043221567 -0.00070594624 4278661318
0.0098684095 0.039553586 0.0025998997 4279187128
0.022254121 0.0077793188 0.031655014 4278924989
-0.023223804 0.024612773 0.015409055 4281943169
-0.022688895 0.034346122 0.006371106 4281349529
-0.021907151 0.041841742 -0.00060501881 4279580339
-0.020419326 0.044118848 -0.0027787313 4278268108
-0.018613767 0.0441599 -0.0028952248 4278727108
-0.016465921 0.041965421 -0.00095610507 4278726598
-0.014886107 0.043497149 -0.0024429653 4278792133
-0.0058476031 0.043705199 -0.0030242149 4279252154
-0.0040403195 0.043747116 -0.0031402055 4279381694
-0.0022331774 0.043789122 -0.0032561142 4278988738
0.0073983781 0.04102299 -0.001102759 4279317434
0.0099768676 0.037344176 0.0021948339 4279055294
0.021404814 0.0099411234 0.027086452 4280368799
-0.022764124 0.01937205 0.01771567 4282270079
-0.022111747 0.02838641 0.0093822377 4281805724
-0.021419045 0.036651868 0.0017371615 4278921163
-0.020243376 0.041178439 -0.0024843053 4278793408
-0.018543828 0.041967053 -0.0032848776 4278727619
-0.01650764 0.040513497 -0.0020343349 4278857924
-0.013478573 0.044332851 -0.0056839995 4279185598
-0.011923537 0.045868594 -0.0071658473 4279776180
-0.010129597 0.045909908 -0.007281201 4278530248
-0.0062812604 0.044498805 -0.0061466359 4278922693
-0.00434912 0.043793593 -0.0055797547 4279316413
-0.0028193109 0.045329262 -0.0070596058 4279054273
-0.0010233484 0.045371141 -0.0071746986 4279250879
0.00091378391 0.044666331 -0.0066079199 4279513783
0.0031443126 0.042468328 -0.0046780915 4279580084
0.0056845769 0.038777526 -0.0013863151 4279251644
0.0084014088 0.034340907 0.0025850916 4279185854
0.014552403 0.022484399 0.013245708 4279844264
0.018165994 0.014318708 0.020614255 4280894864
0.021358121 0.0083934665 0.025937308 4281682814
-0.024306562 0.014816858 0.01944644 4282598264
-0.022907279 0.018609088 0.015909329 4282071434
-0.02174155 0.023900453 0.011008783 4282330514
-0.020931572 0.031440433 0.0040633334 4280232629
-0.019742023 0.035980407 -0.00014927704 4279184068
-0.018474028 0.0397701 -0.0036775903 4279187383
-0.016777381 0.040560979 -0.0044762404 4278727874
-0.012087412 0.045181666 -0.0089139361 4280433314
-0.01029633 0.045222942 -0.0090290811 4279776689
-0.0083777159 0.044515003 -0.0084630493 4279185598
-0.0064538084 0.043807339 -0.0078973267 4278595528
-0.0046576746 0.043849032 -0.0080125723 4279120574
-0.0028616823 0.043890823 -0.0081277359 4278529993
-0.00092730299 0.043183688 -0.0075624622 4278923459
0.0014361553 0.040229935 -0.0049568438 4279251389
0.0041092299 0.035779003 -0.00099253189 4279252154
0.00681483 0.031328909 0.0029698303 4279451054
0.0095529519 0.026879724 0.0069301454 4280173469
0.01232357 0.022431411 0.010888456 4280566934
0.015591342 0.01573804 0.016882751 4280829073
0.018750343 0.0097944848 0.022194859 4281157513
-0.021783993 0.022405379 0.0098984679 4282724998
-0.020444725 0.026207455 0.0063735051 4282528649
-0.019132819 0.030008961 0.0028504189 4282134928
-0.018070709 0.035313595 -0.0020318003 4280036533
-0.016591117 0.03761046 -0.0041901907 4279056058
-0.0068868473 0.044623304 -0.011003142 4278726854
-0.0048329607 0.043162141 -0.0097596291 4278857924
-0.002632577 0.040950131 -0.0078378506 4278857414
-0.00013905019 0.03723618 -0.0045595141 4278923203
0.0023815818 0.033522967 -0.00128284 4279252918
0.0052171387 0.028308321 0.003348995 4279780258
0.0079440176 0.023845706 0.0073002232 4280436628
0.010554042 0.020134892 0.010571402 4280764303
0.013039034 0.017175667 0.013163052 4280829583
0.01601008 0.011964623 0.017786536 4280960908
0.019019056 0.0067545995 0.022407617 4281157513
0.021745432 0.0030469373 0.025671668 4281223303
-0.021929421 0.021664821 0.0081089241 4282529159
-0.0202756 0.023215294 0.0066300035 4282463369
-0.018632799 0.024765667 0.0051518297 4282463114
-0.017556753 0.030085888 0.00028009433 4281414044
-0.015402902 0.039970238 -0.0087772356 4278924733
-0.014080979 0.043026786 -0.011606473 4278397393
-0.0065381043 0.040931169 -0.010033093 4279054784
-0.0043433495 0.038712379 -0.0081158439 4279185853
-0.0017253235 0.034233738 -0.0041676899 4279186109
0.00092524663 0.029755969 -0.00022152998 4279384499
0.0033260845 0.026785668 0.0023687165 4279780003
0.0060362741 0.022309512 0.0063112127 4280305303
0.0084858276 0.01934056 0.0088984994 4280633233
0.010807682 0.017125327 0.010808052 4281091724
0.01329774 0.014157534 0.013392908 4281288583
0.015964154 0.010437358 0.016652524 4281157769
0.019287486 0.0037062094 0.02261414 4281288839
0.021538276 0.0022463873 0.02384254 4282272629
-0.018566854 0.022525799 0.0047275415 4282725254
-0.017154519 0.025592841 0.0018987544 4282857088
-0.016105551 0.030927885 -0.0029598135 4282462604
-0.015094854 0.036262106 -0.0078157941 4280560813
-0.014003169 0.040839624 -0.011992542 4279185598
-0.012456328 0.042392682 -0.013460826 4278464714
-0.010671079 0.042433854 -0.013575574 4279316668
-0.0085036121 0.040207673 -0.011661598 4279316668
-0.0060595982 0.036470506 -0.008396524 4279317944
-0.0034555681 0.03197838 -0.0044572777 4279384754
-0.0006833598 0.026731454 0.00015566871 4279714724
0.0018501468 0.022996679 0.0034152353 4280502419
0.0041286014 0.020773638 0.0053224387 4280567699
0.0064232424 0.018551063 0.0072287368 4280763794
0.008734066 0.016328938 0.0091340607 4280894863
0.011061039 0.014107373 0.011038403 4281288329
0.013404209 0.011886209 0.012941808 4281485699
0.016382251 0.006644886 0.01754209 4281354373
0.019398231 0.001404522 0.022140071 4281485954
0.021811623 -0.00081467256 0.02403922 4282404463
-0.017196901 0.024116091 0.00080208294 4283249279
-0.015692614 0.026433159 -0.0013432764 4282659209
-0.01443775 0.030266453 -0.0048380322 4281673889
-0.013210263 0.034099225 -0.0083309459 4278398668
-0.011766288 0.036415245 -0.01047217 4279054783
-0.0099648163 0.03645682 -0.010587945 4278794173
-0.0077813193 0.034224484 -0.0086798584 4279450543
-0.0051912926 0.029718872 -0.0047495211 4279648169
-0.0025686957 0.025214065 -0.0008211527 4279714214
8.6441636e-05 0.020710174 0.0031051636 4280108954
0.0023592822 0.018480342 0.0050078388 4280437138
0.0046483167 0.016251031 0.0069095073 4280698004
0.0066660754 0.015537422 0.00746316 4280894863
0.0088355653 0.01406645 0.0086899465 4280829074
0.011015784 0.012595888 0.0099160923 4281026188
0.013814311 0.0080959313 0.013833736 4281223558
0.016799945 0.0028395616 0.018422194 4281485698
0.019980844 -0.0031731576 0.023680996 4282075003
0.022084672 -0.0038841218 0.024229608 4282928233
-0.015507571 0.023442242 -0.0010871422 4282658698
-0.013781425 0.024244901 -0.0018794965 4282134673
-0.012418259 0.027328607 -0.0046918672 4281281189
-0.010589544 0.027370695 -0.0048094727 4280299183
-0.0087609477 0.027412899 -0.0049269809 4280894354
-0.0064232051 0.024414506 -0.0023525227 4281026188
-0.0043238811 0.022936914 -0.001124952 4280829839
-0.0019482747 0.019939613 0.001447239 4279976099
0.00044898316 0.016942922 0.0040181223 4279779238
0.0028678887 0.01394688 0.0065876497 4280763794
0.0048856251 0.013230953 0.007139652 4280764048
0.0069086365 0.012515295 0.0076913526 4281025678
0.009083312 0.011040155 0.0089145405 4280763539
0.011566941 0.0080460124 0.011480286 4279581614
0.014375832 0.0035333 0.01538751 4282531963
-0.015436422 0.021205585 -0.0015095384 4282724999
-0.013707608 0.022010449 -0.0023003933 4282135185
-0.011984374 0.022815343 -0.0030908491 4281675419
-0.010144897 0.0228577 -0.003209129 4281218459
-0.0079319514 0.020612884 -0.0013127388 4281483149
-0.0058300346 0.019130953 -8.8689849e-05 4281025678
-0.0039773136 0.019173954 -0.00020757131 4280829328
-0.0018593185 0.017692555 0.0010156455 4280894863
0.00040484965 0.015449379 0.0029090829 4280238748
0.0028233714 0.012444615 0.0054721469 4280304539
0.0049817674 0.010964513 0.0066930326 4280304539
0.007150922 0.0094847791 0.0079132495 4280894609
0.0094771124 0.0072434694 0.009803026 4281157513
0.01196852 0.0042408146 0.012361792 4281746054
-0.015365399 0.018964831 -0.0019349759 4282987394
-0.013750229 0.020536724 -0.0033947942 4282396814
-0.011908043 0.020579033 -0.0035133348 4280954789
-0.0098225027 0.019092161 -0.0022916258 4281351823
-0.0076017044 0.01684102 -0.00040058792 4281680773
-0.0054918788 0.015354913 0.00081971008 4281157003
-0.0037610345 0.016162574 3.0773692e-05 4280763539
-0.0016378649 0.014677007 0.0012503881 4280632724
0.00049607456 0.01319176 0.0024694353 4280894863
0.0029169209 0.01017832 0.0050259195 4281157003
0.0053594038 0.00716554 0.0075810598 4281680518
0.0078235231 0.004153315 0.010134923 4282662779
-0.013676628 0.018296316 -0.0038201832 4282463369
-0.011950806 0.019105598 -0.0046075028 4281543583
-0.0098655224 0.017614376 -0.00338902 4281417614
-0.0076450594 0.015356697 -0.0015028231 4281746564
-0.0054083727 0.01309954 0.00038236566 4280829839
-0.0034151785 0.012376122 0.000930788 4280698514
-0.0014166608 0.01165298 0.0014789086 4280764049
0.000722453 0.010163527 0.0026943292 4281222794
0.00301034 0.0079079829 0.0045766179 4282334593
-0.011993576 0.017632429 -0.0057014758 4281806998
-0.0097869411 0.015367821 -0.0038193911 4280825759
-0.0074397512 0.012334738 -0.0012715394 4281025678
-0.0050708763 0.009302251 0.0012749834 4280894863
-0.0029399209 0.0078080669 0.0024875458 4281877124
-0.011798698 0.014617022 -0.0054644635 4282463368
-0.0095869415 0.012345988 -0.0035875086 4281351823
-0.0072346888 0.0093042925 -0.0010464862 4281615494
-0.0047337636 0.0054921731 0.0021581119 4281616258
-0.0024651848 0.0032228231 0.0040316144 4283252594
0.021641437 -0.012464413 0.016624086 4281879674
-0.0090227313 0.0069955662 -0.0013711308 4283121523
-0.0066572577 0.0039454885 0.001162569 4282729079
0.018866923 -0.010203332 0.012286306 4281547663
0.02095579 -0.010929791 0.012824594 4281288584
0.023374584 -0.013200876 0.014684645 4280440964
0.039439473 -0.015142334 0.015678622 4280375940
0.041946169 -0.017410465 0.017533712 4279982219
0.016274441 -0.0086942632 0.0086231036 4280443004
0.020430204 -0.010152141 0.0096977754 4279651993
0.022840511 -0.012429951 0.01155351 4278800294
0.024936985 -0.01315818 0.012089857 4281161594
0.036900777 -0.014426562 0.012669762 4279850384
0.038471002 -0.012831312 0.011230933 4279324829
0.040590342 -0.013558296 0.011766349 4279323554
0.04328325 -0.016606856 0.014274505 4281159809
0.015919972 -0.0086754933 0.0061666332 4279917193
0.017989609 -0.0094069 0.0067028766 4279324318
0.020223971 -0.010914851 0.0078967577 4278931108
0.022469018 -0.01242245 0.0090900315 4279193758
0.024559867 -0.013153039 0.0096251564 4278538919
0.034557294 -0.014473349 0.010326472 4280178568
0.036127757 -0.012873862 0.008890857 4279586714
0.039422113 -0.010451587 0.0066780606 4278730678
0.045372378 -0.01889446 0.013649779 4281355139
0.015873697 -0.010206088 0.0050301664 4278604453
0.022259925 -0.01318498 0.0072893789 4278865573
0.024183016 -0.013138902 0.007167059 4278603943
0.026441071 -0.014650378 0.0083564585 4278472109
0.028369222 -0.014603963 0.0082339766 4278930854
0.030470204 -0.015336162 0.0087670023 4278669223
0.032049242 -0.013732245 0.0073339129 4278604198
0.0339741 -0.013685649 0.0072118314 4278930854
0.035536435 -0.012081986 0.0057799881 4279192739
0.03727157 -0.01125695 0.0050036451 4278406573
0.043787356 -0.014229707 0.0072568776 4278996388
0.047076929 -0.019629668 0.011713604 4280045968
0.015673537 -0.01095511 0.0032388503 4278603178
0.017583434 -0.010909628 0.0031171609 4279386793
0.019493174 -0.010864053 0.0029955516 4278735013
0.021726843 -0.012380658 0.0041831164 4278538154
0.023806449 -0.01311583 0.004715668 4278865829
0.0255563 -0.012288766 0.0039396388 4278931873
0.027470741 -0.012242695 0.0038180174 4278668714
0.029730875 -0.013758239 0.0050041415 4278866084
0.032001685 -0.015273432 0.0061896574 4279062943
0.036856283 -0.011230379 0.0025579426 4278931873
0.038766835 -0.011183865 0.0024369666 4278931873
0.040677194 -0.011137284 0.0023160568 4278734504
0.042971272 -0.012651449 0.0035005193 4278865319
0.045665357 -0.015725933 0.0059892703 4279128224
0.049170528 -0.021920852 0.011085845 4279980434
0.015473519 -0.01169955 0.0014509363 4278604709
0.017380577 -0.011654129 0.0013294304 4278407848
0.019446727 -0.01239196 0.001861101 4278800803
0.021356154 -0.012346284 0.0017395923 4278472874
0.0231007 -0.011517288 0.0009654304 4278275249
0.026913237 -0.011425633 0.00072315708 4278667184
0.029164959 -0.012945722 0.0019065812 4278669478
0.031602968 -0.015248462 0.0037414869 4278669989
0.033343863 -0.014419104 0.0029678941 4278276524
0.036992494 -0.013543285 0.0020735171 4278271678
0.038905669 -0.013496703 0.0019523781 4278731699
0.042539496 -0.012620702 0.0010592677 4278864808
0.044643965 -0.013356518 0.0015893895 4278800293
0.047937591 -0.018786728 0.0060232542 4278997663
0.013218191 -0.01169889 -0.00086411275 4278868379
0.015119847 -0.011653705 -0.00098535325 4278866848
0.016864847 -0.010822766 -0.0017581764 4278407338
0.019081872 -0.012348577 -0.00057611335 4278407339
0.020823818 -0.011517562 -0.001348557 4278407084
0.024123494 -0.009070253 -0.0035431338 4278400963
0.026186038 -0.0098099764 -0.0030125817 4278400709
0.031028982 -0.014429391 0.00064946711 4279258273
0.032939922 -0.014383108 0.00052828807 4278604454
0.034850668 -0.014336758 0.00040717423 4278472618
0.036577534 -0.013505363 -0.00036375783 4278535348
0.038857963 -0.015028739 0.00081495382 4279125164
0.040959958 -0.015766893 0.0013434626 4279125674
0.043067154 -0.016504839 0.0018717032 4278735014
0.044985067 -0.016457915 0.0017504329 4278735013
0.047889043 -0.02033402 0.004874533 4278407849
0.011122379 -0.012476856 -0.0025226525 4278542998
0.013021354 -0.012431836 -0.0026437966 4278932128
0.014920149 -0.012386713 -0.0027648518 4278670244
0.016818788 -0.012341486 -0.0028858152 4278604453
0.018717278 -0.012296177 -0.003006706 4278735014
0.022184569 -0.010630095 -0.0045472202 4278864808
0.023909789 -0.0097971093 -0.005316834 4278865829
0.025969449 -0.010539072 -0.0047877142 4278471343
0.030455414 -0.013597044 -0.0024326215 4278669479
0.032358099 -0.013550964 -0.002553279 4278800803
0.034260582 -0.013504815 -0.0026738704 4278735014
0.036346477 -0.014245696 -0.002146082 4278735268
0.038623948 -0.015773427 -0.00097044837 4278604199
0.040723044 -0.016513877 -0.00044334121 4278605219
0.043019135 -0.018041015 0.00073121861 4278997664
0.045325886 -0.019567791 0.0019051805 4279653269
0.048432063 -0.024241477 0.0056683421 4280178314
0.008741308 -0.011669621 -0.0054762149 4278672539
0.010483939 -0.010834705 -0.0062458827 4279062688
0.012522813 -0.011580069 -0.0057175294 4279193248
0.014566969 -0.012325164 -0.0051894812 4278735779
0.016303685 -0.011490123 -0.0059585008 4278604710
0.018193889 -0.011445008 -0.0060788598 4278276524
0.023696233 -0.010519352 -0.0070871804 4278537643
0.02558304 -0.010473937 -0.0072070411 4278865319
0.029882256 -0.012751358 -0.0055048829 4278603944
0.031954784 -0.01349493 -0.0049780104 4278604454
0.03403255 -0.014238329 -0.0044513624 4278735014
0.036115561 -0.014981447 -0.0039250064 4278735014
0.038762596 -0.018092114 -0.0014593778 4278408103
0.041053209 -0.019623805 -0.00028776377 4278931873
0.043546189 -0.021944288 0.0015294459 4280504203
0.045666467 -0.022686204 0.0020536613 4280570248
0.048580434 -0.0265838 0.005160938 4280767109
0.0066624321 -0.012433464 -0.0071256123 4278936208
0.008259736 -0.010804122 -0.0085411752 4279194269
0.014214035 -0.01225462 -0.0076075057 4278668203
0.015945259 -0.011417536 -0.0083745541 4278735780
0.017829906 -0.011372562 -0.0084945671 4278604454
0.019876104 -0.012119478 -0.007968042 4278665908
0.02176312 -0.01207424 -0.0080880495 4278271169
0.029660154 -0.013475817 -0.0072761108 4278866084
0.031907815 -0.015013228 -0.0061052609 4278736034
0.033804651 -0.014967203 -0.0062254826 4279128478
0.036068264 -0.016504114 -0.0050554839 4279194524
0.038714912 -0.019623468 -0.002596295 4279784848
0.041005302 -0.021159513 -0.001427908 4280112524
0.043306347 -0.022695221 -0.00026013516 4280767109
0.045618098 -0.024230637 0.0009070551 4280767108
0.048334587 -0.027347988 0.0033620466 4281094784
0.0021549985 -0.010057757 -0.011236843 4279325593
0.0041695721 -0.010808464 -0.01071049 4278735523
0.0099489503 -0.011470063 -0.010424498 4278535349
0.011979278 -0.012219938 -0.0098988861 4278271424
0.01558711 -0.011336096 -0.010783963 4278537388
0.017625127 -0.012085481 -0.010258612 4278866084
0.019668434 -0.012834646 -0.009733526 4278603944
0.024980862 -0.011110939 -0.01138141 4278275759
0.027204182 -0.012653466 -0.010212389 4279062689
0.029438194 -0.014195681 -0.0090439292 4279325340
0.031860877 -0.016531311 -0.0072323517 4279062943
0.034299668 -0.018866483 -0.005421672 4279390873
0.036937993 -0.021994837 -0.0029685101 4279981198
0.039411735 -0.024328943 -0.0011599576 4280439178
0.041712772 -0.025869133 4.5495108e-06 4280308619
0.043641347 -0.025822038 -0.0001174612 4280636294
0.045764003 -0.026568243 0.00040336605 4280898433
0.047891881 -0.027314251 0.0009239139 4280964224
-0.016909357 -0.023997433 -0.0013237861 4282928743
-0.0019023232 -0.010049541 -0.01339948 4279064984
-3.297627e-05 -0.010005867 -0.013519214 4279652759
0.0019733533 -0.010759 -0.012994071 4279389853
0.003845159 -0.010715034 -0.013113789 4278931619
0.0075883754 -0.010626812 -0.013352976 4279651483
0.0096077733 -0.011379231 -0.012828368 4279519903
0.011783179 -0.012928056 -0.011660059 4279585439
0.015697714 -0.013635143 -0.011256052 4278799783
0.017420512 -0.012793807 -0.012019247 4278800294
0.019460905 -0.013545235 -0.011495609 4278604199
0.021342266 -0.013500154 -0.011615274 4278604454
0.023390476 -0.014251185 -0.011091978 4278669988
0.025274221 -0.01420586 -0.011211657 4278801313
0.027502734 -0.015752651 -0.010046159 4278408104
0.029741932 -0.017299043 -0.0088813091 4279194269
0.032169748 -0.019641099 -0.0070748632 4279587733
0.034613673 -0.02198264 -0.0052694194 4279850383
0.037257042 -0.025119586 -0.0028230702 4279916428
0.039549883 -0.0266644 -0.0016613388 4280046734
0.041853394 -0.028208828 -0.00050026365 4280374408
0.043593105 -0.02736605 -0.0012637628 4280505479
0.045715597 -0.028114434 -0.0007445449 4280833409
0.047449496 -0.027271662 -0.0015075756 4282013549
-0.018660974 -0.027171239 -0.0010462226 4282141304
-0.01706038 -0.024728099 -0.003105503 4281158788
-0.015366364 -0.023084963 -0.0045186686 4281227129
-0.005685214 -0.011630168 -0.014268847 4279064473
-0.0040735453 -0.0099881329 -0.015676124 4279258529
-0.0023412779 -0.0091454107 -0.016439131 4279061669
-0.00048023462 -0.0091019273 -0.016558332 4279192738
0.0016548 -0.010656586 -0.015391082 4279061924
0.0033812597 -0.0098137371 -0.016153447 4278733994
0.0053871349 -0.01056884 -0.015629737 4278273208
0.0072531104 -0.010524821 -0.015748939 4278402493
0.0094147958 -0.012078376 -0.014583112 4279651483
0.011285927 -0.012034018 -0.014702482 4279454878
0.013156902 -0.011989569 -0.014821772 4278471598
0.017057236 -0.012698973 -0.014418332 4278800549
0.019253533 -0.014251266 -0.013254309 4278735014
0.021296304 -0.015004721 -0.012732375 4278801058
0.023344327 -0.015757918 -0.012210679 4279063198
0.025567327 -0.017309286 -0.011048143 4279063198
0.027801026 -0.018860292 -0.0098862816 4279391893
0.030220557 -0.02120916 -0.0080842357 4280046479
0.032478366 -0.022759393 -0.0069237635 4279981198
0.035107967 -0.025905434 -0.0044830684 4279981454
0.03739259 -0.027454836 -0.0033241599 4280046478
0.039687898 -0.029003946 -0.0021658312 4280112523
0.04142778 -0.028159088 -0.0029277918 4279981453
0.043544877 -0.028909869 -0.0024099224 4280572288
0.045278948 -0.028064992 -0.0031713964 4282013293
-0.020525098 -0.029551525 -0.0014179749 4283057519
-0.018809166 -0.027903792 -0.0028295009 4281027209
-0.017104208 -0.026256153 -0.0042402772 4280896649
-0.015410215 -0.024608692 -0.0056502176 4280898179
-0.014064688 -0.020555777 -0.008988752 4281097079
-0.0075984746 -0.013166852 -0.015257773 4278801824
-0.0059812553 -0.011520468 -0.016662261 4279521688
0.0014734939 -0.011346515 -0.017139908 4279520413
0.0033368766 -0.011302765 -0.017259102 4278733994
0.005342558 -0.012060048 -0.016736999 4278865063
0.0093698315 -0.013573944 -0.015693592 4278272188
0.011090253 -0.012728669 -0.016453657 4278469304
0.015138429 -0.014241467 -0.015411134 4278537643
0.017329197 -0.015798349 -0.014250081 4278800804
0.019692149 -0.018155519 -0.012449684 4278669478
0.021742892 -0.018910978 -0.011929817 4278800803
0.023965795 -0.020466756 -0.010770636 4279062943
0.026199427 -0.022022234 -0.0096120257 4279785359
0.028616082 -0.024377752 -0.0078147734 4280374663
0.030873831 -0.025932455 -0.0066575515 4280243338
0.032964502 -0.026686477 -0.006139941 4280374664
0.035240915 -0.028240526 -0.0049838275 4279981454
0.03734481 -0.028994057 -0.0044669299 4279653779
0.039639886 -0.030547535 -0.0033118362 4279391894
0.041379754 -0.029700512 -0.0040721837 4280244359
-0.020467322 -0.031892318 -0.0019168602 4282926193
-0.018748697 -0.030240163 -0.0033253115 4281419654
-0.017148029 -0.027784005 -0.0053749001 4280700044
-0.015454061 -0.026132181 -0.0067815883 4280569485
-0.014108367 -0.022068422 -0.010112058 4280373644
-0.011381019 -0.014746313 -0.016126299 4279329163
-0.009873338 -0.012291653 -0.018169429 4279392149
-0.0062770359 -0.011401772 -0.019049071 4278800548
-0.0028235391 -0.0097081363 -0.020567935 4278274228
0.0011554137 -0.011228375 -0.019525316 4279321769
0.0031528622 -0.011988154 -0.019004401 4278407338
0.0051556379 -0.012747742 -0.018483708 4278538919
0.0071637109 -0.013507041 -0.017963301 4278669989
0.01089472 -0.013418737 -0.018201433 4278342569
0.013066497 -0.014980572 -0.017042594 4278605218
0.014937084 -0.014936035 -0.017161787 4279194013
0.017442245 -0.018103212 -0.0147267 4279194014
0.019646201 -0.019663982 -0.013569688 4279390619
0.022024985 -0.02202725 -0.011775053 4279718294
0.024253089 -0.023587305 -0.010619403 4279914898
0.026491899 -0.025146961 -0.0094644027 4280177293
0.028741423 -0.026706265 -0.0083100135 4280439943
0.030826662 -0.027462734 -0.0077937096 4280243594
0.032917161 -0.028218959 -0.0072777267 4280243339
0.035193328 -0.029777363 -0.0061248378 4279980943
0.037113916 -0.029730728 -0.0062465412 4279850128
0.039034341 -0.029684026 -0.0063681798 4282472039
-0.0207141 -0.031817898 -0.0043405709 4282337654
-0.018896744 -0.030967932 -0.0051050372 4280700298
-0.017191835 -0.029311605 -0.0065093366 4280504203
-0.015607536 -0.026849212 -0.0085528754 4280242574
-0.014152031 -0.023580838 -0.011235196 4280045459
-0.012948565 -0.018700594 -0.015195454 4279783573
-0.011542223 -0.015433117 -0.017874438 4278997153
-0.010037206 -0.012972022 -0.01991256 4278997154
-0.0064465664 -0.012080126 -0.020790234 4279061669
-0.0045911372 -0.012037003 -0.020909248 4278997664
0.00097445771 -0.011906998 -0.021265753 4279127459
0.0029689968 -0.012669014 -0.020746268 4278734759
0.0048265569 -0.012625333 -0.020865038 4278603944
0.0069740154 -0.014192417 -0.019708054 4278800294
0.0089844801 -0.014953767 -0.019189373 4279062689
0.011000257 -0.015714869 -0.018670937 4278997153
0.013327677 -0.018086277 -0.01687818 4278539173
0.015671249 -0.020457145 -0.015086409 4279194269
0.017872404 -0.022022482 -0.013932498 4279587478
0.020084251 -0.023587419 -0.012779236 4279718294
0.02247088 -0.02595702 -0.010989955 4280373390
0.02454013 -0.026716284 -0.010474507 4280504714
0.026275683 -0.025865626 -0.011231795 4280374153
0.028522234 -0.027429357 -0.010080461 4280439433
0.030604575 -0.028188052 -0.0095656542 4280439178
0.033047471 -0.030555863 -0.0077796234 4280178568
0.034785073 -0.029704824 -0.0085367952 4281947503
-0.02106205 -0.030925926 -0.0073966933 4282863974
-0.019148808 -0.030882511 -0.007520196 4280767108
-0.017235633 -0.030839013 -0.0076436321 4281028994
-0.01554171 -0.029178524 -0.0090438621 4280308109
-0.013971068 -0.026709771 -0.011081623 4280242063
-0.012531877 -0.023432977 -0.013756342 4279980178
-0.011232287 -0.01934832 -0.017067486 4279194015
-0.0099600032 -0.015264179 -0.020376794 4279062688
-0.0083454438 -0.013604954 -0.0217715 4278668458
-0.0050206594 -0.011094851 -0.023921344 4279653269
-0.0033049844 -0.010243917 -0.024676807 4278997409
-0.0013267286 -0.011008689 -0.024158049 4279062179
0.0029247887 -0.014153105 -0.021848259 4278669224
0.0046399832 -0.013301739 -0.022603363 4278603944
0.0067844652 -0.014873213 -0.021449482 4278734504
0.0087920278 -0.015636835 -0.020932183 4278735013
0.011105668 -0.018015165 -0.019143531 4278604454
0.013435479 -0.020393036 -0.017355783 4279062944
0.015625644 -0.021963032 -0.016204523 4279587479
0.017826546 -0.023532711 -0.015053827 4279849618
0.019876886 -0.024294799 -0.014538942 4280373389
0.022260476 -0.026671005 -0.012754334 4280701829
0.024493527 -0.028239608 -0.011605528 4280505223
0.026229035 -0.027386798 -0.012361211 4280177548
0.02830321 -0.028147964 -0.01184758 4280440709
0.030382667 -0.028908884 -0.011334198 4281423223
-0.019400597 -0.030788239 -0.0099287089 4282012528
-0.017493017 -0.030744851 -0.01005177 4281421694
-0.01580457 -0.029080166 -0.011448429 4280177293
-0.014014836 -0.028226087 -0.012207657 4280176528
-0.012345601 -0.026561603 -0.0136029 4279979668
-0.010922711 -0.0232764 -0.016270027 4279718038
-0.0096420869 -0.019181203 -0.019571776 4279389853
-0.0082656443 -0.015896849 -0.022235753 4278537898
0.0027411543 -0.014827056 -0.023584995 4279127203
0.0045957342 -0.014783427 -0.02370356 4278668969
0.0068848506 -0.017169088 -0.021918299 4278866338
0.0091901533 -0.019554229 -0.020134047 4279259804
0.011511628 -0.021938901 -0.018350687 4279588244
0.013543185 -0.022703907 -0.017836444 4279718804
0.015891585 -0.025087783 -0.016054682 4280046479
0.017780703 -0.025042761 -0.016175024 4280308363
0.019992057 -0.026616409 -0.015028212 4280439434
0.022050228 -0.027380398 -0.014515379 4280767109
0.024280328 -0.028953472 -0.013369592 4280373899
0.026182417 -0.028907765 -0.013490478 4280374154
0.02825642 -0.029671121 -0.012978465 4281817453
-0.0176434 -0.031454645 -0.011817916 4282077553
-0.015848234 -0.03059845 -0.012575938 4280045968
-0.013946403 -0.03055496 -0.012698455 4280241809
-0.012274466 -0.028886018 -0.014090672 4280045204
-0.010731127 -0.02640466 -0.01611682 4279848854
-0.009324532 -0.023111073 -0.018776298 4279586968
-0.0080628842 -0.019005386 -0.022068687 4279062178
-0.006702736 -0.015712589 -0.024725046 4279260568
-0.0052359514 -0.013232552 -0.026745941 4278735014
-0.0033919178 -0.013189606 -0.026864156 4278537898
-0.0015479997 -0.013146566 -0.026982293 4278931363
0.00070580468 -0.015539875 -0.025199853 4278931619
0.0026970506 -0.016308524 -0.02468504 4278996898
0.0049778111 -0.018701011 -0.022904186 4278997153
0.0071299411 -0.020281021 -0.021757288 4279457174
0.0095878877 -0.023484468 -0.019345375 4279523218
0.011616696 -0.024251839 -0.018832672 4279981199
0.013803776 -0.02583071 -0.017687771 4279915409
0.015845891 -0.026597602 -0.017175719 4280439689
0.017734889 -0.026552595 -0.017296063 4280373898
0.019784879 -0.027319066 -0.016784415 4280308108
0.02200399 -0.028896814 -0.015641287 4280569738
0.024233837 -0.030474221 -0.014498706 4281553784
0.026305113 -0.031239934 -0.013988226 4282209388
-0.016001292 -0.031301524 -0.014336936 4281749624
-0.013990201 -0.032073047 -0.013825806 4280831368
-0.012318283 -0.03039979 -0.015214806 4280307344
-0.010774899 -0.027911905 -0.017236095 4280372878
-0.009247914 -0.025424339 -0.01925621 4280045203
-0.0077373572 -0.022936985 -0.021275219 4279323809
-0.0064946562 -0.018820794 -0.024558242 4279455899
-0.0051508211 -0.0155196 -0.027207013 4278671008
-0.0034353584 -0.014662192 -0.027957637 4278603944
-0.0014576875 -0.015433526 -0.027443722 4278997408
0.00079851598 -0.01783332 -0.025666311 4278932128
0.0029315948 -0.019418333 -0.024521587 4279325339
0.0050754435 -0.021003041 -0.023377439 4279653779
0.0072300285 -0.022587348 -0.022233943 4279981709
0.0095428489 -0.02498538 -0.020459831 4280177549
0.011571463 -0.025754932 -0.019948734 4280439688
0.013758291 -0.027338158 -0.018807059 4280308364
0.015800219 -0.028107243 -0.018296625 4280439434
0.01784746 -0.028876066 -0.017786507 4280308619
0.019899968 -0.029644659 -0.017276643 4281029248
-0.014033984 -0.033590928 -0.014953004 4281619064
-0.012247305 -0.032730319 -0.015707118 4280766343
-0.010701146 -0.030235916 -0.017723706 4280373133
-0.0090511888 -0.028558595 -0.019107888 4279913623
-0.0075351335 -0.026064679 -0.021122383 4279913879
-0.0062868148 -0.021937503 -0.024397675 4279390364
-0.0049374141 -0.018627523 -0.027040359 4278670754
-0.0032165907 -0.017767776 -0.027789753 4278540449
-0.0012336671 -0.018541221 -0.02727776 4279456663
0.0010276511 -0.020947371 -0.025505576 4279456663
0.0033051707 -0.023353087 -0.023734311 4279849619
0.0055988915 -0.02575832 -0.021964006 4280112013
0.0074747242 -0.025714148 -0.022083899 4280374153
0.0094978251 -0.026486102 -0.021574143 4280243083
0.011526253 -0.027257832 -0.021064658 4280439434
0.013559986 -0.028029351 -0.020555444 4280504203
0.015599009 -0.028800637 -0.020046489 4280242573
0.017485064 -0.02875573 -0.020166665 4282144109
-0.012520581 -0.032607537 -0.018092643 4280897924
-0.010744944 -0.031744953 -0.018844314 4281158789
-0.0090949982 -0.030063318 -0.020225283 4280109974
-0.0074560232 -0.028381847 -0.021605406 4280175763
-0.0062047951 -0.024243766 -0.024872813 4280044948
-0.0044676177 -0.023381634 -0.025621686 4279783573
-0.0028670095 -0.021700693 -0.026999153 4279980943
-0.00074237213 -0.023294877 -0.0258605 4279981199
0.0013930276 -0.024888635 -0.024722483 4280243084
0.0035391822 -0.026482053 -0.023585085 4280308618
0.0054122955 -0.026438072 -0.023704898 4280307854
0.0074299164 -0.027212474 -0.023196448 4280504203
0.0094528385 -0.027986631 -0.022688318 4280766089
0.011481073 -0.028760564 -0.022180457 4281095039
0.013361838 -0.028715998 -0.022300456 4282012783
-0.010906104 -0.0324325 -0.020593081 4281357179
-0.0090187006 -0.032389034 -0.020714441 4280241553
-0.0073770136 -0.030703187 -0.022091527 4280110994
-0.0059973598 -0.02737527 -0.02472331 4279914643
-0.0043830499 -0.02568985 -0.026098482 4279784084
-0.0025177933 -0.02564648 -0.026218113 4279849618
-0.00051895157 -0.026423872 -0.02571043 4279915154
0.0013488159 -0.026380232 -0.025830064 4279981198
0.0034947209 -0.027978007 -0.024695892 4280308364
0.0053677075 -0.027934052 -0.024815716 4280503948
0.0073851347 -0.028710656 -0.024308888 4280700044
0.009113308 -0.027845802 -0.025055073 4281160318
-0.0093025938 -0.032248806 -0.023086105 4280308109
-0.0074208602 -0.032205377 -0.023207031 4280110738
-0.0060410835 -0.028868815 -0.025832385 4279586969
-0.0042986013 -0.028002253 -0.026578389 4280045968
-0.0026925616 -0.026312588 -0.027949728 4279915153
-0.00056300685 -0.027915295 -0.026817899 4279653014
0.0014409721 -0.028694678 -0.02631212 4278867104
0.0035893545 -0.030296799 -0.025181312 4279259549
0.0053231455 -0.029429873 -0.025926415 4280373389
0.0070513897 -0.028563034 -0.026671052 4282143343
-0.0095862001 -0.032099713 -0.025451187 4282470253
-0.0077100433 -0.032056432 -0.025571767 4281093253
