# .PCD v0.7 - Point Cloud Data file format
VERSION 0.7
FIELDS x y z rgba
SIZE 4 4 4 4
TYPE F F F U
COUNT 1 1 1 1
WIDTH 967
HEIGHT 1
VIEWPOINT 0 0 0 1 0 0 0
POINTS 967
DATA ascii
-0.033203378 0.0067464747 0.0084885582 4281697859
-0.03212807 0.01149047 0.0044375877 4280914753
-0.031222127 0.01701715 -0.00026644673 4279869764
-0.029518619 0.017843081 -0.0010375027 4278698039
-0.02782071 0.018669033 -0.0018081637 4279806524
-0.025694136 0.017145256 -0.00061413832 4280719168
-0.023999248 0.017971305 -0.0013844185 4280915264
-0.022159748 0.018014232 -0.0014998959 4280980544
-0.020473316 0.018840311 -0.0022695418 4281045314
-0.018636867 0.018883375 -0.0023846738 4280849218
-0.016800575 0.018926544 -0.0024997136 4280522309
-0.014642298 0.017404115 -0.0013072276 4280848963
-0.012637123 0.016664824 -0.00076891948 4280654144
-0.010793172 0.016708432 -0.00088424794 4279482164
-0.0092878491 0.018317381 -0.0023058848 4281502528
-0.0076216608 0.019143639 -0.0030737766 4281176129
-0.0056117475 0.018404799 -0.0025354428 4280849984
-0.0030644238 0.015318913 -3.9362814e-05 4279678259
0.00022485852 0.0091040898 0.0050656004 4281242428
0.003557466 0.0028903652 0.010167911 4281503293
0.0067478046 -0.0025399383 0.014615381 4282155839
0.014780946 -0.0039199116 0.015443051 4284704819
-0.033970375 -0.0018709153 0.013380615 4282087244
-0.032722782 0.0021012891 0.0099906521 4281762373
-0.031903904 0.0084297862 0.0046411101 4280980544
-0.031128734 0.01475746 -0.00070561608 4280587078
-0.02970105 0.017156659 -0.0027821921 4280195398
-0.02800592 0.017984683 -0.0035510189 4280653633
-0.025882334 0.016456502 -0.0023600301 4280784704
-0.024042804 0.016499335 -0.0024755793 4280719678
-0.022353575 0.017327568 -0.0032438519 4280198969
-0.020669915 0.018155718 -0.0040116641 4278959924
-0.018991865 0.018983832 -0.0047790543 4280393534
-0.017002836 0.018241795 -0.0042414968 4280849729
-0.015008554 0.0175 -0.0037041786 4280849219
-0.013008982 0.016758358 -0.0031671007 4280849473
-0.0078381002 0.018458603 -0.004814642 4280851259
-0.0056564659 0.016932817 -0.0036265231 4281176894
-0.0036414713 0.016192036 -0.0030901092 4280329784
-0.00090108067 0.012313263 4.9699564e-05 4280264758
0.0018662959 0.0084352288 0.0031878981 4281437503
0.0052170977 0.0022046119 0.008276185 4281566534
0.01625029 -0.0038405368 0.012886733 4284704564
-0.033629622 -0.0057564657 0.014210062 4282087499
-0.032373678 -0.0017732587 0.010827685 4281892934
-0.03154628 0.0045729186 0.0054905335 4281762628
-0.030762553 0.010918127 0.00015623635 4281567299
-0.02960499 0.014899408 -0.0032196888 4280391238
-0.0280491 0.016517324 -0.0046387822 4280457538
-0.026070394 0.015772389 -0.0041025518 4280393279
-0.024233721 0.015815159 -0.0042179185 4280915008
-0.019346602 0.019093288 -0.0071668387 4278833188
-0.017521434 0.019136189 -0.0072811903 4279482164
-0.015374534 0.017604781 -0.0060944674 4280588099
-0.013380587 0.016860889 -0.005558684 4280718658
-0.011381373 0.016117213 -0.0050231586 4280523073
-0.0063993335 0.018608524 -0.0073159724 4279614763
-0.0043953806 0.017865295 -0.0067804973 4278960944
-0.0020262375 0.015548816 -0.0049466495 4280915519
0.0007244125 0.011659494 -0.0018155049 4281176383
0.0042436644 0.0046244971 0.0039098626 4280913479
0.0072472766 -4.9643219e-05 0.0076858616 4281237583
0.017708682 -0.0037524486 0.010337844 4284574514
0.027009025 -0.0027351771 0.009100344 4284704563
-0.034957368 -0.011279143 0.016453339 4283459144
-0.033545684 -0.0080746459 0.013728151 4281760334
-0.03215589 -0.0048705796 0.011004474 4281695563
-0.031189013 0.00070313364 0.0063304566 4282022984
-0.030396752 0.0070660021 0.0010085301 4281697604
-0.029369947 0.011848213 -0.0030100546 4280913224
-0.027950447 0.014260406 -0.0050763129 4280587589
-0.026402861 0.015882535 -0.0064915349 4280653634
-0.024719026 0.016714839 -0.0072562718 4280589118
-0.023190789 0.018336764 -0.0086701717 4280328764
-0.021368131 0.018379403 -0.0087845121 4280524604
-0.017723292 0.018464973 -0.0090129394 4278373424
-0.015740253 0.017718559 -0.0084781572 4280457794
-0.013915516 0.017761638 -0.0085923355 4280065604
-0.01175832 0.016226305 -0.0074093617 4280783683
-0.010266542 0.017848028 -0.008820489 4280784194
-0.0084423199 0.01789136 -0.0089344401 4280654144
-0.0064437911 0.017145721 -0.0084002465 4280915008
-0.0044400096 0.016400302 -0.0078663882 4280653889
-0.0020711496 0.01407727 -0.0060373875 4281045824
0.00067905337 0.01017707 -0.0029142979 4280980543
0.0038269311 0.0047000442 0.0015018291 4279349308
0.0062604472 0.0023788083 0.0033269827 4278755414
0.017056435 -0.0029132962 0.0072677815 4283918398
0.026530944 -0.0026829168 0.0066799084 4284377653
-0.035001818 -0.012817845 0.015312623 4283328073
-0.033461861 -0.010396969 0.013243245 4281760333
-0.032069236 -0.0071840743 0.01052583 4281695054
-0.030832123 -0.0031794291 0.0071609048 4281957193
-0.029895004 0.0024089459 0.0025001778 4281827398
-0.028718021 0.0064124297 -0.00086078979 4281110339
-0.027851913 0.011999322 -0.0055168583 4280587589
-0.026735079 0.016001677 -0.008873919 4280915264
-0.025351148 0.018419692 -0.010932922 4279351348
-0.023384005 0.01767035 -0.010399044 4281306434
-0.021564193 0.017712919 -0.010513211 4281696838
-0.019433811 0.016172303 -0.0093320906 4281175108
-0.017766945 0.017006753 -0.010093868 4280588609
-0.015784077 0.016258163 -0.0095606912 4280000834
-0.01395946 0.016301243 -0.0096748658 4280065859
-0.012135006 0.016344396 -0.0097889658 4280522819
-0.010310717 0.016387647 -0.0099029839 4280718403
-0.0084865913 0.01643095 -0.010016948 4281110848
-0.0061394274 0.014100714 -0.0081915688 4280718914
-0.0041303784 0.013353253 -0.0076596471 4280326723
-0.0019362271 0.011814903 -0.0064818761 4279738439
0.00081627816 0.0079038534 -0.0033670389 4279344973
0.0037810206 0.0032026116 0.00039191823 4279407958
-0.033762451 -0.010339929 0.010812143 4282543693
-0.032244336 -0.0079129152 0.0087490799 4282021963
-0.03074269 -0.0054860963 0.0066871177 4281695308
-0.029530015 -0.0014710408 0.0033318941 4281565513
-0.028344683 0.0025435146 -2.1509361e-05 4281305414
-0.027470101 0.0081458818 -0.0046668216 4281240643
-0.026778165 0.014541512 -0.0099563412 4281568064
-0.025541332 0.0177601 -0.012656964 4278504238
-0.024026681 0.019390406 -0.014063543 4278958904
-0.021912687 0.017844895 -0.012884673 4279284284
-0.019943297 0.017093601 -0.012352424 4279218238
-0.016149372 0.016385371 -0.011934351 4280653124
-0.014330313 0.01642832 -0.012048177 4280783938
-0.012345225 0.015677767 -0.011516634 4280784959
-0.01001706 0.013340367 -0.0096950624 4280588864
-0.0078443736 0.011796933 -0.008519426 4280913478
-0.0056609809 0.010253806 -0.0073443442 4279736399
-0.0034668967 0.00871104 -0.0061699268 4279342934
-0.0012621135 0.0071685817 -0.0049960599 4279145564
0.001135841 0.0048333257 -0.0031785578 4278754648
0.003549926 0.0024984833 -0.0013619657 4278753629
-0.032027047 -0.011026844 0.0089134797 4282412623
-0.030519895 -0.008593414 0.0068559935 4281629264
-0.029301599 -0.0045673447 0.0035085105 4281042764
-0.02797173 -0.0013381671 0.00080823153 4281173323
-0.026947014 0.0034832302 -0.0031810473 4281172558
-0.026243828 0.0098965522 -0.0084583145 4281435464
-0.025437206 0.015512673 -0.013087876 4281371204
-0.024069633 0.017943529 -0.015136093 4279545659
-0.022260934 0.017985849 -0.015249552 4278370874
-0.020141907 0.016436188 -0.014074173 4278435388
-0.018328071 0.01647882 -0.014187813 4280326469
-0.016193055 0.014929773 -0.013013329 4280521033
-0.014374092 0.014972681 -0.013127174 4280915008
-0.012056962 0.012628425 -0.011309819 4280590138
-0.0095548257 0.0094889402 -0.0088499002 4279284028
-0.0051829219 0.006394092 -0.0065066875 4278493529
-0.0029809028 0.0048471261 -0.0053359517 4279079773
-0.00094791502 0.004095966 -0.0048087002 4279274848
0.0012727603 0.0025495924 -0.0036390205 4279339619
-0.03043076 -0.010910552 0.0063745165 4281825104
-0.029209562 -0.0068735136 0.0030348841 4281238094
-0.027737983 -0.0044342019 0.00098469667 4281433933
-0.026566014 -0.00039811432 -0.0023516249 4281368653
-0.025565684 0.0044359118 -0.0063296356 4281368653
-0.025039174 0.011664378 -0.012235316 4281500234
-0.023962826 0.01569855 -0.015565395 4281566788
-0.022456452 0.017337402 -0.016964883 4280848453
-0.020340398 0.015783368 -0.015792588 4281044039
-0.0183715 0.01502776 -0.015263436 4280977994
-0.016236722 0.013474366 -0.014092166 4280325193
-0.013927884 0.011123272 -0.012279231 4279998794
-0.011436842 0.0079747476 -0.0098251458 4280127824
-0.009092994 0.005624719 -0.0080142953 4279669843
-0.007075958 0.0048707314 -0.0074878675 4279407959
-0.0050536469 0.0041169152 -0.0069616609 4279603034
-0.0030260757 0.003363356 -0.0064357617 4279275359
-0.00081362575 0.0018124152 -0.0052688927 4279339363
-0.030475084 -0.012430903 0.0052474355 4282871113
-0.029117636 -0.0091838343 0.0025582535 4282087244
-0.027643282 -0.006737899 0.00051269541 4281564749
-0.026185386 -0.0042922162 -0.0015317327 4281630283
-0.024743933 -0.0018468741 -0.0035750209 4281565259
-0.024200656 0.0054015424 -0.0094672106 4281565004
-0.02325746 0.010247471 -0.013431791 4281566533
-0.022194646 0.014292279 -0.01675288 4281306178
-0.020073399 0.012733979 -0.015584102 4280392514
-0.018099256 0.011976343 -0.015056953 4279734614
-0.01563818 0.0088182129 -0.01260761 4279212629
-0.013482049 0.0072610751 -0.011440836 4279867979
-0.010983229 0.0041040145 -0.0089937262 4280454988
-0.008800216 0.0025476161 -0.0078284815 4279997009
-0.0067779124 0.0017915778 -0.0073040039 4279343189
-0.0047503561 0.0010357555 -0.0067797829 4279080793
-0.0027175248 0.00028014369 -0.0062558311 4279079518
-0.00085899979 0.00032450259 -0.0063717668 4279144288
-0.027409967 -0.0098486291 0.0006781905 4282021964
-0.025946558 -0.0073963823 -0.001361724 4281695308
-0.024499621 -0.0049443319 -0.0034005395 4281695309
-0.023803566 0.0015210658 -0.0086385049 4281564239
-0.022851937 0.0063801743 -0.012593886 4281303373
-0.021628432 0.0096334368 -0.015267728 4279997518
-0.01949656 0.008071037 -0.014102852 4279800914
-0.017511725 0.0073114727 -0.013577992 4279799129
-0.015200622 0.0049472917 -0.011774966 4279732574
-0.013036579 0.0033859573 -0.010611948 4279929178
-0.01069589 0.0010226574 -0.0088106394 4279210844
-0.0088449717 0.0010664836 -0.0089263618 4279341149
-0.0069941878 0.0011104047 -0.0090420041 4279014749
-0.027315557 -0.012162807 0.00019849185 4281758804
-0.025707986 -0.010508963 -0.001198025 4281759824
-0.024399646 -0.0072453218 -0.0038709487 4281630029
-0.023406826 -0.0023723226 -0.0078192987 4281565259
-0.022446774 0.0025000237 -0.011765508 4281434189
-0.021214984 0.0057621449 -0.014433429 4279932748
-0.019230187 0.0050003212 -0.013910247 4279865683
-0.017240085 0.0042387042 -0.013387335 4279536478
-0.015084282 0.0026726872 -0.012227066 4279471198
-0.013244025 0.0027160831 -0.012342254 4279405919
-0.010906368 0.00034622476 -0.010545654 4279471198
-0.0090582594 0.00038999133 -0.010661196 4279339874
-0.025893606 -0.011208463 -0.0029521124 4281694543
-0.024875924 -0.006321949 -0.0068924059 4281565003
-0.023597497 -0.003050237 -0.0095569286 4281630283
-0.022490427 0.0010280535 -0.012856664 4281433933
-0.020954117 0.0026849993 -0.014245166 4280323918
-0.019118965 0.0027279872 -0.014360247 4279995989
-0.01696869 0.0011573918 -0.013202939 4279276378
-0.015128389 0.0012006834 -0.013318211 4279470179
-0.02463194 -0.0094318427 -0.0067271418 4281106259
-0.023347929 -0.0061513409 -0.0093855765 4281239623
-0.022235245 -0.0020620357 -0.012677573 4281041998
-0.020845585 0.00040843338 -0.014698023 4279345993
-0.019007832 0.00045144372 -0.014813298 4279473749
-0.016855098 -0.0011233948 -0.013659416 4278817888
-0.0235385 -0.006826655 -0.01112128 4281107534
-0.022278972 -0.0035379548 -0.013771659 4281043018
-0.020889238 -0.0010609664 -0.015787266 4279410509
-0.01920642 -0.00020668842 -0.016535657 4279210334
-0.023582347 -0.0083110807 -0.012221685 4280971619
-0.022322692 -0.0050136829 -0.014865603 4280516188
0.010139443 -0.0024102777 0.011942497 4280638843
0.011029027 4.1432679e-05 0.0074505573 4279192229
0.013312139 -0.0014855787 0.0086295586 4279325084
0.01287277 -0.0014280211 0.0062100338 4279652503
0.030319311 -0.0025903955 0.0064451485 4281423479
0.03355331 -0.0072712023 0.010197803 4281160573
0.0082821473 0.00012918003 0.0027407792 4279324063
0.010355309 -0.00061627105 0.0032690561 4278995623
0.012629822 -0.0021522306 0.0044421656 4278865064
0.014517322 -0.0021065976 0.0043248553 4278538408
0.016606174 -0.0028514732 0.0048523019 4278473128
0.02416417 -0.0026678368 0.0043832404 4281555059
0.026268318 -0.0034120167 0.0049099792 4279783828
0.027941957 -0.0025756955 0.0041490449 4279587223
0.029609993 -0.0017394815 0.0033884812 4278864554
0.031942219 -0.0032733902 0.0045584179 4279715488
0.035415098 -0.008756849 0.0089437924 4280896904
0.039383158 -0.015819125 0.014612909 4282536554
0.0078545213 0.00020918436 0.00033700699 4278928303
0.012190931 -0.0020789839 0.0020341957 4279388833
0.014072917 -0.0020335037 0.0019172137 4278604199
0.015954696 -0.0019879676 0.0018002894 4278538663
0.018040478 -0.002735015 0.0023263679 4281358965
0.021808475 -0.0026434902 0.0020925002 4279588244
0.023267455 -0.0010127202 0.00069080479 4278604709
0.025145531 -0.00096696429 0.00057434104 4279193503
0.037276596 -0.010242336 0.0076899249 4280044184
0.040574141 -0.014947541 0.011419268 4282536553
0.0096824393 -0.0012470689 -0.00089243101 4278864554
0.011752367 -0.0019968934 -0.00036714692 4278735269
0.013628818 -0.0019515548 -0.00048379088 4278603944
0.015303642 -0.0011112373 -0.0012418483 4278800548
0.017381147 -0.0018606726 -0.00071688229 4279062179
0.019670755 -0.0034046965 0.00044894684 4278407594
0.021551862 -0.0033589955 0.00033219857 4278997663
0.022795908 -0.00092930906 -0.0017069136 4278996898
0.026540846 -0.00083803385 -0.0019391202 4279782299
0.02819261 2.1513551e-06 -0.0026955013 4278801059
0.035628431 -0.0062146708 0.0020757096 4279061668
0.038906537 -0.010933422 0.0057965387 4279652249
0.042450972 -0.016445486 0.010154907 4282339694
0.005136773 0.00035115518 -0.0043347827 4278800804
0.007000111 0.00039595179 -0.0044507799 4278341549
0.0092497244 -0.0011537187 -0.003285944 4278603944
0.011118114 -0.0011086464 -0.0034021405 4278669479
0.012986355 -0.0010635294 -0.0035182931 4278538664
0.014653027 -0.00022125803 -0.0042742412 4279324320
0.016722225 -0.00097309612 -0.0037503964 4279520924
0.019003481 -0.0025216974 -0.002587229 4279259294
0.021085888 -0.0032730969 -0.0020641168 4278735014
0.022536851 -0.0016338266 -0.0034589213 4278603944
0.025840946 5.065836e-05 -0.0049685226 4278927283
0.027264215 0.0016893782 -0.0063614459 4279455643
0.029568724 0.00014168583 -0.0051995371 4279062689
0.031432338 0.00018725358 -0.005314982 4278996134
0.034438267 -0.0037492579 -0.0022393889 4278537134
0.036777467 -0.0052959705 -0.0010795342 4278996389
0.040296994 -0.010823911 0.0032690249 4279586969
0.043854274 -0.016350832 0.0076152403 4282208878
0.0050909817 -0.0011411589 -0.005440895 4279392149
0.0069542304 -0.0010963734 -0.0055568949 4278668968
0.0090104416 -0.0018509645 -0.0050340542 4278668969
0.010680184 -0.0010065921 -0.005788689 4278407084
0.020410769 -0.0023792144 -0.0050916444 4278800549
0.022277959 -0.0023338106 -0.0052074981 4278669988
0.023715243 -0.00069053471 -0.0065981564 4278603179
0.027217589 0.00019900873 -0.0074660447 4278402494
0.033477239 -0.0020605028 -0.0059016556 4279258018
0.035574287 -0.0028133523 -0.0053807921 4278931363
0.038845852 -0.0075583952 -0.0016789204 4278997408
0.042622916 -0.013899356 0.0032930793 4282209388
0.00077167153 -0.00031689741 -0.0082281865 4278345119
0.00262703 -0.00027246028 -0.0083438121 4279521944
0.0044822246 -0.00022796914 -0.0084593836 4278473638
0.0063372403 -0.00018339604 -0.0085748807 4278407594
0.0083851665 -0.00094037503 -0.0080531538 4278473129
0.010046728 -9.4037503e-05 -0.0088056698 4278471343
0.011901215 -4.9272552e-05 -0.0089209806 4278733229
0.013554297 0.00079696998 -0.0096728913 4278732463
0.019736074 -0.0014721267 -0.0081093144 4279061414
0.021595083 -0.0014269799 -0.0082247034 4278669733
0.023239069 -0.00058059767 -0.0089758541 4278473384
0.025094993 -0.00053539686 -0.0090909544 4278341548
0.030887306 -0.0012004301 -0.0088008177 4278276014
0.033201911 -0.0027565286 -0.0076459716 4278735269
0.035065055 -0.0027109459 -0.0077613681 4278800803
0.038330734 -0.0074691772 -0.0040689041 4279128989
0.042101808 -0.01382775 0.000890553 4280963969
0.00017982721 0.00060996041 -0.011237865 4279062689
0.0020269454 0.00065417401 -0.011352997 4279652249
0.0040614977 -0.00010551512 -0.01083214 4278735523
0.0059109852 -6.1085448e-05 -0.0109473 4278473384
0.0081463531 -0.0016241912 -0.0097913146 4278538154
0.011458427 7.2555616e-05 -0.011292435 4278536369
0.01290489 0.0017244928 -0.012677463 4279259295
0.014748074 0.0017690882 -0.012791993 4279324064
0.017004266 0.00020674802 -0.011637032 4278733229
0.019061819 -0.00055180676 -0.01111725 4278734248
0.021124654 -0.0013102032 -0.010597771 4278603944
0.022977971 -0.0012651384 -0.010712767 4278538919
0.025048561 -0.0020232387 -0.010193691 4278669734
0.02712439 -0.0027812012 -0.0096748583 4278669479
0.029205471 -0.0035389457 -0.0091563575 4278801058
0.031066217 -0.0034935344 -0.0092716888 4278538408
0.033383362 -0.0050539551 -0.0081202611 4278799528
0.035711184 -0.0066141011 -0.0069694086 4278800803
0.038984552 -0.011385217 -0.0032871417 4279522199
0.042526729 -0.016958253 0.0010259894 4280440200
-0.0044431463 0.0030749477 -0.015278209 4278408104
-0.0022506267 0.001506038 -0.01412303 4279322278
0.0054850131 7.0117414e-05 -0.013313204 4278996643
0.0079077035 -0.0023035072 -0.011526141 4278538409
0.012457021 0.0018593799 -0.015038796 4278927284
0.014294699 0.0019038096 -0.015153009 4278405043
0.020654522 -0.0011846386 -0.012964256 4278669223
0.022717021 -0.0019451808 -0.012446348 4278734760
0.025002137 -0.0035109241 -0.01129631 4278472619
0.027297959 -0.0050764158 -0.010146869 4279259548
0.029604428 -0.006641537 -0.0089980811 4278734758
0.031470545 -0.0065960232 -0.0091137681 4279914389
0.034021169 -0.0089658378 -0.0073341238 4280308109
0.036587879 -0.011335216 -0.0055555194 4280308364
0.039638005 -0.015314216 -0.00251499 4280112013
0.042478718 -0.018487498 -0.00010740897 4281882224
-0.027681205 -0.013565779 -0.00331316 4280505734
-0.025937822 -0.012712762 -0.004067264 4280507518
-0.010158159 0.0022854358 -0.01665616 4278542234
-0.0083267242 0.0023288373 -0.016770639 4278735014
-0.004487738 0.0016073696 -0.016366022 4278734249
-0.0024747476 0.00084256753 -0.01584724 4278863023
-0.00063851476 0.00088640675 -0.015961777 4278861238
0.0010128021 0.0017387327 -0.016709093 4278925244
0.0052495375 -0.00059806742 -0.015040006 4278994858
0.0074763075 -0.0021700859 -0.013889963 4278603944
0.0091269687 -0.00131757 -0.014637012 4278538409
0.010772049 -0.00046512485 -0.015383665 4278799273
0.016086571 0.00047612935 -0.01635831 4278602414
0.018551342 -0.0019026175 -0.014578504 4279193249
0.020608455 -0.00266557 -0.014061883 4278930598
0.023100026 -0.0050435662 -0.012283666 4278537898
0.024955757 -0.004998453 -0.012398819 4278734759
0.027031377 -0.0057608336 -0.011883253 4279259293
0.029557675 -0.0081378287 -0.010107076 4279980179
0.031649195 -0.0088997036 -0.0095924828 4280177039
0.034430444 -0.012083327 -0.0071877544 4280373898
0.037002347 -0.014459159 -0.0054142927 4280373899
0.039823927 -0.017641721 -0.0030120076 4281028739
-0.029609963 -0.015115529 -0.0043111029 4281028738
-0.02800227 -0.013448825 -0.0056979922 4279456154
-0.026264392 -0.012593809 -0.0064501683 4279656073
-0.013865456 0.00073370337 -0.017513063 4279133068
-0.012365147 0.0023989007 -0.018892467 4278799019
-0.010370724 0.0016311575 -0.01837446 4278865063
-0.0085421205 0.0016744975 -0.018488755 4278996388
-0.0065398589 0.00090713613 -0.017971091 4278864808
-0.0026987195 0.00018365681 -0.017568143 4279192994
-0.00086530298 0.00022741035 -0.017682517 4278930853
0.00096796453 0.00027124584 -0.01779682 4279191464
0.00520432 -0.0020721052 -0.016132575 4279125929
0.0070452541 -0.0020278916 -0.016247211 4278538409
0.0088859946 -0.0019835997 -0.016361771 4278669734
0.010528333 -0.001129061 -0.017106649 4278669733
0.012366042 -0.0010847244 -0.017220935 4278735015
0.014203578 -0.0010403451 -0.017335175 4278669479
0.016040958 -0.00099590793 -0.017449358 4278997664
0.018296346 -0.0025712661 -0.016304089 4278997153
0.020774275 -0.0049562361 -0.014529893 4278735778
0.023268305 -0.0073407702 -0.012756659 4279326104
0.025343947 -0.0081053395 -0.012242801 4280046734
0.027424842 -0.0088697607 -0.01172925 4280046479
0.029956318 -0.011253234 -0.0099582318 4279718293
0.03227853 -0.012826704 -0.0088169109 4280374154
0.034839518 -0.015209407 -0.0070476835 4280963714
0.036724165 -0.015163415 -0.0071645002 4280767108
0.039309181 -0.017545404 -0.00539674 4281489268
-0.029653937 -0.016621629 -0.0054276134 4279914134
-0.028184664 -0.0141368 -0.0074437656 4279914388
-0.026590705 -0.012465926 -0.0088265296 4280177293
-0.024863899 -0.011608897 -0.0095763225 4280309384
-0.017572865 -0.00081741065 -0.018369494 4278279583
-0.015580915 -0.0015876461 -0.017853141 4279978903
-0.014072292 8.1961975e-05 -0.019229934 4279782044
-0.012243487 0.0001251027 -0.019344393 4279455133
-0.010414831 0.00016832538 -0.019458782 4279193248
-0.0085863322 0.00021165237 -0.019573081 4278538409
-0.0067579672 0.00025502406 -0.019687334 4278472618
-0.00091002882 -0.0012398828 -0.018770108 4279978648
0.00055394322 0.00042928942 -0.020143647 4279192993
0.0027561635 -0.0011522099 -0.018998682 4278996133
0.0045890138 -0.0011082646 -0.01911287 4278341038
0.006421715 -0.0010642856 -0.01922702 4278603688
0.0084497109 -0.0018327031 -0.018712129 4278931364
0.010284811 -0.0017885193 -0.018826319 4278734760
0.01232063 -0.0025565773 -0.01831186 4278603434
0.014361702 -0.0033244649 -0.017797697 4278735779
0.016408026 -0.0040921457 -0.017283803 4278997409
0.018877715 -0.0064839059 -0.015513994 4279127968
0.021363504 -0.0088752517 -0.01374517 4279195034
0.024079859 -0.012078052 -0.011349577 4279784849
0.025949053 -0.012032676 -0.011465613 4280046734
0.027818069 -0.011987256 -0.0115816 4279718803
0.029909521 -0.01275363 -0.011070274 4278407593
0.032231562 -0.014331492 -0.0099322069 4280111758
0.034564249 -0.015909068 -0.0087947808 4280832898
0.036676913 -0.016674798 -0.0082846768 4280570759
0.038794793 -0.017440336 -0.0077749197 4282406759
-0.029697891 -0.018127501 -0.0065439562 4281814138
-0.028366916 -0.014820178 -0.0091862082 4280373899
-0.026775662 -0.013145082 -0.010565538 4280308618
-0.025051635 -0.012285968 -0.011313561 4280243083
-0.023919169 -0.0081637725 -0.014582681 4280247164
-0.019603074 -0.001509523 -0.019970281 4278276778
-0.017773956 -0.0014666487 -0.020084966 4278669224
-0.015944988 -0.001423683 -0.020199569 4278733229
-0.012618519 0.00029315054 -0.021686981 4278598588
-0.0088014603 -0.00043585151 -0.021286136 4278538409
-0.006802246 -0.0012076795 -0.02077155 4278538409
-0.0049741268 -0.0011642426 -0.020885734 4278537898
-0.0013183579 -0.0010771491 -0.021113904 4278664888
0.0043541119 -0.0017607585 -0.020828051 4278668714
0.0059913173 -0.00090218894 -0.021569522 4278668969
0.0080137327 -0.0016729012 -0.021055965 4278865319
0.010041445 -0.0024434291 -0.020542692 4278603688
0.012877718 -0.0064716842 -0.01752173 4278473384
0.017187394 -0.0088256737 -0.015871275 4279260313
0.019249715 -0.0095951185 -0.015359972 4279915663
0.021952361 -0.012807084 -0.012970023 4279980688
0.024247743 -0.01439019 -0.011833645 4279980943
0.026336707 -0.015158866 -0.011323905 4280242828
0.028430924 -0.01592738 -0.010814466 4280308619
0.030530386 -0.016695714 -0.010305313 4278865829
0.032409884 -0.016649997 -0.010421922 4279521434
0.03474512 -0.018231932 -0.0092878677 4280374664
0.036399022 -0.017372243 -0.010029916 4281948778
-0.038798742 -0.022304468 -0.0051745889 4282337398
-0.031626176 -0.019676547 -0.007541413 4282666604
-0.029877387 -0.018815007 -0.0082896147 4280178058
-0.028410722 -0.016317196 -0.01029598 4280308363
-0.026819468 -0.01463777 -0.011672091 4280046223
-0.025239214 -0.012958493 -0.013047431 4280046478
-0.024109285 -0.0088254921 -0.016308386 4279522708
-0.023006655 -0.0046930714 -0.01956751 4278736034
-0.021627568 -0.0021968484 -0.021567963 4278669988
-0.01964657 -0.0029719099 -0.021054322 4278865574
-0.017974876 -0.0021113623 -0.021797083 4278864809
-0.015988708 -0.0028861128 -0.021283625 4278930088
-0.014648207 -0.00039038621 -0.023281429 4278472108
-0.0086746365 -0.0027135704 -0.021741392 4278732463
-0.0068464726 -0.0026702266 -0.02185565 4278538409
-0.0051947832 -0.0018095914 -0.022596741 4278669479
-0.0033696294 -0.0017661806 -0.022710711 4278407339
-8.8736415e-05 -4.5005232e-05 -0.02419124 4278340529
0.0019177273 -0.00081850961 -0.023678482 4278538409
0.0039294511 -0.0015918408 -0.023165939 4278801058
0.005753845 -0.0015480984 -0.0232796 4279062689
0.0079687387 -0.0031378558 -0.022141796 4278603178
0.010392405 -0.0055440506 -0.020379031 4278866594
0.013032928 -0.00876645 -0.017991867 4279391384
0.015288062 -0.010355053 -0.016856425 4279588243
0.017553911 -0.011943402 -0.015721582 4279980689
0.02003932 -0.014347841 -0.013962537 4280046478
0.022329263 -0.015935523 -0.012829127 4280177548
0.024629869 -0.017522836 -0.01169637 4280046734
0.026290052 -0.016661087 -0.012437316 4280242828
0.028384149 -0.017431805 -0.011929506 4280045969
0.030483507 -0.018202351 -0.011421993 4279259038
0.032588124 -0.018972751 -0.01091479 4280571524
-0.040854238 -0.023038689 -0.0068046642 4282666603
-0.030056734 -0.019497989 -0.01003192 4279850384
-0.028454501 -0.017814035 -0.011405619 4279784594
-0.026722316 -0.016950538 -0.012151035 4279784339
-0.02528299 -0.014446696 -0.014150649 4279849873
-0.024152864 -0.010302831 -0.017403541 4279587989
-0.023199107 -0.0053395433 -0.021281613 4278801059
-0.021822684 -0.0028368346 -0.023277106 4279718040
-0.019844569 -0.0036141928 -0.022764867 4279258274
-0.016352341 -0.0027087443 -0.023620194 4278472108
-0.015017167 -0.00020669959 -0.025612796 4279128224
-0.013202272 -0.00016394816 -0.025726434 4278931619
-0.011219397 -0.00094072893 -0.025214219 4278865064
-0.0092312321 -0.001717288 -0.024702266 4278603434
-0.007411316 -0.0016741678 -0.024816029 4278668969
-0.0057677999 -0.00081157871 -0.025555013 4278538154
-0.003771916 -0.0015877225 -0.02504337 4278669479
-0.0021341294 -0.00072513334 -0.025781898 4278604199
-0.00013309717 -0.0015010014 -0.02527046 4278866084
0.0020603314 -0.0030959137 -0.024134694 4278538154
0.0044542998 -0.0055094864 -0.022375112 4278799783
0.0064793229 -0.0062846756 -0.02186502 4279062434
0.0085095987 -0.0070595862 -0.021355214 4278866084
0.010941103 -0.0094720852 -0.019597843 4278276269
0.013589457 -0.012703013 -0.017217647 4279718294
0.015649132 -0.013477119 -0.016709521 4279980433
0.017920189 -0.015069687 -0.015578307 4280111758
0.020410769 -0.017480595 -0.013824413 4280177293
0.022282839 -0.017435348 -0.013940776 4280112268
0.024154738 -0.017390057 -0.014057091 4280308109
0.026026487 -0.01734476 -0.014173388 4279652504
0.027898066 -0.017299404 -0.014289631 4280307343
0.030214272 -0.018890595 -0.013161007 4279458958
0.03186588 -0.018026827 -0.013899766 4279394444
-0.030235924 -0.020176481 -0.0117709 4280176529
-0.028498258 -0.019310741 -0.012515161 4279128223
-0.026766129 -0.018445071 -0.013258955 4278800548
-0.02532674 -0.015934743 -0.015253752 4278932129
-0.024050098 -0.012602373 -0.017873023 4278670244
-0.022795312 -0.0092704315 -0.020490862 4278736543
-0.021562397 -0.0059388829 -0.023107242 4278866849
-0.020042419 -0.0042519653 -0.024472145 4278866084
-0.018376239 -0.0033872547 -0.025211368 4278668203
-0.0079757124 -0.00066500157 -0.027766626 4278864808
-0.0059879795 -0.0014436282 -0.027256176 4278537899
-0.0039949715 -0.0022220351 -0.026745982 4278734504
-0.0019966811 -0.0030002454 -0.026236065 4278800293
6.9066882e-06 -0.0037782704 -0.025726439 4278931364
0.0025769547 -0.0070201103 -0.02334808 4279259803
0.0049787983 -0.0094401166 -0.021593841 4279456154
0.0072043017 -0.011038437 -0.020463254 4280046989
0.0092452839 -0.011815356 -0.019955728 4280046734
0.011687405 -0.014234159 -0.018203894 4278866849
0.013744377 -0.015010582 -0.017697278 4279390874
0.015603289 -0.014965856 -0.017812971 4280046223
0.017668083 -0.015741922 -0.017306792 4279980433
0.020364456 -0.018980272 -0.014935961 4280504969
0.022024989 -0.018114308 -0.015673872 4280570759
0.024108313 -0.018889846 -0.015168712 4280964224
0.025763094 -0.018023932 -0.0159062 4282471783
0.037440084 -0.01939252 -0.015362047 4280045968
-0.032686014 -0.018419137 -0.015262838 4282273138
-0.029094342 -0.017508689 -0.016122341 4281422969
-0.027091537 -0.018290272 -0.015615296 4279718293
-0.02537046 -0.017422611 -0.016356725 4279979923
-0.023654945 -0.016554939 -0.017097771 4279718548
-0.022242904 -0.01403858 -0.019085892 4279980944
-0.02099897 -0.010698114 -0.021696523 4279260823
-0.019776903 -0.0073580891 -0.024305729 4279062689
-0.018419579 -0.0048426669 -0.026290234 4278866083
-0.014115639 0.0010536443 -0.030991677 4278338233
-0.012146682 0.00027214363 -0.030481856 4278340273
-0.010172427 -0.00050913729 -0.0299723 4279127204
-0.008192867 -0.0012902208 -0.029463019 4279192229
-0.0058557466 -0.0037186481 -0.027709857 4278799273
-0.0035024807 -0.0061466349 -0.025957659 4278668969
-0.0013146251 -0.0077504832 -0.024828164 4278996898
0.00069966167 -0.0085304575 -0.024320845 4279522709
0.0032802224 -0.011780744 -0.021949612 4280111759
0.0055029318 -0.013383634 -0.020822123 4280373644
0.0073515326 -0.013339425 -0.020937376 4280046478
0.0093951002 -0.014118442 -0.02043169 4280177294
0.011839651 -0.016543794 -0.018684849 4279784338
0.014099762 -0.01814547 -0.017559528 4278997409
0.015964039 -0.018100666 -0.017675593 4279456154
0.017622158 -0.017232753 -0.018411793 4279914388
0.019692093 -0.018010875 -0.017907552 4280569994
0.021344505 -0.017143037 -0.018643346 4281881713
-0.034983795 -0.017470626 -0.018119719 4281160319
-0.027275909 -0.0189534 -0.017342433 4280504713
-0.025414143 -0.018910345 -0.017459601 4280045713
-0.023552492 -0.018867198 -0.017576691 4280046224
-0.022137672 -0.016344205 -0.019560171 4279784083
-0.021042489 -0.012168551 -0.02278655 4279522454
-0.019820273 -0.008819852 -0.025389317 4278997408
-0.018619902 -0.0054715937 -0.027990662 4279324828
-0.017281644 -0.0029500592 -0.029969096 4278735015
-0.015959799 -0.00042887405 -0.031946398 4279127458
-0.014158785 -0.00038652681 -0.032059222 4279062178
-0.012189999 -0.0011702199 -0.031551022 4279128479
-0.010215886 -0.0019537155 -0.031043101 4278800549
-0.0078897923 -0.004389015 -0.029294167 4278799273
-0.0055475384 -0.0068238275 -0.027546238 4278668969
-0.0033679083 -0.0084323706 -0.026419502 4279326103
-0.0011775494 -0.010040541 -0.025293419 4279785104
0.00083931535 -0.010822709 -0.024787862 4279784849
0.0032353252 -0.013255959 -0.023043079 4280177548
0.0052681789 -0.014037561 -0.022538455 4280308618
0.0073063374 -0.014819048 -0.022034099 4279915664
0.0093497634 -0.015600281 -0.021530049 4279719313
0.011398479 -0.016381342 -0.021026295 4279915408
0.01365298 -0.017987598 -0.019903857 4279651738
0.015714951 -0.018768219 -0.019400839 4280045968
-0.027741488 -0.017954165 -0.020308407 4282667879
-0.025601204 -0.019569034 -0.019183297 4280832389
-0.023742393 -0.019525971 -0.019300222 4280045968
-0.02233021 -0.016996622 -0.021278691 4280045713
-0.020934425 -0.014467526 -0.02325611 4279849108
-0.01955507 -0.011938719 -0.025232427 4279456918
-0.018506117 -0.007753117 -0.028447703 4278931874
-0.017165028 -0.0052251006 -0.030421469 4279456153
-0.015840389 -0.0026973132 -0.03239416 4279323808
-0.014036752 -0.0026549231 -0.032507163 4279324573
-0.01223325 -0.0026124734 -0.03262011 4278865828
-0.0099181756 -0.0050546573 -0.030875411 4278472874
-0.0050635338 -0.010765736 -0.026770104 4279522199
-0.0028759688 -0.01237845 -0.025647106 4279849873
-0.00085912645 -0.013162844 -0.025143277 4279980944
0.0011630282 -0.013947052 -0.024639733 4280308618
0.0033773258 -0.015558912 -0.023518318 4280308873
0.0052231848 -0.015514906 -0.023633502 4280046989
0.0070689097 -0.015470818 -0.023748614 4279980943
0.0087194815 -0.01459906 -0.024481347 4279653524
0.010759912 -0.015382521 -0.023978714 4280112523
0.013206489 -0.017820878 -0.022241704 4282406759
0.015262909 -0.018603869 -0.021740004 4280638079
0.017324626 -0.019386733 -0.021238558 4281423988
-0.036926184 -0.020479115 -0.020201381 4282667879
-0.02607476 -0.018561227 -0.022142179 4282536808
-0.024224222 -0.018518364 -0.022258591 4280176529
-0.022671334 -0.016813574 -0.023612838 4279848598
-0.0214324 -0.013447286 -0.026203865 4279914388
-0.019752711 -0.012573784 -0.026937634 4279521689
-0.018235467 -0.010869619 -0.028289419 4279586714
-0.016569607 -0.0099962205 -0.029022228 4278734758
-0.015396334 -0.0066311732 -0.031608842 4279062688
-0.013419606 -0.0074191587 -0.031104472 4278866084
-0.011605322 -0.007376493 -0.031218123 4279520924
-0.0092796832 -0.0098249214 -0.029478986 4279259803
-0.0072842985 -0.010612295 -0.02897558 4279587224
-0.005107671 -0.012229692 -0.027855258 4278669989
-0.0030989945 -0.013016531 -0.027352598 4279784338
-0.00090362877 -0.01463341 -0.026233319 4280111758
0.0013024285 -0.016249893 -0.025114682 4280177294
0.0035192445 -0.017866112 -0.023996633 4280242573
0.005367741 -0.017822087 -0.024112012 4280112014
0.0074083209 -0.018607864 -0.023611115 4279980943
0.0088693947 -0.01690401 -0.024958704 4281030013
0.016867369 -0.019215913 -0.023572493 4281684599
-0.038701229 -0.022837862 -0.0205645 4282339184
-0.024559647 -0.018330699 -0.02458976 4282076533
-0.022714771 -0.018287919 -0.024705779 4281093763
-0.021172829 -0.016579045 -0.026056038 4279979923
-0.019487746 -0.015703276 -0.026788551 4279783829
-0.018121913 -0.013161745 -0.028754324 4279718294
-0.016772524 -0.010620515 -0.030719001 4279521689
-0.015277237 -0.0089123799 -0.032066073 4279456409
-0.01329793 -0.0097025111 -0.031563502 4279718294
-0.011313327 -0.010492434 -0.031061199 4279914899
-0.0091529638 -0.01211478 -0.029943187 4280111759
-0.006981872 -0.013736757 -0.028825831 4280111758
-0.0048000365 -0.015358456 -0.027709056 4279652249
-0.0027860627 -0.016147394 -0.027208377 4278800039
-0.00076679885 -0.016936174 -0.026708003 4280373643
0.0012577549 -0.017724734 -0.02620789 4280701319
0.0032876283 -0.018513108 -0.025708064 4280571014
0.0051333457 -0.018469211 -0.025823317 4282079594
0.020316392 -0.019779328 -0.025516624 4282274414
-0.024894767 -0.018134296 -0.02691438 4282863974
-0.022758156 -0.019762147 -0.025798634 4281749624
-0.02106484 -0.018884145 -0.026530147 4279324829
-0.019377075 -0.018006191 -0.02726125 4279783828
-0.018008448 -0.015458105 -0.029222373 4279849108
-0.016815744 -0.012075325 -0.031797431 4279652503
-0.014995985 -0.012032758 -0.031911593 4279980434
-0.013011411 -0.012824954 -0.031410981 4279915153
-0.011021525 -0.013617013 -0.030910619 4279915154
-0.0091966987 -0.013574112 -0.031024937 4280111758
-0.0071989074 -0.0143658 -0.030525006 4279914899
-0.0050200149 -0.01599188 -0.029411327 4280045203
-0.0030089021 -0.016783152 -0.028912079 4279652249
-0.00099249184 -0.017574204 -0.028413165 4279521433
0.00084526092 -0.017530657 -0.028528042 4281357433
0.024187028 -0.022005934 -0.026233863 4281553528
-0.020956933 -0.021193504 -0.02700742 4281487738
-0.019420512 -0.019476064 -0.028350864 4280110739
-0.018051788 -0.016921481 -0.030307163 4278996389
-0.016858935 -0.013530064 -0.03287581 4279520924
-0.015039265 -0.013487523 -0.032989983 4280111758
-0.013054855 -0.014281958 -0.032491025 4280242573
-0.011065111 -0.015076222 -0.031992286 4280242573
-0.0092403814 -0.015033346 -0.032106619 4280111503
-0.0070697218 -0.016664099 -0.030995753 4280635274
-0.0050640702 -0.017457735 -0.030497905 4280963459
-0.0028746501 -0.019087944 -0.029388063 4281685873
0.00098471344 -0.019837551 -0.029006008 4282144874
0.02533631 -0.02093822 -0.029278312 4282406249
-0.021454029 -0.020148978 -0.029937107 4281881459
-0.019617841 -0.020106338 -0.030052532 4281291388
-0.018251747 -0.017545354 -0.032003861 4280176784
-0.016742691 -0.015824033 -0.033342306 4279521178
-0.015244588 -0.014102923 -0.034679949 4280176528
-0.013263039 -0.014899644 -0.034182459 4279849619
-0.011108667 -0.016535321 -0.03307388 4279652758
-0.0091137737 -0.017331557 -0.032577097 4280372878
-0.0071135759 -0.018127631 -0.032080617 4281619319
-0.0051080659 -0.018923484 -0.031584401 4282602854
-0.021799535 -0.019932991 -0.032246407 4281684853
-0.019968882 -0.019890491 -0.032361496 4280438923
-0.018608131 -0.017323196 -0.0343077 4280569738
-0.017104454 -0.015597735 -0.035642561 4279194269
-0.015287697 -0.015555352 -0.035756618 4279194015
-0.01330632 -0.016354265 -0.035260741 4279718038
-0.027763683 -0.018990688 -0.034814116 4282340203
-0.018807657 -0.017936056 -0.03599624 4281946994
-0.017306678 -0.016206369 -0.03732774 4280440708
-0.01549273 -0.016164083 -0.037441645 4281751919
-0.013514206 -0.016965279 -0.036947247 4280638333
-0.027806133 -0.020447001 -0.035893727 4281422458
0.0049846843 -0.019680738 -0.037951428 4282208878
-0.027991354 -0.021054856 -0.037579689 4281684344
-0.011951335 -0.018979624 -0.039819244 4280833919
-0.028461937 -0.019957168 -0.040471971 4282405738
-0.010436676 -0.0224333 -0.043757759 4282143598
-0.011158384 -0.020455372 -0.047224153 4282536808
0.030075796 0.012067046 0.04358938 4285622053
0.03224536 0.011369942 0.04414589 4285884449
0.026120491 0.010402903 0.042668752 4285426978
0.027440712 0.012690471 0.040517781 4285623329
0.028103039 0.017217787 0.036338836 4286147354
0.030031502 0.01726458 0.036219105 4286147353
0.032836601 0.014325121 0.038803499 4286016539
0.021150164 0.012484852 0.038371392 4285230119
0.02288489 0.01328077 0.037575517 4285427488
0.024613924 0.014076648 0.03678 4285558813
0.026337273 0.014872419 0.035984922 4285951769
0.027413778 0.017914785 0.033166021 4285491238
0.029334031 0.017961388 0.033046812 4285622563
0.031692334 0.016510541 0.034276497 4285688608
0.035170563 0.011316597 0.038876675 4285623074
0.012954883 0.012243014 0.03635063 4285032493
0.014501408 0.013792487 0.034881465 4285754909
0.016234159 0.014590347 0.034087192 4286147353
0.018161297 0.014636749 0.033967279 4286212888
0.019885376 0.015434587 0.033173602 4285689374
0.022220306 0.013978494 0.034401271 4285689373
0.023941182 0.014776343 0.033607941 4285689374
0.025867291 0.014823014 0.033488307 4286149393
0.027152203 0.017122945 0.03134935 4285951513
0.029069662 0.017169526 0.031230344 4285951768
0.031205945 0.016465208 0.031784151 4286017303
0.033791021 0.01425934 0.033682961 4285755418
0.036841117 0.010552334 0.036925688 4285493023
0.010404013 0.012904326 0.033300526 4285164073
0.011756234 0.015211875 0.031161841 4285492768
0.013286486 0.016765347 0.029696951 4285951004
0.015397444 0.01605775 0.03025035 4286146844
0.017313607 0.016103921 0.030131144 4286212633
0.019229531 0.016150145 0.030011998 4286083349
0.021350652 0.01544301 0.030564923 4285623583
0.023268797 0.015489442 0.030445749 4285623584
0.024975821 0.01628921 0.029654963 4285754909
0.026677161 0.01708894 0.028864596 4286083604
0.028805397 0.016382242 0.029417276 4286149139
0.031157851 0.014922602 0.030640822 4285755419
0.033077449 0.014969384 0.030521795 4285624093
0.035221219 0.014263244 0.031073648 4285493278
0.038051657 0.011298489 0.033637203 4285427489
0.042052902 0.0045700781 0.039551944 4284966448
0.0076834261 0.014335511 0.029587714 4285361443
0.0090332702 0.01664949 0.027453998 4285624094
0.0109419 0.016695263 0.027335098 4286214673
0.012850299 0.016741129 0.027216284 4285557028
0.014758468 0.016787043 0.027097529 4285491239
0.01666639 0.016833039 0.02697885 4285688608
0.018574074 0.016879091 0.026860233 4285754653
0.020892255 0.015413931 0.028082496 4285623838
0.022804871 0.015460243 0.027963674 4285558303
0.024717249 0.015506631 0.027844936 4285624093
0.026415862 0.016308526 0.027056323 4285624094
0.028541267 0.01559954 0.027607605 4285558558
0.030671827 0.014890822 0.0281586 4285558303
0.032807596 0.014182257 0.028709294 4285558303
0.034499764 0.014984181 0.027921295 4285623838
0.036413349 0.015030941 0.027802734 4285754654
0.038786277 0.01356771 0.029021967 4285885213
0.042099915 0.0090848729 0.032915462 4285687843
0.0076364353 0.012797477 0.028447691 4285360168
0.0086084232 0.016634403 0.024979288 4285558303
0.010511518 0.016680086 0.02486076 4286215183
0.012219958 0.017483884 0.024072854 4286016794
0.014317013 0.016771639 0.024623912 4285885723
0.016219415 0.016817519 0.024505591 4285885724
0.018324159 0.016105609 0.025056276 4286083604
0.020639382 0.014636071 0.026275452 4285623838
0.022549219 0.014682354 0.026156828 4285558558
0.024669521 0.013970973 0.026706742 4285558813
0.026154682 0.015532671 0.025251506 4285558813
0.028277211 0.014821509 0.025801327 4285558813
0.030186065 0.014868027 0.025682963 4285558814
0.032316267 0.014157107 0.026232425 4285624093
0.03377869 0.015718503 0.024778787 4285689118
0.035457037 0.016522368 0.023993339 4286082583
0.039958976 0.014344083 0.025759054 4286081563
0.044220664 0.0068201181 0.032310069 4285819934
0.0083342865 0.0082179103 0.02998125 4286671633
0.009128429 0.012826448 0.025852071 4285557794
0.010656305 0.014392944 0.024397057 4285689628
0.012367427 0.015199022 0.023610631 4285885724
0.014269963 0.015244843 0.023492256 4285951258
0.016172282 0.015290746 0.023373958 4286017304
0.018074371 0.015336717 0.023255726 4285755163
0.020386651 0.013862779 0.02447186 4285624094
0.022293672 0.01390901 0.024353428 4285558558
0.024621792 0.01243555 0.025568724 4285558813
0.025893621 0.014761424 0.023450106 4285624604
0.028013311 0.014048031 0.023998499 4285558813
0.029481731 0.015613796 0.022547705 4285624348
0.032046698 0.013381409 0.024428323 4285755674
0.033282258 0.015706589 0.022312174 4285886233
0.035182133 0.015753059 0.022194495 4285491493
0.036852106 0.016558966 0.021411231 4285491493
0.039213546 0.015086824 0.022624765 4285885978
0.042055778 0.012096416 0.025168294 4285754653
0.04682193 0.003033068 0.033031631 4285361189
0.0098368898 0.0082430243 0.027381914 4286278169
0.01080092 0.012101691 0.023930309 4285359914
0.012126185 0.014434857 0.02181291 4285558304
0.014222912 0.013718301 0.022360789 4285624093
0.016324863 0.013001917 0.022908373 4285690139
0.018229567 0.013047965 0.022789991 4285624348
0.020134032 0.013094077 0.022671679 4285689884
0.02183038 0.013902357 0.021888074 4285623838
0.023731649 0.013948521 0.021770056 4285623074
0.025206059 0.015518712 0.020321993 4285623074
0.027101412 0.015564868 0.020204445 4285623328
0.028996535 0.015611084 0.020086957 4285689629
0.031112887 0.01489553 0.020634083 4285689374
0.032786056 0.015703643 0.019852132 4286082838
0.034907348 0.014988316 0.020399028 4285820188
0.036804207 0.015034793 0.020281596 4285491748
0.039165452 0.0135583 0.021491908 4285557539
0.041537292 0.012082109 0.022701595 4285623583
0.044632979 0.0083220843 0.025901243 4285427234
0.048957832 0.00075617433 0.032416075 4285361699
0.011136919 0.0090416055 0.024125315 4286212889
0.012467705 0.011381513 0.022012413 4285492768
0.014175825 0.012191992 0.021229498 4285558813
0.016077965 0.012237925 0.021111239 4285624604
0.017979868 0.012283914 0.020993037 4285624348
0.019676432 0.013094319 0.020210989 4285623838
0.020951696 0.015433261 0.018101815 4286017813
0.022631496 0.0162434 0.01732092 4285951514
0.024518885 0.016289292 0.017203813 4285951514
0.02640602 0.016335266 0.017086785 4285952279
0.028511614 0.015617272 0.017632881 4285623584
0.030622385 0.014899472 0.018178707 4285624094
0.032514237 0.014945725 0.018061509 4285820954
0.034405842 0.01499203 0.017944371 4286017303
0.036297224 0.015038369 0.017827272 4285951259
0.038420603 0.014321091 0.018372476 4286083604
0.040784128 0.012840303 0.019579483 4285887253
0.042920612 0.012123419 0.020123933 4285493023
0.046504535 0.0068257973 0.024638535 4285362208
0.01147265 0.0059730932 0.024314003 4286342684
0.012420639 0.0098532569 0.020879673 4286147354
0.013734974 0.012199404 0.018772729 4285229354
0.015232392 0.013778528 0.017329542 4285558813
0.017325655 0.013057688 0.017874511 4285624603
0.018809021 0.014636615 0.01643231 4285886489
0.0202813 0.016215371 0.014990792 4285754398
0.021952942 0.017027488 0.01421202 4285754654
0.024045274 0.016306905 0.014757253 4285951769
0.025926903 0.016352763 0.014640577 4286149138
0.028026924 0.015632449 0.015185395 4285623328
0.029689491 0.016444603 0.014407378 4285624348
0.032018483 0.014958439 0.015613157 4285624348
0.033904634 0.015004618 0.01549636 4285624094
0.035790503 0.015050853 0.015379624 4285821208
0.037908338 0.014331264 0.015923556 4285952533
0.040501125 0.012080198 0.017788131 4285492769
0.042872377 0.010595364 0.018991437 4285492259
0.045975156 0.0068137925 0.022174494 4285426724
0.050562955 -0.0015606564 0.029315667 4285294888
-0.023716182 0.0066975504 0.022677315 4285359914
0.012955852 0.0060183089 0.021731241 4286277658
0.013884827 0.0099089853 0.018306255 4286147608
0.014985964 0.013030251 0.015544057 4285493023
0.01646959 0.014613541 0.014105 4285558558
0.017942145 0.016196569 0.012666713 4286280719
0.019403622 0.017779434 0.011229117 4285819678
0.021485172 0.017056303 0.011773394 4285425703
0.023785032 0.015564913 0.012977546 4285557284
0.025879711 0.014842262 0.013521057 4285754653
0.027761035 0.014888173 0.013404444 4285689373
0.02964215 0.014934139 0.013287893 4285624604
0.031746976 0.014211917 0.013830906 4285624604
0.034083702 0.012721637 0.015033003 4285624604
0.03597223 0.012767954 0.014916116 4285558558
0.038324766 0.01127821 0.016117273 4285493023
0.040687911 0.0097887218 0.017317839 4285558558
0.043299221 0.0075316988 0.019176425 4285820444
0.046407022 0.0037393756 0.022351084 4285557028
0.013296604 0.0029416997 0.021913504 4286277149
0.014231272 0.006843416 0.018496271 4286146843
0.014939077 0.011515576 0.014421402 4285885213
0.016220607 0.01387416 0.012326332 4285427234
0.017485604 0.016232425 0.010232352 4285756184
0.019149296 0.017048659 0.0094572743 4285951769
0.021228001 0.016323334 0.010000077 4285951513
0.023311883 0.015598169 0.010542654 4285951769
0.025185235 0.015643833 0.010426504 4286083349
0.027276836 0.014918992 0.010968627 4285558304
0.029152445 0.014964836 0.010852428 4285559068
0.031923413 0.011929011 0.013367893 4285559069
0.034036033 0.011204852 0.013908841 4285493024
0.036383159 0.009710595 0.015107073 4285360934
0.038740925 0.0082165878 0.016304713 4285689119
0.041578807 0.0051825922 0.018816175 4285491493
0.044200681 0.0029193014 0.020669252 4285097774
0.047318943 -0.00088364631 0.023835171 4284966703
0.014774121 0.002996048 0.019337993 4286212634
0.015689798 0.006908305 0.01593012 4286081564
0.016375959 0.011593111 0.011866316 4286016793
0.017234139 0.015504101 0.0084621049 4285361699
0.018687561 0.017095463 0.0070315488 4285492513
0.020760678 0.016367847 0.0075730924 4285689629
0.022626027 0.01641327 0.0074574025 4285755418
0.024922535 0.014913155 0.0086553311 4285689629
0.027011283 0.014186038 0.0091960663 4285558304
0.029768571 0.011141151 0.011705817 4285558814
0.032099687 0.0096420236 0.012901781 4285690138
0.034667991 0.0073706321 0.014753202 4286018324
0.037252322 0.0050997585 0.016603651 4285623073
0.039852701 0.002829276 0.018453173 4285557028
0.042234428 0.0013316199 0.019646103 4285294123
0.013589516 -0.0016859528 0.020946141 4286211613
0.01511994 -8.8656321e-05 0.019513829 4286015264
0.016041294 0.0038346164 0.016113693 4285819169
0.017137319 0.0069819801 0.013371309 4285688353
0.017801851 0.01167937 0.0093186721 4285294633
0.019055992 0.014050527 0.0072351475 4285427489
0.02071403 0.014871055 0.0064637172 4285427744
0.022579305 0.014916489 0.0063480395 4285427744
0.025091216 0.012637008 0.0081979642 4285295653
0.027837522 0.0095831007 0.010701882 4285492259
0.030384302 0.0073045772 0.012549724 4285623328
0.032947123 0.0050265025 0.014396613 4285491239
0.035073042 0.0042983219 0.014933504 4285425448
0.037433349 0.0027956851 0.01612445 4285425703
0.040036194 0.00051873736 0.017968971 4285360423
0.042420454 -0.00098323263 0.019158492 4285294634
0.045290001 -0.0040338133 0.021655083 4285097774
0.014875866 -0.00084901974 0.017719163 4286212379
0.016392536 0.00075244345 0.016290976 4285818914
0.017696142 0.0031311233 0.014209157 4285557284
0.018573835 0.007064363 0.010819932 4285688608
