# .PCD v0.7 - Point Cloud Data file format
VERSION 0.7
FIELDS x y z rgba
SIZE 4 4 4 4
TYPE F F F U
COUNT 1 1 1 1
WIDTH 655
HEIGHT 1
VIEWPOINT 0 0 0 1 0 0 0
POINTS 655
DATA ascii
-0.0053485855 0.00029410422 0.041794896 4287248189
-0.0036133602 0.0018367586 0.040330596 4290256933
-0.0017377809 0.0026279022 0.039546788 4290257188
0.00044057518 0.0019164276 0.040122658 4290714914
0.0029380694 -0.00029737875 0.042057417 4289733164
-0.010157779 0.0023527802 0.037406236 4287706423
-0.0082816482 0.0031458684 0.036623754 4289472554
-0.0065571517 0.0046925531 0.035163216 4288819243
-0.0045463219 0.0047319294 0.035059974 4290521369
-0.0026871562 0.0055249524 0.034278631 4290651419
-0.00037115067 0.0040575103 0.035531804 4290126883
0.0021124184 0.0018369169 0.037462451 4289537578
0.0049313381 -0.0018900221 0.040747888 4287640889
-0.014642142 0.0029228972 0.034386203 4287117628
-0.012768418 0.0037178961 0.033605367 4288294963
-0.01075986 0.0037569371 0.03350202 4289080363
-0.0088946968 0.0045519802 0.03272178 4289669924
-0.0070352033 0.0053470558 0.031941868 4290455324
-0.0053299963 0.0068978514 0.030485639 4289147429
-0.0033331141 0.0069370936 0.030383216 4289473828
-0.0011823624 0.0062207668 0.030957313 4290193183
0.0012873039 0.0039933543 0.032883838 4289212198
0.0039326474 0.001010797 0.035485767 4288622128
-0.020716965 0.0011936957 0.033506781 4286136644
-0.019223206 0.0042657531 0.030698584 4290911008
-0.017354652 0.0050626188 0.02991947 4290192674
-0.015491746 0.0058595012 0.029140739 4290324253
-0.013359047 0.0051400228 0.029713692 4289670179
-0.011221096 0.0044207531 0.030286456 4289408804
-0.0092210248 0.0044597643 0.030183652 4289605154
-0.0075129271 0.006014911 0.02873045 4290848023
-0.0058159083 0.0075699701 0.027277844 4290978838
-0.0039786696 0.0083669815 0.026500901 4290586393
-0.0016849414 0.0068904138 0.027748788 4290651674
0.00061950833 0.0054141092 0.028996231 4290324509
0.0030941144 0.0031803707 0.030917751 4289473828
0.0055848286 0.00094709452 0.032838471 4289866529
-0.022892214 0.00030316133 0.031745464 4288686899
-0.021390036 0.0033840309 0.028943231 4288622128
-0.019650899 0.0049435603 0.027491162 4290061348
-0.017922804 0.0065029147 0.026039759 4290585883
-0.01593595 0.0065413709 0.02593741 4290782489
-0.013811618 0.0058195773 0.026509205 4290455579
-0.011682026 0.005097968 0.027080784 4289735713
-0.0095471591 0.0043765376 0.027652228 4289801504
-0.0075528622 0.0044155675 0.027549813 4289932063
-0.0060044304 0.0067351661 0.025426971 4290717209
-0.0041699782 0.0075343228 0.024651797 4290978838
-0.0021871924 0.007573429 0.024550198 4290978838
0.00026555359 0.0053326706 0.026467891 4289997599
0.0022561029 0.0053721047 0.02636602 4289604644
0.0045707673 0.0038918662 0.027609883 4289146408
0.0070609972 0.0016520857 0.029525908 4288622383
-0.025425527 0.0017061117 0.0279675 4288687153
-0.023675185 0.0032699942 0.026517907 4289079853
-0.021935903 0.0048337481 0.025069026 4290193184
-0.020337112 0.0071601416 0.022947898 4289146919
-0.018490531 0.0079609733 0.022173161 4289146919
-0.016379848 0.0072366386 0.022743976 4289343013
-0.014126271 0.0057499087 0.023987057 4289931809
-0.012002312 0.0050260327 0.024557335 4290258719
-0.0098730922 0.0043023708 0.025127424 4289997343
-0.0077386126 0.0035789195 0.025697323 4290193438
-0.0060443431 0.0051426659 0.024251396 4289800993
-0.0040587485 0.0051817349 0.024149584 4290063134
-0.0022273064 0.0059831417 0.023376273 4289735969
6.8500638e-05 0.004497997 0.024617674 4289866783
0.0020561889 0.0045374143 0.024515981 4289670433
0.0038815588 0.0053389887 0.023743195 4289735459
0.0061957762 0.0038545108 0.024983877 4289669669
0.0086882263 0.0016083377 0.026895026 4288950569
-0.025585517 0.0008700802 0.02611384 4288556593
-0.023961853 0.003203271 0.023996102 4289211944
-0.022228055 0.0047713132 0.022550752 4289997089
-0.020634703 0.0071041682 0.020434758 4290455324
-0.018793657 0.0079070944 0.019661939 4290651674
-0.016823418 0.0079452489 0.019560462 4290520603
-0.014715821 0.0072187767 0.020129895 4290781978
-0.012462676 0.0057278578 0.021369832 4289670434
-0.010198802 0.0042371838 0.022609318 4290128414
-0.0077785254 0.001982322 0.024518715 4290455323
-0.0059358478 0.002785936 0.023746295 4290259229
-0.0039476529 0.0028250627 0.023644356 4289997343
-0.0021135509 0.0036287284 0.022872543 4289932574
2.8125942e-05 0.0029036552 0.023440765 4290063134
0.0016970485 0.0044716694 0.021999666 4289670433
0.0035169125 0.0052753263 0.021228785 4290978583
0.005495891 0.0053147846 0.021127695 4290782489
0.0078096762 0.0038260487 0.022365255 4290127139
0.010304332 0.0015734769 0.02427152 4288752943
-0.02714603 -0.0038357903 0.027717663 4287183164
-0.025624264 -0.00072854594 0.024933653 4287837749
-0.024124455 0.0023784116 0.022150876 4287903538
-0.022646599 0.0054850434 0.019369306 4289670178
-0.020932075 0.0070571941 0.017928263 4290389789
-0.019096583 0.0078622513 0.017157314 4291043863
-0.016997159 0.007133313 0.017725537 4291175189
-0.014892466 0.0064046099 0.018293509 4290390043
-0.012642287 0.0049092774 0.019530376 4289866783
-0.010667264 0.0049478621 0.019428903 4289474339
-0.0085467696 0.0042198044 0.019996313 4289997853
-0.0065694004 0.0042586499 0.019894877 4289736224
-0.0042899996 0.0027642455 0.021130579 4289997854
-0.0021537468 0.0020367876 0.021697396 4289932574
-0.0001687929 0.0020760857 0.0215958 4290259228
0.0013380945 0.0044149687 0.019489961 4290324764
0.0031524673 0.0052207136 0.018720979 4289997599
0.0051258877 0.0052600731 0.018620187 4290455324
0.0072665513 0.0045331833 0.019187132 4290781978
0.0095826015 0.0030401982 0.020421473 4289342248
0.012427978 -0.00075113028 0.023657525 4288098868
-0.027066499 -0.0062123151 0.027199825 4286921533
-0.025420856 -0.0038656818 0.025090585 4287903284
-0.024039336 1.9485131e-05 0.021645693 4287707698
-0.022558689 0.003134903 0.018870434 4288950568
-0.020841464 0.0047114729 0.01743249 4289735713
-0.019003309 0.0055187442 0.016663076 4289997344
-0.016901366 0.0047877165 0.017229507 4289931808
-0.015069015 0.0055951034 0.016460562 4289801504
-0.013102122 0.0056334292 0.016359432 4289866783
-0.010992527 0.004902882 0.01692572 4290128923
-0.0088776574 0.0041725361 0.017491804 4290717718
-0.0069058612 0.004211281 0.017390663 4290128668
-0.0046321452 0.0027124756 0.018623414 4289867039
-0.0025015026 0.0019826801 0.019188942 4290063388
-0.00052213669 0.0020218962 0.019087652 4290128413
0.00097936392 0.0043672253 0.016986931 4290979094
0.0027882233 0.0051750517 0.01621986 4290128413
0.004756093 0.0052143051 0.016119352 4289408804
0.0068911389 0.0044851475 0.016684989 4289866273
0.0090314224 0.003756192 0.017250435 4290323998
0.011695415 0.00072218152 0.019813066 4289342248
0.014556497 -0.003079623 0.023040334 4287379258
-0.027105384 -0.0078212712 0.026012005 4286659394
-0.025217656 -0.0070113149 0.025241317 4287837749
-0.023830574 -0.0031150877 0.021804167 4287707698
-0.022344399 9.147916e-06 0.019035144 4287904303
-0.020880189 0.0031331065 0.01626729 4289473829
-0.019042119 0.0039425683 0.015499502 4289800993
-0.01707501 0.0039806948 0.01539821 4289800993
-0.015245467 0.0047902591 0.014630986 4289735969
-0.013421528 0.0055997656 0.013864161 4289866783
-0.011603229 0.0064092767 0.013097716 4291306259
-0.0094994381 0.0056765568 0.013662774 4291437073
-0.0073903948 0.0049440372 0.014227638 4291175954
-0.0051250756 0.0034406534 0.015457626 4290325274
-0.0030028 0.0027085883 0.016021956 4289998110
-0.0010317042 0.0027476349 0.01592108 4289801759
0.00062085688 0.0043284581 0.014490535 4290848789
0.0024241954 0.0051384284 0.013725339 4291371538
0.004386507 0.0051775849 0.013625123 4291306259
0.0066832751 0.0036754194 0.014853943 4291175444
0.0089907199 0.0021735975 0.016082238 4290455833
0.011308827 0.00067202235 0.017310089 4289867549
0.013637595 -0.00082918955 0.018537434 4289343014
0.016333476 -0.0038711019 0.021092119 4287837749
-0.027380791 -0.0078822393 0.023493638 4286463298
-0.025377627 -0.0078439768 0.023390075 4287445304
-0.023498312 -0.0070318896 0.022621514 4287903794
-0.022130329 -0.0031250338 0.019193562 4287381043
-0.020660594 7.7676959e-06 0.016431883 4287642928
-0.019080922 0.0023666704 0.014336137 4289277734
-0.017383173 0.0039518741 0.012905782 4289604898
-0.015559152 0.0047634752 0.012140507 4289670434
-0.013740733 0.0055750781 0.011375595 4289539619
-0.011785179 0.0056133126 0.011275144 4290848279
-0.009684287 0.0048783491 0.011838736 4290455578
-0.0075781494 0.0041435962 0.012402138 4291175444
-0.0054667443 0.003409056 0.012965351 4290456088
-0.0035037622 0.0034478642 0.012864834 4290063644
-0.0015409589 0.0034867413 0.012764381 4290128668
0.00042165816 0.0035257209 0.012664016 4290063644
0.0023840517 0.0035648067 0.012563745 4290521113
0.0043462366 0.003603972 0.012463544 4290848023
0.0064755306 0.0028702943 0.013026292 4290325274
0.008610025 0.002136888 0.013588825 4290063644
0.01057703 0.0021764133 0.013488574 4290260249
0.012543827 0.0022160187 0.013388395 4289669924
0.015044883 -6.2223058e-05 0.015275175 4289146918
-0.027655978 -0.0079342425 0.020981966 4286398274
-0.025537491 -0.0086720269 0.021542313 4287183674
-0.023537342 -0.0086336974 0.021438995 4288296238
-0.022042859 -0.005491789 0.01868243 4287511858
-0.020699423 -0.0015743983 0.015263882 4287315763
-0.019251563 0.0015668292 0.012509877 4288623914
-0.017556556 0.003156309 0.011082945 4289539108
-0.015872613 0.0047457307 0.0096566211 4289801248
-0.01405973 0.0055594151 0.0088936165 4290717208
-0.012252472 0.0063730977 0.0081309807 4289408804
-0.01015994 0.0056357966 0.0086933915 4289081638
-0.0077657998 0.0033477945 0.010580063 4289539873
-0.0058081895 0.0033864127 0.010479761 4290128669
-0.0036971569 0.0026497832 0.011041449 4290063644
-0.0018935353 0.0034638913 0.01027937 4289998110
0.00038161874 0.0019523408 0.011502594 4289212453
0.002182126 0.0027665878 0.010740818 4288754473
0.0044704899 0.0012554349 0.011963543 4289147174
0.0064350888 0.0012947628 0.011863304 4290128668
0.0083994865 0.0013341578 0.011763129 4290128668
0.010018341 0.0029235696 0.010341084 4289801248
0.011626109 0.0045127873 0.0089196991 4290324509
0.013578989 0.0045522233 0.0088203121 4290127393
0.016074084 0.0022674073 0.010702619 4288687663
0.018952399 -0.0015665025 0.013905 4288161853
-0.025939003 -0.0079391301 0.018373923 4286856508
-0.023699973 -0.0094571672 0.019594802 4287510838
-0.021955494 -0.0078626685 0.01816825 4287838514
-0.020351112 -0.00549031 0.016080832 4287315509
-0.019026764 -0.0015622545 0.012671435 4287446578
-0.017460845 0.00080963504 0.010586126 4288296748
-0.01577419 0.0024034162 0.0091629252 4289343013
-0.014098622 0.0039971736 0.0077403579 4290782744
-0.012291439 0.0048130336 0.0069793407 4290848023
-0.010489859 0.0056288694 0.0062186699 4291109909
-0.0082495958 0.0041119051 0.0074401852 4290978838
-0.0063002631 0.0041503315 0.0073402841 4291109909
-0.0041975677 0.0034113615 0.007900795 4290324764
-0.0024021789 0.0042275083 0.007140765 4289801248
-0.00013542175 0.0027114027 0.0083612446 4289735714
0.0018185824 0.0027503171 0.0082613993 4289408803
0.0039368346 0.0020120381 0.0088213943 4289408803
0.0058931634 0.0020511965 0.008721577 4289866784
0.0076793954 0.0028676265 0.0079623573 4290063134
0.0094599724 0.0036840658 0.007203443 4290193949
0.011059597 0.0052774805 0.0057856981 4290978840
0.013004214 0.0053167581 0.0056867395 4290520604
0.014948606 0.0053560934 0.0055878367 4290520349
0.017810218 0.0015109531 0.008783007 4289210668
-0.026219368 -0.0079732267 0.015875839 4286202178
-0.024109595 -0.0087154154 0.016433502 4287248954
-0.021741964 -0.01101787 0.018311223 4288427053
-0.020261109 -0.0078586619 0.015568351 4287446323
-0.018670484 -0.0054798489 0.013486542 4287511858
-0.017365247 -0.0015411505 0.010086274 4287512113
-0.015813068 0.00083707692 0.0080066342 4289081383
-0.014277399 0.0032151244 0.0059278756 4289539108
-0.01275824 0.005592979 0.0038500596 4289931553
-0.010819584 0.0056310031 0.0037505645 4290717209
-0.0085849687 0.0041094949 0.0049691666 4290782488
-0.0064904466 0.0033681071 0.0055284239 4290390043
-0.0046976432 0.0041862582 0.0047700461 4289997343
-0.0029104948 0.00500444 0.0040120631 4289539363
-0.00081107765 0.0042634276 0.0045712758 4289800993
0.0012935922 0.0035226098 0.0051302891 4289604643
0.0035678819 0.0020025256 0.0063472558 4289735969
0.0055186674 0.0020415629 0.0062477123 4289801248
0.0072994232 0.0028600548 0.0054903775 4290128158
0.0089019686 0.0044578449 0.0040756799 4289932063
0.010318153 0.0068347664 0.0020039547 4289997344
0.012251794 0.0068738186 0.0019055493 4289800993
0.014365919 0.0061338018 0.002464531 4290454558
0.017035559 0.0030566738 0.0049948897 4288949548
0.019540586 0.00075908145 0.0068671647 4287445049
-0.022033527 -0.011051854 0.015813883 4287772723
-0.020042285 -0.011013452 0.015711205 4287314998
-0.01844617 -0.0086280471 0.013633983 4287250483
-0.017000973 -0.0054605827 0.010899568 4287381299
-0.015714824 -0.0015112194 0.0075084493 4288362538
-0.014316238 0.001655566 0.0047765989 4288819754
-0.012939602 0.0048220274 0.0020459574 4289343014
-0.011149064 0.005642043 0.0012891069 4290062623
-0.0090681538 0.0048981053 0.0018473733 4290324509
-0.0068312287 0.0033723982 0.0030627158 4290324509
-0.0050439686 0.0041926908 0.0023062136 4289997089
-0.0032623038 0.0050129001 0.0015500914 4290717209
-0.0013273954 0.0050513619 0.0014511663 4290717209
0.00076894462 0.0043082065 0.0020089988 4290193693
0.0030348599 0.0027835695 0.0032232217 4290324509
0.0049773604 0.0028224504 0.0031241085 4290520603
0.0067498907 0.0036429674 0.0023688134 4290193693
0.0085167661 0.0044634915 0.0016138256 4290913559
0.010102801 0.0060653803 0.00020324532 4290193949
0.011855692 0.0068857451 -0.00055086706 4290128159
0.014144875 0.0053621228 0.0006625019 4290258974
0.01644475 0.0038387463 0.0018754229 4290389788
0.018941328 0.001534502 0.0037432574 4289605154
0.021454059 -0.0007694033 0.0056103561 4287968053
-0.022451032 -0.010292313 0.012666335 4287641910
-0.020339206 -0.0110386 0.01322083 4287773233
-0.018353708 -0.011000179 0.013118546 4287250229
-0.016905695 -0.007823918 0.010390453 4287381044
-0.015616685 -0.0038636257 0.0070072282 4288297258
-0.014494851 0.0008805776 0.0029693283 4288296748
-0.013120852 0.0040557156 0.00024527777 4289212198
-0.011187896 0.00409364 0.00014608447 4290062113
-0.0092550889 0.0041316585 4.6970323e-05 4290585884
-0.0071718171 0.0033856882 0.00060357992 4290324254
-0.0052366555 0.0034239637 0.00050450023 4289866274
-0.0034577847 0.0042463276 -0.00024984311 4291501844
-0.001525715 0.0042847409 -0.00034861732 4291174934
0.00040617585 0.0043232213 -0.0004473282 4291174679
0.0025021508 0.0035779648 0.00010897126 4290782233
0.0046033859 0.0028329184 0.0006650826 4290193694
0.0065401271 0.0028717835 0.00056633633 4290128158
0.008131817 0.0044780714 -0.0008413624 4290128413
0.0097124055 0.006084247 -0.0022484865 4291306003
0.01145982 0.0069066868 -0.0030007046 4291175188
0.013743356 0.0053785448 -0.001790233 4291109909
0.016037568 0.0038507204 -0.00058030244 4290062623
0.018156402 0.0031066043 -2.4664216e-05 4289931809
0.020469241 0.0015792735 0.0011844784 4289080364
0.023175664 -0.0015143224 0.003700234 4286986303
-0.020635918 -0.011054748 0.010737101 4287707444
-0.018524438 -0.011803101 0.011290088 4287381044
-0.016944811 -0.0094047692 0.0092234407 4287249718
-0.015518665 -0.0062201093 0.0065030027 4288362283
-0.014254175 -0.002249283 0.0031291898 4288427563
-0.012874648 0.0009346744 0.00041129813 4289539874
-0.011226699 0.0025454881 -0.00099675264 4289473829
-0.0094419271 0.0033698492 -0.0017500091 4289931554
-0.0073615387 0.0026216367 -0.0011948692 4290324254
-0.0054292306 0.002659861 -0.001293798 4290258719
-0.0036531538 0.0034843581 -0.0020463811 4289997344
-0.0018827021 0.0043088631 -0.0027986607 4290128159
4.3638051e-05 0.0043472354 -0.0028970866 4290913048
0.0021340102 0.0035996535 -0.0023420639 4289866784
0.004229635 0.0028523053 -0.0017872872 4290324764
0.0059911758 0.0036769663 -0.00253879 4290651674
0.0080918372 0.0029298984 -0.001984139 4290128159
0.0096724555 0.0045404364 -0.003388037 4289931808
0.011597626 0.0045793285 -0.0034860028 4290128413
0.01352261 0.0046182652 -0.0035839221 4290324509
0.015813895 0.0030859918 -0.0023770174 4289801504
0.017557919 0.0039107804 -0.0031272741 4289800993
0.019484997 0.003950004 -0.0032251198 4289539109
0.021986105 0.0016329102 -0.0013670893 4289146153
0.024891548 -0.0022546444 0.0017938148 4288949294
-0.018958077 -0.011023691 0.0081582293 4287249718
-0.016983904 -0.010985384 0.0080566052 4287249718
-0.015420727 -0.0085807852 0.0059957523 4288558124
-0.014013715 -0.0053876769 0.0032828245 4288231214
-0.012486257 -0.0029835096 0.0012239292 4289212964
-0.011120409 0.0002090144 -0.0014867224 4288492843
-0.0094808042 0.0018241154 -0.0028910534 4289473829
-0.0077017322 0.0026506884 -0.00364237 4290062368
-0.0060815364 0.004265619 -0.0050455509 4290847513
-0.0044724047 0.0058804168 -0.0064481003 4289997344
-0.0025568902 0.0059184819 -0.0065460429 4289408549
-0.00048010796 0.0051684086 -0.005992041 4289866273
0.001601927 0.0044185347 -0.0054382384 4290978838
0.0036892295 0.0036688265 -0.0048846612 4290128413
0.0056121573 0.0037074038 -0.0049827127 4290128414
0.0077072233 0.0029580565 -0.0044293785 4290128414
0.009632498 0.0029968414 -0.0045274282 4290520859
0.011557579 0.0030357195 -0.0046253977 4290193694
0.013301976 0.0038625267 -0.0053741848 4290128159
0.01540713 0.0031136796 -0.004821145 4290193949
0.017145686 0.0039405399 -0.0055695092 4290062623
0.018878609 0.0047673401 -0.0063175466 4291109143
0.020988606 0.0040188045 -0.0057645952 4290716954
0.023491956 0.0016952329 -0.00391143 4290649633
-0.019391395 -0.010231001 0.0050362479 4287249208
-0.017157182 -0.011774765 0.0062383339 4287380278
-0.015459783 -0.010154605 0.0048339404 4289212199
-0.013773479 -0.0085344724 0.0034301821 4288950823
-0.012525208 -0.004542076 7.3395669e-05 4287969584
-0.011159264 -0.0013408286 -0.0026308075 4288296748
-0.0096674785 0.001069353 -0.004682905 4288950823
-0.0078911707 0.0018980233 -0.0054324139 4289866274
-0.0064269453 0.0043078321 -0.0074828975 4290716698
-0.004979223 0.0067174616 -0.0095325019 4290847769
-0.0032306388 0.0075458507 -0.010280394 4291044119
-0.00084213912 0.0052125105 -0.0084269699 4291109909
0.0015625283 0.0028795381 -0.0065742647 4291044374
0.0036496446 0.0021276576 -0.0060222829 4289932063
0.0054029375 0.0029565012 -0.0067701479 4290193694
0.0073228702 0.0029950971 -0.0068679871 4290324508
0.0094175637 0.0022436352 -0.0063161934 4290193438
0.011339836 0.0022824416 -0.0064140316 4290128159
0.013081476 0.003111368 -0.0071610692 4290127648
0.015000634 0.0031502629 -0.0072586369 4290062623
0.016733706 0.0039791842 -0.0080051133 4289931553
0.01846116 0.0048080445 -0.0087512676 4291174679
0.020374291 0.004847025 -0.0088483728 4290651419
0.022869214 0.0025167889 -0.0069996607 4290585119
0.025970474 -0.0021822616 -0.0032062959 4291303708
0.028505743 -0.0045115557 -0.001359541 4288033333
-0.015498854 -0.011728173 0.0036723167 4289212453
-0.013812557 -0.010103703 0.0022717677 4289212964
-0.012421869 -0.0068933861 -0.00042735413 4287904559
-0.011053115 -0.0036833915 -0.0031252718 4288558634
-0.0094108358 -0.0020595207 -0.0045232913 4288951078
-0.0080804974 0.0011499124 -0.0072190952 4288819753
-0.0067721307 0.0043590344 -0.0099136829 4289800738
-0.0053297728 0.0067750388 -0.011958143 4290389533
-0.0035867095 0.0076055261 -0.012704195 4290913559
-0.0010425821 0.0044728811 -0.010206645 4290913559
0.0013590679 0.0021333266 -0.0083586108 4290128413
0.0032765493 0.0021716878 -0.0084564621 4290259483
0.0051938221 0.0022101551 -0.0085542221 4290193949
0.0069387183 0.0030410793 -0.0092999954 4290258973
0.0092027709 0.001494986 -0.0081015974 4290193438
0.011122227 0.001533729 -0.008199296 4289866529
0.012861095 0.0023647649 -0.0089445915 4289866274
0.014594339 0.0031957757 -0.0096895341 4290062623
0.016321957 0.0040267943 -0.010434175 4290716698
0.017855428 0.0056497729 -0.01182569 4289212199
0.019951552 0.0048965751 -0.011275276 4289997344
0.02224686 0.0033515664 -0.010078058 4290127904
0.024946176 0.0002231258 -0.007587689 4289734948
0.027268261 -0.0013212126 -0.0063917385 4290060838
0.030005194 -0.0044488045 -0.0039031431 4286202178
-0.015674703 -0.012506206 0.0018625371 4288492844
-0.01371213 -0.012467908 0.0017616693 4288689448
-0.012176387 -0.01004402 -0.00028310623 4288166444
-0.010657147 -0.0076203244 -0.002327011 4288624169
-0.0091544017 -0.0051968331 -0.0043699816 4288165933
-0.0078185275 -0.0019785815 -0.0070596258 4288820008
-0.006810829 0.002829215 -0.011042965 4289473829
-0.005212605 0.0044568698 -0.012435285 4289604644
-0.003466852 0.0052895476 -0.013179817 4289932064
-0.0012429133 0.0037378534 -0.011982922 4290259228
0.00099173933 0.0021864665 -0.010786505 4290324763
0.0027369484 0.0030193976 -0.011530814 4290063134
0.0044765472 0.0038523036 -0.012274774 4290324764
0.006210506 0.0046851714 -0.01301839 4290586138
0.0082885996 0.003928999 -0.012468988 4289866529
0.010371946 0.0031729904 -0.011919811 4289866274
0.012280226 0.0032115872 -0.012016883 4290062368
0.014188312 0.0032502655 -0.012113882 4290127903
0.015538976 0.0056718593 -0.01414817 4290913049
0.017061599 0.0072990092 -0.015535959 4289866784
0.019146696 0.0065434161 -0.01498659 4289081383
0.021818742 0.0034055747 -0.012501308 4289408549
0.024512336 0.00026820507 -0.010017093 4289670178
0.027028114 -0.0020746184 -0.0081789922 4289472809
0.029357947 -0.0036230406 -0.0069866455 4289668393
0.031493664 -0.0043773092 -0.0064396299 4286921533
-0.013890699 -0.013241446 -4.4533052e-05 4287511604
-0.012073301 -0.012405783 -0.00079157297 4288624678
-0.010406412 -0.010772785 -0.0021845344 4288755238
-0.0088981539 -0.008342715 -0.0042229258 4289474594
-0.0077070892 -0.0043184641 -0.0075523811 4289147939
-0.0066964552 0.00050251372 -0.011526234 4288885799
-0.0052513108 0.0029316391 -0.013561171 4289866784
-0.0035056248 0.0037664962 -0.014304087 4289932064
-0.0014431253 0.0030073687 -0.013755846 4290193694
0.00029677898 0.0038422807 -0.014498341 4290324764
0.001864396 0.0054740622 -0.015885666 4290259484
0.0039290935 0.0047152727 -0.01533732 4291437073
0.005654864 0.00555014 -0.016078917 4291306514
0.0078994632 0.0039948658 -0.014885956 4291175188
0.0096221417 0.0048298971 -0.015627304 4290586394
0.011699714 0.004071631 -0.015079342 4290193949
0.013599567 0.004110117 -0.01517594 4290063134
0.015127823 0.0057416554 -0.016560856 4290848023
0.016645066 0.0073729777 -0.017945129 4291175444
0.018533468 0.0074114432 -0.01804099 4291175699
0.021003194 0.0050610355 -0.016205542 4291175699
0.023489058 0.0027110032 -0.014370802 4290389788
0.025791734 0.0011575678 -0.013180379 4289473573
0.028307088 -0.00119177 -0.011347068 4289341994
0.030838504 -0.0035406831 -0.0095145013 4288556083
-0.012254536 -0.013172621 -0.0025926428 4289081894
-0.01044555 -0.012334781 -0.0033375928 4288951588
-0.0090848207 -0.0090987952 -0.0060156779 4288820774
-0.0074454769 -0.0074617849 -0.0074038575 4288624424
-0.0062761903 -0.0034269756 -0.010724067 4288755239
-0.0048228204 -0.00099114166 -0.012754655 4289605154
-0.0037028193 0.0030428679 -0.016072212 4289801248
-0.0019655302 0.0038797944 -0.016813044 4290128414
-0.00039773434 0.0055158087 -0.018197175 4290259484
0.0013256148 0.0063526961 -0.018937193 4289866783
0.0032126829 0.0063905041 -0.019033452 4289997853
0.0050995648 0.0064284154 -0.019129623 4290652183
0.0071610436 0.0056674737 -0.018582581 4291175188
0.0090503171 0.0057055703 -0.018678769 4290782744
0.011119567 0.0049449918 -0.018132048 4290063134
0.013194077 0.0041845883 -0.01758554 4289801504
0.014902577 0.0050216601 -0.01832437 4289735969
0.016793817 0.005060079 -0.01842045 4289997598
0.018684857 0.0050985911 -0.018516451 4290782743
0.020769492 0.0043386756 -0.017970249 4289800993
0.02325239 0.001982003 -0.016140228 4289081383
0.025751382 -0.00037423335 -0.014311017 4289211688
0.028266475 -0.0027301169 -0.012482533 4288622383
0.030593023 -0.0042873179 -0.011296466 4286659904
-0.012719803 -0.012331439 -0.0056767175 4287054388
-0.010919034 -0.011491632 -0.0064195981 4288624168
-0.0091238469 -0.010651874 -0.0071621477 4287904814
-0.0074845254 -0.0090105161 -0.0085471086 4287643183
-0.0060091764 -0.0065678172 -0.010574065 4288035884
-0.004705973 -0.0033239569 -0.013242537 4288035373
-0.003583096 0.00072096987 -0.016552206 4288885543
-0.0021653622 0.003162819 -0.018575998 4289539619
-0.00043644011 0.0040018517 -0.019314721 4290390299
0.0011202991 0.0056420951 -0.020695072 4290913814
0.0028352812 0.0064810053 -0.021432968 4289081638
0.0045446455 0.0073198886 -0.022170514 4289212709
0.0067725107 0.0057556001 -0.020983193 4289474083
0.0086562335 0.0057935645 -0.021079117 4290521114
0.010900065 0.0042296848 -0.019892471 4289670433
0.012971714 0.003467028 -0.019347444 4290128413
0.01523418 0.0019037495 -0.018161654 4289866529
0.01713077 0.0019422742 -0.018258011 4290193438
0.019218199 0.001180084 -0.017713603 4290324509
0.021117121 0.0012187809 -0.017809983 4289800738
0.023212314 0.00045694038 -0.017265901 4288885033
0.025511883 -0.0011052953 -0.016081784 4288164913
0.028024033 -0.0034678075 -0.014258008 4287183418
-0.011102714 -0.012242869 -0.0082089622 4288754473
-0.0091628656 -0.012204751 -0.0083084665 4288492843
-0.0075235441 -0.010559067 -0.009690227 4288558888
-0.0057423487 -0.0097171925 -0.010430289 4287905069
-0.0044336095 -0.0064644907 -0.013092659 4288100908
-0.0036218017 -0.00080145732 -0.017676018 4288231469
-0.0022040233 0.0016469108 -0.019694991 4288820009
-0.00063893944 0.0032915752 -0.021072619 4290324509
0.00091511756 0.0049360604 -0.022449579 4290913559
0.0022889003 0.0073838043 -0.024466116 4291044373
0.003990069 0.0082246773 -0.025201652 4291175445
0.0062095746 0.0066557867 -0.02401711 4290913558
0.0086171478 0.0042840703 -0.022193335 4290717208
0.010680676 0.003518994 -0.021649564 4289932063
0.012932301 0.0019509736 -0.020466495 4290258973
0.015380092 -0.00041977689 -0.018644579 4290258719
0.017467543 -0.0011841722 -0.018101877 4289473573
0.019751213 -0.002751274 -0.016920311 4288623403
0.021658212 -0.002712436 -0.01701712 4288231469
0.023761407 -0.0034763173 -0.016475076 4288034608
0.025869854 -0.0042400705 -0.015933206 4288622639
0.027983561 -0.0050036362 -0.01539162 4286987324
-0.0117203 -0.010571508 -0.011914466 4288754729
-0.0094966739 -0.012145489 -0.010734039 4287904049
-0.0075625405 -0.0121074 -0.010833189 4288820773
-0.0057814196 -0.011263372 -0.011571651 4289408803
-0.0043170154 -0.0088077579 -0.013588333 4289409569
-0.0031856522 -0.0047409018 -0.016882336 4288951078
-0.0020816401 -0.00067453459 -0.020174898 4288558633
-0.00067756325 0.0017801719 -0.02218828 4289735969
0.00071007758 0.0042345566 -0.024200741 4289931808
0.0022503585 0.0058832453 -0.02557376 4289997599
0.0041233599 0.0059208074 -0.025669275 4290586393
0.0059961826 0.0059584617 -0.025764707 4290455068
0.00804618 0.0051907902 -0.025221892 4289669923
0.010281429 0.0036180518 -0.02404131 4289473573
0.012710147 0.0012402944 -0.02222332 4288950569
0.015525885 -0.0027474151 -0.01913061 4288165934
0.017992288 -0.005124216 -0.017314469 4287511348
0.020283915 -0.0066955993 -0.016136523 4287119158
0.022005379 -0.0058516045 -0.016871084 4287184694
0.023917556 -0.0058126161 -0.016968122 4287380024
0.025829539 -0.0057735713 -0.017065108 4288099123
0.027539596 -0.0049295723 -0.017798986 4286921533
-0.0079016685 -0.012039404 -0.013251874 4288295728
-0.0056676865 -0.013617365 -0.012075071 4288361774
-0.0042005032 -0.011155184 -0.014087076 4288558889
-0.0029080287 -0.0078853685 -0.016735639 4289801759
-0.0019593686 -0.003000115 -0.020657862 4289213218
-0.00087981671 0.0010767523 -0.023941046 4289539618
0.00050516427 0.0035376074 -0.025948545 4289604644
0.0022118315 0.0043828771 -0.026681263 4289800993
0.0044283941 0.0028051054 -0.025503103 4290062623
0.0063065588 0.0028428654 -0.025598809 4289604644
0.0083618313 0.0020731282 -0.025057942 4289408549
0.010422356 0.0013035792 -0.024517279 4288819754
0.013036191 -0.0018880644 -0.022067972 4287576883
0.015671626 -0.0050792238 -0.019619724 4287446324
0.018140487 -0.0074625826 -0.017808523 4287184183
0.020243786 -0.0082310028 -0.017269842 4287250229
0.021965235 -0.0073848516 -0.018002806 4287249973
0.023877345 -0.0073458888 -0.018099859 4287380024
0.025789268 -0.0073068808 -0.018196866 4287968308
0.027499288 -0.0064607253 -0.01892915 4287117629
-0.0085405558 -0.010341962 -0.016936677 4286595133
-0.0063176751 -0.011924537 -0.015762558 4288557614
-0.0043949783 -0.011886479 -0.015860979 4288362028
-0.0027887747 -0.01022823 -0.017231189 4288100399
-0.001676254 -0.0061399331 -0.020508086 4288428073
-0.00059110671 -0.002052102 -0.023783529 4289147939
0.00063303858 0.0012253397 -0.026422026 4289801503
0.0025114492 0.0012629004 -0.026517898 4289277479
0.0047332197 -0.00031908322 -0.025343269 4289735459
0.0066167265 -0.00028125383 -0.025439277 4289539363
0.008677274 -0.0010530907 -0.02490031 4289474083
0.010563172 -0.0010150643 -0.024996331 4287707699
0.013179459 -0.0042154235 -0.022553628 4287380534
0.015817262 -0.0074152518 -0.020111952 4287249719
0.01810053 -0.0089956112 -0.018940097 4287053624
0.020203702 -0.0097662248 -0.018403031 4287119158
0.021925122 -0.0089179417 -0.019134417 4287118903
0.024033383 -0.0096883243 -0.018597513 4287249463
0.025550067 -0.0080307145 -0.019962376 4288098869
-0.0047447085 -0.011800971 -0.018266009 4287903028
-0.0026695803 -0.012575261 -0.017729815 4288557868
-0.0013933703 -0.0092882495 -0.020364661 4288100908
-0.00030259043 -0.0051894658 -0.02363237 4288100653
0.0010933727 -0.0027153362 -0.025630847 4288362283
0.0026418641 -0.0010535405 -0.026994634 4288493099
0.0048661381 -0.0026398532 -0.025823371 4287904304
0.0069267228 -0.0034139897 -0.025286034 4287642674
0.0093468279 -0.005811654 -0.023482282 4288754728
0.011423387 -0.0065853084 -0.022945637 4287708210
0.013687767 -0.0081705498 -0.021776225 4287380534
0.015962839 -0.0097554736 -0.02060728 4287053624
0.017872609 -0.0097168032 -0.020704394 4286988088
0.019972943 -0.010489731 -0.020168779 4287118903
0.021498181 -0.0088277552 -0.021530975 4287315253
0.023600869 -0.0096004503 -0.020995418 4287576118
0.025311053 -0.0087501099 -0.021724543 4286202179
-0.0054048672 -0.010077517 -0.021930169 4287576118
-0.0031827316 -0.011668636 -0.020762321 4287641398
-0.0014322251 -0.010816347 -0.021492658 4288297004
-0.0001777783 -0.0075210165 -0.024119914 4288428074
0.0013872087 -0.0058546439 -0.025481401 4288100653
0.0029411241 -0.0041883569 -0.026842296 4287642419
0.0051706508 -0.0057789986 -0.025674509 4287315509
0.0072365105 -0.006555188 -0.025139112 4287249973
0.0094847307 -0.0081453007 -0.023972165 4287642163
0.011563845 -0.0089210663 -0.023437325 4288100653
0.013283193 -0.0080687702 -0.024165604 4287249718
0.015182175 -0.0080304192 -0.024262246 4287445814
0.017081 -0.0079920115 -0.024358835 4287576629
0.019360989 -0.0095810909 -0.02319329 4287446069
0.020878129 -0.0079149893 -0.024551826 4286268224
-0.0036955103 -0.010748873 -0.023785057 4286398529
-0.0016317442 -0.01152771 -0.023251481 4287118393
-0.00021646917 -0.009040257 -0.025241371 4287903793
0.0013485178 -0.0073695593 -0.026599657 4288297004
0.0032402351 -0.0073318025 -0.026696259 4287773488
0.0054749697 -0.0089266663 -0.025532011 4287315509
0.0075461194 -0.0097049791 -0.024998462 4286988088
0.0096225441 -0.010483105 -0.024465192 4287249718
0.011704214 -0.01126102 -0.023932112 4287707954
0.013243802 -0.0095903939 -0.025288779 4287315254
0.015142702 -0.0095520802 -0.025385443 4286987834
-0.0043658689 -0.0089970473 -0.027427552 4286855998
-0.0021524727 -0.010597016 -0.026265679 4286987323
-0.00041849911 -0.0097406534 -0.026991915 4287183929
0.0013098717 -0.0088843051 -0.027717791 4287773489
0.0033702999 -0.009665166 -0.027185492 4287577139
0.0056075752 -0.011264406 -0.026024576 4287184694
0.0075070336 -0.011226359 -0.026121475 4287380533
0.0092293546 -0.01036983 -0.026846891 4287576628
0.011125773 -0.010331703 -0.026943531 4287707698
-0.00078371912 -0.0096157109 -0.02936675 4286987579
0.0012712777 -0.010398954 -0.028835855 4287249463
0.0033315495 -0.011181999 -0.028305164 4287641908
0.0053971112 -0.01196488 -0.027774695 4287576629
0.0071195588 -0.011106297 -0.02849853 4287510583
-0.0011486933 -0.0094818501 -0.031735078 4287183673
0.00090072304 -0.010267408 -0.031205527 4287380024
0.0026180074 -0.0094069401 -0.031927627 4286595389
-0.0018398315 -0.0076887286 -0.035345651 4286005828
0.00036451221 -0.009301926 -0.034192897 4285940804
0.026683047 -0.0052091535 0.021912144 4281879418
-0.021459762 -0.0084114783 -0.010920936 4283254634
-0.025728676 -0.0076084444 -0.013782757 4282862698
-0.023681395 -0.0083778054 -0.013241085 4283255654
-0.027930818 -0.0075630033 -0.016095556 4280894608
-0.022359397 -0.0081722103 -0.018158715 4282929254
-0.024691798 -0.0072986023 -0.021095809 4282535788
-0.018975511 -0.0063683763 -0.035732031 4282667879
-0.011204168 -0.0078734718 -0.034865856 4282797929
-0.0115408 -0.0077169538 -0.037219211 4282863718
