# .PCD v0.7 - Point Cloud Data file format
VERSION 0.7
FIELDS x y z rgba
SIZE 4 4 4 4
TYPE F F F U
COUNT 1 1 1 1
WIDTH 646
HEIGHT 1
VIEWPOINT 0 0 0 1 0 0 0
POINTS 646
DATA ascii
0.017812066 0.0015873094 0.038659826 4288228154
0.013404749 0.0013753558 0.036309794 4287836983
0.014983959 0.0036705108 0.034163602 4290520348
0.016852476 0.004462623 0.033377297 4290257698
0.019337952 0.0022493945 0.03530854 4291107103
0.022314727 -0.0022173556 0.039276518 4289471788
0.011043787 0.0012137285 0.033858232 4288621873
0.012478523 0.0042691259 0.03103859 4289081128
0.01419159 0.0058168462 0.02957613 4290782744
0.016199298 0.0058573177 0.029470004 4290585884
0.018517978 0.0043908386 0.03071931 4290651673
0.02132234 0.00066424627 0.034000788 4291437329
0.023992665 -0.002308286 0.036603518 4287837494
0.0084101334 0.0025733761 0.030059233 4288883759
0.010279119 0.003369608 0.029275939 4289866019
0.011995077 0.0049216915 0.027816519 4290258719
0.013699949 0.006473694 0.026357714 4289343014
0.015699364 0.0065140314 0.026252046 4289539619
0.018009655 0.0050429925 0.027498625 4290258719
0.020488888 0.0028166766 0.029420607 4289604388
0.023145251 -0.00016486365 0.032017618 4289014573
0.025823161 -0.0031458745 0.034613557 4286463553
0.0021937117 0.0015965938 0.028511681 4286398274
0.003659375 0.0046696831 0.025703028 4289081384
0.0056596398 0.0047095176 0.025596935 4288557869
0.00780157 0.0039912984 0.026166108 4289931298
0.0098041743 0.0040313937 0.026060045 4289800483
0.011659272 0.0048296526 0.025279194 4290978839
0.013208635 0.0071439296 0.023149185 4290782744
0.015352517 0.0064261295 0.023718607 4290651929
0.017346144 0.0064664576 0.023613326 4290455324
0.019814193 0.0042333771 0.025531054 4290520603
0.022298373 0.0020006797 0.027448051 4289669924
0.024798676 -0.00023159431 0.029364269 4289081129
0.026982322 -0.00094806636 0.029931903 4289276714
0.0012176111 0.005307911 0.022603013 4289734438
0.002937004 0.0068684183 0.021149591 4290781979
0.0049235076 0.0069080051 0.021044247 4290651418
0.0073352605 0.0046665948 0.022959702 4290586138
0.0096186325 0.0031859558 0.024200924 4289997343
0.01161819 0.0032261256 0.024095125 4289539363
0.013317585 0.004786741 0.022643141 4290390044
0.015158579 0.0055871792 0.021864783 4290782744
0.017149359 0.0056274664 0.021759667 4290847768
0.019456252 0.004147768 0.023000065 4289735714
0.021612935 0.0034283884 0.023567379 4289997344
0.023938455 0.0019492749 0.024806947 4289538853
0.02594199 0.0019902103 0.024701446 4289145644
0.028114356 0.001271436 0.025268145 4287902518
-0.0021664947 -0.00018182956 0.024999022 4288818479
-0.0008148253 0.0036716592 0.021529697 4289474083
0.00050941855 0.0075246645 0.018061951 4289931553
0.0023514703 0.0083266459 0.017284736 4290324254
0.0044659749 0.0076034293 0.017852068 4291109398
0.0070110187 0.0045927782 0.02043508 4290716953
0.0092887059 0.0031076316 0.021673426 4289800994
0.011282682 0.0031477008 0.021567933 4289735714
0.013276473 0.003187865 0.021462515 4289932064
0.015117392 0.0039904919 0.020685785 4289735714
0.017108053 0.0040308032 0.020580694 4290128158
0.019098513 0.0040711947 0.020475671 4289735714
0.021088749 0.0041117016 0.020370752 4289670434
0.023078784 0.0041522868 0.020265907 4289669924
0.025068589 0.004192967 0.020161144 4290258719
0.027396172 0.0027097184 0.021397516 4290585118
0.029562674 0.0019887667 0.021963 4291565083
0.032432131 -0.0017795193 0.025209203 4288229428
-0.0067093931 0.0011921935 0.02134008 4287836983
-0.0045888014 0.00046635605 0.021905057 4288949038
-0.0028471649 0.0020357785 0.020456653 4289473828
-0.0012473762 0.0043699741 0.018338043 4290455324
0.00020236522 0.0074688755 0.015549581 4289670434
0.0021751523 0.0075080991 0.015444897 4289408549
0.0042867288 0.0067826621 0.016010784 4289604643
0.0066869929 0.0045279646 0.017917179 4290128159
0.0089589879 0.0030383901 0.019152559 4290520604
0.011241682 0.0015491028 0.020387508 4290062879
0.013085462 0.0023538773 0.019612171 4290062624
0.015076205 0.0023940937 0.019506998 4290389789
0.016911425 0.0031988719 0.018732324 4289866529
0.018740982 0.0040036226 0.017958004 4289670178
0.020564906 0.0048083412 0.017184045 4289997343
0.022546649 0.0048487792 0.017079651 4289735714
0.024528168 0.0048893085 0.01697534 4290324254
0.026678421 0.004165764 0.017540008 4290192674
0.028833888 0.0034424104 0.01810446 4290322978
0.031168953 0.0019551408 0.019337349 4290322468
-0.0094634928 0.0041587185 0.016246613 4289080619
-0.0076071694 0.0049648006 0.015471466 4288884778
-0.0055058748 0.0042364355 0.016035885 4289735458
-0.0035272874 0.0042754523 0.015930653 4289604899
-0.0016796142 0.0050817002 0.015156217 4290128669
2.8982759e-05 0.0066550095 0.013713002 4291109654
0.0019989014 0.0066942051 0.013608493 4291109654
0.0042465031 0.0051995683 0.01484178 4290847769
0.0065048262 0.0037052305 0.016074635 4290978583
0.0086294711 0.0029781112 0.016638391 4290520348
0.010612302 0.0030179811 0.016533505 4290324254
0.012445122 0.003824695 0.015760422 4289931553
0.014577374 0.0030980245 0.016323991 4289997088
0.016559623 0.0031381832 0.016219359 4290062368
0.018541664 0.0031784461 0.016114816 4289997089
0.020362787 0.0039853202 0.015342638 4290193438
0.022178262 0.0047922228 0.014570799 4290782233
0.024154238 0.0048326515 0.014466789 4289474084
0.026129998 0.0048731621 0.014362857 4289277479
0.028277129 0.0041474449 0.014926195 4289604644
0.030255176 0.0041881753 0.014822267 4289081128
0.032764077 0.0019304533 0.016718995 4289147174
0.035468861 -0.0010930072 0.019281693 4287510328
-0.013232037 0.00095712068 0.016624346 4286725184
-0.011832893 0.0048436988 0.013176367 4289864999
-0.010101773 0.0064212931 0.011734728 4290454813
-0.0081366561 0.0064598387 0.011630062 4290389533
-0.0059211962 0.0049596298 0.012861475 4289800993
-0.0038229674 0.0042291377 0.013424527 4289604898
-0.0018501207 0.0042681694 0.013319694 4289736224
0.0001225546 0.0043073073 0.013214953 4290848278
0.0020950586 0.0043465607 0.01311031 4290782999
0.0043451265 0.0028476436 0.014340259 4290455323
0.0064643398 0.0021180687 0.01490264 4290455323
0.0083001778 0.0029268805 0.014130831 4290324508
0.01027742 0.0029666517 0.014026247 4290455068
0.011954971 0.0045443643 0.012588397 4289931553
0.013926394 0.0045842342 0.012484282 4290193439
0.016052827 0.0038553607 0.013046622 4289997089
0.018184498 0.0031267386 0.013608791 4289866273
0.020321436 0.0023982497 0.014170773 4289735458
0.021973468 0.0039759818 0.012734592 4290716954
0.02378051 0.0047849491 0.011964925 4291240213
0.025413089 0.0063624289 0.010529952 4290258719
0.027549163 0.0056343433 0.011092214 4290258719
0.029516205 0.0056748632 0.01098888 4290127648
0.032190964 0.0026419861 0.013546646 4289670178
0.034707539 0.00037798332 0.015438199 4289080363
0.037605032 -0.0034221425 0.018658936 4289472298
-0.015367188 0.00010125805 0.014889657 4287706423
-0.013842605 0.0032270458 0.012116019 4288884013
-0.012339957 0.0063525205 0.0093436446 4290324764
-0.010500032 0.0071625477 0.0085725281 4290193439
-0.008543238 0.00720092 0.0084682982 4290716698
-0.0062110275 0.0049246578 0.010363271 4290978583
-0.0039905198 0.0034203101 0.011591284 4289735714
-0.0021511838 0.0042307694 0.010820528 4290194204
8.2634389e-05 0.002726946 0.012047954 4289997853
0.0020550117 0.0027661975 0.011943316 4289670433
0.0041660219 0.0020342469 0.012504417 4289997599
0.0061407685 0.0020737574 0.012399811 4290324764
0.0079710931 0.0028845929 0.011629948 4290259228
0.00994277 0.0029242747 0.011525678 4289997344
0.011315435 0.0060485071 0.0087611862 4290716953
0.013275839 0.0060881553 0.0086576547 4290848023
0.015546359 0.0045858808 0.0098838098 4291109654
0.017985433 0.0023130216 0.011774063 4290586139
0.020280071 0.00081140641 0.012999073 4289735714
0.021932095 0.0023935363 0.011566147 4289866528
0.023739077 0.003204694 0.010798106 4290128414
0.025371656 0.0047865454 0.009366367 4290520859
0.027336098 0.004826948 0.0092631187 4290716953
0.029474504 0.0040968191 0.0098237153 4289800483
0.032148905 0.0010552267 0.012375057 4289015084
0.034485571 -0.0004448304 0.013598297 4287706679
-0.019475728 -0.00078791194 0.013264 4287706169
-0.017822966 0.0015726089 0.011161279 4288884014
-0.015963666 0.0023848265 0.010390474 4289342249
-0.014224183 0.0039711008 0.0089546889 4290062368
-0.012612686 0.006331224 0.0068544038 4289343014
-0.0107783 0.0071433205 0.0060851965 4287969073
-0.0087046921 0.006407775 0.0066461749 4289735713
-0.0065006278 0.0048986254 0.007871747 4289800993
-0.004285831 0.0033898512 0.009096792 4289735969
-0.0021908544 0.002655026 0.0096569285 4289539874
-9.0613961e-05 0.0019204728 0.010216838 4289736224
0.0018789098 0.0019596741 0.010112356 4289081893
0.0038482472 0.0019989894 0.010007974 4289016614
0.0059589148 0.0012649596 0.010567565 4290063389
0.0076422319 0.0028513302 0.0091357268 4290128413
0.0097552538 0.0021175579 0.0096953493 4290128158
0.011125296 0.0052504633 0.0069374572 4290782233
0.013082854 0.0052900836 0.0068340972 4290716954
0.014885128 0.006102955 0.0060676429 4291174933
0.017628655 0.0022770525 0.0092797335 4290455324
0.019757077 0.001544083 0.0098389052 4289473828
0.021727465 0.0015843534 0.0097351559 4289801249
0.023365684 0.0031706062 0.0083062947 4289474084
0.02516152 0.0039838543 0.0075404774 4290062623
0.027294546 0.0032513402 0.008099746 4289735458
0.029781073 0.00097347656 0.0099830776 4288492333
0.032283731 -0.0013040239 0.011865661 4287511604
0.034443304 -0.0020356895 0.012423687 4286594878
-0.022216305 0.0030244752 0.0075498112 4287902774
-0.020256322 0.0030622217 0.0074449014 4288426289
-0.018405184 0.0038763545 0.0066760648 4289407528
-0.016336702 0.0031380556 0.0072353557 4290193439
-0.01471962 0.0055047143 0.0051395241 4290651418
-0.013002083 0.0070950035 0.003708275 4290912793
-0.011175971 0.0079091294 0.0029411316 4290193439
-0.0089883804 0.0063952431 0.0041642394 4290062368
-0.006664943 0.0041056704 0.0060500316 4290847514
-0.0045809224 0.0033683944 0.0066090226 4290128159
-0.0026221275 0.0034071747 0.0065049585 4289735969
-0.00039698184 0.0018944643 0.0077263899 4289670433
0.001566954 0.0019335742 0.0076222233 4289343779
0.0036694184 0.0011970517 0.0081805941 4289474338
0.005494304 0.0020121015 0.0074141435 4289735969
0.0074577257 0.0020515262 0.0073102415 4290128413
0.0092741102 0.0028665694 0.0065444354 4290782488
0.010935262 0.0044570677 0.0051171612 4289604899
0.012737654 0.0052720867 0.004352212 4289212453
0.01468946 0.0053116735 0.0042492189 4289801249
0.016956583 0.0038007237 0.0054691825 4289800993
0.019073933 0.0030653658 0.0060273334 4290193694
0.021196522 0.0023302189 0.0065852907 4289866528
0.022992507 0.0031455415 0.0058210716 4289735458
0.025288776 0.0016355594 0.0070397779 4289538853
0.027595714 0.00012593577 0.0082579535 4289277223
0.030087426 -0.0021584097 0.010136208 4288165169
0.032595225 -0.0044422774 0.012013655 4286529343
0.034580551 -0.0044011651 0.011909518 4286136644
-0.025881022 -0.00095538376 0.0085904188 4287052349
-0.024515804 0.0037540495 0.0045077614 4290192163
-0.022976935 0.0069057997 0.0017523747 4290585884
-0.020930231 0.0061646411 0.0023111012 4290651163
-0.018660843 0.0038668159 0.0041943714 4290193438
-0.01659802 0.0031262371 0.0047523566 4289866528
-0.014758117 0.0039426014 0.003985934 4289801249
-0.012923777 0.0047589596 0.0032198839 4290193438
-0.010975454 0.0047970712 0.003116034 4290586138
-0.0087826625 0.0032789279 0.0043356381 4290520859
-0.006704133 0.0025392058 0.0048932675 4290259229
-0.0046203025 0.0017997357 0.0054506473 4290193694
-0.00279212 0.0026165601 0.0046853591 4289866528
-0.00083633512 0.0026553925 0.0045815371 4289212454
0.0011192784 0.0026943423 0.0044778138 4289212454
0.0030747503 0.0027333852 0.0043741688 4289604899
0.0050300285 0.0027725585 0.0042706318 4289801249
0.0069851503 0.002811823 0.0041671731 4289735713
0.0089401081 0.0028511696 0.0040637869 4290520859
0.010745324 0.0036683455 0.003300244 4290978583
0.012544952 0.0044854246 0.0025370792 4290520603
0.014338918 0.0053025056 0.0017743036 4289931553
0.016758077 0.0030095968 0.0036511384 4290585628
0.018712096 0.0030494537 0.0035481937 4289735714
0.020992212 0.0015346403 0.0047643445 4289669668
0.022951283 0.0015747659 0.0046612564 4289800483
0.025247328 6.0419086e-05 0.005876746 4287773234
0.027896658 -0.0030079554 0.0084098913 4286726459
0.030393511 -0.0052987253 0.010283045 4286464574
0.032906488 -0.0075890748 0.012155414 4286202179
-0.028267059 0.00055576628 0.0048867762 4288883759
-0.026700687 0.0037165526 0.0021362118 4288949548
-0.025055774 0.006096215 4.8121437e-05 4290193184
-0.023324136 0.007694927 -0.0013778508 4290193439
-0.021285813 0.0069514411 -0.00082035735 4290716954
-0.019024909 0.0046468871 0.0010585859 4290978583
-0.01685911 0.0031233951 0.0022760592 4289801249
-0.014910679 0.0031612944 0.0021720454 4289801249
-0.013079166 0.0039797816 0.0014077649 4289735714
-0.011014186 0.0032374207 0.0019642822 4289539620
-0.0089438967 0.002495287 0.0025206096 4289604899
-0.0068682916 0.0017533675 0.0030767359 4289670434
-0.004787378 0.0010116287 0.0036327094 4289801249
-0.0030924268 0.0026108306 0.0022095144 4289932064
-0.0011422336 0.0026495773 0.0021060035 4290324508
0.00067193061 0.0034685209 0.0013432354 4290847768
0.0027576908 0.0027273595 0.001899235 4290847768
0.0045660883 0.0035464019 0.0011369307 4290128158
0.0066569448 0.002805572 0.0016928315 4289932064
0.0084595606 0.0036247149 0.00093099102 4289997344
0.01040604 0.0036640037 0.00082813762 4290716954
0.012200139 0.0044831857 6.6906214e-05 4290912793
0.014143534 0.0045225993 -3.5647303e-05 4290651163
0.016244374 0.0037824884 0.00052010641 4290324254
0.018510848 0.0022629481 0.0017336849 4290062369
0.020788014 0.00074367411 0.0029468052 4289146409
0.023075864 -0.00077522942 0.0041594058 4287968818
0.025711469 -0.003852773 0.0066867657 4286595388
0.028197385 -0.0061503765 0.0085556041 4286464574
0.030699387 -0.008447513 0.010423623 4286268223
0.033040836 -0.00996501 0.011633705 4286202179
-0.030722868 0.0028683227 0.00053507835 4288556594
-0.028969198 0.0044714911 -0.00088916533 4289014574
-0.027226508 0.0060745003 -0.0023127086 4289669924
-0.025494829 0.0076774871 -0.0037355917 4288819498
-0.023671024 0.0084974198 -0.0044982824 4288623658
-0.021641083 0.0077516148 -0.0039419373 4289343269
-0.019280095 0.0046575302 -0.0014082044 4289735969
-0.017119996 0.0031295167 -0.00019361451 4289932064
-0.015063144 0.00238459 0.00036155619 4289735714
-0.013234437 0.0032052072 -0.00040095672 4289866273
-0.011291858 0.0032432424 -0.00050447695 4289735458
-0.0091050155 0.0017162599 0.00070898794 4290259228
-0.0071572512 0.0017546136 0.00060535409 4290128413
-0.0052096248 0.0017930735 0.00050180778 4290193949
-0.0035228692 0.0033964412 -0.00091767497 4290259229
-0.0017140731 0.0042173956 -0.0016786642 4290978583
-4.6677887e-05 0.0058205845 -0.0030969698 4290978583
0.0020252541 0.0050769942 -0.0025418308 4290716699
0.0041024759 0.0043335967 -0.0019869097 4290913304
0.0061849877 0.0035903519 -0.0014321581 4289932064
0.0082727745 0.0028473833 -0.00087763555 4289801249
0.0102164 0.0028866441 -0.00098031573 4289539363
0.012159847 0.0029259869 -0.0010829251 4289473828
0.014103115 0.0029654228 -0.0011854544 4289735203
0.016518965 0.00065940898 0.00068183243 4289342503
0.018790647 -0.00086442102 0.0018919557 4288034098
0.02123607 -0.0031696754 0.0037578754 4286791484
0.0236976 -0.0054744375 0.0056229904 4286464574
0.026175261 -0.0077788611 0.0074873399 4286202943
0.028497852 -0.0093012266 0.0086950231 4286268479
0.030831121 -0.010823339 0.0099022426 4286137154
0.032998413 -0.011563647 0.010453347 4286202178
-0.032524597 -0.00029400364 0.00080848858 4286986303
-0.031036481 0.0036695432 -0.0025885496 4288556593
-0.029196143 0.0044915928 -0.0033507943 4289015339
-0.027654186 0.0076693455 -0.0060871439 4290586394
-0.025833115 0.0084912879 -0.006848163 4289670434
-0.023914512 0.0085281236 -0.0069509419 4289277988
-0.021784443 0.0069949823 -0.0057381857 4289408803
-0.019535054 0.0046771159 -0.0038683154 4290847768
-0.017380666 0.0031446745 -0.0026566908 4290062879
-0.015443429 0.0031823725 -0.0027600955 4289735714
-0.013739679 0.0047898572 -0.0041776858 4289866529
-0.011688724 0.0040428713 -0.0036236374 4289866273
-0.0096324533 0.0032961238 -0.0030697752 4289800994
-0.0076957196 0.0033342438 -0.0031728335 4289801248
-0.0057591274 0.0033725062 -0.0032757781 4290258973
-0.0040832907 0.0049800044 -0.0046914658 4290717209
-0.002285473 0.0058029303 -0.0054502534 4289343269
-0.00049325079 0.0066258023 -0.0062086256 4289343014
0.001570344 0.0058798473 -0.0056546731 4289866274
0.0036392063 0.0051340703 -0.0051008714 4289604899
0.0058572814 0.0036042463 -0.0038916254 4290128159
0.0077927932 0.0036432194 -0.0039939703 4289932064
0.0097281337 0.0036822967 -0.0040962258 4289735714
0.011815384 0.0029373402 -0.0035431366 4289408549
0.014062718 0.0014084629 -0.0023351014 4289408038
0.01647827 -0.00090407464 -0.00047262013 4288361519
0.018909976 -0.0032162359 0.0013891142 4286595388
0.021357812 -0.005527975 0.0032500699 4286529853
0.023821793 -0.0078392588 0.0051101949 4286267968
0.026301891 -0.010150144 0.0069695953 4286137153
0.028626971 -0.011676824 0.0081739146 4286333504
0.030267313 -0.010068418 0.006761305 4286399039
0.032073155 -0.0092438143 0.0060032904 4287248698
-0.032382898 -0.0034279386 0.00097118877 4286921278
-0.030889235 0.00054660998 -0.0024180841 4287837494
-0.029233214 0.0029458315 -0.0044923779 4288818988
-0.027691204 0.0061322832 -0.0072222939 4289735459
-0.025870223 0.006956391 -0.0079817018 4290520859
-0.024054788 0.0077805799 -0.0087407473 4290782233
-0.022033423 0.0070302123 -0.0081871236 4290717208
-0.019898266 0.0054929228 -0.0069777844 4290717209
-0.017863493 0.0047431076 -0.0064247353 4289801249
-0.01582339 0.0039934954 -0.0058718966 4289539363
-0.014127847 0.0056051789 -0.0072858213 4289670178
-0.012085266 0.0048558628 -0.0067329323 4289670178
-0.01015944 0.0048936671 -0.0068354839 4289800993
-0.0081089474 0.0041447328 -0.0062828483 4289670690
-0.0061806627 0.0041828211 -0.006385359 4289801249
-0.0043827705 0.0050077727 -0.0071425764 4290978839
-0.0027234405 0.006619419 -0.0085540749 4290389533
-0.00093946606 0.0074443119 -0.0093103936 4290258718
0.0011157542 0.0066960147 -0.008757608 4289997089
0.0031762794 0.0059479298 -0.0082050217 4290520348
0.0053859502 0.0044135712 -0.0069985641 4290062113
0.0076063424 0.0028794887 -0.0057925517 4289996833
0.009688139 0.0021321471 -0.0052408595 4289538853
0.011927247 0.00059864065 -0.0040356927 4289016104
0.014177054 -0.00093449419 -0.0028310493 4288100398
0.016752526 -0.0040397607 -0.0003201291 4286726714
0.019189388 -0.0063583702 0.0015364848 4286464829
0.021642379 -0.0086764982 0.0033922866 4286464574
0.023945875 -0.010208202 0.0045944266 4286464574
0.026091702 -0.010953579 0.0051432326 4286398783
0.028071672 -0.010912813 0.005039202 4286594878
0.029530063 -0.0085143149 0.0029776935 4287379769
-0.032420069 -0.0049908916 -0.00018311292 4286594114
-0.030742176 -0.0025848434 -0.0022538379 4287314234
-0.029175498 0.0006106873 -0.0049787052 4287576373
-0.027630705 0.0038059214 -0.0077023096 4289015849
-0.025807098 0.0046322579 -0.0084602451 4289343270
-0.023989026 0.0054586129 -0.0092177913 4289670178
-0.02196515 0.0047061713 -0.0086659491 4289801249
-0.020044323 0.0047432864 -0.0087686721 4289801249
-0.01790135 0.0032019312 -0.0075628711 4289604899
-0.01608916 0.0040286509 -0.0083197514 4289735714
-0.014515698 0.0064338399 -0.010384106 4289997344
-0.012720082 0.0072604641 -0.011139932 4290651673
-0.010685991 0.006508911 -0.010588123 4290128414
-0.0083970726 0.0041794395 -0.0087295203 4289932064
-0.0066018403 0.0050064037 -0.0094850687 4289997343
-0.0046820119 0.0050444482 -0.0095870374 4290324508
-0.0030281693 0.0066603906 -0.010995058 4291044119
-0.0011140704 0.0066985227 -0.011096574 4290978329
0.00079987943 0.0067367619 -0.011198001 4290585884
0.0028547719 0.0059863375 -0.010646692 4290520348
0.0053463802 0.0028701974 -0.0081382105 4289800738
0.0075665265 0.0013317503 -0.006935413 4289473573
0.010095924 -0.0017834823 -0.0044287499 4288688939
0.012342952 -0.0033211247 -0.0032272525 4289277733
0.014755391 -0.0056469399 -0.0013743173 4286857529
0.017026559 -0.0071839215 -0.00017396733 4286530363
0.019468583 -0.0095089544 0.0016775429 4286334014
0.021600999 -0.010256956 0.0022253133 4286529853
0.023573093 -0.010216536 0.0021215603 4286791228
0.02537673 -0.0093878871 0.0013666917 4286398529
-0.032367945 -0.0073455423 -0.00068342499 4286789954
-0.030687328 -0.0049328576 -0.0027494952 4287314234
-0.029023144 -0.0025203486 -0.0048145819 4287445559
-0.027472846 0.00068369322 -0.0075320415 4288885544
-0.025744069 0.0023040134 -0.0089418264 4288754218
-0.023923371 0.0031326204 -0.0096978834 4289473828
-0.0220026 0.0031696274 -0.0098006846 4289670178
-0.020190284 0.0039983001 -0.010556127 4289604899
-0.018272441 0.0040354822 -0.010658599 4289866528
-0.016582321 0.0056557059 -0.01206591 4289539363
-0.014903199 0.0072757807 -0.013472511 4291044119
-0.013115846 0.0081044137 -0.014226291 4290913559
-0.010968149 0.0065592499 -0.013023629 4291240724
-0.008809682 0.0050144 -0.011821465 4290389788
-0.0068952926 0.0050522266 -0.011923226 4289932064
-0.0049810447 0.0050901463 -0.012024908 4289800993
-0.0031997934 0.005919232 -0.012777939 4289997344
-0.0012885481 0.0059573138 -0.012879299 4290062879
0.00076086074 0.0052045267 -0.012329441 4290062368
0.0029565841 0.0036610542 -0.01112871 4289212199
0.0054505691 0.00053617544 -0.0086267842 4288950313
0.0078196749 -0.001797307 -0.0067766597 4287904049
0.010503359 -0.0057118884 -0.0036261464 4287707953
0.012910247 -0.0080444543 -0.0017778296 4288427308
0.015023991 -0.0087953079 -0.0012309011 4286726714
0.017143011 -0.0095460042 -0.00068414211 4286464829
0.019427374 -0.011086966 0.00051236898 4286399294
0.021559633 -0.011837175 0.0010585189 4286660413
0.023200572 -0.010215977 -0.00034466386 4288099378
-0.032494389 -0.0081160171 -0.0024911407 4286855489
-0.030724544 -0.006490923 -0.0039001759 4287445049
-0.028870989 -0.0056598927 -0.0046566688 4287576374
-0.027315184 -0.0024470305 -0.0073679723 4288231468
-0.025581017 -0.00082219485 -0.0087748552 4287838768
-0.023857817 0.00080248015 -0.010181038 4288689449
-0.022145621 0.0024270783 -0.011586534 4289343268
-0.02044443 0.0040516444 -0.01299138 4289604643
-0.018643208 0.0048823953 -0.013744533 4289800739
-0.017075039 0.007300416 -0.015799033 4289539109
-0.01529038 0.0081310719 -0.016551131 4289081385
-0.013392095 0.0081682261 -0.016652299 4290062368
-0.011250075 0.0066185417 -0.015452525 4290585628
-0.0090973116 0.0050692409 -0.014253268 4290193438
-0.0071885101 0.0051069316 -0.014354751 4290062879
-0.0054099262 0.005938042 -0.015106102 4289735714
-0.0035041124 0.0059759058 -0.015207255 4289539363
-0.001462914 0.0052206721 -0.014658652 4289539364
0.00086009502 0.002879377 -0.012811111 4289081385
0.0031992868 0.0005385275 -0.010964412 4288492844
0.0056983605 -0.0025949432 -0.0084691904 4287642418
0.0082190484 -0.0057278825 -0.0059750406 4287053879
0.010910481 -0.0096531902 -0.002832992 4287707443
0.013173386 -0.01119929 -0.0016387571 4287118649
0.015292384 -0.011952218 -0.001093721 4286399293
0.017259359 -0.011912201 -0.0011974256 4286398784
0.019386195 -0.012664797 -0.00065267272 4286791229
-0.032620717 -0.0088819256 -0.0042954106 4286724929
-0.030669846 -0.008844953 -0.0044002766 4287248698
-0.028719049 -0.0088078622 -0.0045050504 4287510838
-0.027060378 -0.006382335 -0.0065600537 4288623914
-0.025418159 -0.0039569349 -0.0086141098 4287773488
-0.023792364 -0.0015317344 -0.010667202 4288165934
-0.022288539 0.0016892138 -0.013368997 4288558123
-0.020590104 0.0033180099 -0.014770453 4289277224
-0.019013647 0.0057426356 -0.016820624 4289997089
-0.017226242 0.0065754 -0.017571349 4290585628
-0.015560806 0.0082039023 -0.018970786 4289604644
-0.01354897 0.0074452776 -0.018422702 4289146663
-0.011409935 0.0058912262 -0.017226031 4289342758
-0.0091355368 0.0035418598 -0.01538117 4290324764
-0.0073541775 0.0043750806 -0.016131148 4289932063
-0.0054483674 0.0044128373 -0.016232379 4289735714
-0.003409937 0.0036552651 -0.01568532 4289473828
-0.0010952428 0.0013071592 -0.013842255 4289343013
0.0012356341 -0.001040499 -0.012000032 4288296493
0.0037236214 -0.0041830097 -0.00951075 4289278244
0.0058022887 -0.0049393321 -0.0089654922 4287315508
0.0083253607 -0.00808095 -0.0064779259 4287249973
0.010720938 -0.010426919 -0.004638765 4287903793
0.013132676 -0.012772477 -0.0028003938 4286660668
0.014942452 -0.011937609 -0.0035511516 4286464063
0.016746618 -0.011102782 -0.0043014875 4288164914
-0.032925185 -0.0080463523 -0.0073941564 4286071363
-0.030798938 -0.0096063353 -0.0062010093 4287118138
-0.028756447 -0.010367632 -0.0056569818 4287576629
-0.026903186 -0.0095321387 -0.0064101499 4288754728
-0.025255509 -0.0071001118 -0.0084596723 4287511603
-0.023727007 -0.0038700837 -0.011156419 4287577139
-0.022220384 -0.00064043561 -0.01385189 4287838768
-0.020519279 0.00099283922 -0.015250286 4288296238
-0.019050993 0.0042220382 -0.017943565 4289211688
-0.017263688 0.0050569819 -0.01869267 4290520093
-0.015598282 0.0066898558 -0.020088868 4290781978
-0.013705716 0.0067268955 -0.020189732 4290781978
-0.011569664 0.0051684175 -0.018996136 4290716953
-0.0092982911 0.002812468 -0.017155942 4290651673
-0.0073924772 0.0028500929 -0.017257271 4289408803
-0.0053568259 0.0020901952 -0.016711745 4289211943
-0.0033158623 0.0013305112 -0.016166419 4289016104
-0.00086331367 -0.0018216562 -0.013681883 4288035374
0.0014727041 -0.0041757738 -0.011844715 4287250229
0.0038249195 -0.0065294094 -0.010008362 4288754728
0.0060497224 -0.0080853105 -0.0088187996 4287381044
0.0084315464 -0.010438164 -0.0069838753 4288558634
0.010531515 -0.011196092 -0.006441175 4287184184
0.01248499 -0.011156557 -0.0065443218 4287118393
-0.031019725 -0.0095625138 -0.0086454982 4287510838
-0.028982885 -0.010326104 -0.0081027858 4287838258
-0.02684344 -0.011889935 -0.0069133807 4288296748
-0.025193024 -0.0094513791 -0.0089581804 4287708208
-0.023559045 -0.0070129498 -0.011002035 4287511603
-0.022152338 -0.0029741125 -0.014337831 4287773489
-0.020340398 -0.0021367616 -0.015086824 4287904304
-0.018755738 0.00030106958 -0.017127778 4288492589
-0.017187528 0.0027386765 -0.019167785 4289408038
-0.015635744 0.0051760245 -0.021206792 4289669923
-0.013862364 0.0060131624 -0.021953404 4290062368
-0.011851024 0.0052502044 -0.02140842 4290128159
-0.0094609186 0.0020876792 -0.018927317 4289735969
-0.0073035732 0.00052548805 -0.017737912 4289212198
-0.0050055273 -0.0018362608 -0.015903819 4288819498
-0.0028239377 -0.0033977414 -0.014715531 4289212964
-0.00049623102 -0.0057586809 -0.012882849 4288689448
0.0015714914 -0.0065198005 -0.012340399 4287315763
0.0037853047 -0.0080803428 -0.011153602 4288492589
0.0058663413 -0.0088410443 -0.01061167 4288296494
0.0082451552 -0.011200491 -0.0087814229 4288165679
0.010193236 -0.011161185 -0.0088843731 4287445303
0.011989444 -0.010322391 -0.0096312324 4288034354
-0.029114634 -0.011078311 -0.0098965457 4287510838
-0.026978165 -0.012646567 -0.0087102158 4288623403
-0.02523056 -0.011004108 -0.010104891 4287577139
-0.02359657 -0.008559173 -0.012143931 4287642674
-0.021979023 -0.0061144275 -0.014181997 4287576883
-0.020485997 -0.0028674621 -0.016863804 4287707953
-0.018793233 -0.0012255795 -0.018255189 4287904304
-0.017225005 0.0012185564 -0.020290362 4289081129
-0.015556943 0.0028601745 -0.021680269 4289604389
-0.013780918 0.0036994554 -0.022425398 4289735204
-0.01188875 0.0037366077 -0.022526152 4289539109
-0.009499006 0.00056536822 -0.020051476 4288754474
-0.0070876069 -0.0026053165 -0.017577929 4288885798
-0.0047844239 -0.0049735005 -0.015748948 4287773489
-0.00259763 -0.0065392605 -0.01456418 4287904048
-0.00053540617 -0.0073028142 -0.014023086 4288754728
0.0016701519 -0.0088679856 -0.012839155 4287839024
0.0037457123 -0.0096310358 -0.012298666 4288885544
0.005970031 -0.011195667 -0.011115532 4288492843
0.008205086 -0.012759914 -0.0099329157 4287511604
-0.027307075 -0.011788923 -0.011791045 4287314489
-0.02546782 -0.010947045 -0.012538537 4287380278
-0.023634091 -0.01010517 -0.013285659 4287249974
-0.021911219 -0.0084585547 -0.014675656 4287380789
-0.020307358 -0.0060074767 -0.016708033 4287577139
-0.018609192 -0.004361114 -0.018096542 4287838768
-0.017148972 -0.0011058967 -0.020769944 4288558378
-0.015594438 0.0013446184 -0.022799468 4288950569
-0.013818491 0.0021860786 -0.02354298 4289015593
-0.011804827 0.0014188741 -0.023001371 4288950314
-0.0091639683 -0.003369621 -0.019248838 4288623403
-0.0069989339 -0.0049404316 -0.018066259 4288492843
-0.004823152 -0.0065108575 -0.016884198 4288492843
-0.0027691349 -0.0072768591 -0.016344434 4287380788
-0.00057455897 -0.0088467561 -0.015163181 4287707953
0.0016307607 -0.010416292 -0.013982465 4288623403
0.0037061274 -0.011181526 -0.01344358 4288558379
-0.025904477 -0.0092671765 -0.016249437 4286791484
-0.023774125 -0.010844059 -0.015069002 4287314999
-0.0218435 -0.010806875 -0.01517234 4287314999
-0.020020958 -0.0099627459 -0.015917109 4287838768
-0.018425353 -0.0075051798 -0.017944124 4288035119
-0.016959623 -0.004241108 -0.020611418 4288558634
-0.015515774 -0.00097734435 -0.023277458 4288296493
-0.013618328 -0.00094022881 -0.023378598 4288688428
-0.011477794 -0.0025161153 -0.022198115 4289343014
-0.0090778731 -0.0057045314 -0.019736916 4288492589
-0.0067833327 -0.0080860602 -0.017917225 4288688939
-0.0047320984 -0.0088544115 -0.01737901 4289146919
-0.0026755519 -0.0096225236 -0.016840979 4289343013
-0.00061370432 -0.010390481 -0.016303118 4289015848
0.0013155341 -0.01035198 -0.016405389 4289277989
-0.024221502 -0.0091510983 -0.018769484 4286463808
-0.022091508 -0.010732181 -0.017592208 4287118139
-0.019842777 -0.013121948 -0.015775509 4287707189
-0.018131066 -0.011466608 -0.017158292 4288427563
-0.016657095 -0.0081937388 -0.01981956 4288165933
-0.015205003 -0.0049211066 -0.022479594 4287904304
-0.01318071 -0.0056925891 -0.02194187 4287576883
-0.011151083 -0.0064638681 -0.021404359 4287118903
-0.0088676065 -0.0088522676 -0.019589005 4287119158
-0.0069488622 -0.0088144224 -0.019691048 4287576884
-0.0047708452 -0.010393541 -0.018515574 4288624169
-0.0028469115 -0.010355351 -0.018617712 4289147683
-0.00065281242 -0.01193399 -0.017442897 4287512369
-0.022444423 -0.0098374141 -0.020643858 4286202178
-0.020096298 -0.013044968 -0.018193312 4287968818
-0.018279478 -0.012196545 -0.018934442 4288296493
-0.016694836 -0.0097260466 -0.020951141 4287773489
-0.015010588 -0.0080666728 -0.022329077 4287773234
-0.013099801 -0.0080293417 -0.02243096 4287772979
-0.011067651 -0.0088027436 -0.021895193 4288100144
-0.0089059509 -0.010386802 -0.020722192 4288296494
-0.0067335032 -0.01197049 -0.019549722 4288231214
-0.004679922 -0.012743171 -0.019014873 4288689194
-0.0026210174 -0.013515661 -0.018480167 4287905833
-0.020673063 -0.010519138 -0.02251452 4287379258
-0.018759392 -0.010482077 -0.0226168 4287248954
-0.01695909 -0.009631699 -0.023355361 4287380023
-0.015164331 -0.0087813232 -0.02409355 4287772724
-0.013137698 -0.0095571242 -0.023559183 4287510838
-0.010984298 -0.011145836 -0.022389065 4287118394
-0.0086959824 -0.013547147 -0.020583669 4286922043
-0.0068989433 -0.012696288 -0.021321652 4286857784
-0.019459851 -0.0071191173 -0.027555965 4287117628
-0.017449543 -0.0078976667 -0.027022526 4287379769
-0.015433878 -0.0086760372 -0.026489241 4287510583
-0.013412882 -0.0094541553 -0.025956206 4286987324
-0.011265177 -0.011047283 -0.024789046 4287576119
-0.0092307925 -0.01182491 -0.024256555 4291174168
-0.015819076 -0.00774433 -0.029511437 4287248444
-0.013806436 -0.0085247904 -0.02897957 4288752688
-0.015972275 -0.0084387865 -0.031260997 4288030783
0.017171584 -0.0035440344 0.046118923 4282994023
0.032826155 -0.0051547191 0.038881838 4280567953
0.035222203 -0.0066189445 0.040127575 4281815924
0.043281265 -0.0073345071 0.014132515 4281879673
0.038465485 -0.0075035654 0.0093499478 4283255654
0.016105399 -0.0068174517 -0.019775625 4282863718
9.5807016e-05 -0.0084800674 -0.02490492 4282666094
-0.00035604835 -0.0075608427 -0.027931836 4281548684
-0.0064794458 -0.0067410897 -0.030647879 4283124584
-0.00094518065 -0.005811309 -0.031580836 4279703504
-0.020159796 -0.0090632169 -0.035177246 4281355138
-0.010993812 -0.0072318409 -0.03693492 4282666859
-0.0036212169 -0.0062598493 -0.037961237 4282863718
-0.0039284378 -0.0061067725 -0.040319003 4282405483
-0.0017853081 -0.0077212211 -0.039167315 4281225343
-0.013429593 -0.0069566546 -0.041549996 4282535535
-0.0041007511 -0.0067728683 -0.042046279 4282732393
