# .PCD v0.7 - Point Cloud Data file format
VERSION 0.7
FIELDS x y z rgba
SIZE 4 4 4 4
TYPE F F F U
COUNT 1 1 1 1
WIDTH 958
HEIGHT 1
VIEWPOINT 0 0 0 1 0 0 0
POINTS 958
DATA ascii
0.029992826 0.00036221649 0.014479134 4290586139
0.032278806 -0.0011662086 0.015689906 4289342758
0.034395114 -0.0019108062 0.016246147 4289343014
0.036699712 -0.0034387033 0.017456088 4288818734
0.039014958 -0.0049663084 0.018665547 4288164148
0.0057750493 0.0038606031 0.0099334437 4288359479
0.0081235915 0.0015385989 0.011798687 4289015593
0.010193028 0.00078984629 0.012354849 4289342758
0.011967041 0.0016139634 0.011602791 4291044119
0.013735421 0.0024380786 0.0108511 4290717208
0.015809774 0.0016897228 0.011407234 4291043864
0.018206447 -0.00063085835 0.013270378 4290324764
0.020296767 -0.0013787341 0.013825821 4290128158
0.021900453 0.00023185741 0.012421088 4289800993
0.023493096 0.0018422697 0.011017021 4290258973
0.02524405 0.0026665861 0.010266619 4290717464
0.027505726 0.0011331523 0.011475272 4290390299
0.02960325 0.00038586836 0.012030683 4289997599
0.031883582 -0.0011470621 0.013238562 4289932319
0.033814028 -0.0011081989 0.013140917 4289866019
0.035744265 -0.0010692305 0.013043363 4289342503
0.037674293 -0.0010301941 0.012945872 4289341483
0.040169418 -0.0033478704 0.01480472 4289079853
0.0060211867 0.00075062457 0.010107605 4289211943
0.0080851689 -5.1036477e-07 0.01066236 4289735969
0.0097117051 0.0016142512 0.009259291 4289670179
0.01147747 0.0024404423 0.0085092317 4289408549
0.013237618 0.0032665711 0.0077595692 4289408549
0.015459403 0.0017274022 0.0089666666 4290324764
0.01769188 0.00018857233 0.010173242 4289866784
0.019935042 -0.0013499376 0.011379351 4290128159
0.021861099 -0.0013116295 0.011281583 4290128414
0.023620375 -0.00048507284 0.010532295 4289932064
0.025374003 0.00034147035 0.0097833658 4289932064
0.027466111 -0.00040817168 0.010337385 4289801503
0.029563479 -0.0011576493 0.010891181 4290128668
0.031488582 -0.0011189501 0.010793764 4289997854
0.033233277 -0.00029226299 0.010045528 4290127904
0.03497234 0.00053438637 0.0092976317 4290913049
0.037077054 -0.00021460559 0.0098513067 4290454048
0.039375402 -0.0017512478 0.01105526 4290061094
0.042066596 -0.0048630014 0.013559395 4291106848
0.0015979484 0.0023031766 0.006563168 4288556084
0.0037850738 0.00075843465 0.0077683358 4289015338
0.0059829503 -0.00078606186 0.0089730565 4289539618
0.0080467463 -0.0015393812 0.009526208 4289997598
0.0096732751 7.9729594e-05 0.0081263576 4290716954
0.011288732 0.0016988041 0.0067271302 4289212453
0.012893148 0.0033176988 0.0053285682 4289212453
0.015109234 0.0017741043 0.00653269 4289539619
0.017494448 -0.00055976864 0.0083867479 4290324763
0.019895807 -0.002893195 0.010240007 4290324764
0.021657921 -0.00206448 0.00949213 4290390044
0.023747526 -0.0028165379 0.010044525 4290390299
0.025503837 -0.0019877558 0.0092970785 4289866528
0.027598515 -0.0027395575 0.0098493323 4289997343
0.029348977 -0.0019107214 0.0091023073 4290193948
0.031093843 -0.0010819337 0.0083556129 4290389788
0.03283304 -0.0002531847 0.0076092612 4290389533
0.034383751 0.001365616 0.0062140725 4290585884
0.036480166 0.00061421748 0.0067665828 4290520349
0.038581841 -0.00013696123 0.0073188404 4290519838
0.041070804 -0.0024677529 0.0091683101 4290388514
0.043575868 -0.0047981581 0.011017088 4289537579
-0.0027813949 0.0038746893 0.0030298866 4288360499
-0.0006159693 0.0023248857 0.0042328052 4289931808
0.0015601963 0.00077546015 0.005435226 4290062623
0.0037470907 -0.00077367108 0.0066371607 4289408293
0.0059447289 -0.0023225201 0.0078386767 4289866529
0.0077188686 -0.0014920742 0.0070912922 4289604898
0.0094873831 -0.00066157244 0.0063442443 4290848023
0.011100128 0.00096172094 0.0049483916 4291175189
0.012854718 0.0017921031 0.0042022401 4290978838
0.015070572 0.00024414528 0.0054031471 4291240723
0.017297156 -0.001303568 0.0066036079 4291240723
0.01937338 -0.0020582536 0.0071549355 4290390044
0.021127261 -0.0012275246 0.0064090872 4290128669
0.02304206 -0.0011893879 0.0063119293 4290455578
0.025125876 -0.0019436534 0.0068630697 4289932064
0.027214967 -0.0026977337 0.0074140038 4289866528
0.029309288 -0.0034516258 0.0079647331 4290062879
0.030876726 -0.0018283408 0.006571841 4290324509
0.032433055 -0.00020515174 0.0051795291 4290651163
0.033612691 0.0030023158 0.0024928364 4289604644
0.035698093 0.0022485564 0.0030442481 4289146919
0.037788749 0.001494959 0.0035954365 4289539108
0.040266596 -0.00084263878 0.0054406733 4289342248
0.042760536 -0.0031798035 0.0072851041 4289735969
0.045270592 -0.0055165915 0.0091288313 4289603623
-0.0045880154 0.0015239026 0.0026544412 4288884269
-0.0028186552 0.0023559062 0.0019085227 4289604644
-0.0009210892 0.0023925574 0.0018113939 4291044628
0.0011128634 0.0016339645 0.0023625977 4290847768
0.0031521246 0.0008755466 0.002913658 4290782488
0.0053386316 -0.00067783287 0.004112476 4289735713
0.0073911995 -0.0014357562 0.0046629566 4289997343
0.0093016177 -0.0013983422 0.0045655505 4289670178
0.010911621 0.00022926368 0.0031730672 4290324764
0.012969144 -0.0005282741 0.0037235091 4290782488
0.014876358 -0.00049064029 0.003626476 4290324764
0.017258294 -0.0028376658 0.0054710177 4290324509
0.019334339 -0.0035945233 0.0060207504 4290128159
0.020760693 -0.0011720122 0.0039827027 4289997343
0.02250348 -0.00033924822 0.0032390878 4289932064
0.02407147 0.0012881681 0.0018492155 4289932064
0.026315965 -0.00026307907 0.0030458146 4289539363
0.028571159 -0.0018139975 0.004241955 4290063134
0.030482382 -0.0017756103 0.0041452157 4290062368
0.032213368 -0.00094267866 0.0034024972 4290913049
0.033573188 0.0014790371 0.0013682931 4290716698
0.035472952 0.001517416 0.0012722984 4290062623
0.037372544 0.0015558768 0.0011763754 4289932319
0.039653771 5.912967e-06 0.0023715189 4290587159
0.042332955 -0.0031321784 0.0048569529 4289801758
0.044640973 -0.0046814848 0.0060508279 4289736479
0.04735779 -0.0078186952 0.0085344492 4288621874
-0.01104771 0.0046809912 -0.0020607836 4288162364
-0.0085490569 0.00072809309 0.0010792594 4289014574
-0.0062744506 -0.0016287849 0.0029235394 4289211689
-0.00462519 3.1674281e-06 0.0015316277 4289800738
-0.0031179674 0.002432568 -0.00050654204 4289408293
-0.001225967 0.002469087 -0.00060340448 4290062623
0.00066588819 0.0025057122 -0.00070017891 4289866529
0.002835989 0.00094756763 0.00049618701 4291044374
0.0048749 0.00018709525 0.0010456755 4290193949
0.0067744777 0.00022417679 0.00094873365 4289932319
0.0088212714 -0.000535978 0.0014980149 4289931808
0.010723256 -0.0004986506 0.001401097 4289408549
0.012930676 -0.0020556087 0.0025958973 4288754219
0.014837772 -0.0020179767 0.00249887 4289669924
0.017061166 -0.0035744058 0.0036930153 4289866274
0.018812411 -0.0027395054 0.0029504267 4290062623
0.02039437 -0.0011076424 0.0015629304 4289866529
0.021965258 0.00052412413 0.00017601394 4291044118
0.023694202 0.0013588779 -0.00056522433 4291174934
0.025761232 0.00059997104 -1.6417354e-05 4290782233
0.028182603 -0.0017522881 0.0018216691 4290128158
0.03026557 -0.0025107032 0.0023697959 4289932064
0.032173783 -0.0024723085 0.0022732588 4290324509
0.033716395 -0.00084066065 0.00088818034 4290782744
0.035247937 0.00079087913 -0.00049632788 4291240723
0.037332885 3.2726675e-05 5.1937415e-05 4290914069
0.039423056 -0.00072519155 0.00059996021 4290717208
0.041905619 -0.0030756709 0.0024352828 4289408293
0.044208013 -0.0046294723 0.0036262749 4288426288
0.0469191 -0.0077755391 0.0061037182 4287248954
-0.010843977 0.0015736213 -0.0018819926 4289080618
-0.0085858926 -0.00079020392 -4.177232e-05 4289473829
-0.0065626577 -0.0015537874 0.00050644093 4289211943
-0.0046623535 -0.0015173275 0.00040899083 4290128414
-0.0030241273 0.00011883024 -0.00097901176 4290716699
-0.001263231 0.00095513184 -0.0017211953 4289146663
0.00035566092 0.0025911573 -0.0031081042 4289473828
0.0023809299 0.0018281369 -0.0025596083 4289801248
0.0044115186 0.0010652794 -0.0020112642 4290259484
0.0065919682 -0.0004968429 -0.0008185195 4290063134
0.0087831616 -0.0020587179 0.00037377904 4289670178
0.010835059 -0.0028208219 0.00092121062 4289408549
0.01273948 -0.0027833446 0.00082424388 4289146664
0.014799207 -0.0035451083 0.0013714135 4289015593
0.01670602 -0.0035074102 0.0012744539 4289408038
0.018451765 -0.0026704366 0.00053375954 4289866529
0.020028263 -0.001034284 -0.000850279 4289997089
0.02192641 -0.00099649513 -0.00094660523 4291239958
0.023655325 -0.00015959889 -0.0016862542 4291109143
0.025722176 -0.00092068873 -0.0011390516 4290978328
0.027619794 -0.00088266982 -0.0012351725 4290781978
0.029694468 -0.0016434919 -0.00068821013 4290258973
0.031594433 -0.0016052769 -0.00078433938 4289605154
0.033494219 -0.001566981 -0.00088039669 4289866784
0.035208434 -0.00072987238 -0.001619001 4290063134
0.03729324 -0.0014902195 -0.0010723502 4289932063
0.03938327 -0.0022503086 -0.00052592461 4289735459
0.04186558 -0.0046073333 0.0013045711 4288753963
0.044167794 -0.0061655343 0.0024923193 4286660159
-0.01523285 0.0040017748 -0.0060264841 4287247423
-0.013356708 0.0040373234 -0.0061230259 4288883758
-0.011120573 0.0016664434 -0.0042865872 4289277223
-0.0088682324 -0.00070402166 -0.0024509048 4289539108
-0.0068506189 -0.0014698957 -0.0019040176 4289604644
-0.0049558952 -0.0014335448 -0.0020011831 4289408293
-0.0031922162 -0.00059513422 -0.0027419883 4291109143
-0.0015677735 0.0010452531 -0.0041260337 4290913049
0.00031838566 0.0010817545 -0.0042225262 4290913049
0.0023434833 0.00031655002 -0.0036756345 4291044374
0.0045156926 -0.0012502545 -0.0024857409 4289997598
0.0062650591 -0.00041157845 -0.0032254113 4289408803
0.0081560761 -0.00037460774 -0.0033218763 4289800993
0.010196902 -0.001139096 -0.0027754847 4289474084
0.012548409 -0.0035065371 -0.0009440562 4289211943
0.014449827 -0.0034690513 -0.0010408206 4289277479
0.016351104 -0.0034314846 -0.0011375147 4289408294
0.017769642 -0.00098964106 -0.0031607454 4290062623
0.019498847 -0.00015072711 -0.003898921 4289997089
0.021388739 -0.00011313055 -0.0039948476 4289343014
0.023447447 -0.00087666046 -0.0034489189 4289931809
0.0253397 -0.00083883107 -0.0035448284 4290193439
0.02723179 -0.00080093276 -0.0036406755 4290127903
0.029123701 -0.00076297671 -0.0037364694 4290128158
0.031015433 -0.00072494056 -0.0038321917 4290062623
0.033089563 -0.0014877734 -0.0032867552 4289800993
0.034983635 -0.0014495286 -0.003382477 4289212198
0.037253611 -0.0030129366 -0.0021964707 4289473829
0.039534271 -0.0045760404 -0.0010110128 4287576628
0.042019062 -0.0069396114 0.00081455125 4286660413
0.044323787 -0.0085020941 0.0019988925 4286333248
-0.018912088 0.0016259952 -0.0062977336 4287706168
-0.017033141 0.0016613649 -0.0063945912 4288885289
-0.015039761 0.00089241099 -0.0058483966 4290390299
-0.013158306 0.00092806574 -0.0059452094 4290716954
-0.011156987 0.00015948806 -0.0053992551 4290716443
-0.009273041 0.00019542594 -0.0054960214 4289473573
-0.0072637945 -0.00057279831 -0.0049503255 4289473829
-0.0052492283 -0.0013407976 -0.0044048117 4289473829
-0.0033601969 -0.0013044733 -0.004501624 4290127903
-0.0017384924 0.00034015626 -0.0058822767 4290258719
0.00014480948 0.00037658494 -0.0059786369 4290651163
0.0021670237 -0.00039085001 -0.0054332064 4290324764
0.004194513 -0.0011580982 -0.0048879837 4289670433
0.0060828328 -0.0011212598 -0.0049843681 4289605154
0.0078238323 -0.00028051063 -0.0057219584 4289735714
0.0097091347 -0.00024354365 -0.0058180513 4289473573
0.011899561 -0.0018139505 -0.0046320152 4289211943
0.013945341 -0.0025803661 -0.0040873741 4289081128
0.015522175 -0.00093570119 -0.0054651368 4289539364
0.01724878 -9.4759278e-05 -0.0062016407 4290258973
0.018969774 0.00074612163 -0.0069378237 4291174934
0.021017641 -1.9897707e-05 -0.0063930256 4290651163
0.022901811 1.7671846e-05 -0.006488598 4289800993
0.024957478 -0.00074802106 -0.0059440699 4290062368
0.026669644 9.3018636e-05 -0.0066795568 4290716698
0.028730392 -0.00067241909 -0.0061351717 4289997089
0.030796431 -0.0014377157 -0.0055909543 4289931808
0.032867722 -0.002202814 -0.0050470089 4289473829
0.034944251 -0.0029677376 -0.0045032767 4288558124
0.037401997 -0.0053385468 -0.0026812973 4288623658
0.039875872 -0.0077088969 -0.0008601083 4286922553
0.042365856 -0.010078931 0.0009603342 4286202433
-0.020933051 0.00089521334 -0.007951905 4288229683
-0.018947825 0.00012365077 -0.0074070329 4289016104
-0.017180789 0.00096574891 -0.008145404 4289147429
-0.015419286 0.0018077996 -0.0088833738 4290586138
-0.01342893 0.0010367092 -0.0083385613 4290455324
-0.011433236 0.00026578363 -0.0077939043 4290455324
-0.0095548704 0.00030159857 -0.007890394 4290586139
-0.0076766238 0.00033752061 -0.007986798 4289473829
-0.0056704022 -0.00043285172 -0.0074424939 4289473829
-0.0036588609 -0.0012029884 -0.0068983641 4289473829
-0.0017755479 -0.0011666552 -0.0069947955 4289866274
0.00024387985 -0.001936439 -0.0064509208 4289735459
0.0022686198 -0.0027060346 -0.0059072548 4289932063
0.0041569695 -0.0026693032 -0.0060037212 4289866784
0.0057563409 -0.001020377 -0.0073797312 4290062623
0.0073446855 0.0006284425 -0.0087551 4289735714
0.0092217103 0.00066522881 -0.008850784 4290585884
0.011251166 -0.00010376982 -0.0083069848 4290847513
0.013441205 -0.0016784375 -0.0071241506 4290520348
0.015009888 -2.9635616e-05 -0.008498244 4289866529
0.016728267 0.00081327278 -0.0092327558 4289997344
0.018604517 0.00085051265 -0.0093280524 4290455324
0.02048061 0.00088779908 -0.0094233062 4291044119
0.022525415 0.00011961721 -0.0088799074 4290978840
0.024403885 0.00015711226 -0.0089751631 4291109654
0.026456505 -0.00061075389 -0.0084320419 4289997344
0.028691471 -0.0021838513 -0.007250987 4289931554
0.031116873 -0.0045620622 -0.0054323673 4289408294
0.033558436 -0.0069398968 -0.0036145267 4287380533
0.035645694 -0.0077067791 -0.0030729459 4286595899
0.037926137 -0.0092786914 -0.0018939924 4286791483
0.040407918 -0.011655506 -7.8029174e-05 4287052859
0.042519085 -0.012421733 0.00046246988 4286005828
-0.02274118 -0.0014488902 -0.0083222324 4287771704
-0.020862319 -0.0014137486 -0.0084192539 4289343014
-0.018983554 -0.0013784892 -0.0085161822 4289212453
-0.017440017 0.0010834793 -0.010532704 4289735714
-0.015684035 0.0019276151 -0.01126877 4289146919
-0.013699323 0.0011542458 -0.010725275 4289212198
-0.011829145 0.0011897767 -0.01082144 4289670178
-0.0099590756 0.0012253998 -0.010917529 4289408549
-0.0078384914 -0.00035604183 -0.0097351605 4289866784
-0.0058351681 -0.0011286922 -0.0091922777 4289474084
-0.0038265362 -0.0019010594 -0.0086496081 4289670179
-0.001946073 -0.0018648002 -0.0087459069 4289866529
7.0467591e-05 -0.0026368499 -0.0082035195 4289997344
0.0020923093 -0.0034086644 -0.0076613063 4290062623
0.0039778054 -0.0033720061 -0.0077576404 4289931808
0.0057188123 -0.0025270404 -0.0084921103 4289931808
0.007307142 -0.00087388512 -0.0098642688 4290520348
0.0090342313 -2.8933398e-05 -0.010597913 4291305494
0.010908283 7.8855082e-06 -0.010693378 4291043864
0.012937427 -0.00076328684 -0.010151093 4291044374
0.014813878 -0.00072623417 -0.010246543 4289801249
0.016690187 -0.00068913633 -0.01034195 4289997599
0.018402912 0.00015597325 -0.011074536 4289997599
0.020276181 0.00019321032 -0.01116964 4289997343
0.022486962 -0.0013850257 -0.0099907313 4289800738
0.024365336 -0.0013475446 -0.010085989 4289931553
0.026592091 -0.0029252409 -0.0089077996 4289081128
0.028829567 -0.0045027267 -0.0077300826 4288884523
0.031257436 -0.0068874126 -0.0059164893 4287314744
0.033701442 -0.0092717102 -0.0041035903 4286726203
0.035976425 -0.010848174 -0.002927647 4286399293
0.038262121 -0.012424405 -0.001752158 4286660669
0.040558495 -0.014000318 -0.000577208 4288426544
0.042478956 -0.013961424 -0.00067417684 4286529089
-0.022569634 -0.0045731599 -0.008153839 4287183418
-0.020897888 -0.0029156706 -0.0095282523 4289081128
-0.019346066 -0.00044712424 -0.01154045 4289997089
-0.017699014 0.0012101401 -0.012913413 4290716698
-0.016062956 0.0028673699 -0.014285757 4290258718
-0.014203686 0.0029025665 -0.014381455 4289997344
-0.012224708 0.0021270132 -0.0138392 4290389789
-0.010117855 0.00054078083 -0.012659403 4290716699
-0.0080002323 -0.0010450855 -0.011480113 4289735713
-0.0059998222 -0.001819931 -0.010938738 4289670178
-0.0038633794 -0.0034052795 -0.0097602243 4289539363
-0.0019830354 -0.0033690338 -0.0098565258 4289735713
3.3311546e-05 -0.0041432558 -0.0093157338 4289801249
0.0019161105 -0.0041067759 -0.0094120223 4289670179
0.0037987828 -0.0040701791 -0.0095082158 4289866529
0.0053926706 -0.002412674 -0.01087752 4290258719
0.0069755539 -0.00075525325 -0.01224624 4289735459
0.008697167 9.1699883e-05 -0.012977969 4290062623
0.010565653 0.00012837444 -0.013073176 4289670179
0.012589179 -0.00064501539 -0.01253224 4291044374
0.014618002 -0.0014182781 -0.011991553 4289866529
0.016330846 -0.00057112938 -0.012722565 4290063134
0.018201441 -0.00053405855 -0.012817618 4290128158
0.020071894 -0.00049689412 -0.012912592 4289669668
0.02244854 -0.0028895009 -0.011101431 4289669924
0.024498314 -0.0036619091 -0.010561486 4289473829
0.026727587 -0.0052439342 -0.0093866652 4289211944
0.029144503 -0.0076355189 -0.0075773848 4287053113
0.031577572 -0.010026679 -0.0057688467 4286399294
0.034026764 -0.012417404 -0.0039611184 4286268479
0.036306977 -0.013998186 -0.0027886387 4286268224
0.03841009 -0.014769083 -0.0022510658 4286660669
0.040327944 -0.014730329 -0.0023479681 4287052859
-0.022605155 -0.0060792258 -0.0092659062 4286725693
-0.02082729 -0.0052306973 -0.010000155 4288099633
-0.019272726 -0.0027555861 -0.012007674 4288819244
-0.017734587 -0.00028072298 -0.014014229 4289735459
-0.016098563 0.0013808301 -0.015383371 4290520348
-0.014356479 0.0022291457 -0.016115433 4291109143
-0.012380406 0.0014513265 -0.015574667 4290978328
-0.010276515 -0.00013930723 -0.01439793 4290128414
-0.0081618465 -0.0017296099 -0.01322173 4289866529
-0.0062922761 -0.0016937908 -0.013317641 4289539363
-0.004553467 -0.00084502948 -0.014049159 4289539619
-0.0025534891 -0.0016218596 -0.013509224 4289539619
-0.00054819882 -0.0023984774 -0.012969482 4289604898
0.0016012341 -0.0039876499 -0.011794647 4289539363
0.0031952485 -0.0023258422 -0.01316085 4289800993
0.0050667748 -0.0022893902 -0.013256421 4290389534
0.0064972416 0.00018473063 -0.015256475 4290127903
0.0083603188 0.00022120308 -0.015351479 4289016104
0.010070838 0.0010702405 -0.016081013 4289147174
0.012086056 0.0002944069 -0.015541266 4289932063
0.014106557 -0.00048118178 -0.015001755 4289801248
0.016132347 -0.0012565809 -0.014462452 4290258973
0.018000126 -0.0012195832 -0.014557375 4289800993
0.020199768 -0.0028068302 -0.013384478 4289473573
0.022747606 -0.0060180277 -0.010944538 4288688938
0.025145553 -0.008416662 -0.0091392314 4288034608
0.027559683 -0.010814908 -0.0073346971 4287446323
0.02963616 -0.01158883 -0.0067976201 4286268479
0.033987239 -0.01394798 -0.0050910595 4286268224
0.035712145 -0.013097771 -0.0058205957 4286464318
0.037806988 -0.01387105 -0.0052842456 4286660669
-0.022433888 -0.0092161633 -0.0091068679 4286921788
-0.020756777 -0.0075498712 -0.010475119 4287641654
-0.019308303 -0.004252763 -0.013113162 4288688684
-0.017770149 -0.0017713825 -0.015114895 4289604644
-0.016248424 0.00070985593 -0.017115731 4289669923
-0.014509145 0.0015602671 -0.017846059 4289539109
-0.012535982 0.00078021642 -0.017306753 4289735459
-0.010557484 3.7811697e-07 -0.016767638 4289670178
-0.0085736476 -0.00077926042 -0.016228722 4289604899
-0.0067123733 -0.00074362103 -0.016324226 4289343269
-0.0051124059 0.00092217233 -0.017687794 4289866784
-0.0031234883 0.0001429338 -0.017148919 4289932063
-0.0011292472 -0.00063609285 -0.016610231 4289212198
0.0011478364 -0.0030447068 -0.014804397 4289539364
0.0027336925 -0.0013787993 -0.016166957 4289735714
0.0045969337 -0.0013425271 -0.01626212 4290586138
0.0061661974 0.00032330863 -0.017623723 4290913559
0.008023724 0.00035964884 -0.01771846 4291109909
0.010033473 -0.00041850936 -0.017180149 4290913558
0.011893444 -0.00038195867 -0.01727489 4290913558
0.013753265 -0.00034529064 -0.017369535 4289866783
0.01577346 -0.0011230633 -0.016831547 4289408293
0.01796218 -0.0027149688 -0.015661381 4289408293
0.020493537 -0.0059352932 -0.013227116 4288754475
0.023046479 -0.0091551114 -0.010793888 4286988088
0.025621004 -0.012374423 -0.0083616991 4286922553
0.027868904 -0.01396486 -0.0071943211 4287904048
0.030127496 -0.01555499 -0.0060274177 4287184184
0.032217257 -0.016330836 -0.0054925601 4286399039
0.033947751 -0.015478387 -0.0062208776 4286595133
0.03511773 -0.01218418 -0.0088427579 4286529598
-0.022262808 -0.012361669 -0.0089540826 4287118394
-0.020262133 -0.013143938 -0.0084182182 4288622384
-0.01890875 -0.0090202708 -0.011684128 4287968818
-0.017582692 -0.0048969816 -0.014948526 4287969329
-0.016169723 -0.0015916242 -0.01757814 4289015593
-0.014661688 0.00089597795 -0.019573372 4289538853
-0.012811098 0.00093108509 -0.019668568 4289670178
-0.010715827 -0.00066846749 -0.018497866 4289343524
-0.0088600107 -0.00063304277 -0.01859317 4289408549
-0.0068764761 -0.0014147707 -0.018055782 4289735459
-0.0054097958 0.0010725465 -0.020048518 4291043864
-0.0035597645 0.0011081696 -0.020143295 4291174679
-0.0018458366 0.0019609807 -0.020870186 4290978328
0.00069476664 -0.0020885435 -0.017804388 4290258719
0.0025553182 -0.0020524259 -0.017899487 4289801249
0.004559882 -0.0028332248 -0.017362716 4289604899
0.0059822649 -0.0003461726 -0.019352747 4289932063
0.007986553 -0.0011267378 -0.018815858 4290520858
0.0098438412 -0.0010903291 -0.018910531 4290324764
0.011856005 -0.0018705665 -0.018373914 4289997343
0.013715714 -0.0018339362 -0.018468579 4289212198
0.015896231 -0.0034305244 -0.017301267 4288557613
0.018250629 -0.0058433078 -0.015503653 4287314743
0.02062121 -0.0082557639 -0.013706782 4286660668
0.023007937 -0.010667806 -0.011910663 4286333758
0.02558215 -0.01389587 -0.00948493 4286529598
0.028003871 -0.016307008 -0.0076905061 4286595134
0.030265011 -0.017901538 -0.0065269498 4287576118
0.031998344 -0.017046941 -0.0072538666 4287118393
-0.022091918 -0.015515625 -0.0088076126 4288426544
-0.020297993 -0.014660314 -0.0095378924 4288034099
-0.018835772 -0.011345571 -0.012163787 4287314743
-0.017506868 -0.0072113662 -0.015420296 4287380533
-0.015976936 -0.004716998 -0.01741188 4288230958
-0.014580321 -0.0014031664 -0.020034153 4289408293
-0.012846746 -0.00054838695 -0.02076095 4289212198
-0.01099639 -0.00051317737 -0.020856053 4289147174
-0.009021081 -0.0012974064 -0.020319905 4289212453
-0.007295996 -0.00044247508 -0.021046033 4289408293
-0.0057069473 0.0012317542 -0.022402644 4290455068
-0.0038624741 0.0012672581 -0.022497147 4290193694
-0.0020181276 0.0013028551 -0.02259157 4291043864
0.00051937997 -0.0027576238 -0.019533675 4290651163
0.0023770779 -0.0027215914 -0.019628651 4289997343
0.0042346641 -0.002685477 -0.019723561 4289604899
0.0057984889 -0.0010111467 -0.021078445 4289539363
0.0077998713 -0.0017939545 -0.020543028 4290324509
0.0099588335 -0.0033955295 -0.019378066 4289408294
0.011973575 -0.0041779606 -0.01884317 4289146663
0.01415129 -0.0057790065 -0.017679047 4288558125
0.016339727 -0.0073797591 -0.016515408 4287118648
0.018865168 -0.010617737 -0.014093818 4286464573
0.021080494 -0.012217831 -0.012931378 4286464319
0.023306534 -0.013817606 -0.011769481 4286333503
0.025200754 -0.013779934 -0.011865636 4286464063
0.027442805 -0.015379265 -0.010704381 4286922044
0.029518865 -0.016159831 -0.010172192 4287052348
0.031420752 -0.016121786 -0.010268573 4287444794
-0.022334125 -0.01538986 -0.011190083 4287576119
-0.020439785 -0.015354509 -0.011287964 4287641398
-0.018871553 -0.01285309 -0.013276914 4287249464
-0.017319731 -0.01035191 -0.01526489 4287314998
-0.015898451 -0.0070290249 -0.017882079 4287511604
-0.014499042 -0.0037064478 -0.020498062 4288819753
-0.012882389 -0.0020277025 -0.021853216 4289081128
-0.011154436 -0.0011708029 -0.022578001 4289343269
-0.0093070269 -0.001135584 -0.022672907 4289081638
-0.0074597299 -0.0011002594 -0.022767724 4289800738
-0.0058734156 0.00057827029 -0.024120975 4289146919
-0.0038986243 -0.00020781346 -0.02358624 4289146663
-0.002190277 0.00064921193 -0.024309648 4289866273
0.00020552427 -0.0026008254 -0.021888493 4289016104
0.0020576715 -0.0025649136 -0.021983195 4289669923
0.0040537342 -0.0033502337 -0.021449286 4289669924
0.005614832 -0.0016715666 -0.022800857 4289342758
0.0077628344 -0.0032778829 -0.021638613 4289473573
0.0097693801 -0.0040626978 -0.021105018 4288426798
0.01209107 -0.0064895391 -0.019315589 4287903794
0.014428914 -0.008915944 -0.017526971 4286791740
0.016782947 -0.011341985 -0.015739068 4286595134
0.019153133 -0.013767613 -0.01395192 4286267969
0.021539494 -0.016192818 -0.01216559 4286333248
0.023436464 -0.016155181 -0.012261952 4286595134
0.025162071 -0.015296718 -0.012985427 4286922044
-0.022885658 -0.012782447 -0.015453194 4287117629
-0.020793267 -0.014395719 -0.014292533 4287445048
-0.018907309 -0.014360419 -0.0143899 4287380023
-0.017244127 -0.012676829 -0.01574444 4287380279
-0.015705984 -0.010169248 -0.017726859 4287184694
-0.014301054 -0.0068378905 -0.020336706 4287577394
-0.012798488 -0.004330805 -0.022317091 4288231469
-0.011190116 -0.0026477831 -0.023668535 4289016103
-0.0094677806 -0.0017887536 -0.024391377 4289408804
-0.0077509992 -0.00092971185 -0.025113847 4290848279
-0.0061701499 0.00075308513 -0.026463658 4289997344
-0.0043340735 0.00078838225 -0.026557762 4289408549
-0.0023622848 7.7299774e-08 -0.026024397 4289800993
-0.00024663657 -0.0016115452 -0.024864037 4290258974
0.0015972331 -0.0015758001 -0.02495832 4289277734
0.0035849735 -0.0023634685 -0.024425605 4289473829
0.0055780262 -0.0031509376 -0.02389309 4289342504
0.0078752488 -0.0055849962 -0.0221074 4288688174
0.010036498 -0.0071953009 -0.020948973 4287706933
0.012363344 -0.0096285576 -0.019164704 4287183929
0.014706373 -0.012061451 -0.017381152 4287510838
0.017065562 -0.014493883 -0.015598391 4286856509
0.019277915 -0.016102893 -0.014442356 4286595134
0.02150099 -0.01771155 -0.013286835 4286660413
0.023229428 -0.016850989 -0.014008943 4286791229
-0.020934705 -0.015076503 -0.016032699 4286987069
-0.018943034 -0.015867591 -0.015502772 4287445304
-0.017057315 -0.015832186 -0.015600049 4287314999
-0.015627716 -0.012491809 -0.018204838 4287315509
-0.014103252 -0.0099779125 -0.020181615 4287511858
-0.012834121 -0.005811966 -0.023410723 4287708208
-0.0111036 -0.0049506743 -0.024132501 4288427308
-0.0096284039 -0.0024374276 -0.026106533 4288688939
-0.007914409 -0.001576277 -0.026827259 4289670433
-0.0063362941 0.00011078455 -0.028173734 4290782744
-0.0046361163 0.0009718379 -0.028893627 4291044374
-0.0025341623 -0.00064450363 -0.027735861 4291044374
-0.00042145699 -0.0022605732 -0.026578525 4289735714
0.0014195815 -0.0022249497 -0.026672713 4289016104
0.0036923066 -0.0046661301 -0.024890762 4289408038
0.005834572 -0.006281388 -0.02373476 4288361264
0.0082863346 -0.0095474217 -0.021329103 4287314744
0.01030343 -0.010336449 -0.020799315 4286790973
0.012635455 -0.012776181 -0.019020101 4286464063
0.014668591 -0.013564728 -0.018491007 4286921788
0.01702752 -0.016003732 -0.016713092 4288360753
0.018913731 -0.015966533 -0.016809072 4287052858
0.020965509 -0.01675454 -0.016280726 4287118394
-0.019087262 -0.016546134 -0.017241102 4287118393
-0.016981915 -0.018167689 -0.016087415 4287380023
-0.015321597 -0.016475379 -0.017435314 4287249973
-0.013905626 -0.013126468 -0.020032898 4287773744
-0.012630928 -0.0089495601 -0.02325426 4287838768
-0.011139285 -0.0064295237 -0.025224419 4288558634
-0.009539213 -0.0047379588 -0.026568925 4289016358
-0.0082052536 -0.0013901833 -0.02916198 4289016359
-0.0065023042 -0.00052703265 -0.029880503 4289343523
-0.0049379133 0.0011641979 -0.031222995 4289474594
-0.0027059019 -0.0012846356 -0.029443968 4289605154
-0.00059613585 -0.0029051662 -0.028289739 4288885289
0.0015244037 -0.0045253416 -0.027136026 4288754218
0.00379958 -0.0069730799 -0.025359016 4287641909
0.0059443265 -0.0085926093 -0.024206411 4286595134
0.0083984956 -0.011867322 -0.021807332 4286660414
0.010570183 -0.013486154 -0.020655975 4286595134
0.012752615 -0.01510473 -0.019505057 4286595134
0.014630862 -0.015067898 -0.019600788 4286660413
0.016669154 -0.015858464 -0.019073525 4287118394
0.018386923 -0.014993966 -0.019792022 4286856764
-0.017462529 -0.016354296 -0.019696927 4287183929
-0.015471403 -0.017149551 -0.019170046 4288034609
-0.013824821 -0.015453011 -0.020513989 4288820009
-0.012308564 -0.012926186 -0.022480663 4288623913
-0.010930784 -0.0095690982 -0.025069695 4288362283
-0.0094500929 -0.0070427083 -0.027034435 4287969839
-0.0081133246 -0.0036861999 -0.029621212 4288492844
-0.0065379441 -0.0019905949 -0.030961111 4288754473
-0.0047076717 -0.0019554943 -0.031054985 4288754473
-0.0026061647 -0.0035805767 -0.029903656 4288754218
-0.0003555119 -0.0060355086 -0.02813036 4288754473
0.0019113719 -0.0084900642 -0.026357852 4287576883
0.0040505826 -0.010114159 -0.025208261 4286857273
0.0062005818 -0.011738027 -0.024059135 4286595644
0.0082120672 -0.012531658 -0.023532387 4286529599
0.010380812 -0.014154927 -0.022384122 4286660414
0.01256033 -0.015777949 -0.0212363 4286790718
0.01427833 -0.014911434 -0.021953395 4286790974
-0.015734933 -0.016986454 -0.021523569 4286987578
-0.013744079 -0.017783856 -0.020998186 4287838259
-0.012105778 -0.016083039 -0.022338424 4288034353
-0.010722481 -0.012717204 -0.024921346 4287642164
-0.0093610436 -0.009351653 -0.027503045 4287576629
-0.0078940056 -0.0068189725 -0.029462164 4287904304
-0.0063132048 -0.0051188776 -0.030799173 4287904304
-0.0043447018 -0.0059161047 -0.030272195 4287969328
-0.0020996481 -0.0083777485 -0.028503574 4287184949
2.3283064e-05 -0.010006771 -0.02735649 4287446323
0.0021569729 -0.011635453 -0.026209934 4287904048
0.0041576549 -0.012431655 -0.025684379 4287380533
0.0063101649 -0.014059854 -0.024538621 4286857274
0.008324191 -0.014855633 -0.024013627 4286660414
0.010343522 -0.015651235 -0.023488853 4286922044
-0.014129516 -0.016779363 -0.023966845 4286922299
-0.012380149 -0.015909251 -0.024683256 4287903283
-0.010758277 -0.014204359 -0.026019402 4287510838
-0.0092720613 -0.011664899 -0.02797476 4287772979
-0.0079296753 -0.0082909446 -0.030548995 4287838513
-0.00621875 -0.0074211983 -0.031263161 4288034608
-0.0041148663 -0.0090550808 -0.030118499 4287314999
-0.0018646345 -0.011523223 -0.028354952 4286660923
0.00040178001 -0.013990894 -0.026592191 4286465084
0.00226143 -0.013955021 -0.02668741 4286595644
0.0042646751 -0.014753453 -0.026163602 4286987579
0.0059803501 -0.013883015 -0.026877638 4287576374
0.0079888031 -0.014681155 -0.026353952 4288295729
-0.014631093 -0.014924707 -0.027544525 4286398784
-0.012773477 -0.014889633 -0.027640205 4287772213
-0.010915957 -0.014854455 -0.027735803 4287707188
-0.0091831572 -0.013982316 -0.028449629 4287642164
-0.0077106059 -0.011436482 -0.030399449 4287445813
-0.0059943199 -0.010564462 -0.03111228 4287511349
-0.0041507855 -0.010529203 -0.031206902 4286857019
-0.0017653182 -0.013840567 -0.02883045 4286464318
0.00036533922 -0.015478157 -0.027690282 4286529854
0.0020839125 -0.014605725 -0.028402962 4286856764
0.0039406121 -0.014569854 -0.028497994 4286725949
-0.011073485 -0.015500093 -0.029448912 4287249208
-0.0093434826 -0.014625881 -0.030161023 4287249463
-0.0077463016 -0.01291261 -0.031489354 4287446068
-0.0061600916 -0.011199509 -0.032817017 4287772979
-0.0041866526 -0.012003191 -0.032295212 4287053369
-0.0019369721 -0.01448446 -0.030541345 4286399038
0.00019074976 -0.016126446 -0.029404242 4286856764
0.0017656833 -0.014413217 -0.030731071 4286267713
-0.0096281916 -0.014423699 -0.032484241 4287380023
-0.0079092048 -0.013547441 -0.033194114 4287576628
-0.006325718 -0.01183007 -0.034518439 4287576628
-0.0043551736 -0.01263602 -0.033998128 4288034098
-0.0021084733 -0.015123849 -0.032248989 4287837748
-0.00025992095 -0.015088358 -0.032343768 4287510838
-0.0081991628 -0.013334505 -0.03550896 4287510584
-0.006491214 -0.012456175 -0.03621665 4287249209
-0.0045235269 -0.013264449 -0.035697795 4287314743
-0.0067864135 -0.012232406 -0.038523134 4287706934
0.006955713 0.0042884173 0.050035428 4282208369
0.0039690211 0.0079204906 0.044198561 4280308109
0.010493599 0.0050205383 0.046608415 4281354628
0.00034892559 0.0039844569 0.045260262 4282536299
0.0016815066 0.0078034829 0.041770305 4279455644
0.0048143193 0.012416057 0.037503947 4278795448
0.0070570335 0.010941993 0.038757846 4278598844
0.012302905 0.0042154174 0.044648435 4281159553
-0.0055478327 0.0015143119 0.045064386 4282600048
-0.0040472075 0.0045863017 0.042256359 4281815159
-0.0023154765 0.0061410926 0.040801954 4278931619
-0.00072406977 0.0084541403 0.038672175 4278734504
0.0029480085 0.010046516 0.037118528 4279585183
0.004775621 0.010842666 0.036342271 4279717274
0.0067377463 0.010880653 0.0362419 4278602414
0.0089854822 0.0094024502 0.037492409 4278667949
0.011389524 0.0071665291 0.039417639 4279258274
0.014106423 0.0034149233 0.042692337 4279062689
-0.0069177374 0.0082830712 0.036459681 4280700044
-0.0051995106 0.0098418482 0.035009183 4279062179
-0.0032393672 0.0098792501 0.034908511 4278866084
-0.0012794062 0.0099167936 0.034807954 4278603688
0.010622337 0.0093838796 0.034880031 4278995879
0.012880363 0.0079017319 0.036126945 4278735524
0.015451081 0.0048996285 0.03872003 4280112013
0.018350862 0.00037777424 0.042658586 4282602854
-0.010194194 0.0020552874 0.039540362 4280438414
-0.0076815896 0.011285527 0.031257086 4278401219
-0.0035303868 0.0098342393 0.032402802 4278991798
-0.0014468357 0.0091088638 0.032975409 4278603433
0.00051011145 0.0091464482 0.032875083 4278407084
0.0081933588 0.010060417 0.031802509 4278404789
0.010292202 0.009335991 0.032374818 4278603944
0.012544535 0.0078494139 0.033618759 4278735014
0.014505647 0.0078878142 0.033518765 4278669479
0.017081276 0.0048771612 0.036105271 4280045714
0.019834906 0.0011047833 0.039362196 4282602344
-0.014306873 0.0011580326 0.037899975 4282274669
-0.012665454 0.003491044 0.035781696 4279324829
-0.011156 0.0065890774 0.032992359 4278668203
-0.0097867064 0.010451982 0.02953246 4278339253
-0.0079611056 0.011254041 0.028760701 4279321004
-0.0060174428 0.011291048 0.028660819 4278269638
-0.0038211867 0.0097982064 0.02990379 4278338743
-0.0016141869 0.0083056595 0.03114628 4278668203
0.00020807236 0.0091080908 0.030375017 4278800039
0.0020247102 0.0099105444 0.029604139 4278669223
0.0036984533 0.011477759 0.028162796 4278603688
0.0057811216 0.010750692 0.028734138 4278800294
0.0078690723 0.010023814 0.029305274 4278472619
0.010107718 0.0085325334 0.030546626 4278472874
0.011912555 0.0093352739 0.029776732 4278538154
0.018231288 0.0071569066 0.031488296 4279847323
0.021302447 0.0018449994 0.036076661 4282143343
-0.018722024 0.0025687935 0.034250166 4282797928
-0.017289381 0.0064433869 0.030794697 4280766598
-0.015444241 0.0072475318 0.030023204 4278735014
-0.013604693 0.0080517158 0.029252103 4278603688
-0.0082404204 0.011231599 0.026270924 4279913113
-0.0063023567 0.011268534 0.026171353 4279912858
-0.0042381175 0.010538381 0.026741616 4278273719
-0.0021685846 0.0098084155 0.027311748 4278733228
-0.00022552907 0.0098457579 0.027212152 4278799784
0.0017173439 0.0098832343 0.027112667 4278734248
0.0036600679 0.009920774 0.02701324 4278668969
0.0057425573 0.0091915261 0.027582979 4278603434
0.0078303143 0.008462498 0.028152535 4278800039
0.0097779408 0.0085004736 0.02805311 4278734248
0.011725381 0.0085385405 0.027953763 4278734249
0.015466116 0.0093816184 0.027086956 4278729403
0.017566547 0.0086533241 0.027656225 4278401728
0.019990236 0.0063921092 0.029561527 4279059373
0.022915274 0.00183185 0.033469938 4279913623
-0.021338444 0.0055746958 0.029171351 4281749113
-0.019803837 0.0086902138 0.026393304 4279453859
-0.018076774 0.010265965 0.024954787 4279258273
-0.016140904 0.010302287 0.024854904 4278865573
-0.014205158 0.010338714 0.024755109 4278669223
-0.008519534 0.011218147 0.023787858 4278730424
-0.006587062 0.011254987 0.023688583 4278663869
-0.0027225651 0.011328952 0.023490274 4278930343
-0.00065882131 0.010596853 0.024059126 4278734249
0.0012757406 0.010634158 0.02396006 4278668969
0.0033473223 0.00990244 0.024528688 4278472364
0.0055640861 0.0084017497 0.025764585 4278668968
0.0075063184 0.0084395353 0.025665371 4278799784
0.0095937103 0.0077084173 0.026233407 4278603434
0.01333192 0.0085534733 0.025368229 4279781788
0.01511988 0.009360496 0.024602534 4279585949
0.017058454 0.009398723 0.024503885 4278732209
0.019155793 0.0086682457 0.025071818 4279585438
0.021743394 0.0056320019 0.027638536 4279455389
0.024845794 0.00029035099 0.032202918 4280963713
-0.023525503 0.0055194795 0.02678231 4280110228
-0.02036256 0.010995718 0.02190727 4278729914
-0.016397484 0.010296077 0.022375649 4279322789
-0.014579933 0.011104202 0.021608906 4278472874
-0.012652636 0.011140604 0.021509646 4278603433
-0.010843512 0.011948822 0.020743523 4278534074
-0.0068715699 0.011250475 0.02121241 4278270403
-0.0049448349 0.01128732 0.021113515 4278601394
-0.0030182488 0.01132426 0.0210147 4278668969
-0.0012234822 0.012132758 0.020249723 4278538154
0.00083445758 0.011398479 0.020817349 4278669223
0.0028976724 0.010664402 0.021384776 4278538154
0.0049661845 0.0099304896 0.021952055 4278472364
0.0071825236 0.0084256083 0.023184804 4278603434
0.0089737028 0.00923457 0.022420406 4278734504
0.012689933 0.010081386 0.021557974 4278598079
0.014773861 0.0093483422 0.02212481 4279713704
0.016706862 0.0093864594 0.022026444 4279123123
0.021057166 0.0071503343 0.023824161 4279061668
0.023819476 0.0033348333 0.027048608 4278996643
0.026608795 -0.00048002973 0.030271754 4281814394
-0.029312294 0.0030788425 0.026600996 4280569484
-0.02764282 0.0054377858 0.024499992 4278865319
-0.025893617 0.0070221983 0.023066433 4278866084
-0.024155423 0.0086065847 0.021633506 4278537133
-0.020607688 0.011000849 0.01943573 4278732719
-0.016763676 0.011072868 0.019237321 4278995114
-0.014729317 0.010335067 0.019803884 4278669224
-0.012920149 0.011145359 0.019039292 4278603944
-0.010998584 0.011181768 0.018940412 4278735268
-0.0090771466 0.011218283 0.018841619 4278277034
-0.0070324093 0.010481128 0.019407982 4278472874
-0.0049823821 0.0097442009 0.019974163 4278538154
-0.0031848215 0.01055483 0.019210583 4278538154
-0.0015244782 0.012139101 0.017782738 4278275249
0.0023112744 0.012213217 0.017586423 4278399433
0.0043687001 0.011476966 0.018152621 4278731953
0.006573908 0.0099675208 0.019382723 4278472363
0.0086445957 0.0092317257 0.019948391 4278538154
0.018759288 0.0071019977 0.021447392 4278929068
0.020856075 0.0063673276 0.022012185 4279258273
0.023286685 0.0040868334 0.02390277 4279717018
0.025733434 0.0018067434 0.025792591 4282922113
-0.031737868 0.0053659584 0.02222359 4279390619
-0.03025512 0.0092843436 0.018797319 4278735268
-0.0284261 0.010096226 0.018032605 4278669223
-0.022769187 0.010979319 0.017069867 4279192739
-0.020748299 0.010238687 0.017635288 4278996134
-0.018829111 0.010274585 0.017536188 4279389345
-0.014878601 0.0095705744 0.018002285 4278799784
-0.012957033 0.0096068736 0.017903326 4278472619
-0.011153549 0.010419356 0.017140727 4278603688
-0.0092349797 0.010455843 0.017042102 4278800293
-0.0073165521 0.010492416 0.01694355 4278997154
-0.0051460452 0.0089772996 0.018171726 4278668969
-0.0033512935 0.0097900592 0.017409908 4278537644
8.7104738e-05 0.012191389 0.015224441 4278530504
0.0019993111 0.01222839 0.015126613 4278268108
0.0040511116 0.011489876 0.015691504 4278596803
0.0063930973 0.0092003215 0.017581189 4278537388
0.0081705302 0.010013381 0.016820725 4278734758
0.010238148 0.0092754718 0.01738503 4278800293
0.012009762 0.010088636 0.016625023 4278471599
0.014389142 0.0078002568 0.018513052 4278601393
0.016628616 0.006287571 0.019738587 4279388579
0.01887878 0.0047752392 0.020963609 4279913369
0.020816602 0.0048136674 0.020865159 4279520159
-0.035480812 0.0021883808 0.022608854 4281946229
-0.032564614 0.010826143 0.01510652 4278862259
-0.030653179 0.010861177 0.015007286 4279388069
-0.028741822 0.010896344 0.014908156 4278669479
-0.0266384 0.009374328 0.01613562 4278669734
-0.015027773 0.0088107157 0.016204113 4278603434
-0.01310908 0.0088469684 0.016105304 4278603688
-0.011072639 0.0081050824 0.016668709 4278603944
-0.0092720948 0.0089198127 0.015907967 4278538663
-0.0072304793 0.0081782546 0.016471276 4278473129
-0.0054356605 0.0089930892 0.015710985 4278603944
-0.003517665 0.0090299062 0.015612639 4278274994
-0.0017313249 0.0098448433 0.014852907 4278339764
4.94048e-05 0.010659743 0.01409359 4279389599
0.0019614995 0.010696754 0.013995775 4279193249
0.006069988 0.0092155188 0.015122201 4278864554
0.0079870299 0.0092529282 0.015024357 4278865574
0.010051742 0.0085128024 0.015587212 4278603688
0.012121722 0.0077728536 0.016149852 4278668969
0.014503554 0.0054779397 0.018032962 4278800039
0.016589493 0.0047385078 0.018594937 4280895118
-0.037776418 0.0037245248 0.018912965 4280373644
-0.034681413 0.010824066 0.012752199 4278271679
-0.033039056 0.013201898 0.01066695 4278270913
-0.028870624 0.010147994 0.013117163 4278603433
-0.026866205 0.0094024017 0.013679923 4278735014
-0.025053933 0.010218581 0.012919485 4278538409
-0.023247216 0.011034796 0.012159438 4278406063
-0.019222714 0.0095447097 0.01328474 4278405808
-0.017202444 0.008800013 0.013847125 4278734759
-0.015176855 0.008055523 0.014409309 4278472874
-0.013491247 0.009652691 0.012989354 4278603944
-0.011581007 0.0096888915 0.012891063 4278341804
-0.0096708983 0.0097252224 0.012792874 4278669479
-0.0076376386 0.0089813266 0.013354999 4278603943
-0.00585109 0.0097981989 0.012596759 4278538409
-0.0039413944 0.0098348577 0.012498842 4278602669
0.0017867833 0.0099454522 0.012205605 4278535349
0.0078036264 0.0084971637 0.013231378 4278930343
0.010013245 0.006974888 0.014451774 4278603434
0.012083039 0.0062327683 0.015012819 4278865319
0.014464602 0.0039313091 0.016891105 4278601649
-0.04020334 0.0068456475 0.013907067 4279259803
-0.038448445 0.0084468704 0.012485576 4278603434
-0.036786873 0.010831339 0.010403979 4278471853
-0.034886502 0.010865942 0.01030515 4278732973
-0.032986198 0.010900654 0.010206406 4278404788
-0.028999321 0.009404283 0.011329598 4278668714
-0.027189791 0.010222524 0.010570791 4278603688
-0.025287095 0.010257779 0.010472292 4278604199
-0.023384497 0.010293152 0.010373888 4278865829
-0.021377835 0.0095457193 0.010935211 4278735015
-0.019365836 0.0087985676 0.011496319 4278865573
-0.017458096 0.0088343788 0.011397901 4278669479
-0.015550487 0.0088703167 0.011299589 4278603688
-0.0079212487 0.0090152062 0.010907249 4278270403
-0.0061402321 0.0098341517 0.010150904 4279192739
-0.0042361245 0.0098707136 0.010053281 4278669224
0.0057090223 0.0077086035 0.011539352 4278798763
0.0077653751 0.0069638425 0.012099322 4279257763
0.010122485 0.0046551917 0.013973884 4282595714
-0.042151988 0.0052803047 0.012876406 4279063453
-0.040545337 0.0084569976 0.010138908 4278735523
-0.03698615 0.010882275 0.0079633286 4278340784
-0.035091382 0.010916771 0.0078647882 4279978904
-0.033108935 0.01016603 0.0084251743 4279913113
-0.031211589 0.010200823 0.0083266823 4278732719
-0.029221121 0.0094504822 0.0088868411 4278471088
-0.027513061 0.011055959 0.0074715647 4278668968
-0.025520042 0.010305919 0.0080317762 4278734759
-0.023521669 0.0095560886 0.0085917944 4278734758
-0.021622039 0.0095915291 0.0084936349 4278603689
-0.019722518 0.0096270759 0.008395561 4278603434
-0.017823104 0.0096627437 0.0082975803 4278735015
-0.015923802 0.0096985269 0.0081996964 4278537898
-0.012478754 0.012124855 0.0060322941 4279450288
-0.010467537 0.011376049 0.0065923049 4278990268
-0.0085741803 0.011412162 0.0064950516 4278400454
-0.0065550655 0.01066377 0.007054775 4278603434
-0.0045306496 0.0099155772 0.0076142997 4278603688
-0.0027636103 0.010736663 0.0068604546 4278538409
-0.0008681044 0.010773268 0.0067634257 4279061923
0.0013008416 0.0092411116 0.0079790978 4279324064
0.0033410043 0.0084936246 0.0085381866 4279782553
0.0056709275 0.0061777309 0.010409096 4279651738
0.0078720748 0.0046464829 0.011623405 4278729149
-0.042038299 0.0021740934 0.013062024 4278866593
-0.040502954 0.0061473409 0.0096728997 4278735524
-0.038835879 0.008544866 0.0076006041 4278865319
-0.035211094 0.010189055 0.0060883909 4278402239
-0.029535871 0.010293111 0.0057937861 4279191974
-0.027836032 0.011902794 0.004382161 4278603434
-0.025949989 0.011937737 0.0042845211 4278537899
-0.023962714 0.011185534 0.0048435107 4278538154
-0.021970086 0.010433543 0.0054023056 4278538154
-0.020078883 0.010468936 0.0053046611 4278537899
-0.018187791 0.010504456 0.005207119 4278669479
-0.014520887 0.011362845 0.0043564765 4279258529
-0.012750551 0.012185629 0.0036036721 4278865573
-0.010865379 0.012221478 0.0035067624 4279585184
-0.0088572204 0.011470584 0.0040653506 4278863278
-0.0068437383 0.010719901 0.0046237488 4278340529
-0.0046963692 0.0091826171 0.0058371122 4278669224
-0.0028008483 0.0092191137 0.0057400023 4278603434
-0.00077145919 0.0084690768 0.0062978379 4278931363
0.001399979 0.0069325697 0.0075102006 4279717784
0.0035821497 0.0053964267 0.0087220557 4280959123
-0.043493018 -0.0049251332 0.016624231 4281945719
-0.042146876 0.0014294004 0.01127234 4279784083
-0.040460676 0.0038336432 0.0092038363 4278931874
-0.03887035 0.0070275916 0.0064801755 4278997663
-0.037137501 0.0086416826 0.0050695725 4278538409
-0.033617049 0.011079827 0.0029060515 4278274739
-0.029757202 0.010359421 0.0033659558 4278407084
-0.027967039 0.011183808 0.0026130388 4278735015
-0.026083872 0.011218688 0.0025155414 4278407084
-0.02420079 0.011253698 0.0024181474 4278865829
-0.022213813 0.010499429 0.0029756264 4278800548
-0.020328209 0.010534711 0.0028782687 4278538409
-0.018552154 0.01135944 0.0021265289 4278341804
-0.013022128 0.012255345 0.0011816514 4279386029
-0.011142548 0.012291096 0.001085035 4278667438
-0.0070063882 0.0099959429 0.002853022 4278339508
-0.0048619844 0.0084542576 0.0040633236 4278667948
-0.0028380752 0.007701816 0.0046197367 4278865319
-0.00067491084 0.0061607435 0.005829188 4280371349
-0.043598991 -0.0056826472 0.014824963 4281028229
-0.041959465 -0.0024793018 0.012105033 4280307853
-0.040341794 0.00072374847 0.0093863141 4279784594
-0.03866655 0.0031344378 0.0073232981 4278865828
-0.037089873 0.0063369926 0.0046068979 4278801058
-0.03545019 0.0087473541 0.0025458923 4278604453
-0.033739321 0.01036559 0.0011398731 4278604199
-0.031768464 0.0096082389 0.0016961269 4278735014
-0.02997832 0.010434696 0.00094474421 4278472619
-0.02819372 0.011261189 0.00019367642 4278407339
-0.024438668 0.011330899 -6.1560422e-07 4278596549
-0.022457328 0.010574292 0.00055557757 4278270403
-0.020577323 0.010609489 0.00045852122 4278603688
-0.018697411 0.010644794 0.00036155191 4278603944
-0.016817618 0.010680214 0.00026467573 4278996134
-0.013175938 0.011542752 -0.00058131758 4278400708
-0.0071689263 0.0092766117 0.0010857109 4279127204
-0.0050275028 0.0077305492 0.0022928938 4278996133
-0.0028753057 0.0061847586 0.0034996476 4278601393
-0.04370486 -0.0064355345 0.013029112 4280766854
-0.04206802 -0.003223551 0.010315749 4280177293
-0.040223092 -0.0023946809 0.009562565 4279849873
-0.038621787 0.00081692636 0.0068512498 4279521689
-0.036960244 0.0032340763 0.0047938358 4279194014
-0.035484757 0.0072393036 0.0014322936 4278801313
-0.033773944 0.0088618994 2.9504066e-05 4278538154
-0.031983837 0.0096904542 -0.00072039908 4278669223
-0.030199245 0.010518972 -0.0014698944 4278669224
-0.020826224 0.010693245 -0.0019546701 4278666673
-0.018842563 0.009934783 -0.0014000741 4278865319
-0.016965635 0.0099701434 -0.0014968087 4278669479
-0.015203603 0.010799181 -0.0022444413 4278538154
-0.013329625 0.010834705 -0.0023408597 4278602923
-0.011215277 0.0092833936 -0.0011357132 4278799783
-0.0090901703 0.0077324472 6.8925438e-05 4279717528
-0.0069542937 0.0061818073 0.0012730844 4281875594
-0.043810628 -0.0071837609 0.011236629 4280832133
-0.041954864 -0.0063526426 0.010484398 4280046479
-0.040257785 -0.0039285985 0.0084298328 4280046478
-0.038497794 -0.0023010871 0.0070273858 4280110739
-0.036830798 0.00012265053 0.004974565 4279652503
-0.035180226 0.0025462825 0.0029226658 4278866083
-0.033633564 0.0057659745 0.00022091155 4279324829
-0.031928319 0.0073929429 -0.0011782775 4278931363
