# .PCD v0.7 - Point Cloud Data file format
VERSION 0.7
FIELDS x y z rgba
SIZE 4 4 4 4
TYPE F F F U
COUNT 1 1 1 1
WIDTH 621
HEIGHT 1
VIEWPOINT 0 0 0 1 0 0 0
POINTS 621
DATA ascii
0.0017861426 0.00083998078 0.042281538 4286136644
0.0034864247 0.0023857192 0.040814549 4287510329
0.0053411648 0.0031797313 0.04002621 4291957784
0.0075268522 0.0024706335 0.040593877 4292153878
0.010059819 0.0002587554 0.042516716 4290518309
0.012608871 -0.0019526535 0.044438701 4289079088
-0.012726456 0.00042882981 0.040501811 4286071364
-0.011279516 0.0034874403 0.03768054 4289733928
-0.0094151795 0.0042831511 0.036892787 4291565339
-0.0071089119 0.0028165043 0.03813716 4288687664
-0.0047919527 0.0013501034 0.039381042 4288752944
-0.0029282272 0.0021461644 0.038593516 4289276204
-0.0010701492 0.0029421397 0.037806399 4289276458
0.00062217563 0.0044920058 0.036343034 4289080364
0.0026290044 0.0045340718 0.036233347 4288884268
0.0044700727 0.0053299959 0.035447389 4290650398
0.0066419765 0.0046184645 0.036014214 4290650143
0.0089900568 0.003153468 0.037256874 4290322979
0.011869885 -0.00057206815 0.040526778 4290126118
0.014776677 -0.0042969491 0.04379528 4288359988
-0.016812965 -0.0012749634 0.039525475 4288751923
-0.015205525 0.0010361159 0.037385538 4289014319
-0.013614617 0.00334694 0.035246648 4288949294
-0.011752874 0.0041447333 0.034460545 4290388769
-0.010043181 0.0056988443 0.032999106 4290389023
-0.0078971982 0.0049839108 0.033565231 4290585374
-0.0057459548 0.0042691915 0.034131147 4289408549
-0.0037440509 0.0043108664 0.034021515 4289473829
-0.001742363 0.0043526567 0.033911988 4289473573
9.9085271e-05 0.0051506027 0.033127494 4290062623
0.0019348785 0.0059485207 0.032343388 4289539363
0.0039304718 0.00599046 0.032234393 4289670178
0.006094031 0.0052765864 0.032800067 4289800994
0.0084337369 0.0038070283 0.034040011 4290193184
0.010957703 0.0015820535 0.035953697 4288425778
0.01367414 -0.0013982945 0.038540736 4288883759
0.016412087 -0.0043780743 0.04112668 4287117629
-0.017396919 0.00013965648 0.035627909 4288033588
-0.015800342 0.0024570981 0.033493448 4289669923
-0.01422029 0.0047742533 0.031360012 4290324509
-0.012369536 0.0055740247 0.030576147 4289277734
-0.0105244 0.0063737496 0.029792719 4290128158
-0.0083867833 0.0056564766 0.0303577 4290521369
-0.0062438771 0.0049393787 0.03092251 4290259484
-0.004095763 0.0042225416 0.031487074 4289539618
-0.0019423962 0.0035059131 0.032051422 4289735968
-0.00010371953 0.0043059955 0.031268716 4290259228
0.0017292723 0.0051060687 0.030486397 4291044374
0.0035566017 0.0059061679 0.029704422 4290128159
0.0057145581 0.0051899585 0.030268833 4289670178
0.0078777224 0.0044740136 0.030833006 4290062879
0.010566838 0.0014843093 0.03341502 4289669414
0.013453774 -0.0022627646 0.036668457 4288556848
-0.017574243 -0.00071085524 0.033762962 4286791228
-0.016118482 0.0023739967 0.030960523 4289081384
-0.014543854 0.0046976595 0.02883222 4290586648
-0.012698613 0.0054994593 0.028050318 4290193694
-0.010858998 0.0063012703 0.027268827 4290128668
-0.0087270141 0.0055817286 0.027832516 4289997853
-0.0065897554 0.0048623937 0.028395992 4290651929
-0.0042927861 0.0033826656 0.029631395 4289801504
-0.001985155 0.0019033193 0.030866254 4289866783
-0.00014655292 0.0027056034 0.030085184 4289670433
0.0016864017 0.003507867 0.029304493 4290586393
0.0033483207 0.0050705015 0.027852651 4291175443
0.0053353086 0.0051123998 0.027744234 4291044118
0.0074928477 0.0043941601 0.028307095 4291044118
0.0098291487 0.0029159444 0.029540859 4289996834
0.012528546 -8.215243e-05 0.032115933 4289080363
0.015249491 -0.003079717 0.034689888 4288360499
-0.017751485 -0.0015567064 0.03190146 4286071618
-0.01643642 0.0022999602 0.028434232 4289277478
-0.014726408 0.003866998 0.026982352 4290324764
-0.012883961 0.0046709473 0.026202247 4291306259
-0.01104714 0.0054748836 0.025422525 4291437074
-0.0090670139 0.0055159735 0.025313988 4291437074
-0.0069353953 0.0047943569 0.025876164 4290717208
-0.0046441257 0.0033102124 0.027108621 4289997598
-0.0023421794 0.0018263548 0.028340608 4290063134
-0.00034922361 0.0018681004 0.028231658 4289735969
0.0014809296 0.0026725619 0.027452722 4289997598
0.0033054352 0.0034769564 0.026674204 4290193948
0.0049562752 0.0050437781 0.025226317 4290128414
0.0069374666 0.0050856541 0.025118288 4290062878
0.0092653483 0.0036029587 0.026349247 4289800738
0.011780083 0.0013582478 0.028249025 4289408294
0.014668681 -0.0024104756 0.031486295 4290388514
-0.016340114 -6.0927588e-05 0.027923994 4288230704
-0.014768124 0.0022757854 0.025805552 4289866274
-0.012925759 0.003081948 0.025027089 4289670434
-0.011235192 0.0046532196 0.023579642 4289866784
-0.0095557198 0.0062243217 0.022132918 4289932063
-0.0074324608 0.0055003786 0.022693962 4289605154
-0.0049952418 0.0032467325 0.024592556 4289997598
-0.0026989877 0.0017584562 0.025821596 4289670689
-0.00071160495 0.0018001124 0.025712971 4290063134
0.0012755692 0.0018418487 0.025604419 4289801758
0.0029320642 0.0034130723 0.024159402 4289932573
0.0047454014 0.0042195288 0.023383196 4290128669
0.0065530911 0.0050259926 0.022607319 4289866783
0.0085285008 0.0050678686 0.022499695 4290389788
0.01085595 0.0035808464 0.023727551 4289931809
0.013730563 -0.00019906089 0.026957512 4288818478
0.016813695 -0.0047426582 0.03085345 4286006084
-0.016243942 -0.0024258646 0.027410693 4286660668
-0.014669187 -8.2539394e-05 0.025296956 4289735459
-0.012967564 0.0014932007 0.023852117 4289801249
-0.011423148 0.0038361275 0.021740213 4289801504
-0.0098952428 0.0061787846 0.019629348 4289539618
-0.0079291686 0.0062196958 0.019521669 4290652184
-0.0055004507 0.0039594159 0.021415859 4290324764
-0.0033695772 0.0032336381 0.021975011 4289539618
-0.0012334734 0.0025080424 0.022533998 4289605664
0.00074540079 0.0025496241 0.022425912 4289932573
0.0025589019 0.0033582286 0.021651216 4289540128
0.0043667406 0.0041667656 0.020876937 4290129179
0.0061689392 0.0049752579 0.020103022 4290848533
0.0083121434 0.0042503313 0.020661935 4291240979
0.010284506 0.0042922483 0.020554557 4290651418
0.01315055 0.00050125271 0.023776896 4290585119
0.015862077 -0.0025225375 0.026332065 4287968309
-0.016285777 -0.0040252581 0.026227832 4286530108
-0.014992222 -0.00013622083 0.022786185 4289343014
-0.013439409 0.0022133165 0.020678595 4289866784
-0.011757053 0.0037931376 0.019238137 4289343268
-0.010085762 0.0053728628 0.01779831 4290455834
-0.0082740486 0.0061830874 0.017025014 4291371793
-0.0060052797 0.004685394 0.018249076 4291371793
-0.0037258267 0.0031880424 0.019472566 4290914069
-0.0014356822 0.0016910569 0.020695578 4289867294
0.00054036081 0.0017325864 0.020587653 4289932829
0.0021859631 0.0033123349 0.019149721 4289474848
0.0039883181 0.0041229376 0.01837736 4290587159
0.0057850182 0.0049335281 0.01760539 4289670944
0.0079226047 0.0042063096 0.018162996 4289801503
0.0098894238 0.0042481073 0.01805592 4290128413
0.012392186 0.0019837082 0.019941863 4289866018
0.014911048 -0.00028034067 0.021827012 4288556848
0.017814308 -0.0040812399 0.025039397 4288164404
-0.016327612 -0.0056243744 0.025045179 4286333759
-0.015174463 -0.00095268106 0.020946831 4288885289
-0.013910897 0.0029467526 0.017514996 4289474083
-0.012236722 0.0045308168 0.016078183 4290128413
-0.010424897 0.0053431387 0.015306432 4289539874
-0.008618705 0.0061554261 0.014535055 4290455323
-0.0065098032 0.0054247747 0.015092127 4290390044
-0.0043956414 0.004694331 0.015648987 4290390554
-0.0021166056 0.0031926963 0.016869409 4289867038
1.0766089e-05 0.0024627023 0.017425671 4289867294
0.0019783154 0.0025041928 0.017318316 4289802014
0.0037778914 0.0033169198 0.016547726 4290717974
0.0055718049 0.004129698 0.015777497 4291044883
0.0077065155 0.0034001986 0.016333688 4289932574
0.0098464489 0.0026709405 0.016889617 4289931808
0.01199159 0.0019419105 0.017445348 4290455324
0.014323354 0.000442144 0.018663377 4289996834
0.017218053 -0.0033698322 0.021868154 4288098868
-0.016231701 -0.0079971924 0.024526048 4286202433
-0.015356623 -0.001764433 0.019110881 4287642674
-0.014238827 0.0029197256 0.015024256 4288950823
-0.01257012 0.0045079994 0.013591023 4290716954
-0.01061514 0.00454862 0.013483904 4290390044
-0.0088117346 0.0053630951 0.012714267 4289277734
-0.0070139617 0.0061775143 0.01194506 4289277734
-0.0047513172 0.0046710852 0.013163075 4289997854
-0.0024779737 0.0031650257 0.014380537 4290063389
-0.00019393861 0.001659235 0.015597524 4290325273
0.0016057715 0.0024741329 0.014828458 4290194458
0.0033998415 0.0032889512 0.014059804 4290128924
0.0051882714 0.0041037207 0.013291512 4291241234
0.0073173717 0.0033719973 0.013846375 4291306513
0.0094516948 0.0026404657 0.014401015 4291110164
0.011591256 0.0019090697 0.014955457 4290847768
0.013554707 0.001951009 0.014848724 4289342249
0.016070046 -0.00032603648 0.016724408 4288949294
0.018788241 -0.0033756359 0.019259978 4287248443
-0.016273603 -0.0095979366 0.023342192 4286071618
-0.015398212 -0.0033477298 0.017939938 4287053879
-0.014423378 0.0021255892 0.013201611 4288950568
-0.012903303 0.0044942233 0.011110477 4290258973
-0.011102498 0.0053106737 0.010342561 4290716953
-0.0091560036 0.0053512328 0.010235991 4291109654
-0.007209681 0.0053918962 0.010129515 4291371793
-0.0049499944 0.0038810926 0.011344418 4291044629
-0.0028391033 0.0031463015 0.011898357 4290194204
-0.00056075305 0.0016360823 0.013112387 4289801504
0.0012334585 0.0024530087 0.012345286 4289474849
0.0031897053 0.0024943482 0.012238611 4289277988
0.0051457286 0.002535779 0.012132021 4289736224
0.0071015507 0.002577303 0.012025511 4290782998
0.0090571791 0.002618894 0.011919066 4290520858
0.010655493 0.0042112428 0.010493722 4289932063
0.01260525 0.0042528934 0.010387734 4289866784
0.015474685 0.00041856244 0.013577782 4289605154
0.018184386 -0.0026398983 0.016107302 4288033589
-0.01529941 -0.0057090982 0.017429173 4286529854
-0.014321595 -0.00022040121 0.012701964 4286595644
-0.012944587 0.0029330212 0.0099558942 4289343014
-0.011143848 0.0037516379 0.0091895871 4290128158
-0.009197481 0.0037922193 0.0090830438 4290455578
-0.007251285 0.0038328678 0.0089765638 4290782744
-0.0051485673 0.0030956748 0.0095292218 4289997853
-0.0032000169 0.0031365841 0.0094227679 4290193949
-0.0010894984 0.0023997477 0.0099751446 4290063133
0.00086137652 0.0024408917 0.0098687019 4289670689
0.0028120652 0.0024821158 0.0097623318 4289212453
0.0047625452 0.0025234441 0.009656053 4289408803
0.0067128241 0.0025648638 0.0095498562 4289932319
0.0084871203 0.0033838986 0.0087857172 4290324764
0.01007732 0.004980382 0.0073640831 4289735969
0.0120188 0.0050218669 0.0072585512 4289866783
0.014327914 0.0035086642 0.0084682088 4289211689
0.017207623 -0.00033622561 0.011649633 4288622129
-0.015341066 -0.0072940113 0.016257035 4286660413
-0.014219932 -0.0025704873 0.012199286 4286333758
-0.012985878 0.0013720705 0.0088014975 4289539108
-0.011333719 0.0029731938 0.0073789507 4289473829
-0.0093901753 0.003013697 0.007272549 4289997598
-0.007446833 0.0030543176 0.007166246 4290259484
-0.0053469986 0.0023148661 0.0077174343 4289866783
-0.0035606846 0.003135812 0.0069538672 4289670944
-0.0016178936 0.0031766971 0.0068478007 4289277989
0.00048953295 0.0024377112 0.0073987991 4289343268
0.002434656 0.0024788422 0.0072927512 4289474339
0.0043796003 0.0025200308 0.0071867593 4289801504
0.0063243359 0.0025613257 0.0070808567 4290259484
0.008093141 0.0033824467 0.0063186511 4290128413
0.0098563284 0.0042035137 0.0055567995 4291306003
0.011432722 0.0058042067 0.0041391812 4291109653
0.013917319 0.0035068714 0.0060020536 4290585629
0.01660461 0.00043047545 0.008519927 4289668649
-0.015242465 -0.0096613327 0.015741792 4286856764
-0.014118388 -0.0049247164 0.011693619 4286267969
-0.012881443 -0.00097117526 0.0083036963 4288557868
-0.011375003 0.0014168518 0.0062279701 4290258719
-0.0095827654 0.0022398001 0.005465474 4290455324
-0.0074883774 0.0014979839 0.0060152896 4289866784
-0.0057019368 0.0023209909 0.0052532442 4291044884
-0.0039211139 0.0031440235 0.0044915378 4291045394
-0.0023079664 0.0047491998 0.0030747345 4290782998
-0.00021159649 0.0040078037 0.0036247224 4289867038
0.0018900111 0.0032666228 0.0041745044 4289866783
0.0038266703 0.0033076587 0.0040689781 4289867294
0.0059360713 0.0025667707 0.0046185032 4290193948
0.0076993853 0.0033899802 0.0038581565 4290259484
0.0096354485 0.0034312685 0.0037528593 4290782999
0.011390239 0.004254418 0.0029931413 4290978583
0.013506956 0.0035140705 0.0035424791 4290651164
0.016188473 0.00042881817 0.0060541891 4290257954
0.019080736 -0.0034374851 0.0092188567 4289145389
-0.015424371 -0.01046312 0.013913291 4287052859
-0.014016956 -0.0072830198 0.011184867 4286333248
-0.012922779 -0.0025337909 0.0071480684 4288492844
-0.011267923 -0.00092389155 0.0057318397 4289866274
-0.0097752288 0.0014705365 0.0036617517 4290389533
-0.0079913884 0.0022955788 0.0029013976 4289473828
-0.0060566291 0.0023361109 0.002795632 4291044884
-0.0042813122 0.0031611756 0.0020358916 4291306514
-0.002511628 0.0039862175 0.0012765294 4291371793
-0.00074756145 0.0048112613 0.00051749218 4290063389
0.0013457313 0.0040676673 0.001066139 4290259738
0.0032741278 0.0041085356 0.00096106995 4290390553
0.005548045 0.0025811857 0.0021627098 4289997854
0.0073058829 0.0034064394 0.0014043357 4291175699
0.0090581179 0.0042316229 0.00064630527 4289670435
0.010985717 0.0042728134 0.00054152962 4289408548
0.013464302 0.0019623372 0.0023950106 4290062623
0.015772581 0.00043607038 0.0035951156 4289473064
0.018469863 -0.0026574612 0.0060995817 4289406763
0.020804867 -0.0041829427 0.0072983168 4286267459
-0.015606187 -0.011260199 0.012088198 4287249208
-0.013772756 -0.010432377 0.011326421 4286660669
-0.012818508 -0.0048831101 0.0066458508 4287184949
-0.0114576 -0.0016950527 0.0039265901 4288885544
-0.010118611 0.0014926326 0.0012085922 4290258718
-0.0084940493 0.0031065173 -0.00020262692 4290324509
-0.006724067 0.0039335401 -0.00096054096 4289408549
-0.0049596876 0.0047605676 -0.0017180583 4289539873
-0.0028770864 0.0040144254 -0.0011706213 4289997853
-0.0011185184 0.0048414883 -0.0019277064 4290325273
0.00080178678 0.0048820977 -0.0020323973 4290259993
0.0028920025 0.004136398 -0.001485168 4290325529
0.0049874559 0.0033909152 -0.00093814544 4290063644
0.0069126189 0.0034318794 -0.0010429164 4290979603
0.0084811151 0.0050453437 -0.0024504391 4291175443
0.010400467 0.0050863554 -0.0025547659 4290848023
0.012870654 0.0027691037 -0.00070564449 4290978583
0.015170537 0.0012383726 0.00049166288 4290585883
0.017481089 -0.00029211398 0.0016884776 4289473064
0.019994132 -0.0026081614 0.0035354104 4287968309
-0.01578787 -0.01205275 0.010266528 4287511094
-0.013671592 -0.012801055 0.010809997 4286857018
-0.012714364 -0.0072364891 0.0061405562 4286726968
-0.011647142 -0.0024616269 0.0021247305 4288558379
-0.010612749 0.002312684 -0.0018892735 4290062623
-0.009303771 0.0055085621 -0.0045990902 4290978583
-0.0075474456 0.0063374857 -0.0053546363 4290979349
-0.0054784417 0.0055887937 -0.0048081367 4290782998
-0.0032422915 0.0040515219 -0.0036111278 4291175698
-0.0013246313 0.0040919888 -0.0037157414 4291175953
0.00059283525 0.0041325339 -0.0038202824 4290259993
0.0025101453 0.0041731489 -0.0039247619 4290390553
0.0045999959 0.0034253583 -0.0033790553 4290194459
0.0065196157 0.003466221 -0.0034835143 4290259228
0.0084390566 0.0035071378 -0.0035879184 4290782744
0.010358296 0.0035481364 -0.0036922488 4290847769
0.012460954 0.0028009438 -0.0031469995 4290913304
0.014382519 0.0028421408 -0.0032513449 4289866529
0.016871043 0.0005189213 -0.0014079353 4289605409
0.019375689 -0.0018039036 0.00043463521 4289668904
-0.016109474 -0.012049321 0.0077980012 4287053114
-0.013713315 -0.014382534 0.0096404105 4287184184
-0.012755811 -0.0088027222 0.0049822535 4286726969
-0.011836588 -0.0032235545 0.00032623485 4289278244
-0.010804668 0.001563713 -0.0036779149 4289670178
-0.0094982982 0.0047682575 -0.0063811229 4290520603
-0.0079011247 0.0063903271 -0.0077842795 4291306258
-0.0059968233 0.0064303041 -0.0078883171 4291437329
-0.0037690848 0.0048885657 -0.0066941041 4291372049
-0.0016951784 0.0041379784 -0.0061493544 4290848788
0.00038401783 0.0033875466 -0.0056047845 4290129178
0.0022984818 0.0034281085 -0.0057091028 4290521369
0.0043854415 0.0026780856 -0.0051648505 4290390553
0.0063022524 0.0027188589 -0.0052691773 4290324764
0.0082188621 0.0027597356 -0.0053734123 4289997598
0.0101353 0.00280067 -0.0054775928 4290128414
0.012051515 0.0028416715 -0.0055817086 4289866783
0.013967574 0.0028827419 -0.0056857616 4289800994
0.016072385 0.0021335785 -0.0051421253 4289538854
0.018565893 -0.00019601453 -0.0033037905 4289145643
0.021464355 -0.0041056485 -0.00017168559 4288621873
-0.016570821 -0.011243324 0.0046874117 4288297768
-0.014040418 -0.014376801 0.0071739759 4286334014
-0.012797251 -0.010368728 0.0038241185 4288820519
-0.011877738 -0.0047743255 -0.00082062557 4289147939
-0.010996476 0.00081934035 -0.005463155 4289931809
-0.0098462999 0.0048257788 -0.0088076955 4290258718
-0.0082545802 0.0064521371 -0.010207362 4290062878
-0.0063558295 0.0064919996 -0.010311095 4290193949
-0.004133746 0.0049457164 -0.0091197807 4290194204
-0.0022299141 0.0049858647 -0.0092236595 4290063133
-0.00015907735 0.0042331475 -0.0086802728 4290259738
0.0017471313 0.0042735082 -0.0087841619 4290259739
0.0039983913 0.0027282699 -0.0075941952 4290128668
0.005909659 0.0027689277 -0.0076982179 4290455579
0.0079988167 0.002016875 -0.0071555502 4289997599
0.0097316429 0.0028504734 -0.0079060551 4290193949
0.011458851 0.0036839782 -0.008656159 4290193948
0.013180405 0.0045174635 -0.0094058821 4290128159
0.015274204 0.0037658676 -0.0088632759 4290716698
0.017756589 0.0014294833 -0.0070291949 4289538599
0.020643793 -0.0024912788 -0.0039045503 4289537833
-0.014224648 -0.015157785 0.0053610615 4286530619
-0.012693293 -0.012730097 0.0033129156 4288493099
-0.011622697 -0.0079160109 -0.00067406613 4287708719
-0.010886528 -0.001511435 -0.0059520975 4288166188
-0.0097334683 0.0025059376 -0.0092887329 4290062368
-0.0082952604 0.0049320473 -0.011331507 4290062623
-0.0063966364 0.0049719191 -0.011435225 4290390299
-0.0043364763 0.0042165485 -0.010892981 4290193949
-0.0024354756 0.0042566448 -0.010996699 4290586393
-0.00070177764 0.0050920197 -0.011745949 4289408803
0.0015358627 0.0035419906 -0.010558503 4289670433
0.00395675 0.0011972664 -0.008726364 4290325018
0.0060432106 0.00044287648 -0.0081852395 4290063389
0.0076008961 0.0020735599 -0.0095793102 4290259739
0.0091475397 0.0037040259 -0.010972694 4290390553
0.011049978 0.0037447228 -0.011076067 4290979094
0.012952246 0.0037855129 -0.011179361 4291240213
0.014665432 0.0046210322 -0.011926988 4290978583
0.016756192 0.0038672495 -0.011385789 4290651164
0.019629426 -6.469246e-05 -0.0082684532 4289145133
-0.012734756 -0.014297828 0.0021535046 4288623658
-0.011663951 -0.0094706751 -0.0018238053 4288363049
-0.011228941 -0.0014533571 -0.0083786482 4288166444
-0.0099276677 0.0017771688 -0.011062236 4289408548
-0.008492142 0.0042097657 -0.013100013 4290128414
-0.0062785223 0.0026545129 -0.011914754 4289997599
-0.0043774545 0.0026945132 -0.012018548 4290914069
-0.0026409179 0.0035320125 -0.012766421 4291307023
-0.00090998411 0.0043694428 -0.013513878 4291306769
0.0011549145 0.0036122925 -0.012973361 4290848533
0.0033975914 0.0020580958 -0.011789359 4289867293
0.0053005069 0.0020985506 -0.011892946 4289998108
0.0070252866 0.0029361895 -0.012639815 4290128923
0.0085637793 0.0045708851 -0.014029564 4290652438
0.010457978 0.0046114051 -0.014132492 4290390554
0.012165919 0.0054489109 -0.014878279 4290586648
0.014057018 0.0054895054 -0.014980933 4290586904
0.016331017 0.0039365361 -0.013798294 4291109399
0.019004181 0.00079032173 -0.011331195 4290063134
0.022092812 -0.0039487663 -0.0075805765 4289407528
-0.012630962 -0.016665282 0.0016378006 4288754219
-0.011409238 -0.012624925 -0.0016866149 4288885289
-0.010968335 -0.0045857443 -0.0082256617 4288624423
-0.0098149255 -0.00054661138 -0.011546188 4289016359
-0.0083766133 0.0018925858 -0.013579266 4290063134
-0.0064782202 0.0019324054 -0.013683007 4290193948
-0.0047415644 0.0027719536 -0.014429295 4289932573
-0.0030105039 0.0036114692 -0.015175214 4290849044
-0.0014520735 0.0052505224 -0.016563132 4291306769
0.00060450286 0.0044909674 -0.01602374 4291437584
0.0026663542 0.0037316536 -0.015484612 4289867038
0.004558295 0.0037718802 -0.015587598 4290063133
0.0066279173 0.0030128905 -0.015048777 4289998108
0.0081610307 0.0046517481 -0.016434986 4290586648
0.010049708 0.0046921293 -0.016537629 4290782998
0.011938192 0.0047325795 -0.016640207 4289278244
0.013826489 0.0047730966 -0.016742721 4289343779
0.016097583 0.0032156934 -0.015563167 4289408804
0.018185139 0.0024575405 -0.015024983 4289801503
0.021065548 -0.0014959725 -0.011924144 4290454304
0.023773335 -0.0046500433 -0.0094652995 4287968054
-0.013253242 -0.015026115 -0.0020905985 4287904049
-0.011746399 -0.012579309 -0.0041227732 4287445558
-0.011009209 -0.0061225509 -0.0093621872 4287838513
-0.010008991 -0.0012705768 -0.013316139 4287708208
-0.0087294057 0.0019769771 -0.01598558 4289408548
-0.0071541741 0.003620449 -0.017371401 4290520858
-0.0055899546 0.0052637295 -0.018756516 4289998109
-0.0038725436 0.0061051226 -0.019500086 4288820263
-0.0019937903 0.0061448044 -0.01960255 4289343779
-0.00011519343 0.0061845551 -0.019704953 4289998109
0.0019356087 0.0054228208 -0.019166844 4290521368
0.0038165748 0.005462796 -0.019269247 4289801503
0.0060530007 0.0038999454 -0.018091295 4290455578
0.0077585205 0.0047415602 -0.018833866 4290390043
0.0094584152 0.0055831415 -0.019576065 4291306259
0.0111527 0.006424679 -0.020317905 4291110164
0.013218731 0.0056637437 -0.019780274 4290652183
0.015481435 0.0041018012 -0.018603496 4290913304
0.017560743 0.0033411966 -0.018066477 4290585883
0.020235792 0.00017764419 -0.015612362 4289865253
0.022932373 -0.0029853394 -0.013159414 4286332738
-0.012083322 -0.012524756 -0.0065523968 4287052859
-0.010598324 -0.01007182 -0.0085784923 4286660669
-0.0097430274 -0.0044024331 -0.013163135 4288231469
-0.0089259446 0.0012662066 -0.017745575 4289343269
-0.007829614 0.0053260545 -0.021046735 4290390554
-0.0062762946 0.0069735018 -0.022428073 4291110419
-0.0044056326 0.0070129125 -0.022530168 4291044884
-0.0025351495 0.0070523811 -0.022632211 4290652183
-0.00049518794 0.0062881452 -0.022095196 4291110419
0.0015500337 0.0055240565 -0.021558367 4290456089
0.003425464 0.0055639041 -0.021660473 4289866783
0.0053007081 0.0056038084 -0.021762528 4289997598
0.0073562711 0.0048402236 -0.021226127 4289932063
0.0092339069 0.0048803394 -0.021328188 4290128413
0.011111371 0.004920512 -0.0214302 4290521113
0.012988627 0.0049607405 -0.021532154 4290913813
0.015057079 0.004197719 -0.020996239 4290390044
0.017130792 0.0034348662 -0.020460568 4289931554
0.019603312 0.0010656859 -0.018650109 4289668393
0.022490926 -0.0029094226 -0.015565787 4290256679
-0.012715593 -0.010848423 -0.010252539 4289407528
-0.010639347 -0.011614759 -0.0097195543 4286464063
-0.0099369884 -0.0051238346 -0.014931193 4286922553
-0.0092783049 0.0013662772 -0.020140368 4288427564
-0.0080285668 0.0046306713 -0.022795226 4289539363
-0.0063165352 0.0054761902 -0.02353536 4290586393
-0.0044459924 0.0055155759 -0.023637468 4290913813
-0.0025755987 0.0055550537 -0.023739496 4291044628
-0.00070536882 0.0055945893 -0.02384147 4290063388
0.0013369769 0.0048283036 -0.023306143 4289736224
0.0030345917 0.0056739138 -0.024045195 4289997599
0.0050820187 0.0049078898 -0.023510031 4289735969
0.0071347505 0.0041420017 -0.022975063 4289932063
0.0091926903 0.0033763419 -0.022440366 4289212198
0.011070058 0.0034164884 -0.022542389 4289408549
0.012947246 0.0034567281 -0.02264433 4289343269
0.015015557 0.0026914892 -0.022110049 4289343269
0.017283119 0.0011209571 -0.02093998 4289343014
0.019364662 0.00035607209 -0.020406291 4288622638
0.022049777 -0.0028246404 -0.017965607 4287902519
-0.013051875 -0.010771746 -0.012665731 4286529343
-0.010981269 -0.011540342 -0.012134101 4287968563
-0.0099776462 -0.0066491677 -0.016059229 4286725949
-0.0093185976 -0.00014166534 -0.021255534 4287838513
-0.0079101026 0.0023229686 -0.023267586 4289539364
-0.0061954185 0.0031707515 -0.0240063 4289800993
-0.0041581914 0.0024018451 -0.023472484 4290063134
-0.0024492517 0.0032496764 -0.024210759 4289801503
-0.00074589998 0.0040974286 -0.024948627 4289866784
0.0012962744 0.0033289366 -0.024414923 4289474338
0.003168799 0.0033686706 -0.02451691 4289408548
0.0053964481 0.0017924882 -0.023348156 4289408548
0.00745444 0.0010245428 -0.022815157 4289343269
0.0095176846 0.00025679031 -0.022282384 4289343268
0.011400387 0.00029704859 -0.022384698 4288820264
0.013282932 0.00033736322 -0.022486959 4288493098
0.015356526 -0.00042995671 -0.021954592 4288493609
0.017241433 -0.0003894777 -0.022056898 4289736223
0.019519508 -0.0019641358 -0.020890551 4288295729
0.021808252 -0.0035384509 -0.019724773 4288818734
-0.01132293 -0.011457048 -0.01454201 4287248699
-0.010171384 -0.007363657 -0.017822176 4287968819
-0.0092030317 -0.0024600776 -0.021735705 4287184438
-0.007791765 1.1168886e-05 -0.02374305 4289212454
-0.0060743839 0.00086108549 -0.024480296 4289343269
-0.0041986108 0.00090055587 -0.024582706 4290324509
-0.0023229942 0.00094009563 -0.024685059 4289604899
-0.00027810037 0.00016939221 -0.024153184 4289147174
0.0017720833 -0.00060112914 -0.023621548 4288493353
0.0034777895 0.00024897698 -0.024357837 4288755239
0.005710654 -0.0013314304 -0.023192653 4288166444
0.0075936243 -0.001291371 -0.023295132 4288362794
0.0094764158 -0.0012511951 -0.023397513 4288362538
0.011544786 -0.0020209709 -0.022866601 4288231723
0.013241492 -0.0011706846 -0.023602124 4287970604
0.015506133 -0.0027501176 -0.022438373 4288493609
0.017587572 -0.0035194112 -0.021908021 4288558124
0.020067468 -0.0059080995 -0.020112544 4288099888
0.021965548 -0.0058672321 -0.020215485 4286333249
-0.0099057928 -0.010512173 -0.017681498 4288753198
-0.0089317635 -0.0055954745 -0.021585625 4288427819
-0.0073564872 -0.0039303312 -0.02295538 4288493353
-0.0057922304 -0.0022653928 -0.024324443 4289016868
-0.0035832524 -0.0038510701 -0.02316149 4289540384
-0.0018635094 -0.002998763 -0.02389713 4288494119
0.00018938631 -0.0037715088 -0.023367334 4288232234
0.0020754635 -0.0037316068 -0.023470148 4288166444
0.0039613694 -0.0036916244 -0.023572892 4288362538
0.0060246736 -0.0044639604 -0.023043446 4288100653
0.0079129711 -0.0044237776 -0.02314621 4288035118
0.0099840686 -0.005195742 -0.022617109 4288100653
0.011689089 -0.0043432293 -0.023351565 4288231725
0.013388477 -0.0034907032 -0.024085689 4287969839
0.015464537 -0.004262419 -0.023556681 4288754983
0.017545849 -0.0050339173 -0.023027953 4288230703
0.020025499 -0.0074291597 -0.021237317 4287904559
-0.011855185 -0.012078885 -0.018706221 4286136899
-0.010099426 -0.011224099 -0.019442553 4286987323
-0.0089721456 -0.0071094055 -0.022705223 4288492589
-0.0073968694 -0.005439952 -0.024071787 4288231469
-0.0056714416 -0.0045855162 -0.024806248 4288493608
-0.0034599528 -0.0061755874 -0.023646656 4288951588
-0.0015709475 -0.0061358106 -0.023749769 4288493864
0.00048723817 -0.0069106249 -0.023221876 4288428584
0.0025506839 -0.0076852576 -0.022694219 4288428330
0.0040951446 -0.0060159941 -0.024058685 4288493609
0.0061610043 -0.0067904387 -0.023531055 4288100653
0.0078717545 -0.0059357728 -0.024264317 4287969839
0.010125607 -0.0075243493 -0.023106664 4288100653
0.011647701 -0.0058552874 -0.024469707 4288035118
0.013535418 -0.0058149481 -0.024572313 4288231725
0.015231937 -0.0049602841 -0.025304651 4288819753
0.017504163 -0.0065482557 -0.024147764 4288034609
0.019787058 -0.008135885 -0.022991449 4287510839
-0.012496598 -0.010336585 -0.022356816 4287050819
-0.010445856 -0.011114316 -0.021830488 4285875268
-0.0091681704 -0.0078060385 -0.024454774 4287707443
-0.0074372217 -0.0069493931 -0.025188059 4287904559
-0.0055507421 -0.0069098547 -0.025291173 4288624934
-0.0031729117 -0.0093212146 -0.023505339 4288690469
-0.0012785718 -0.0092813382 -0.023608755 4288690469
0.00061561912 -0.0092413928 -0.023712106 4288297258
0.0023376867 -0.0083845649 -0.024444558 4288231723
0.0040541366 -0.0075277938 -0.025176659 4288297004
0.0062972531 -0.0091210967 -0.024021756 4288231725
0.0080107003 -0.0082642613 -0.024753597 4288100653
0.010449916 -0.01067376 -0.022970695 4287773233
0.011977457 -0.0090002157 -0.024330873 4287773233
0.013682261 -0.0081433374 -0.025062077 4288296493
0.015190467 -0.0064700679 -0.0264211 4288557614
0.017268799 -0.0072460999 -0.02589545 4287772214
0.019352376 -0.0080219023 -0.025370073 4287967799
-0.0092084408 -0.009317453 -0.025572516 4287183929
-0.0074775368 -0.0084586646 -0.026304211 4287773233
-0.0054301023 -0.0092384191 -0.02577915 4288297768
-0.0035411417 -0.0091987764 -0.02588236 4288232233
-0.0014858469 -0.0099781333 -0.025357634 4288952099
0.00023631006 -0.0091192322 -0.026088554 4288363049
0.0021248162 -0.0090793688 -0.02619157 4288035884
0.0038385317 -0.0082204575 -0.026921965 4288034864
0.0059013739 -0.0089993998 -0.026397387 4288231214
0.0077894181 -0.0089593288 -0.026500214 4288100399
0.010042869 -0.010556665 -0.025349028 4288100399
0.011936039 -0.010516357 -0.025452038 4288558123
0.01382903 -0.010475954 -0.025554968 4289015848
0.015149064 -0.007979732 -0.027537465 4288295729
0.017033614 -0.007939416 -0.027639866 4288229683
-0.0092486665 -0.010828759 -0.026690183 4287314488
-0.0075178146 -0.009967817 -0.027420275 4287838513
-0.0056315437 -0.009928342 -0.027523421 4287904813
-0.0035816953 -0.010710159 -0.027000062 4288427563
-0.0015265644 -0.011491723 -0.026476959 4288624168
0.00019558519 -0.010630691 -0.0272063 4288427308
0.0017402619 -0.0089484947 -0.028561264 4287969073
0.0036230832 -0.008908689 -0.028663922 4287641908
0.0055057555 -0.0088688266 -0.028766528 4287511348
-0.011636354 -0.0099080261 -0.029580479 4286267458
-0.0097553506 -0.0098688286 -0.029683461 4287510583
-0.0080326945 -0.0090059685 -0.030411482 4287576373
-0.0059937462 -0.009790251 -0.029889259 4288100399
-0.0039495006 -0.010574328 -0.029367255 4287184438
-0.0018999651 -0.011358223 -0.028845489 4287707954
-0.00052112341 -0.0058651292 0.051187582 4281684853
0.026771396 -0.0077518728 0.027923398 4281618809
-0.031540941 -0.0051307245 -0.0021981932 4282339948
-0.023150101 -0.0089527015 0.00061334949 4283056499
-0.024627432 -0.0071323966 -0.010401745 4282273394
-0.029008642 -0.0055172844 -0.01388411 4282468979
-0.022883121 -0.007820515 -0.01228119 4282339183
-0.03107902 -0.0062721344 -0.015545246 4282338673
-0.035163842 -0.0062491656 -0.017735193 4280304028
-0.025666609 -0.0060562179 -0.018258825 4282929254
-0.027605135 -0.0076133162 -0.019277185 4281813885
-0.020288482 -0.0058313012 -0.02096325 4282468468
-0.018293031 -0.0081213117 -0.021554329 4282726783
-0.030085634 -0.0074168551 -0.023944769 4282798439
-0.032504458 -0.0056842174 -0.027477682 4282470508
-0.019122258 -0.0085593779 -0.02805509 4282470253
-0.023334544 -0.0076689748 -0.030839793 4282536553
-0.019587427 -0.007591947 -0.031045724 4282470253
-0.023646373 -0.0075142621 -0.033196844 4282535533
-0.019626692 -0.0090897307 -0.032153431 4282536553
-0.024094306 -0.006522255 -0.036170468 4282339948
-0.020091273 -0.0081025222 -0.035129368 4281553529
-0.024541855 -0.0055171074 -0.039134301 4282733414
-0.020130292 -0.0095934998 -0.036232047 4282405738
0.001288563 -0.0079392046 -0.042743292 4282732648
