# .PCD v0.7 - Point Cloud Data file format
VERSION 0.7
FIELDS x y z rgba
SIZE 4 4 4 4
TYPE F F F U
COUNT 1 1 1 1
WIDTH 968
HEIGHT 1
VIEWPOINT 0 0 0 1 0 0 0
POINTS 968
DATA ascii
-0.013117224 0.0071659237 -0.0095481668 4289800739
-0.011541121 0.0087769218 -0.010967901 4290651164
-0.0098504163 0.0096022449 -0.011732045 4290323744
-0.0079085752 0.0088564903 -0.011186198 4289996834
-0.0058303438 0.0073255338 -0.0099860728 4289996579
-0.0036075674 0.0050095245 -0.0081320414 4289799973
-0.0012320615 0.0019086339 -0.0056246715 4288884269
0.0017220154 -0.0043326989 -0.00050216005 4288361009
0.0047195107 -0.010573018 0.0046178624 4287968054
0.0074710399 -0.015241958 0.0084277913 4287247424
-0.037933886 -0.001933774 -0.0031800764 4288753453
-0.03642527 0.0012594052 -0.0059155086 4289015594
-0.034763642 0.0028750561 -0.0073383143 4289211944
-0.03311298 0.0044906661 -0.0087603899 4289015594
-0.031473268 0.0061061122 -0.010181673 4288950314
-0.029748915 0.0069330521 -0.010947114 4289080873
-0.027931761 0.0069716759 -0.011057192 4289931554
-0.026013628 0.0062221363 -0.010512419 4289211434
-0.024090122 0.0054728277 -0.009967885 4289211434
-0.022161257 0.0047237538 -0.0094235856 4289341993
-0.020445473 0.0055511072 -0.010188063 4289211178
-0.018623292 0.0055904053 -0.010298023 4289538599
-0.017030545 0.0072057657 -0.011715789 4289080874
-0.015214004 0.0072451793 -0.011825234 4289277223
-0.013397582 0.0072846971 -0.011934592 4289277223
-0.011704098 0.0081121698 -0.012697352 4290193184
-0.010016192 0.008939594 -0.013459651 4290454813
-0.0082055554 0.0089792944 -0.013568431 4290192928
-0.0058710091 0.0058686025 -0.011065213 4290389024
-0.0033810772 0.0019709319 -0.0079104183 4289341738
-0.00059114769 -0.0035010949 -0.0034518675 4288818733
0.00223675 -0.0089721214 0.0010044522 4288491314
-0.03989901 -0.0026576631 -0.0048157591 4288230194
-0.038545948 0.0021260045 -0.0088539943 4288491823
-0.036887035 0.0037458502 -0.010273479 4288950058
-0.035239063 0.0053655691 -0.011692222 4289538853
-0.033602059 0.0069852285 -0.013110241 4289669668
-0.031883176 0.0078141205 -0.013873818 4289211944
-0.03007427 0.0078524537 -0.01398348 4289146408
-0.028167166 0.0071003921 -0.013439735 4289931043
-0.026355676 0.0071390085 -0.013549386 4289930788
-0.024440549 0.0063873492 -0.013005959 4289015083
-0.02252005 0.0056358725 -0.012462731 4289341993
-0.020812526 0.0064652599 -0.013225143 4289211434
-0.018998656 0.0065043904 -0.013334593 4289276968
-0.0174141 0.0081239231 -0.014748631 4289211944
-0.015488539 0.0073730648 -0.014205405 4289342759
-0.013677694 0.007412456 -0.01431443 4288950058
-0.011744175 0.0066620074 -0.013771507 4289211944
-0.010056339 0.0074915849 -0.014532201 4289473574
-0.0081176087 0.0067414418 -0.013989448 4289604389
-0.0057807118 0.0036220774 -0.011492853 4289080873
-0.0031548142 -0.0010762103 -0.0076950537 4288884778
-8.7220222e-05 -0.0081426967 -0.0019460513 4288557359
0.00289011 -0.014418341 0.0031491984 4287574843
-0.041246973 -0.0097218715 -0.0012240007 4287248443
-0.04025396 -0.00095912069 -0.0085191298 4287510583
-0.038747877 0.0022512935 -0.011241565 4288426288
-0.037179038 0.0046683885 -0.01331006 4288688174
-0.035539277 0.0062922835 -0.014725071 4289015594
-0.034000512 0.0087089874 -0.016791562 4290062114
-0.032107092 0.007954184 -0.016248735 4290193184
-0.030399268 0.0087851696 -0.017009983 4290389024
-0.028500531 0.0080307014 -0.016467316 4290389024
-0.026798299 0.0088618249 -0.017228035 4289407528
-0.024686947 0.0065225549 -0.015382769 4289603623
-0.022772104 0.0057688318 -0.01484085 4289341993
-0.020961009 0.0058077984 -0.01495021 4289015083
-0.019373655 0.0074316375 -0.016361263 4289734949
-0.017682742 0.0082630403 -0.01712084 4290716444
-0.015880093 0.0083021447 -0.017229451 4290454814
-0.013837565 0.0067569353 -0.01603719 4290389278
-0.011906963 0.0060042106 -0.015495732 4289080873
-0.010096475 0.0060438104 -0.015604576 4288884779
-0.0080297701 0.0044994242 -0.014413475 4288622894
-0.0054287612 -0.00021253899 -0.010624009 4288491569
-0.0023943745 -0.0072994493 -0.0048876437 4288949804
0.00055253878 -0.013593331 0.00019645496 4288622894
0.0031257123 -0.017510708 0.003330254 4287967544
-0.041514672 -0.0088247508 -0.0042812461 4287248443
-0.040213034 -0.0032192674 -0.0089531168 4287380024
-0.038704146 -1.1175871e-07 -0.011669273 4288230193
-0.037132557 0.0024235249 -0.013733044 4288295473
-0.035664625 0.0056420676 -0.016446525 4288164659
-0.034128562 0.0080652349 -0.018508008 4288753453
-0.032330774 0.0081032105 -0.018617084 4289211434
-0.030533053 0.0081412978 -0.018726077 4289604134
-0.028637251 0.0073846541 -0.018184876 4289407784
-0.026836941 0.0074230321 -0.018293852 4289342504
-0.024829511 0.0058719777 -0.017103177 4289407784
-0.022917595 0.0051160194 -0.016562698 4289604134
-0.0212184 0.0059495233 -0.017321343 4289342504
-0.019524749 0.0067830309 -0.018079558 4290258464
-0.017722148 0.0068220384 -0.018188238 4290062369
-0.015685212 0.0052722432 -0.01699896 4290520093
-0.013637494 0.0037227944 -0.015810242 4290716444
-0.011824299 0.0037623532 -0.015919322 4289931554
-0.01001123 0.0038020052 -0.016028324 4289015338
-0.0078139491 0.0014590994 -0.014192325 4288818478
-0.0048155114 -0.0056482852 -0.0084684212 4289080874
-0.0020352937 -0.01116633 -0.0040433127 4288752943
0.00078289583 -0.016683366 0.00037957134 4287705913
-0.041247904 -0.013496812 -0.0027799425 4287640634
-0.039935127 -0.0078758728 -0.0074411854 4287641143
-0.038497016 -0.0038504116 -0.010801022 4287903283
-0.037001718 -0.0006227009 -0.013509785 4288229938
-0.035528257 0.0026046485 -0.016217146 4288360753
-0.03398671 0.005034402 -0.018274082 4288360754
-0.03227628 0.0058697127 -0.019032316 4288295474
-0.030571345 0.0067049302 -0.019790122 4288688174
-0.028773837 0.0067431293 -0.019899013 4288949803
-0.026976401 0.0067814514 -0.020007811 4289342504
-0.025075492 0.0060229488 -0.019468382 4289538599
-0.023169223 0.005264651 -0.018929135 4289538599
-0.021366574 0.0053034239 -0.019037995 4290192673
-0.019675732 0.0061390884 -0.01979447 4289146409
-0.017875984 0.0061780065 -0.019903 4289015593
-0.015842024 0.004623767 -0.018716715 4289080873
-0.013677411 0.0022733398 -0.016883882 4289473574
-0.011864353 0.0023128726 -0.016992973 4289277223
-0.0099260882 0.0015560463 -0.016455075 4289080619
-0.0075983703 -0.0015896689 -0.013977427 4289080109
-0.0044643879 -0.0095129348 -0.0076218247 4289015338
-0.0016765743 -0.015045973 -0.0032085073 4288621874
0.00074059516 -0.018189449 -0.00073595298 4287967289
-0.039894581 -0.010150781 -0.0078861071 4287445049
-0.038290225 -0.0077135339 -0.0099422708 4287968819
-0.036786675 -0.0044769701 -0.012645085 4288033589
-0.03513068 -0.0028396305 -0.014051429 4288098868
-0.033665359 0.00039639696 -0.016751723 4288426289
-0.032036707 0.0020333491 -0.018156191 4288426289
-0.030419003 0.003670197 -0.019559896 4288622894
-0.028812265 0.0053069703 -0.020962896 4288426798
-0.027014973 0.0053452849 -0.021071687 4288492078
-0.02532123 0.0061827935 -0.021826942 4289211178
-0.023420606 0.0054222494 -0.021289004 4288949803
-0.021732479 0.0062598735 -0.022043744 4290127139
-0.019938223 0.0062985569 -0.022152027 4290192673
-0.018029697 0.0055385344 -0.021614308 4289342759
-0.015998706 0.0039798431 -0.020431105 4289277223
-0.013956949 0.0024215616 -0.019248493 4289604389
-0.0119044 0.00086363032 -0.018066445 4289800484
-0.009715803 -0.0014926363 -0.01623971 4289210924
-0.0069990642 -0.0070427377 -0.011833568 4288948784
-0.0041136332 -0.013390357 -0.0067847632 4287836728
-0.0014516227 -0.018140078 -0.0030279271 4286789444
-0.039775226 -0.013231613 -0.0076876041 4286986814
-0.038247041 -0.0099859592 -0.010385551 4287772469
-0.036656335 -0.007542301 -0.012435983 4287706678
-0.03490784 -0.0067021642 -0.013193466 4287837749
-0.033344459 -0.004258858 -0.015242072 4288230193
-0.031612411 -0.0034188144 -0.015998367 4288230193
-0.030171636 -0.00017440692 -0.018690562 4288034354
-0.028556753 0.001466848 -0.020090779 4288361264
-0.026952835 0.0031080395 -0.021490285 4288295729
-0.025256459 0.003947787 -0.022244072 4288360753
-0.023565598 0.0047875233 -0.022997452 4289015083
-0.021880265 0.0056272671 -0.023750404 4289538600
-0.020200476 0.0064670518 -0.024502974 4290454048
-0.018526208 0.007306762 -0.025255105 4290585374
-0.01638934 0.0049425289 -0.023430334 4290389279
-0.014356002 0.0033796988 -0.02225046 4290454558
-0.011944424 -0.00058540329 -0.01913977 4289931044
-0.009505745 -0.0045497846 -0.016030613 4289014063
-0.006656196 -0.010915762 -0.010992635 4288491059
-0.0038938671 -0.016479971 -0.0066004521 4287116865
-0.039656095 -0.016320899 -0.0074954368 4286790463
-0.03820397 -0.012262503 -0.010831881 4287641144
-0.036441904 -0.011420045 -0.011588675 4287837748
-0.034685329 -0.010577554 -0.012345027 4287903028
-0.033024006 -0.0089312792 -0.013745136 4287707189
-0.031281158 -0.008088829 -0.014500467 4288034353
-0.029639017 -0.0064427387 -0.015899248 4287707698
-0.028203659 -0.0031896699 -0.018584525 4287969073
-0.026689518 -0.00074038655 -0.020624932 4288099889
-0.025088422 0.00090514123 -0.022020927 4288687918
-0.023498293 0.0025506057 -0.023416197 4288360753
-0.022136752 0.0058026016 -0.026096711 4288687663
-0.020462476 0.0066443793 -0.026847305 4289015083
-0.018793732 0.0074861422 -0.027597489 4290062114
-0.016662627 0.0051153079 -0.025777252 4289865763
-0.014515288 0.0027448721 -0.023957888 4289669158
-0.011617187 -0.0044433568 -0.018286373 4289080109
-0.0090456419 -0.0092214476 -0.014543779 4288883759
-0.006057959 -0.01640749 -0.0088774813 4288229174
-0.0035437495 -0.020380868 -0.0057807798 4287639359
-0.0014023483 -0.021945193 -0.004610193 4287117629
-0.037916426 -0.016961493 -0.0093521699 4287444283
-0.036227811 -0.015310524 -0.010750877 4287575354
-0.034637101 -0.012853755 -0.012791495 4287706423
-0.032883391 -0.012009038 -0.013545973 4287576118
-0.031042773 -0.011970179 -0.013657669 4287707189
-0.029297356 -0.011125354 -0.014411507 4287903538
-0.027753161 -0.0086690951 -0.016448952 4287969074
-0.026225381 -0.0062130373 -0.018485367 4287968563
-0.024714001 -0.0037571937 -0.020520691 4288099634
-0.02321903 -0.0013016332 -0.022554897 4287968819
-0.021957975 0.0027647391 -0.025870824 4288230449
-0.020278342 0.0036088526 -0.026620168 4288164913
-0.01860423 0.0044528991 -0.027369063 4288491823
-0.016584903 0.0028809234 -0.026194841 4288884014
-0.014315516 -0.00030127168 -0.023739761 4288688174
-0.011535015 -0.0067036971 -0.018723655 4288753198
-0.0085859969 -0.013910273 -0.01306966 4288098358
-0.00597151 -0.01870038 -0.0093391947 4287705659
-0.0015776455 -0.022643227 -0.0063633537 4286006084
-0.034328241 -0.017558597 -0.011317757 4287510329
-0.032743007 -0.015095258 -0.013353154 4287510329
-0.030989446 -0.014248272 -0.014105933 4287707189
-0.029241391 -0.013401264 -0.014858278 4287772468
-0.027694454 -0.010938382 -0.016891088 4287706933
-0.02606339 -0.0092835799 -0.018282551 4288034098
-0.024443284 -0.0076289736 -0.019673251 4287707189
-0.022834145 -0.0059744585 -0.021063183 4287968563
-0.021453355 -0.00270468 -0.023731953 4287903538
-0.019760184 -0.0018581506 -0.024480462 4288099889
-0.018186688 -0.00020402297 -0.025868028 4288034353
-0.016156726 -0.0017801169 -0.024697676 4288556848
-0.013876829 -0.0049707275 -0.022249725 4288360244
-0.01096376 -0.012197763 -0.01660818 4288163894
-0.0082518458 -0.01780897 -0.01224706 4287835963
-0.030843923 -0.017340686 -0.013918105 4287444793
-0.029090514 -0.016491378 -0.014669151 4287641144
-0.027635848 -0.0132118 -0.017336281 4287772468
-0.025901619 -0.012362679 -0.018086001 4287838004
-0.024276096 -0.010703539 -0.019473819 4287838004
-0.022555627 -0.0098544937 -0.020222545 4287903540
-0.021057941 -0.0073857419 -0.022247158 4288034353
-0.019353975 -0.0065367799 -0.02299476 4287968563
-0.017655525 -0.0056878701 -0.023741901 4288034099
-0.015612207 -0.0072680246 -0.022575585 4287903028
-0.013319083 -0.010467052 -0.020134894 4287968054
-0.010515317 -0.016903808 -0.015145995 4287640889
-0.0079180375 -0.021720499 -0.011433965 4286985539
-0.028749922 -0.021214698 -0.01321156 4286987068
-0.027381968 -0.017113905 -0.016510082 4287576118
-0.025740072 -0.015450208 -0.017895769 4287576374
-0.02421226 -0.01297454 -0.019917544 4287510838
-0.022383299 -0.012935342 -0.020028098 4287576374
-0.020771567 -0.011271933 -0.021411695 4287968819
-0.019059505 -0.010420665 -0.022158125 4287903538
-0.017581005 -0.0079455674 -0.024176635 4287968819
-0.015418492 -0.010341872 -0.022377644 4287772213
-0.012881376 -0.015173111 -0.018671902 4287641144
-0.0099451691 -0.022438768 -0.013060812 4287641144
-0.025277693 -0.020989409 -0.015805505 4286987323
-0.023839314 -0.017692631 -0.018458543 4287510839
-0.022316992 -0.015210375 -0.020475082 4287510583
-0.020485524 -0.015171031 -0.020585718 4287641654
-0.018876616 -0.01350324 -0.021965841 4287707189
-0.017278675 -0.011835622 -0.023345184 4287706933
-0.015341669 -0.012610206 -0.022820454 4287771703
-0.012682926 -0.018268447 -0.01849021 4287903283
-0.0097419433 -0.025553579 -0.012893953 4287576118
-0.0076259822 -0.027140481 -0.01173827 4287051073
-0.021722108 -0.021571772 -0.017757654 4287183418
-0.02009137 -0.019899352 -0.019135933 4287379769
-0.01869395 -0.016594348 -0.021779807 4287576118
-0.017090585 -0.014922218 -0.023156285 4287903284
-0.015031718 -0.016515125 -0.022000628 4287706423
-0.012365367 -0.022188369 -0.017682185 4287706679
-0.0096610188 -0.027860725 -0.013365909 4287510329
-0.0075425841 -0.029451957 -0.01221363 4286920004
-0.019697662 -0.024644852 -0.017698878 4286333249
-0.018289264 -0.021330951 -0.020336978 4287379769
-0.01667504 -0.019654259 -0.021710899 4287445049
-0.01437242 -0.022888031 -0.01929667 4287772469
-0.01192886 -0.026939522 -0.016252598 4287707190
-0.0094581805 -0.030990321 -0.013210078 4287248188
-0.013830323 -0.028466282 -0.017241504 4287117630
-0.011731252 -0.030066904 -0.016094645 4287247934
-0.0094994493 -0.032487553 -0.014319105 4286724675
0.0043224879 -0.018813502 -0.0027210796 4282018394
0.0039969496 -0.018716045 -0.0051199603 4281234269
0.0018027313 -0.018651254 -0.0074003302 4281890128
0.0014832914 -0.018535893 -0.0097863032 4281433423
-0.00042203069 -0.020066954 -0.010778111 4282609484
0.0011641085 -0.018411579 -0.01216572 4280256599
-0.0040204152 0.039447788 0.021225153 4278790603
-0.011669215 0.039277736 0.01918688 4279053764
-0.010081924 0.040784005 0.017688423 4278792643
-0.0087598264 0.043756437 0.014803334 4279186364
-0.0069405101 0.043795999 0.014693788 4279777199
-0.0049888343 0.043102611 0.015277716 4278331859
-0.002490852 0.039477389 0.018634275 4279315394
-0.013545368 0.037766006 0.018207204 4278727364
-0.012195598 0.040747654 0.015326778 4278661574
-0.0069806762 0.042337123 0.013613167 4280235943
-0.0052941181 0.04311211 0.012811945 4279382713
-0.0013861358 0.041721348 0.013976551 4278662084
0.00085706636 0.039556172 0.015941 4279056058
0.0032598339 0.036656391 0.018595671 4278727873
-0.015885577 0.039205808 0.014463241 4280037554
-0.014416788 0.041458379 0.012280175 4278858943
-0.012843013 0.042972993 0.010789025 4279119809
-0.0071505457 0.041616026 0.01184239 4278329309
-0.0054667704 0.042393129 0.011043026 4278589918
-0.0017024577 0.041735273 0.011514918 4279054784
0.00039441511 0.040300656 0.012785255 4278924479
0.0023587048 0.03960361 0.013365499 4278531014
0.0044742897 0.038169634 0.014634804 4279121084
0.0085861534 0.036039639 0.016482752 4278855374
-0.01741061 0.035483588 0.015558915 4279647148
-0.016389206 0.04070295 0.010621621 4279056314
-0.015049987 0.043701779 0.0077547571 4278990779
-0.013246983 0.043740768 0.0076460345 4279581868
-0.011319932 0.043040019 0.0082264403 4279448503
-0.0091338083 0.040860046 0.01018425 4279381948
-0.0073203184 0.040899564 0.010075114 4278726854
-0.0056393221 0.041678805 0.0092775514 4278792899
-0.0039639287 0.042458002 0.0084803896 4278858178
-0.0021563619 0.042497691 0.0083718346 4278924224
-0.00020842627 0.041798014 0.0089513725 4278727108
0.0018880256 0.040359188 0.010218536 4279119809
0.0037032515 0.040399324 0.010109731 4278594508
0.0070303231 0.041958254 0.0085176034 4278462419
0.026606664 0.0037813783 0.043562323 4282928234
-0.018242732 0.039210115 0.0096542528 4278925498
-0.011607829 0.043076839 0.0057796435 4279055293
-0.0095542893 0.041632097 0.0070457691 4278859198
-0.0076195374 0.040929582 0.0076242061 4279055804
-0.0058117695 0.0409691 0.0075155059 4278793663
-0.0041391663 0.04175045 0.0067201527 4279318964
-0.0024721883 0.042531837 0.0059251776 4278793919
-0.00067035481 0.042571504 0.005817051 4279186109
0.0012745112 0.041869666 0.006395285 4278266068
0.0047341138 0.042691071 0.0054931482 4280104618
0.006686613 0.04198968 0.0060711401 4280432548
0.0087984428 0.040547218 0.0073344326 4279776689
0.011077821 0.038363773 0.0092826067 4279252409
0.025723249 0.0059216805 0.03897943 4279320494
-0.0194337 0.033250798 0.012806732 4278530249
-0.018395238 0.038500991 0.0078911139 4278792899
-0.015484508 0.043044854 0.0035558688 4278660808
-0.011895485 0.043122631 0.0033395635 4278265558
-0.0099744201 0.042417567 0.0039171549 4279120064
-0.0080480389 0.041712712 0.0044944929 4279252664
-0.006116353 0.041008081 0.0050715907 4278793663
-0.0043143183 0.041047592 0.0049633225 4279450544
-0.0026501194 0.041831065 0.0041701877 4279187638
-0.00099152327 0.042614508 0.0033774571 4279056059
0.0008045733 0.042654175 0.0032697665 4278595528
0.012693696 0.037690293 0.0074108359 4278859454
0.025510989 0.0051112436 0.037145592 4278269893
-0.021734163 0.034732033 0.0090905856 4279908523
-0.020245735 0.037011009 0.0069256374 4278989758
-0.017086707 0.040075097 0.0039682807 4280105383
-0.0154052 0.040860448 0.0031752111 4279844773
-0.013608031 0.04089937 0.0030668834 4279514039
-0.011934966 0.041684743 0.0022744844 4278726089
-0.010267511 0.042470146 0.0014824506 4278988994
-0.0083467551 0.041762944 0.0020585554 4279383224
-0.0064207092 0.041056018 0.0026343809 4278924988
-0.0046242476 0.041095447 0.0025264816 4278859453
-0.0031031705 0.042627092 0.0010519337 4278925243
-0.0014528148 0.04341257 0.00026134145 4279121338
0.0004780516 0.042706136 0.00083716324 4279448759
0.0024142079 0.04199988 0.0014127876 4278529484
0.010524869 0.037685808 0.0050770626 4278531524
0.022544116 0.0079892278 0.032021742 4279122104
0.025801562 0.0020693056 0.037359841 4281026188
-0.02220365 0.036270265 0.0052768816 4279384753
-0.020836376 0.039304417 0.0024341131 4278663103
-0.010433711 0.041783188 -0.00026317581 4279186109
-0.0085158795 0.04107381 0.00031146131 4279054783
-0.0065927356 0.040364619 0.00088590104 4278922948
-0.0049339496 0.041152332 9.6251315e-05 4279382714
0.00015175715 0.042767052 -0.001588731 4279251643
0.0020822771 0.042058539 -0.0010144253 4279513274
0.0038696192 0.042098273 -0.0011214045 4279644089
0.0056567788 0.042138059 -0.0012283315 4279251389
0.0077515766 0.040682156 2.6353635e-05 4278727619
0.010483578 0.036235299 0.0040027448 4278466244
0.023653559 0.0012179129 0.03564341 4279125163
0.025924347 -0.00023358688 0.036887925 4282536043
-0.023317654 0.029525261 0.0090878867 4281746053
-0.022242673 0.034821909 0.0042039831 4279580848
-0.02087529 0.037864808 0.0013677112 4278728894
-0.019190971 0.038654413 0.00057759212 4278595274
-0.010599811 0.041100863 -0.0020053601 4279185598
-0.0085555725 0.039638657 -0.00075157278 4278726598
-0.0067646615 0.039677892 -0.00085919641 4278791624
-0.0052434281 0.04121818 -0.0023272624 4278595019
-0.0020939186 0.043548014 -0.0045812828 4278327268
0.0018962473 0.041375939 -0.0027553057 4279053254
0.0038291402 0.040665422 -0.002182669 4279514294
0.0057673007 0.039955128 -0.0016102745 4278923459
0.0081722587 0.036994781 0.00099924824 4278530503
0.021187082 0.0018711314 0.032572828 4279057588
0.023773685 -0.0010847449 0.035171799 4282011764
-0.022833388 0.024295222 0.011406128 4282007428
-0.02174449 0.029607467 0.0065327529 4279974568
-0.02047354 0.033412602 0.0030220174 4278266833
-0.019117072 0.036464114 0.00019296873 4279252664
-0.017551299 0.038009066 -0.0012751028 4279580084
-0.015996538 0.03955387 -0.0027423771 4279055293
-0.014452808 0.041098516 -0.0042089252 4279251644
-0.012672506 0.04113723 -0.0043161223 4278791623
-0.01076581 0.040423173 -0.0037441207 4278726088
-0.008983057 0.040462155 -0.0038513066 4278923459
-0.0070684627 0.039748479 -0.0032796254 4278594509
-0.0056873932 0.042045753 -0.0054227775 4279054273
0.0017103255 0.040697936 -0.0044927699 4278528718
0.0036403164 0.039985199 -0.0039215619 4279317434
0.0058776885 0.037768003 -0.0019952464 4279251389
0.0087463334 0.032542285 0.0026401822 4278727363
0.021952502 -0.00343531 0.034812924 4279384754
-0.021246906 0.024371468 0.0088455519 4281482894
-0.01985205 0.027432438 0.0060206032 4281022108
-0.018366288 0.029737707 0.003875386 4280429998
-0.017243691 0.034308542 -0.00030326808 4279447994
-0.015799053 0.03661314 -0.0024458426 4280170153
-0.014612939 0.040427793 -0.0059430329 4278859963
-0.012835488 0.040466446 -0.0060500531 4278596038
-0.011184644 0.041260254 -0.0068344949 4278596039
-0.009151794 0.03978904 -0.0055864519 4278988483
-0.0073720291 0.039828058 -0.0056933863 4278725069
-0.0058617145 0.041376937 -0.0071543148 4278265558
-0.0044998117 0.043680433 -0.0092913872 4280432039
-0.0027341209 0.043719452 -0.0093972431 4280432548
-0.00054012612 0.041494478 -0.0074733896 4279644598
0.001815591 0.038515363 -0.004874052 4279185598
0.0037481301 0.037800495 -0.0043046172 4278923969
0.0065919012 0.03255884 0.00032094141 4279251644
0.019170754 -0.0012640636 0.030397901 4279188404
0.021907851 -0.0049920008 0.033659983 4281552508
-0.02128654 0.022902094 0.0077570947 4281415573
-0.019781537 0.025214214 0.0056154984 4281216674
-0.018067446 0.026011053 0.0048284768 4280692394
-0.016705438 0.029080268 0.0020121634 4280692138
-0.015365358 0.032149117 -0.00080275512 4278529739
-0.014289118 0.036732275 -0.0049687191 4278463439
-0.012627307 0.037528399 -0.0057522762 4279319474
-0.011097487 0.039081756 -0.007211362 4278465224
-0.0094495714 0.039877791 -0.0079939263 4279250624
-0.0076753832 0.039916683 -0.0081005236 4278856138
0.0041522086 0.034098174 -0.0033414843 4278989503
0.019444726 -0.0043226071 0.030601155 4279320494
0.021701358 -0.0057919193 0.031833444 4279781023
0.023475051 -0.0049918219 0.031044295 4282272883
-0.022952229 0.01987398 0.0081309984 4282922879
-0.02143345 0.022192806 0.0059934044 4281415064
-0.019821141 0.02375168 0.0045321132 4280954788
-0.018107127 0.024550702 0.0037467252 4281283483
-0.016629573 0.026869025 0.0016118304 4280627368
-0.015168481 0.02918705 -0.0005219524 4280495023
-0.013723884 0.031504866 -0.0026546996 4280364718
-0.012172122 0.033062954 -0.004111886 4280364973
-0.010631409 0.034620915 -0.0055683828 4278922693
-0.0089726634 0.035419378 -0.0063499673 4280103853
-0.0077148974 0.038495708 -0.0091530392 4279056314
-0.0063445494 0.040812422 -0.011280942 4278792643
0.0017348751 0.035655785 -0.006992049 4278726853
0.0047040619 0.029624101 -0.0017148854 4278857668
0.016998321 -0.0036394317 0.027551292 4279122614
0.019718409 -0.0073895697 0.0307981 4278664124
0.023430385 -0.0065435879 0.029895021 4283187824
-0.022991851 0.018400785 0.0070396988 4282791044
-0.021580245 0.021488216 0.0042331247 4281479835
-0.019860744 0.022289421 0.0034489366 4281282463
-0.018146813 0.023090627 0.0026651784 4281020578
-0.016438439 0.023891822 0.0018818317 4281152160
-0.014971867 0.02621657 -0.00024744717 4280561578
-0.013400923 0.027779322 -0.0017026236 4280365483
-0.011964571 0.030103628 -0.0038299263 4280364718
-0.010292128 0.030904491 -0.0046107769 4280167859
-0.0087542795 0.032466885 -0.0060637668 4280102579
-0.006249547 0.038636807 -0.011656187 4278794174
-0.0048929155 0.040959898 -0.013778307 4279253429
-0.0031330287 0.040998805 -0.013883798 4279383478
-0.00094540417 0.038754124 -0.011974099 4279186619
0.0018398501 0.033465255 -0.0073792171 4279186618
0.0055515692 0.023610618 0.001241689 4279382969
0.014261596 -0.001420496 0.02316834 4279186109
0.017266743 -0.0067041181 0.027750403 4278795193
0.019991845 -0.010465024 0.030988833 4279189169
0.022097178 -0.011182006 0.031543493 4279386028
-0.021512631 0.019259799 0.0038207443 4282595204
-0.019900363 0.020827424 0.0023659533 4281742993
-0.01818651 0.02163082 0.001583827 4281349783
-0.016478214 0.022434197 0.00080211204 4281152413
-0.014775485 0.023237586 2.0825653e-05 4281413278
-0.013199113 0.024804872 -0.0014314674 4281544094
-0.011633754 0.026371989 -0.0028829784 4281348253
-0.0099532045 0.027175214 -0.0036626928 4281150883
-0.0084071979 0.028742161 -0.0051129223 4281282463
-0.0070038922 0.031072605 -0.0072331391 4280299184
-0.0056170821 0.033402767 -0.0093522388 4279904953
-0.0043838918 0.036496211 -0.012140717 4278792389
-0.0024733841 0.035771918 -0.011576612 4279841713
-0.00041501597 0.034284409 -0.01034262 4279253173
0.0028164797 0.026690435 -0.0037499354 4279318708
0.014678322 -0.0052416753 0.024042215 4278794939
0.017534889 -0.0097772256 0.027943211 4278271678
0.020106092 -0.012785874 0.030504152 4279057588
0.022213958 -0.01350495 0.031057067 4281811333
-0.019939981 0.019365709 0.0012831846 4283118464
-0.018226203 0.020171281 0.00050268049 4281742228
-0.016287457 0.019444499 0.0010627834 4281676439
-0.014697343 0.0210163 -0.00038713671 4281742228
-0.013118267 0.022588033 -0.0018363377 4281873299
-0.011673637 0.024925571 -0.0039543663 4281742229
-0.0099931583 0.025730986 -0.0047324472 4281544859
-0.0083182715 0.026536431 -0.0055101537 4281151650
-0.0066489503 0.027341787 -0.0062874262 4280954789
-0.0052539185 0.029678728 -0.0084021837 4280035259
-0.0037383027 0.031249654 -0.0098470654 4279120064
-0.0020939372 0.032054763 -0.010622613 4279578043
0.00039990246 0.028266329 -0.007386975 4279972018
0.00379223 0.019885387 -0.00014311721 4279120828
0.011961579 -0.0029955432 0.019677939 4279124143
0.014787868 -0.0075449273 0.02357097 4278994094
0.017646648 -0.012093497 0.027462121 4278928304
0.020220198 -0.015110798 0.03001646 4281285014
0.032085411 -0.015610507 0.029987201 4282144873
0.03403572 -0.015565943 0.029871365 4279455644
0.036166444 -0.016286084 0.030421816 4278471343
-0.016096946 0.016446285 0.0013172242 4282724488
-0.014383473 0.017254304 0.00053848588 4282397068
-0.012916885 0.019598786 -0.001576065 4282135439
-0.01146676 0.021943044 -0.0036896011 4281939599
-0.0097809061 0.022750769 -0.0044663763 4281742228
-0.0081006289 0.023558464 -0.0052427468 4281741463
-0.0065574981 0.025134206 -0.0066862241 4281544859
-0.0047568418 0.025173854 -0.0067942762 4281020578
-0.0030933321 0.025981497 -0.0075694053 4280430253
-0.0011559576 0.025253467 -0.007010127 4280037043
0.0013565086 0.021454562 -0.0037836852 4280233394
0.012219355 -0.0060574654 0.019879842 4280237473
0.014743924 -0.0090847705 0.022430493 4279910308
0.017446138 -0.012878943 0.025645956 4279846814
0.029572226 -0.014917446 0.026949851 4281685108
0.031514496 -0.014873153 0.02683443 4279456154
0.033456542 -0.014828758 0.026719103 4278996388
0.044503465 -0.019972282 0.030791046 4279323299
-0.011383455 0.019722443 -0.004097444 4281874573
-0.0098209903 0.021302696 -0.0055389749 4281742228
-0.0081407875 0.022112589 -0.0063137067 4281742228
-0.0064661652 0.022922467 -0.0070880251 4281808018
-0.0047971345 0.023732368 -0.0078619765 4281151648
-0.0031336844 0.024542179 -0.0086354828 4280888999
-0.0010568276 0.023041938 -0.0074123712 4280168623
0.0016003214 0.01846223 -0.0035289479 4280233648
0.012175784 -0.0075883158 0.018746017 4280172448
0.014853247 -0.011394044 0.021954786 4278924223
0.017401747 -0.014429418 0.024497615 4280564129
0.029182285 -0.014935805 0.024469858 4279324573
0.031294055 -0.015660865 0.0250181 4279521434
0.035172276 -0.015572133 0.024787851 4279191974
0.037111059 -0.015527626 0.024672855 4279455898
0.03904964 -0.015483061 0.024557918 4278931109
0.041176625 -0.016207302 0.025105536 4278864043
0.043500192 -0.01770019 0.026315199 4278536878
0.046416633 -0.021499116 0.029510774 4279192993
-0.0097351 0.019082401 -0.0059467917 4282856579
-0.0081809461 0.020666961 -0.0073844874 4281742993
-0.0063749664 0.020706665 -0.007492912 4281677203
-0.004569117 0.020746458 -0.0076012583 4281413278
-0.003037177 0.022330888 -0.0090374285 4280823464
-0.00081823766 0.02005415 -0.0071539311 4280430253
0.0018438697 0.015461486 -0.0032805088 4279578043
0.0094822273 -0.0053016115 0.014410109 4279185598
0.012433201 -0.010662872 0.018938642 4279908524
0.014809221 -0.012935542 0.020813089 4279514039
0.017045476 -0.01443598 0.022023888 4282921859
0.021711439 -0.018207487 0.025106225 4283057774
0.023326084 -0.016620195 0.023665864 4278996134
0.025263302 -0.01657627 0.023550559 4279193504
0.027200304 -0.01653224 0.023435345 4278274993
0.029309385 -0.017259639 0.023982055 4278537644
0.031073712 -0.016443936 0.023205139 4278734504
0.036515959 -0.014768437 0.021538079 4278532544
0.038446292 -0.014724052 0.021423638 4279320494
0.04288014 -0.016948123 0.023177113 4279061924
0.045982048 -0.021529086 0.027025638 4278865829
-0.0046095438 0.019301087 -0.0086718285 4282069394
-0.0029407777 0.020115416 -0.0094423918 4281218203
-0.00099852681 0.019380994 -0.0088882269 4280233904
0.0019448921 0.01322658 -0.0037003341 4279840183
0.0097344965 -0.0083694737 0.014608094 4279778474
0.012539916 -0.012971686 0.018463477 4280434589
0.014765188 -0.014476774 0.019671587 4282727548
0.021343961 -0.018216141 0.022631723 4281749114
0.022953175 -0.016624667 0.021194961 4278538154
0.029091932 -0.018040199 0.022170737 4278669224
0.030853517 -0.017222447 0.021395631 4278734248
0.032431796 -0.015631191 0.019961067 4278800038
0.034359708 -0.015587009 0.019846659 4278406063
0.036287419 -0.01554276 0.019732315 4278400964
0.040142193 -0.015454 0.019503877 4278601904
0.042642929 -0.017729085 0.021367008 4279127458
0.046129555 -0.023869485 0.026523897 4278865573
-0.0024342425 0.01556607 -0.0078683151 4281937558
-0.00048127025 0.014829654 -0.0073163789 4281675674
0.0023302101 0.0094345585 -0.0028024036 4280430253
0.0098388568 -0.010669373 0.014139734 4280760479
0.012496121 -0.014508283 0.017325399 4282333319
0.018410683 -0.015154982 0.017641377 4282796654
0.020815484 -0.017439812 0.01950467 4280243594
0.022580512 -0.0166201 0.018730681 4278669224
0.024673313 -0.017352389 0.019275002 4278800293
0.026601925 -0.017308528 0.019160302 4278931873
0.028702483 -0.018040411 0.019704264 4278406828
0.032386586 -0.017176457 0.018816659 4279062689
0.034134097 -0.016356606 0.018044107 4278800293
0.036242008 -0.017088016 0.01858793 4279323553
0.037983656 -0.016268119 0.017815864 4279061413
0.040096566 -0.016999224 0.018359531 4278865318
0.042597033 -0.019280858 0.020217817 4278996644
0.046276927 -0.026214018 0.026019098 4282143344
0.016445361 -0.016736804 0.016616443 4282599794
0.018207997 -0.015915224 0.015844097 4279851658
0.020287372 -0.01665012 0.016387437 4279063454
0.022208102 -0.016606634 0.016273059 4278799528
0.024128623 -0.016563045 0.016158776 4278668714
0.026048966 -0.016519375 0.016044566 4278864298
0.030063868 -0.017209709 0.016473198 4278399943
0.033908613 -0.017121643 0.016245009 4278799529
0.036196582 -0.018633047 0.017443713 4278669224
0.038123876 -0.018588684 0.017329486 4278407084
0.040427729 -0.020099493 0.018527348 4278866083
0.043124452 -0.023165122 0.021036377 4280374408
0.015934199 -0.015933432 0.013508079 4280637058
0.017688587 -0.015109818 0.012737874 4279327634
0.019598499 -0.015066681 0.012624063 4278472364
0.021508217 -0.01502342 0.012510362 4278472108
0.023584329 -0.015760381 0.013052417 4278471599
0.025327109 -0.014936667 0.012283171 4278732973
0.027236268 -0.014893152 0.0121697 4278273719
0.029319972 -0.015629672 0.012711504 4279190189
0.033322923 -0.016322136 0.013139538 4278602414
0.035602503 -0.017838001 0.014335492 4278734759
0.03807836 -0.020133466 0.016185462 4278472874
0.040758632 -0.023208272 0.018688934 4279062943
0.043651477 -0.027062207 0.021845447 4282143599
0.013977423 -0.017507959 0.012487911 4282600048
0.015890278 -0.017464921 0.012373804 4279523729
0.017644614 -0.016639132 0.011605219 4279260568
0.019554399 -0.016595988 0.011491425 4278801058
0.021300234 -0.015770214 0.010723479 4278538154
0.023206934 -0.015726939 0.010610016 4278338488
0.026847839 -0.014857758 0.009729594 4280043674
0.028751254 -0.014814299 0.0096165193 4279651993
0.030654483 -0.014770737 0.0095035369 4279062179
0.032917708 -0.016291425 0.01069716 4278602669
0.035008803 -0.017029688 0.011237104 4278866084
0.038032845 -0.02167803 0.015041598 4278866339
0.041089267 -0.026325479 0.018844208 4279915408
0.013627961 -0.017469291 0.010047263 4281292408
0.015224122 -0.015856599 0.0086272545 4278801568
0.0171258 -0.015813716 0.0085138865 4279194268
0.019188307 -0.016555522 0.0090533784 4278472874
0.020928636 -0.015727671 0.0082873954 4278538154
0.022829786 -0.015684523 0.0081742639 4278733738
0.028357521 -0.01477004 0.0071833269 4278532033
0.030609846 -0.01629547 0.0083743343 4278467773
0.034963779 -0.01856095 0.010103083 4278997154
0.037987337 -0.023222353 0.013897911 4278735778
0.041231461 -0.028667027 0.01834202 4281292663
0.016923793 -0.016548952 0.0067350566 4279520924
0.018822461 -0.016506033 0.0066219443 4278931618
0.020720951 -0.016463034 0.0065089054 4278735523
0.022452891 -0.015633129 0.0057450891 4278735013
0.024517402 -0.016376782 0.0062830551 4278407594
0.02624353 -0.015546817 0.0055197277 4278340274
0.032468036 -0.017776318 0.0071324254 4278669478
0.034918748 -0.02009197 0.0089692408 4279259548
0.038312644 -0.026339229 0.01405384 4281489269
0.041373551 -0.031012718 0.017836764 4282013293
0.014204159 -0.014165349 0.0024731182 4279195033
0.016247451 -0.014912032 0.0030104578 4279060904
0.023966134 -0.015529858 0.00321018 4278996643
0.02602756 -0.016275646 0.0037467983 4278538664
0.027919784 -0.01623245 0.0036343825 4278603943
0.029989019 -0.016977914 0.0041706474 4278734249
0.032603227 -0.020089282 0.0066520055 4278734503
0.035421632 -0.023988731 0.0097803948 4279653523
0.03863772 -0.02946466 0.014203502 4281685364
0.041327432 -0.03257402 0.016680514 4282209389
0.012123086 -0.014925016 0.00081971218 4279131284
0.013850145 -0.014091261 5.9127226e-05 4278931874
0.01572971 -0.014048871 -5.2920193e-05 4278668459
0.019815385 -0.015546322 0.0010187917 4278268873
0.023922153 -0.017042985 0.0020895516 4278268874
0.025811732 -0.016999926 0.001977236 4278669478
0.027875543 -0.017747773 0.0025121439 4278538154
0.029767469 -0.017704476 0.0023998274 4278799784
0.032738298 -0.022406399 0.0061685108 4280438158
0.035924137 -0.027898315 0.010582052 4279716253
0.039147817 -0.033389274 0.014993342 4281619064
0.0097479001 -0.014092384 -0.0021245689 4278605218
0.011469625 -0.013256665 -0.0028832885 4279455643
0.015370376 -0.013965929 -0.002460002 4278666928
0.017404974 -0.014717119 -0.0019252725 4279454879
0.019281365 -0.014674626 -0.0020370013 4278668714
0.023371458 -0.016175983 -0.00096852926 4278340783
0.025596023 -0.017719576 0.00021103234 4278537898
0.027656965 -0.018469729 0.0007445197 4278537898
0.030431397 -0.022392094 0.003859242 4278603433
0.03341262 -0.027106825 0.0076176184 4279325340
0.036243759 -0.031027745 0.010729087 4282274413
0.038731471 -0.033362117 0.012549249 4279063453
0.040671453 -0.033317413 0.012434306 4281489779
0.0097051412 -0.015591979 -0.0032352391 4279063199
0.011426814 -0.014754083 -0.0039923387 4279127969
0.013298132 -0.014711995 -0.0041039782 4278472364
0.017040305 -0.014627559 -0.0043270336 4279714724
0.019074537 -0.01538079 -0.0037938673 4278930853
0.021114074 -0.016133865 -0.0032609161 4278799783
0.025208898 -0.017639291 -0.0021958272 4278669478
0.027438499 -0.019187041 -0.0010197385 4278800549
0.03038682 -0.023915716 0.002730865 4278735523
0.03354726 -0.029438753 0.0071231555 4281029759
0.036198288 -0.032575335 0.0095829722 4282274669
0.0076411515 -0.016335171 -0.0048777126 4279196563
0.0093628988 -0.015495205 -0.0056332787 4279062688
0.011231534 -0.015453279 -0.005744834 4278603943
0.013100028 -0.015411269 -0.0058563184 4278864553
0.018704511 -0.015284665 -0.006190266 4278269893
0.020572349 -0.015242286 -0.0063014249 4278270659
0.024650536 -0.016752476 -0.0052386038 4279259039
0.027568653 -0.021494985 -0.0014959698 4279128988
0.030696124 -0.027034074 0.0028869133 4281488504
0.033681825 -0.031774819 0.006625623 4281947248
0.0057270899 -0.017873909 -0.0058745565 4279067024
0.0071577057 -0.015431199 -0.007913392 4279456154
0.009020932 -0.015389491 -0.0080246963 4279193760
0.011036403 -0.016147897 -0.007493943 4279651738
0.012902059 -0.016105959 -0.0076052621 4279325084
0.014925383 -0.016864004 -0.0070748408 4278997663
0.01663287 -0.016021781 -0.0078276396 4279258018
0.018498041 -0.015979575 -0.007938724 4278470834
0.020363055 -0.015937278 -0.0080497283 4278602159
0.02256535 -0.017494552 -0.0068786307 4278865318
0.024778344 -0.019051529 -0.0057080532 4278997154
0.028046988 -0.025406398 -0.00069390005 4280637058
0.030828327 -0.029361276 0.0023961449 4281554293
0.033636659 -0.033315454 0.0054846518 4281947504
0.0049637556 -0.01535785 -0.010187498 4278735524
0.0083799511 -0.013669966 -0.011690639 4278665654
0.010384366 -0.014430786 -0.011160834 4278795958
0.012549147 -0.015993729 -0.0099910805 4278531524
0.01440908 -0.015951822 -0.010101987 4279978138
0.016429365 -0.016712071 -0.0095728943 4278538408
0.018291712 -0.016669936 -0.0096838148 4278603689
0.020319842 -0.017429773 -0.0091550918 4278603433
0.022690549 -0.019793399 -0.0073477989 4278735014
0.025420174 -0.023760512 -0.0042628925 4280309384
0.028524987 -0.029330738 9.8666584e-05 4282078574
0.031137235 -0.0324945 0.0025412533 4282209388
0.033411995 -0.034054127 0.0037050736 4282537318
0.0030638613 -0.016884863 -0.011176717 4278868123
0.0046334192 -0.015234059 -0.012566378 4278734503
0.0063388124 -0.014388012 -0.013316252 4279125928
0.0080386177 -0.013542041 -0.014065683 4278664889
0.010037415 -0.01430518 -0.013537169 4279058353
0.015905127 -0.015789017 -0.012591358 4278865574
0.017922364 -0.016551385 -0.012063684 4278669224
0.020276636 -0.018922055 -0.010260295 4278406828
0.023152843 -0.023704812 -0.0065444317 4278734504
0.026232824 -0.029290916 -0.0021927701 4280046478
0.029002637 -0.033267912 0.00088172738 4282209133
0.03109242 -0.034028187 0.001405417 4282405993
0.0027392432 -0.0167564 -0.01355256 4279259549
0.0044474155 -0.015908215 -0.014301058 4278733739
0.0062967986 -0.015866976 -0.014411654 4279322788
0.0079965591 -0.015018841 -0.015159475 4280109718
0.0098429471 -0.014977448 -0.015269727 4279716254
0.011689208 -0.014935961 -0.015379902 4279517354
0.015702039 -0.016465863 -0.014326658 4278537643
0.017716385 -0.017230481 -0.013800432 4278800039
0.020399272 -0.02122058 -0.010729031 4278668968
0.02344624 -0.026822716 -0.0063868309 4280111249
0.026359864 -0.031617623 -0.0026827771 4282077553
0.028610051 -0.03318673 -0.0015241253 4282405228
-0.0020609498 -0.023216303 -0.010496304 4280898178
0.00098375604 -0.019087605 -0.013902146 4279327889
0.0026974455 -0.0182373 -0.014649415 4278996133
0.0045495704 -0.018196102 -0.014760251 4278275503
0.007954523 -0.016495425 -0.016253106 4279716763
0.0096486509 -0.015645167 -0.016998919 4280109463
0.011492074 -0.015603764 -0.017108936 4279585949
0.013650537 -0.017179815 -0.015948437 4278667948
0.0154991 -0.017138114 -0.016058628 4278472108
0.017836623 -0.019522332 -0.014264026 4278735014
0.020521812 -0.023523271 -0.011200852 4279259549
0.023570962 -0.029140629 -0.0068700523 4281815414
0.02614443 -0.032331582 -0.0044447016 4282405228
0.02821777 -0.033096693 -0.0039233454 4282537063
-0.0021027178 -0.02470999 -0.011602662 4280569484
-0.0005055815 -0.023045883 -0.012984551 4280308363
0.0010805465 -0.021381844 -0.014365724 4279717529
0.0027968958 -0.020529319 -0.015111547 4278733993
0.0043637156 -0.018865503 -0.016491411 4278275758
0.0060662106 -0.018013101 -0.01723627 4278405809
0.015456572 -0.01861679 -0.017153777 4278865828
0.017956764 -0.021818336 -0.014730697 4278866083
0.020975627 -0.027451716 -0.010409488 4279719569
0.023695573 -0.031462658 -0.0073563997 4281815923
0.025758028 -0.032230299 -0.0068360907 4282602088
-0.0037525706 -0.027872123 -0.011329519 4281812864
-0.0021444522 -0.026203534 -0.012708915 4279783573
-0.00041161478 -0.025348686 -0.013454274 4279717273
0.0010387935 -0.022866715 -0.015465533 4279783064
0.0030373894 -0.023638997 -0.014943797 4279586460
0.0046096705 -0.021970786 -0.016320741 4278996389
0.006317541 -0.021116087 -0.017064299 4280045203
0.007721208 -0.018634751 -0.019072462 4278342569
0.012935832 -0.016884442 -0.020666569 4278603688
0.015253864 -0.019282203 -0.018880613 4278931873
0.018239729 -0.024931615 -0.01456879 4280636549
0.021263465 -0.030580033 -0.010259198 4282143854
0.02382008 -0.033788867 -0.0078458413 4282209388
-0.0055408739 -0.030226927 -0.011694055 4282860403
-0.0039244965 -0.028553866 -0.013070834 4280502929
-0.002186168 -0.027696861 -0.01381501 4279651739
-0.00045339763 -0.02683985 -0.014558756 4279520924
0.0014122091 -0.026798595 -0.014670579 4279520924
0.0031365827 -0.025941573 -0.015413677 4279389598
0.0047115684 -0.024268907 -0.01678759 4279061924
0.0062755719 -0.022596464 -0.018160755 4278799529
0.0076792985 -0.02010864 -0.020164102 4279651739
0.0092185736 -0.018436553 -0.021535642 4278866338
0.010746822 -0.016764557 -0.022906486 4278603433
0.012736291 -0.017538676 -0.022385418 4278930853
0.015371583 -0.021573555 -0.019343643 4279259549
0.018522456 -0.028053334 -0.014413211 4281815668
0.021385528 -0.03290173 -0.010745103 4282340459
0.023439653 -0.03367411 -0.010227606 4282209389
-0.0055824891 -0.031726558 -0.012804839 4281419398
-0.0037057996 -0.031685378 -0.012917563 4280567953
-0.0020949841 -0.030008012 -0.014290722 4279650974
-0.00035956129 -0.029148795 -0.015033031 4279520668
0.0013703182 -0.028289592 -0.01577493 4279455643
0.0032356679 -0.028248245 -0.015886666 4279520924
0.0048133731 -0.026571216 -0.017257547 4279127713
0.006673038 -0.026529806 -0.017368801 4279585694
0.0082342029 -0.024852991 -0.018738503 4279585184
0.0097843409 -0.023176294 -0.020107524 4278931364
0.011014231 -0.019864717 -0.022733646 4279259038
0.013166323 -0.021458376 -0.02158574 4279390363
0.015809342 -0.025503974 -0.018552521 4281619829
0.019130535 -0.032818325 -0.013007003 4281554293
0.021507494 -0.035227705 -0.011234103 4282341224
-0.0057514608 -0.03240566 -0.014544492 4281091724
-0.0038776249 -0.032364547 -0.014657049 4280502929
-0.0021367148 -0.031503148 -0.015398158 4279586203
-0.00013028085 -0.032282028 -0.014881924 4279717273
0.0016049705 -0.031420577 -0.015622562 4279783319
0.0031936876 -0.029739102 -0.016990904 4279520924
0.0047713891 -0.02805773 -0.018358558 4279324318
0.0066309422 -0.028016357 -0.018469831 4279324063
0.0083412379 -0.02715504 -0.019208662 4279848599
0.010045968 -0.026293775 -0.01994711 4279848599
0.011435978 -0.02379307 -0.021939838 4278800039
0.013438702 -0.024571262 -0.021422809 4279128479
0.016246751 -0.029447263 -0.017770929 4281423224
0.018924542 -0.033502877 -0.014747803 4281881713
-0.0059202947 -0.033080302 -0.01628077 4282143599
-0.0040493011 -0.033039261 -0.016393164 4280832134
-0.0020456649 -0.03382051 -0.015878474 4279522709
-3.6686659e-05 -0.034601565 -0.015363974 4280045459
0.0017012134 -0.033737835 -0.016103195 4279652249
0.0034335554 -0.032874182 -0.016841974 4279782809
0.004873082 -0.030366287 -0.018833071 4279455134
0.0068815798 -0.031146923 -0.018318297 4279061668
0.0084481761 -0.029461289 -0.019681938 4279127969
0.010155566 -0.028597817 -0.020418948 4278996898
0.011702903 -0.02691249 -0.021781268 4279063454
0.014025331 -0.029336412 -0.02001508 4281422713
0.016523883 -0.032581661 -0.017624337 4282274669
-0.0023527928 -0.033668421 -0.018238103 4282143599
-0.00034945458 -0.034451745 -0.017724933 4280898943
0.0016592145 -0.035234854 -0.017212009 4280569484
0.003391508 -0.034369037 -0.017949177 4279389854
0.004974667 -0.032678973 -0.019310718 4279388834
0.0066931397 -0.031813279 -0.020046921 4279127458
0.0084060133 -0.030947555 -0.020782752 4279193248
0.010113358 -0.03008193 -0.021518158 4279521434
0.011969596 -0.030040385 -0.021629049 4279456154
0.01398284 -0.030822756 -0.021115927 4280962949
0.016161278 -0.032428864 -0.019979207 4282077299
0.001617264 -0.036731739 -0.01832073 4281813884
0.0034902878 -0.03669031 -0.018432988 4280633234
0.00507617 -0.03499585 -0.019791471 4279126693
0.0067972839 -0.034127936 -0.020526228 4279454624
0.0083638951 -0.032433677 -0.021883462 4279521434
0.010222852 -0.032392185 -0.021994602 4279980178
0.011927314 -0.03152439 -0.022728177 4280242829
0.013940394 -0.032308955 -0.02221667 4281226108
0.015798964 -0.032267209 -0.022327593 4282339693
0.004890684 -0.035659656 -0.02151843 4282209389
0.0064628497 -0.03396105 -0.022872856 4281160318
0.0083218142 -0.033919677 -0.022984086 4280243594
0.010180667 -0.033878211 -0.023095237 4280111248
0.012193702 -0.034665108 -0.022585386 4280241808
0.013740949 -0.032966703 -0.023938062 4282012784
0.0084286034 -0.036236253 -0.023464946 4281881459
0.010138504 -0.03536408 -0.024195759 4281291644
0.011997126 -0.035322573 -0.02430686 4280375173
0.02174513 0.00066046417 0.062832095 4286016539
0.024222538 -0.0014728084 0.064802423 4286081308
0.019393325 0.00046871603 0.060373127 4285688609
0.021228299 0.0012411401 0.059558738 4285622564
0.023377426 0.00055735558 0.060134724 4285688354
0.025531761 -0.00012625754 0.060710508 4285753888
0.028518096 -0.0044494607 0.064759322 4285557539
0.018885061 0.0010607019 0.057107586 4285885468
0.020554684 0.0025655404 0.055601787 4286016794
0.02253288 0.0026096441 0.055483479 4285951513
0.024673432 0.0019235611 0.056058481 4286148883
0.027149759 -0.00022253767 0.058019284 4285754399
0.029642209 -0.002368249 0.059979234 4285558304
0.031980015 -0.0037834402 0.06124552 4285427233
0.03432849 -0.0051983483 0.062511288 4285295399
0.024140678 0.0025307536 0.052806035 4285623073
0.026443318 0.0011102632 0.05407108 4285492513
0.028924584 -0.0010422058 0.05602685 4285558558
0.030739218 -0.00026534125 0.055217322 4285689628
0.032721572 -0.00022066385 0.055099119 4285755419
0.034527555 0.00055619329 0.054290246 4286343958
0.037043214 -0.0015951153 0.056244183 4286212379
0.039938115 -0.0052099582 0.059578139 4286146843
0.026067682 0.00099175423 0.051515672 4285229863
0.028375305 -0.00043285638 0.052777272 4285558304
0.030011103 0.0010804571 0.05128042 4285820953
0.031809121 0.0018592589 0.050473597 4285754398
0.033953562 0.0011694841 0.051045485 4285753889
0.036103226 0.00047989935 0.051617112 4285688354
0.038439564 -0.00094367564 0.052877367 4286016539
0.041154981 -0.0038350839 0.055514313 4285623073
0.02503182 0.0038291663 0.046214219 4285098028
0.02749069 0.0016631857 0.048161592 4285360933
0.029624559 0.00097079203 0.048732419 4285360423
0.031417072 0.001751747 0.047927536 4286082074
0.033555917 0.0010596476 0.048498195 4285819423
0.035699971 0.00036778301 0.049068559 4285819424
0.03784918 -0.00032385811 0.049638696 4285688863
0.040187769 -0.0017516091 0.050895605 4285689373
0.043284528 -0.00612396 0.054899562 4285492259
0.030678831 0.0031306744 0.044016019 4285884958
0.032982551 0.0016975105 0.045271639 4286147608
0.034939595 0.0017419122 0.045155171 4286016793
0.037621915 -0.0011677556 0.047781158 4286017813
0.039957553 -0.0025998987 0.049035024 4285689119
0.032409519 0.0023487732 0.042055007 4285753889
0.034715503 0.0009114258 0.043307345 4285951004
0.037394732 -0.0020070188 0.045927051 4285885724
0.040463552 -0.0064061768 0.049913149 4285492003
0.032188468 0.0015273169 0.040213663 4285426723
0.034670003 -0.00065737963 0.042145476 4285558814
0.037348889 -0.0035845377 0.044758733 4285558558
0.040785171 -0.0094824359 0.050099533 4285492769
0.030024126 0.00066641718 0.038491417 4285425704
0.03231898 -0.00077988952 0.039737877 4285492258
0.034802951 -0.0029710606 0.041664694 4285493534
0.03784658 -0.0073970184 0.045632813 4285493279
0.029806085 -0.00014571473 0.036656767 4285425958
0.032097973 -0.0015964266 0.03790018 4285492004
0.03493575 -0.0052888468 0.041180875 4285426979
0.029588126 -0.00095316768 0.034825511 4286081818
0.032052688 -0.0031579044 0.036743734 4285491494
0.035425067 -0.0091097765 0.042049397 4285492004
0.026924849 0.00045574084 0.031083269 4285885978
0.029370286 -0.0017560367 0.032997724 4285557538
0.032358497 -0.0062226225 0.036939893 4285360424
0.026710123 -0.00033590198 0.029263584 4285295399
0.029498078 -0.0040622558 0.03252288 4285426724
