# .PCD v0.7 - Point Cloud Data file format
VERSION 0.7
FIELDS x y z rgba
SIZE 4 4 4 4
TYPE F F F U
COUNT 1 1 1 1
WIDTH 963
HEIGHT 1
VIEWPOINT 0 0 0 1 0 0 0
POINTS 963
DATA ascii
0.039691776 0.018078001 -0.0075700814 4289342759
0.041983433 0.016586127 -0.0063615222 4288950314
0.044285715 0.015094599 -0.0051536164 4289408038
0.046153173 0.015139403 -0.0052667079 4289538854
0.047795013 0.015952187 -0.0060397875 4289800228
0.04943116 0.016764892 -0.006812484 4290650909
0.051985092 0.014506256 -0.0049459767 4290258718
0.055255778 0.009944709 -0.0011017034 4290520603
-0.036489241 -0.016173121 0.022885125 4289345054
-0.034716349 -0.014584132 0.021430202 4289475868
-0.018976882 -0.014236988 0.020454407 4289674258
-0.017009977 -0.014193049 0.02033288 4289345054
-0.015170678 -0.013376562 0.019546997 4289539874
-0.013467155 -0.011787771 0.018097363 4290455068
-0.011641756 -0.010971395 0.017312564 4289341739
-0.0076100007 -0.00080125593 0.0083249873 4287510584
-0.006121859 0.0015585423 0.0062167356 4288689449
-0.0045036748 0.0031460617 0.0047728466 4288623913
-0.0028965622 0.0047334712 0.0033296701 4288493098
-0.0011485219 0.0055488385 0.0025501791 4288493098
0.00043920428 0.0071359742 0.0011083959 4288623913
0.0023307055 0.0071795061 0.00099247601 4288362284
0.0039017349 0.008766504 -0.00044818036 4288557869
0.0056245625 0.0095816795 -0.0012258347 4288688684
0.0071761757 0.011168366 -0.002665123 4288819754
0.0085484236 0.013526389 -0.0047656116 4288950569
0.0097331256 0.016655555 -0.0075267265 4288623148
0.011243366 0.018241549 -0.0089632887 4288361518
0.012742519 0.019827431 -0.010399138 4289211943
0.014768131 0.019099416 -0.009850543 4289669924
0.016617097 0.019142756 -0.0099632712 4289931554
0.018465839 0.019186201 -0.010075904 4289604389
0.020501748 0.01845861 -0.0095277224 4289735204
0.022542849 0.017731288 -0.0089798272 4289669668
0.024589181 0.017004164 -0.0084321899 4289604389
0.026445247 0.017048074 -0.0085450532 4290716953
0.027706459 0.019404413 -0.01063809 4290782233
0.029152103 0.020989673 -0.012070134 4290782233
0.03140121 0.019492177 -0.01086249 4290323998
0.033867329 0.017224355 -0.0089958506 4289081129
0.035931371 0.016498061 -0.0084489891 4289277224
0.037788816 0.016542414 -0.0085616279 4289081129
0.039646052 0.016586812 -0.0086742165 4289342759
0.041503064 0.016631255 -0.0087867556 4289408038
0.043579802 0.015905449 -0.008240452 4289146408
0.045216404 0.016720304 -0.0090116607 4289866019
0.046622023 0.01830514 -0.010440882 4289931554
0.048244625 0.019119704 -0.011211134 4289277223
0.050323136 0.0183942 -0.010664821 4289342758
0.053107373 0.015359024 -0.008144971 4289931553
0.056857936 0.0092449617 -0.002995328 4290258719
-0.040019006 -0.021713989 0.025286697 4286334013
-0.038505588 -0.017794397 0.021838814 4288492845
-0.036922071 -0.01465051 0.019057371 4290389533
-0.034959797 -0.014607781 0.018935308 4290454813
-0.033100493 -0.013789787 0.018149048 4289997344
-0.031141121 -0.013746877 0.018027347 4289475103
-0.029506855 -0.011378752 0.015913825 4288561184
-0.02098811 -0.015854843 0.019410234 4289151764
-0.019021228 -0.015811024 0.019288618 4290915344
-0.017179154 -0.014992397 0.018504106 4289671964
-0.015470061 -0.013399244 0.017057277 4289997598
-0.013511747 -0.013355265 0.016936451 4290979094
-0.011686422 -0.012536725 0.016153265 4290390553
-0.010273438 -0.0093949242 0.013383643 4289606173
-0.0063098222 0.00080236793 0.0044215769 4287578923
-0.004694365 0.0023941826 0.0029810956 4288297258
-0.0027915835 0.0024376642 0.0028642537 4288689958
-0.0011928082 0.0040293615 0.0014249161 4288558633
0.00054956228 0.0048468839 0.00064747408 4288558634
0.0021289438 0.0064383354 -0.00079052802 4288820009
0.0040174127 0.0064819138 -0.00090617593 4288361774
0.0059057027 0.0065255705 -0.0010217521 4288492333
0.0076282918 0.0073430259 -0.0017976919 4288885289
0.0091770142 0.0089340899 -0.0032335026 4288885033
0.010543689 0.011298651 -0.0053286999 4289016104
0.011720195 0.014436433 -0.0080827735 4288754218
0.013051152 0.01680026 -0.010175638 4288427053
0.014544696 0.018390464 -0.011607839 4288688684
0.01639083 0.018433759 -0.011720379 4289669668
0.018236771 0.018477121 -0.011832852 4289735204
0.020644322 0.016200902 -0.009967857 4289669668
0.022497997 0.016244607 -0.010080685 4289735204
0.024351463 0.016288402 -0.010193428 4290454814
0.025813863 0.017878314 -0.011623401 4289473828
0.027265199 0.019468011 -0.013052595 4289408548
0.029107161 0.019511735 -0.01316449 4290128414
0.031356052 0.018009881 -0.011960068 4290324509
0.033615597 0.016508298 -0.010756206 4289539363
0.035885774 0.015007081 -0.0095529817 4289408295
0.037319727 0.016596692 -0.010980876 4289539109
0.03895703 0.017413521 -0.011750596 4289604389
0.040588662 0.018230321 -0.012519972 4289146408
0.042874269 0.016729651 -0.011317475 4289211944
0.044725321 0.01677409 -0.011429552 4289800739
0.046125576 0.018363187 -0.012855258 4290651164
0.047514744 0.019952049 -0.014280202 4290323998
0.049585007 0.019224169 -0.013735003 4289408294
0.051893912 0.017724307 -0.012533732 4288950313
0.054921888 0.013908615 -0.0093646226 4289081128
0.058693327 0.007777676 -0.0042291554 4289342504
-0.040429775 -0.020192809 0.021456152 4288230958
-0.038832474 -0.017040033 0.01868023 4288819498
-0.037062299 -0.015442494 0.01723187 4290324764
-0.035203002 -0.014622472 0.016447123 4289997344
-0.03334925 -0.013802383 0.015662782 4290716954
-0.031501029 -0.012982324 0.014878924 4289736733
-0.029550079 -0.01293947 0.014757841 4290326804
-0.027710229 -0.012119348 0.01397469 4289738774
-0.021032304 -0.017428612 0.018244632 4290393359
-0.01918748 -0.016607847 0.01746149 4289933339
-0.017472818 -0.015010329 0.016017471 4289736989
-0.01576921 -0.013412885 0.014574182 4289474338
-0.013816487 -0.013369014 0.014453718 4289212964
-0.011863902 -0.013325049 0.014333333 4289016359
-0.010453515 -0.01017464 0.011570382 4289345054
-0.0029850081 0.0016904064 0.0010760752 4288102183
-0.0012370944 0.0025101509 0.00029984862 4288297514
0.00050520897 0.0033298619 -0.00047596451 4288493098
0.0022418946 0.0041495375 -0.0012513623 4288362283
0.0039729476 0.0049692541 -0.0020263633 4288557868
0.006023854 0.0042368919 -0.0014829049 4288492589
0.0079145655 0.0042807069 -0.00159855 4288688938
0.0098050982 0.004324602 -0.0017141253 4288688938
0.011182733 0.0066959597 -0.0038051307 4288623658
0.012543879 0.0090670083 -0.0058950712 4288819753
0.013535835 0.012989046 -0.0093002664 4289212198
0.015037574 0.014583753 -0.01072969 4288688683
0.016710006 0.015402751 -0.011500552 4288492333
0.018561281 0.015446251 -0.011613345 4289734948
0.020412348 0.015489837 -0.011726053 4289996578
0.022073276 0.016308876 -0.012496064 4289866018
0.023728587 0.017127791 -0.013265646 4290585629
0.025378242 0.017946629 -0.014034848 4289931554
0.026824184 0.019540565 -0.015460465 4289408549
0.028861433 0.018809097 -0.01491535 4289539363
0.030903883 0.018077815 -0.014370499 4290258718
0.033157766 0.016571807 -0.013169555 4289604389
0.035213403 0.01584092 -0.01262537 4289473574
0.036850892 0.016659932 -0.013393559 4289277224
0.038268372 0.018253567 -0.014817174 4289277223
0.039891876 0.019072315 -0.015584391 4289080873
0.041729532 0.019116366 -0.015695702 4289408038
0.043566965 0.019160474 -0.015806958 4289604389
0.045178957 0.019979088 -0.016573368 4290258463
0.047013238 0.020023214 -0.016684361 4290454813
0.049539261 0.017744327 -0.014830713 4290716954
0.052081339 0.015465809 -0.012977969 4290781978
0.054639496 0.013187731 -0.011126161 4290585628
0.058407642 0.0070392806 -0.0060034436 4289734693
-0.044424281 -0.021858016 0.020532247 4287315253
-0.042626686 -0.020255925 0.019085124 4288165679
-0.041023798 -0.017094444 0.016315233 4289146664
-0.039158992 -0.016272355 0.015531586 4289343268
-0.03749435 -0.013890999 0.013425513 4289016360
-0.035646055 -0.013069023 0.012643076 4289212453
-0.033803284 -0.012247022 0.011861089 4290063134
-0.031755086 -0.012983889 0.012401338 4290194458
-0.029701527 -0.013720515 0.012941348 4289802268
-0.027642615 -0.01445692 0.013481102 4290064408
-0.025692023 -0.014413798 0.013360246 4290064153
-0.023508761 -0.015929006 0.014559968 4290653713
-0.021552946 -0.015885549 0.014438952 4289998618
-0.019597258 -0.015841961 0.014318042 4289998108
-0.017890807 -0.014240198 0.012877741 4290455833
-0.016068101 -0.013417584 0.012097782 4290782744
-0.014120962 -0.01337384 0.01197766 4290456088
-0.012173973 -0.013329991 0.011857628 4290849044
-0.010633472 -0.010949709 0.0097604888 4290328843
0.00030635297 0.0025913939 -0.0022571143 4288233509
0.0021974817 0.0026349407 -0.0023729913 4288624933
0.0042483807 0.0019003656 -0.0018312493 4288689449
0.0061418712 0.0019441564 -0.0019471338 4288820009
0.0080351904 0.0019880366 -0.0020629363 4288623404
0.0097602084 0.0028100312 -0.002835697 4288623404
0.011479579 0.0036320165 -0.0036080969 4288623658
0.012846254 0.0060096774 -0.0056934864 4288885544
0.014196411 0.0083871037 -0.0077778315 4288754473
0.015351065 0.011541994 -0.010517485 4288754473
0.017028898 0.012363305 -0.011287052 4288819753
0.018516682 0.013962196 -0.012712272 4288623403
0.020180508 0.014783395 -0.013480902 4288427054
0.021648832 0.016381988 -0.014904819 4289538853
0.023298688 0.017202968 -0.015672442 4290454814
0.024942882 0.018023869 -0.016439676 4290520093
0.026581429 0.018844774 -0.017206548 4290520093
0.028615825 0.018111015 -0.016662829 4290651418
0.030451968 0.018154675 -0.016774315 4290716443
0.032700226 0.016644197 -0.015576253 4289146408
0.034750253 0.015911041 -0.01503339 4288950058
0.036593914 0.015955059 -0.015145198 4289342759
0.038008742 0.017552996 -0.016565409 4289277224
0.039412513 0.019150773 -0.017984945 4290062113
0.041244671 0.019194698 -0.018095922 4290454814
0.042854168 0.020015391 -0.018860593 4289408038
0.04490833 0.019282678 -0.018317726 4289211944
0.046967737 0.018550089 -0.0177751 4289408295
0.049262911 0.017041182 -0.016579548 4289669924
0.051802039 0.01475607 -0.014731472 4289866019
0.054829247 0.010918586 -0.01157849 4289538854
0.059076972 0.0032000691 -0.0051632663 4289015084
-0.045071278 -0.017963566 0.014738687 4287641909
-0.043381885 -0.01557552 0.012635644 4289015849
-0.041433491 -0.015533472 0.01251416 4289473573
-0.039674222 -0.013927585 0.011072858 4290717209
-0.037828665 -0.013103563 0.010292082 4290128414
-0.035888664 -0.013061306 0.010171412 4289932063
-0.033743322 -0.014582313 0.011369797 4290651928
-0.031692609 -0.015321284 0.011908288 4290587159
-0.029528383 -0.016841589 0.013105639 4289605664
-0.02757512 -0.01679853 0.012984526 4289409824
-0.025621954 -0.016755391 0.012863482 4289736988
-0.023901548 -0.015149367 0.011425327 4289736734
-0.02219215 -0.013543464 0.0099879457 4289474594
-0.020250227 -0.013500175 0.0098678945 4289997854
-0.018308416 -0.013456794 0.0097479196 4289866784
-0.01623952 -0.014194413 0.010285988 4289997599
-0.014165312 -0.014931806 0.010823808 4290848788
-0.01221846 -0.014887949 0.010703794 4290849044
-0.010677923 -0.012501121 0.0086115105 4288823578
0.0021530688 0.0011205841 -0.0034944434 4288102948
0.004203774 0.00038385205 -0.0029542889 4288363049
0.0060971677 0.00042762607 -0.0030701761 4288558633
0.0078250319 0.0012517758 -0.0038415613 4288493099
0.0095472634 0.0020759236 -0.0046125767 4288427308
0.011434652 0.0021198504 -0.0047278809 4288427308
0.012974888 0.0037240051 -0.0061533004 4288950823
0.01450406 0.0053279679 -0.0075779986 4288950824
0.015664324 0.0084916968 -0.010311526 4288754473
0.017529182 0.0085354652 -0.010425181 4288820009
0.018840775 0.010918764 -0.012502139 4289081383
0.020322956 0.012521962 -0.013923719 4289081128
0.021604247 0.014904717 -0.015998708 4288361518
0.023061551 0.016507497 -0.017418651 4288884778
0.024702996 0.017330566 -0.018184137 4289735203
0.026140891 0.018933022 -0.019602798 4290454813
0.028571002 0.016638106 -0.01775346 4290651164
0.030407071 0.016681777 -0.017864931 4290062369
0.032655112 0.015166914 -0.01667011 4289277224
0.034287393 0.015990054 -0.017434748 4289146409
0.036125548 0.016033949 -0.017546218 4289211944
0.037749253 0.016856996 -0.018310256 4289931298
0.039367311 0.017680032 -0.019073933 4290650908
0.041199416 0.017723957 -0.019184906 4290781979
0.042808905 0.018546829 -0.019947961 4290062369
0.044862971 0.017811926 -0.019406712 4289277224
0.047150031 0.016298385 -0.018213889 4289342759
0.04944776 0.014785187 -0.017021721 4289081129
0.052455783 0.010936322 -0.013875691 4289277224
0.0557267 0.0063095037 -0.01007992 4289211434
0.060700528 -0.0037660897 -0.0017280523 4288687663
-0.045113366 -0.019527802 0.013580001 4287837748
-0.043512981 -0.016349081 0.010823111 4289146663
-0.041750968 -0.014738878 0.0093847262 4289081128
-0.039999906 -0.013128819 0.0079471683 4290520859
-0.038162623 -0.012302838 0.0071685677 4290717209
-0.036230944 -0.012260756 0.0070484234 4290717464
-0.034094062 -0.013786235 0.0082440739 4291175699
-0.031946357 -0.015311429 0.009439162 4289670943
-0.029787857 -0.016836194 0.010633647 4289409313
-0.027729373 -0.017576929 0.011170219 4289409314
-0.025892623 -0.016750218 0.010392203 4289671199
-0.024293967 -0.014356378 0.0083005754 4290848023
-0.022711754 -0.011962822 0.006210099 4290979094
-0.020659156 -0.012703212 0.0067473883 4290586393
-0.018601228 -0.013443359 0.0072844392 4289670433
-0.016410824 -0.014966624 0.0084776143 4289343524
-0.014209654 -0.016489498 0.0096701616 4289932829
-0.012395557 -0.015662469 0.0088941595 4289802013
0.0076149926 0.00052013434 -0.0056168381 4288363304
0.0093344823 0.0013463553 -0.006386023 4288493098
0.011389732 0.00060792267 -0.0058474885 4288754218
0.012929983 0.0022164341 -0.007269673 4288950823
0.01463531 0.0030425787 -0.0080378102 4288820008
0.016156152 0.0046508666 -0.0094587151 4288623914
0.017847493 0.0054768603 -0.010225863 4289081638
0.019164629 0.0078667719 -0.012298269 4289081638
0.020652272 0.0094745029 -0.013716988 4288950568
0.021749377 0.012645783 -0.016439956 4288885033
0.023209445 0.014252974 -0.017856834 4289081129
0.024658412 0.015860042 -0.019273013 4288492333
0.026294239 0.016685167 -0.020036455 4289015594
0.028325588 0.015947053 -0.019495811 4289931298
0.030362189 0.015209058 -0.018955413 4289538853
0.032403991 0.014471306 -0.018415324 4289342759
0.034033537 0.015296565 -0.019178174 4289473574
0.035657443 0.016121784 -0.019940691 4289669668
0.037275732 0.01694688 -0.020702779 4289670178
0.039105266 0.016990693 -0.020813633 4290520603
0.041154169 0.016253395 -0.020273756 4290716954
0.043208309 0.015516231 -0.019734118 4290716443
0.044817604 0.016341371 -0.020495547 4290258463
0.046876751 0.01560442 -0.019956142 4289081129
0.04917156 0.014086796 -0.018767036 4289408038
0.052642837 0.0086652674 -0.014329152 4289342504
0.056859501 0.0009024106 -0.007944433 4288949549
-0.04506921 -0.021878138 0.013078771 4287445304
-0.043377064 -0.019476971 0.010985258 4288492844
-0.041609637 -0.017862324 0.0095498236 4288623403
-0.040041998 -0.014675336 0.0068016434 4289474083
-0.038301948 -0.013061007 0.0053680455 4289997344
-0.03637315 -0.013018983 0.0052480819 4289932319
-0.034239255 -0.01454894 0.0064407131 4290586904
-0.032094557 -0.01607848 0.0076327352 4289605408
-0.030047085 -0.016821813 0.0081683146 4289671198
-0.028105013 -0.016779009 0.008047889 4289867294
-0.026276536 -0.015950257 0.0072719632 4290325273
-0.024569806 -0.01433582 0.0058411313 4291109653
-0.02287408 -0.01272148 0.0044110166 4290978838
-0.020946063 -0.012678503 0.0042918213 4290979094
-0.018893786 -0.013420993 0.0048276493 4290259484
-0.016836196 -0.014163219 0.005363184 4289605154
-0.014513645 -0.01647608 0.00720762 4289474593
-0.012572516 -0.016432365 0.007087945 4289082404
0.0094576329 -0.00094769895 -0.0068516349 4287971879
0.011344805 -0.00090377778 -0.0069669252 4288428329
0.012885086 0.00070907734 -0.0083858864 4288689448
0.014590368 0.0015374217 -0.0091523845 4288689448
0.01611124 0.0031500403 -0.010570074 4288689449
0.01798404 0.0031939987 -0.010684213 4289146918
0.019672439 0.0040221699 -0.011449514 4288950824
0.021168277 0.005634414 -0.012865447 4289015848
0.022273704 0.0088146012 -0.015582449 4289015848
0.023549587 0.011210343 -0.017647365 4289146663
0.024613857 0.014389699 -0.020361759 4289277478
0.026447453 0.014433173 -0.02047318 4288819498
0.028280847 0.014476707 -0.020584546 4288427054
0.030317292 0.013736544 -0.020045748 4289146409
0.031947047 0.014563961 -0.020807086 4289473574
0.033362478 0.016174855 -0.022217721 4289473574
0.034766853 0.017785566 -0.023627698 4290454814
0.036160171 0.01939605 -0.025036901 4289604643
0.038409688 0.017872745 -0.023848467 4289277734
0.040450349 0.017133014 -0.023309674 4289211943
0.042718455 0.015610253 -0.02212229 4289735203
0.04454729 0.015654204 -0.022232987 4289473573
0.047286592 0.012565611 -0.019749301 4289277479
0.050047442 0.0094775651 -0.017266888 4289342503
0.054228321 0.0016920362 -0.010896208 4288688174
0.058699049 -0.0068750894 -0.003880681 4288164659
-0.044938989 -0.025021113 0.013230153 4287576119
-0.043152474 -0.023401845 0.011796656 4288165679
-0.041376919 -0.021782614 0.010363917 4288231468
-0.039895374 -0.01779836 0.0069665639 4289212708
-0.038246989 -0.01539127 0.0048809554 4289146919
-0.036415432 -0.014560875 0.0041060094 4289800993
-0.03448686 -0.014518737 0.0039861491 4289670434
-0.032558378 -0.014476493 0.0038663736 4289343779
-0.030522011 -0.015222235 0.0044010337 4289867038
-0.028480295 -0.015967697 0.004935408 4289998108
-0.02654665 -0.015924951 0.0048156008 4289605408
-0.024613108 -0.015882099 0.0046958802 4289147174
-0.022917416 -0.014263392 0.0032690112 4289277989
-0.020989545 -0.014220419 0.0031498251 4290979094
-0.019061785 -0.014177329 0.003030736 4289801504
-0.01700712 -0.014921829 0.0035648849 4289670689
-0.014817379 -0.016453663 0.0047516711 4289801759
-0.013014324 -0.015622507 0.0039795991 4289016613
0.012840174 -0.00079801679 -0.0095019042 4287840298
0.014545418 3.2480806e-05 -0.010266799 4288231978
0.016066305 0.0016494673 -0.011681246 4288493098
0.017939024 0.0016934257 -0.011795379 4288820009
0.019627392 0.0025237836 -0.012559052 4288950824
0.021497004 0.0025678072 -0.012672892 4288950824
0.022797652 0.0049705487 -0.014734473 4288885033
0.024081782 0.0073730294 -0.01679503 4288820009
0.025544435 0.008989105 -0.018205591 4288950824
0.027193785 0.009818932 -0.018966604 4288688938
0.028436594 0.012220589 -0.021024456 4289212199
0.030069239 0.013050186 -0.021784404 4288753709
0.031490371 0.014665494 -0.023192206 4288557358
0.032900438 0.016280642 -0.024599332 4289604133
0.034299463 0.017895536 -0.026005704 4290062114
0.036115475 0.017938973 -0.026115781 4290323744
0.037714548 0.018767999 -0.026873443 4289539109
0.039746925 0.018025951 -0.026335806 4289669924
0.042006679 0.016498631 -0.025151152 4289539108
0.044277132 0.014971564 -0.023967076 4289866274
0.04746861 0.010303577 -0.020195739 4289146408
0.051153101 0.0040658507 -0.015132705 4288818733
0.055579863 -0.004526319 -0.0081323376 4288687918
-0.04694546 -0.026633209 0.012189885 4286855998
-0.044981241 -0.026591048 0.012067248 4287445049
-0.043105923 -0.025758103 0.01129084 4287772978
-0.041236103 -0.024925143 0.010514877 4287970094
-0.039654687 -0.021720447 0.0077787722 4288689448
-0.037901092 -0.020097138 0.0063508553 4288885799
-0.036158472 -0.018473901 0.0049236724 4288754474
-0.034324352 -0.017641203 0.0041503115 4288754474
-0.032600958 -0.016018139 0.002724506 4289539363
-0.030672714 -0.01597577 0.002604845 4289474084
-0.028744571 -0.01593327 0.0024852864 4289409314
-0.026703157 -0.016680833 0.0030181985 4290521624
-0.024888579 -0.015847918 0.0022464544 4289081638
-0.022960741 -0.015805053 0.0021271911 4289474338
-0.021154542 -0.014972134 0.0013561826 4290193949
-0.019105408 -0.015718997 0.0018889345 4290521113
-0.017304886 -0.014885969 0.0011184514 4290063134
-0.015250556 -0.015632497 0.0016510449 4289997853
-0.013588157 -0.01400966 0.00022992678 4289212964
-0.011666503 -0.013966255 0.00011155009 4290457108
-0.0098828487 -0.013133134 -0.00065754168 4290196499
0.016557388 -0.0022168998 -0.010847272 4288363049
0.018256769 -0.0013841651 -0.011610047 4288689448
0.019950539 -0.00055151619 -0.012372443 4288950824
0.022012301 -0.001295818 -0.011838779 4289147174
0.023321182 0.0011136979 -0.013896049 4288754474
0.024805836 0.002734514 -0.015304737 4288950824
0.026084438 0.0051434729 -0.017360047 4288885544
0.02754426 0.0067638438 -0.018767118 4288950569
0.02879259 0.0091722105 -0.020820498 4288950569
0.030024432 0.011580257 -0.022872822 4289211689
0.03144563 0.013199909 -0.024277402 4288818733
0.032855749 0.014819412 -0.025681296 4288492079
0.03404358 0.017226534 -0.027730782 4288622894
0.035856821 0.017269881 -0.0278407 4289669414
0.037453189 0.018101016 -0.028596595 4290585884
0.03948272 0.017356722 -0.028060395 4290520348
0.041739576 0.015824968 -0.026878811 4290651163
0.044681564 0.011930821 -0.023761243 4290258718
0.048560642 0.0048873648 -0.018063826 4289408294
0.052948877 -0.0037297867 -0.011078921 4289015849
-0.046987541 -0.028202865 0.011027171 4286790974
-0.044937417 -0.028953681 0.011556986 4287641144
-0.043059476 -0.028118456 0.010781991 4287707189
-0.041278549 -0.026490474 0.0093554044 4288165933
-0.039414346 -0.02565532 0.0085815107 4288624169
-0.037652623 -0.024027452 0.0071562706 4288427818
-0.035901859 -0.022399725 0.0057318574 4288427563
-0.034264479 -0.019979501 0.0036567934 4288362284
-0.032643527 -0.017559547 0.0015828162 4289408804
-0.030931141 -0.015932295 0.0001610592 4289212455
-0.029008593 -0.015889902 4.1861087e-05 4289408804
-0.026972841 -0.016639736 0.00057345629 4290521624
-0.025047772 -0.016597047 0.00045427773 4290324763
-0.02324155 -0.015762068 -0.00031520426 4290717464
-0.021319415 -0.015719227 -0.0004340373 4291109909
-0.019397389 -0.015676269 -0.00055277534 4290259484
-0.017475493 -0.015633207 -0.0006714249 4290063644
-0.015683342 -0.014798067 -0.0014396822 4289801759
-0.013896775 -0.013962947 -0.0022075176 4289343778
-0.012250859 -0.012335943 -0.0036243238 4289671454
-0.01034037 -0.012292686 -0.0037419358 4289671964
-0.0084300153 -0.012249312 -0.0038594501 4289345819
0.020457454 -0.004425928 -0.011545761 4288557869
0.022340469 -0.0043816026 -0.011660425 4288688429
0.023844361 -0.0027560573 -0.013067107 4288884778
0.025337197 -0.0011306573 -0.014473106 4288885289
0.026624061 0.00128497 -0.016524035 4288623659
0.028092057 0.0029099397 -0.017928408 4288820009
0.029348694 0.0053249616 -0.019977417 4288950569
0.030588783 0.0077397302 -0.022025399 4288753963
0.031812415 0.01015416 -0.024072336 4289015593
0.03322804 0.011778088 -0.025473304 4289080873
0.034632593 0.013401853 -0.026873592 4288950059
0.036240019 0.014235364 -0.027628582 4288361519
0.037841812 0.015068809 -0.02838318 4288819499
0.03987664 0.014322447 -0.027848933 4289342503
0.042138755 0.012786413 -0.026670866 4289211688
0.045760043 0.0065123085 -0.02162998 4289473319
0.049879514 -0.0013401639 -0.015304136 4288687663
0.054283209 -0.0099808266 -0.008337982 4287968054
-0.047112897 -0.028977146 0.009213659 4286921023
-0.04506572 -0.029730152 0.0097420001 4287444538
-0.043101873 -0.02968788 0.0096194753 4287706679
-0.041229539 -0.028850511 0.0088465894 4288100399
-0.039268535 -0.028808046 0.0087244296 4288296748
-0.037501398 -0.027175743 0.0073021343 4288951334
-0.035745237 -0.025543503 0.0058805747 4288035373
-0.03410238 -0.023116693 0.003810049 4288035373
-0.032475948 -0.020690078 0.0017405897 4288166189
-0.030865945 -0.018263686 -0.00032774638 4288754729
-0.029051334 -0.017426718 -0.0010964051 4288951334
-0.027015794 -0.01817872 -0.00056640618 4289016359
-0.025322791 -0.01654717 -0.0019834507 4289670943
-0.023522098 -0.015710142 -0.0027509765 4289932829
-0.021726966 -0.014873062 -0.0035181008 4289997598
-0.019813251 -0.014830288 -0.0036363243 4289605154
-0.017899666 -0.014787409 -0.0037544603 4289998110
-0.016115762 -0.013950288 -0.0045205988 4289867294
-0.014337439 -0.013113162 -0.0052862978 4289998364
-0.012564681 -0.012276068 -0.0060515846 4289605408
-0.010659769 -0.012232927 -0.0061688451 4290259993
-0.008754991 -0.012189682 -0.0062860176 4290717973
-0.0067071766 -0.012940174 -0.005755858 4289409823
-0.0049458668 -0.012102887 -0.0065201041 4289934868
0.02304177 -0.0090615712 -0.010199141 4287968818
0.024177752 -0.0058458839 -0.012892168 4288884524
0.025676057 -0.0042160377 -0.014295218 4288753963
0.026968464 -0.0017937273 -0.016341692 4288950824
0.028441958 -0.00016433746 -0.017743137 4288885289
0.029904373 0.001464894 -0.019143905 4288819754
0.03115277 0.0038863141 -0.021187518 4288688428
0.032590352 0.0055151023 -0.02258667 4288884778
0.03360007 0.0087282583 -0.025271676 4288950569
0.03479901 0.011148697 -0.027312141 4288885033
0.036195301 0.012776649 -0.028708678 4289211944
0.038013652 0.012820156 -0.028818879 4288623148
0.040051065 0.012071671 -0.028286412 4288557614
0.042981625 0.0081553683 -0.025184333 4288426543
0.046837896 0.0010721106 -0.019514699 4288622639
0.051197588 -0.0075935991 -0.012563702 4288099124
-0.045623623 -0.026515665 0.0046845162 4286136644
-0.043498941 -0.028068163 0.0058610542 4287772213
-0.041546207 -0.028026013 0.005739308 4288099889
-0.039405305 -0.029577933 0.0069150748 4288362029
-0.037544087 -0.028738378 0.0061446847 4289343523
-0.0356884 -0.027898759 0.0053746989 4288231468
-0.034145083 -0.024668463 0.0026606722 4288100654
-0.032518625 -0.022235328 0.0005960539 4288166189
-0.030908599 -0.019802414 -0.0014674403 4288297004
-0.029094078 -0.018963257 -0.0022344673 4288689448
-0.027171925 -0.018920762 -0.0023535592 4288689449
-0.025365762 -0.018081561 -0.0031198985 4289082149
-0.023802407 -0.015649201 -0.0051801451 4289409058
-0.022134133 -0.014013619 -0.0065922565 4289670433
-0.020228732 -0.013971054 -0.0067099836 4290063388
-0.018069878 -0.015521083 -0.0055342917 4289736223
-0.016159274 -0.015478145 -0.0056521515 4290193949
-0.014381021 -0.01463888 -0.0064162547 4289474594
-0.012743287 -0.013003431 -0.0078260712 4287381044
-0.010841228 -0.01296035 -0.0079431515 4288755239
-0.0089393035 -0.012917187 -0.0080601629 4290849044
-0.0067513064 -0.014465891 -0.0068857716 4289279009
-0.0048442259 -0.014422406 -0.007002946 4290064918
-0.0029372945 -0.014378792 -0.0071200151 4289476378
0.025078893 -0.011329021 -0.010795009 4287445048
0.026206724 -0.0081047453 -0.013481015 4288426033
0.027702168 -0.0064705815 -0.014880633 4288753963
0.028791584 -0.0032470673 -0.017564196 4288492333
0.03025949 -0.0016134027 -0.018962029 4288885289
0.031919263 -0.00077453256 -0.019717138 4288623148
0.033162154 0.0016533546 -0.021755587 4288623148
0.034596883 0.0032864623 -0.023151308 4288884779
0.035387419 0.0073026009 -0.026470814 4288885033
0.037005678 0.0081406944 -0.027223248 4288820009
0.038401857 0.0097730216 -0.028616447 4288950568
0.040444583 0.0090224463 -0.028085954 4288950058
0.043823995 0.0035071224 -0.02371062 4288491568
0.047915079 -0.004389612 -0.017415429 4287444793
-0.043806918 -0.027230252 0.0027631279 4286267969
-0.041588519 -0.029586211 0.0045836382 4287903028
-0.039353833 -0.031941783 0.0064032348 4288230448
-0.037489992 -0.031099983 0.0056343051 4288819243
-0.035631668 -0.030258201 0.0048657926 4288231214
-0.034085549 -0.027019091 0.0021580206 4287969839
-0.032456346 -0.024579367 9.8083168e-05 4288100909
-0.030735888 -0.022938883 -0.001314478 4288427819
-0.02891602 -0.022097377 -0.0020802533 4288231468
-0.027101681 -0.02125595 -0.0028455788 4288493608
-0.025408734 -0.019615702 -0.00425616 4289670943
-0.02384533 -0.017176831 -0.006311574 4288885543
-0.022298366 -0.014738254 -0.0083658434 4289081638
-0.020395827 -0.014695724 -0.0084833726 4289604898
-0.01836668 -0.015451654 -0.0079557886 4290258973
-0.01633222 -0.01620733 -0.0074284333 4290258973
-0.014821105 -0.013769056 -0.0094801933 4290455579
-0.012921769 -0.013726162 -0.0095972 4288950824
-0.011022571 -0.013683164 -0.0097141191 4288754474
-0.0089831613 -0.01443834 -0.0091867065 4289670434
-0.0069384649 -0.015193252 -0.0086595863 4290259994
-0.0050342381 -0.015149814 -0.0087765735 4290521879
-0.0031301454 -0.015106271 -0.0088934712 4290326294
-0.0013774186 -0.014264653 -0.0096538253 4289802778
0.00021576881 -0.012625095 -0.011057172 4289803799
0.0021112487 -0.012581455 -0.011173324 4288823579
0.029338412 -0.0071353046 -0.016750839 4288295219
0.030614376 -0.0047002118 -0.018786527 4288295218
0.032076716 -0.0030622967 -0.020180766 4288753454
0.033527985 -0.0014244895 -0.021574292 4288361264
0.034968235 0.0002130121 -0.022967102 4288623148
0.035975441 0.0034435503 -0.025639003 4288492844
0.037388146 0.0050805546 -0.027030028 4288950824
0.039006241 0.0059208907 -0.027780857 4288689193
0.041276105 0.0043719038 -0.026613019 4288558123
0.044887699 -0.0019547846 -0.021610357 4288361264
0.048991621 -0.0098729413 -0.015332162 4288360498
-0.039678454 -0.031103905 0.0033065127 4286529854
-0.037726168 -0.031061504 0.003184991 4288230449
-0.035873387 -0.030217648 0.0024184538 4287772468
-0.034230456 -0.027771272 0.00036245491 4287838513
-0.032499064 -0.026126292 -0.0010476941 4288166189
-0.030778635 -0.024481477 -0.0024570366 4288231723
-0.028848525 -0.024438925 -0.0025767097 4288362283
-0.027031559 -0.023595193 -0.0033406038 4288493354
-0.025335908 -0.021950573 -0.004748147 4289147428
-0.023651242 -0.02030606 -0.0061549088 4288493098
-0.022098802 -0.0178608 -0.0082047181 4288950824
-0.020438842 -0.01621661 -0.0096097831 4288885543
-0.018536564 -0.016173977 -0.0097272154 4289408549
-0.016505022 -0.016931914 -0.0092013115 4290128159
-0.014732365 -0.016088411 -0.0099618277 4290258718
-0.012965284 -0.015244891 -0.01072197 4290258973
-0.011203762 -0.014401427 -0.011481644 4290913559
-0.0093075447 -0.014358383 -0.011598296 4290913814
-0.007268481 -0.015115601 -0.011072447 4290390553
-0.0055155233 -0.014272004 -0.01183135 4289605408
-0.003619723 -0.014228682 -0.011947761 4290129433
-0.0018752217 -0.013385081 -0.012705999 4290456598
-0.00013630837 -0.012541501 -0.013463814 4289868058
0.0019101948 -0.01329805 -0.012938051 4289606428
0.0041212812 -0.014854349 -0.011771113 4289149469
0.031169079 -0.0085945791 -0.017978342 4288294199
0.0326396 -0.006952079 -0.019369889 4288491058
0.033893608 -0.0045109317 -0.021399286 4288491824
0.035339333 -0.0028689113 -0.022789247 4288492079
0.036563098 -0.00042835623 -0.024816714 4288623659
0.037984014 0.0012131967 -0.026205078 4288754474
0.039610252 0.0020558573 -0.026954744 4288362029
0.04210715 -0.0002958905 -0.025152858 4288557869
0.045950755 -0.0074382648 -0.019526143 4288230194
0.049843043 -0.014579435 -0.013902349 4288164404
-0.036313623 -0.028561188 -0.0013092924 4286922299
-0.034375243 -0.028518822 -0.0014297524 4287576628
-0.032436945 -0.028476363 -0.0015501361 4288296748
-0.030606277 -0.027630445 -0.0023134053 4288297004
-0.028781138 -0.026784545 -0.0030762563 4288231468
-0.026961539 -0.025938639 -0.003838669 4289147428
-0.025263198 -0.02428956 -0.005243184 4288820263
-0.023575839 -0.022640636 -0.0066468804 4288362283
-0.02189948 -0.02099181 -0.0080498615 4288297004
-0.020234093 -0.019343151 -0.0094520329 4288362284
-0.018579714 -0.01769465 -0.010853458 4288885289
-0.016677689 -0.017651916 -0.010970795 4288558123
-0.014907844 -0.016806245 -0.011729556 4289081128
-0.013143536 -0.015960678 -0.012487885 4290127904
-0.011522293 -0.014312458 -0.013886922 4290782744
-0.0094914399 -0.015072156 -0.013362272 4290848023
-0.0075982139 -0.015029078 -0.013478664 4290063644
-0.0057051331 -0.014985908 -0.013594976 4289409314
-0.0039605349 -0.014140248 -0.014351691 4289998364
-0.0020704493 -0.01409696 -0.014467681 4289671198
-0.00018051267 -0.014053544 -0.014583563 4290979348
0.0017092824 -0.014010083 -0.014699402 4290783508
0.003598921 -0.013966494 -0.014815133 4290718484
0.0054884031 -0.013922824 -0.014930792 4289933338
0.0073777288 -0.013879063 -0.015046369 4290065174
0.034258984 -0.0076058498 -0.021230634 4288097848
0.035293914 -0.004357338 -0.023891356 4288360499
0.036939524 -0.0035121813 -0.024640687 4288557614
0.038365945 -0.0018662065 -0.026026122 4288884778
0.040646464 -0.0034236945 -0.024865508 4288819243
0.043375649 -0.006582411 -0.022433115 4288622639
0.047234893 -0.013744022 -0.016821915 4288033589
-0.032794002 -0.027608341 -0.0046218461 4287837749
-0.030649126 -0.029176917 -0.003458837 4288099889
-0.02882408 -0.028328855 -0.0042200736 4288427053
-0.026778698 -0.029091517 -0.0036987634 4289278244
-0.025190592 -0.026632667 -0.0057412726 4288558633
-0.023382157 -0.025784601 -0.0065012048 4288231723
-0.021700367 -0.024131365 -0.0079012625 4288296749
-0.020029575 -0.022478193 -0.0093005784 4288231469
-0.018496305 -0.020020148 -0.011339311 4288623659
-0.016850237 -0.018367296 -0.01273693 4288950824
-0.015083164 -0.01751959 -0.013493885 4289016104
-0.013186961 -0.017476784 -0.013610714 4289539109
-0.01170316 -0.01501935 -0.015646098 4290062623
-0.0098153576 -0.01497654 -0.015762266 4289997343
-0.0080705658 -0.0141289 -0.016517526 4289736479
-0.0060401782 -0.014890583 -0.015994312 4289736479
-0.0041527823 -0.014847447 -0.016110204 4289802014
-0.002114512 -0.015608797 -0.015587289 4289867038
-0.00022470206 -0.015565408 -0.015703181 4290717463
0.0013520569 -0.013913113 -0.017095778 4289605408
0.0032361373 -0.013869675 -0.017211186 4290717208
0.0052819476 -0.014630402 -0.016688474 4290783253
0.0071684495 -0.014586723 -0.01680389 4289279009
0.0090547726 -0.014542951 -0.016919227 4289215513
0.011281051 -0.016107287 -0.015759373 4288627484
0.03587275 -0.0082552014 -0.023087658 4286332738
0.037104927 -0.0058014188 -0.025106035 4288491058
0.038747638 -0.0049541201 -0.025853546 4288688174
0.041033402 -0.0065159015 -0.024696458 4288884524
0.044424467 -0.012091971 -0.020367159 4288687918
-0.030906819 -0.029107848 -0.0058836662 4287510584
-0.028866999 -0.029872946 -0.0053637316 4288753963
-0.026821833 -0.030637804 -0.004844035 4289212453
-0.025118094 -0.028979961 -0.0062423898 4288231469
-0.023188706 -0.028937088 -0.0063617686 4288231469
-0.0215015 -0.02727934 -0.0077589704 4288231469
-0.01982528 -0.025621768 -0.0091553712 4288231469
-0.018539492 -0.021542544 -0.012466831 4288623914
-0.016893424 -0.019885372 -0.01386124 4288493099
-0.015258353 -0.018228371 -0.015254837 4289997598
-0.013365008 -0.018185638 -0.015371494 4289081383
-0.011883862 -0.015721774 -0.017401895 4289343013
-0.0099989176 -0.015679013 -0.017517872 4289670179
-0.0082569048 -0.014829277 -0.018271359 4289539618
-0.0062294379 -0.015593197 -0.01774958 4289605154
-0.004344888 -0.015550157 -0.017865319 4289867294
-0.002309531 -0.016313698 -0.017343877 4290521114
-0.00072989613 -0.014657144 -0.01873346 4289277734
0.00099509954 -0.013807296 -0.01948553 4289343013
0.0028736368 -0.013763997 -0.019600606 4289866529
0.0050756782 -0.01533349 -0.018442757 4289473828
0.0072884411 -0.016902689 -0.017285459 4290128158
0.0095119178 -0.018471498 -0.016128782 4289933338
0.011916086 -0.020846277 -0.01433674 4289933339
0.014854528 -0.025639137 -0.010638328 4288493608
0.017474569 -0.028818931 -0.0082130386 4287250994
0.039555974 -0.0096610812 -0.024420701 4287183674
0.041852385 -0.011226936 -0.023267549 4287837494
-0.029130101 -0.029797196 -0.0077832472 4286988089
-0.027090579 -0.030564405 -0.0072647827 4286857020
-0.025161244 -0.030521667 -0.0073842565 4287772468
-0.023232002 -0.030478809 -0.0075036353 4287969073
-0.021423846 -0.029626263 -0.008260292 4287903538
-0.019744918 -0.027964283 -0.0096536279 4288362029
-0.018456243 -0.023874132 -0.012957199 4288820264
-0.016807456 -0.022212612 -0.014348513 4289278244
-0.015037831 -0.021360472 -0.015102453 4288493098
-0.013273746 -0.020508399 -0.015855933 4288296748
-0.011789832 -0.018037956 -0.017881664 4288689449
-0.010042317 -0.017186025 -0.018633951 4289016359
-0.0083003715 -0.016334139 -0.019385831 4289081128
-0.0065639988 -0.015482284 -0.020137301 4289669923
-0.0046850145 -0.015439359 -0.02025269 4289800993
-0.0028061718 -0.015396365 -0.020368015 4290520348
-0.00092746317 -0.015353277 -0.020483263 4290455068
0.00063842535 -0.013692548 -0.021868743 4289212198
0.0028294995 -0.015266779 -0.020713482 4289343269
0.00503131 -0.016840633 -0.019558854 4290128158
0.0072438493 -0.018414214 -0.018404793 4290128413
0.0094670728 -0.019987382 -0.017251335 4289998108
0.012210794 -0.023985568 -0.014195511 4289998109
0.014981531 -0.027983014 -0.011141253 4288690469
0.017253213 -0.029554851 -0.009990532 4287381809
-0.02555079 -0.029627616 -0.010434159 4286791229
-0.023511663 -0.030396726 -0.0099171493 4287772214
-0.021588113 -0.030353902 -0.010036107 4288034099
-0.019788295 -0.029499281 -0.010790493 4288426798
-0.018373087 -0.026209889 -0.013450654 4289081639
-0.016592536 -0.025355488 -0.014203695 4288493098
-0.014817532 -0.024501108 -0.014956316 4288558378
-0.01291357 -0.024458153 -0.01507364 4288362284
-0.011558663 -0.021169668 -0.017729748 4288296748
-0.0098057762 -0.020315472 -0.018480774 4288689449
-0.0082011372 -0.018650034 -0.019865792 4288754473
-0.0066075027 -0.016984778 -0.02125001 4289016104
-0.0051729828 -0.014508554 -0.023267576 4289277479
-0.0033024177 -0.014465744 -0.023382392 4289604644
-0.0014320016 -0.014422841 -0.023497125 4290586139
0.00043828785 -0.014379858 -0.02361179 4290913048
0.0024674386 -0.015147632 -0.023093004 4290716954
0.0048252642 -0.017536836 -0.021308042 4290651674
0.0070348233 -0.019114751 -0.020157043 4289277734
0.0097565427 -0.023124473 -0.017107988 4289016359
0.012335405 -0.02632276 -0.014693281 4288166444
0.015108421 -0.030331032 -0.011647245 4287447089
0.016681418 -0.028665248 -0.013029453 4287512368
-0.021993943 -0.029449195 -0.013076743 4287445049
-0.020202372 -0.028592579 -0.013829077 4288295474
-0.018416341 -0.027736006 -0.014580933 4288099888
-0.016635861 -0.026879465 -0.015332378 4288231214
-0.014729198 -0.026836563 -0.015449954 4288231214
-0.0129571 -0.025979994 -0.016200721 4288165679
-0.011327747 -0.024309866 -0.017584195 4288427563
-0.0094295889 -0.024266854 -0.017701022 4288296748
-0.0079593919 -0.021783547 -0.019716047 4288231469
-0.0065056533 -0.01930045 -0.021730013 4288166188
-0.0050683543 -0.016817648 -0.023742909 4288754473
-0.0033459663 -0.015961574 -0.024490148 4288623403
-0.0016291291 -0.015105555 -0.025236992 4289147174
0.00023832917 -0.015062654 -0.025351495 4289997344
0.0024234802 -0.016645718 -0.024202406 4290062624
0.00461936 -0.018228479 -0.023053855 4289669923
0.0069903284 -0.020623762 -0.021274516 4289408294
0.0097116306 -0.024644356 -0.018233504 4287249973
0.012459919 -0.028664187 -0.015194117 4286465083
0.014717713 -0.030245133 -0.014049145 4286399548
-0.022520196 -0.027715139 -0.016740106 4287117119
-0.018712036 -0.027630052 -0.016975384 4288426544
-0.016808122 -0.02758735 -0.017092895 4288099633
-0.014904305 -0.02754453 -0.017210308 4288100399
-0.012866221 -0.028317383 -0.016695995 4288035374
-0.011234138 -0.026642915 -0.018076384 4288297259
-0.0094732344 -0.025784174 -0.018824736 4288100654
-0.0080029778 -0.023294369 -0.020834938 4288166188
-0.0062586367 -0.022435794 -0.021582112 4287970093
-0.0048158318 -0.019946402 -0.023590472 4288754728
-0.0033894628 -0.017457247 -0.025597792 4289540128
-0.0016726926 -0.016599065 -0.026343025 4289408803
0.00019465387 -0.016556177 -0.02645753 4289081383
0.0023795664 -0.018143604 -0.02531166 4289604644
0.0045752153 -0.019730734 -0.024166338 4289735459
0.0069458783 -0.022132581 -0.02239185 4288754219
0.0096667409 -0.026164047 -0.019358881 4286857784
0.012244873 -0.029379794 -0.016957087 4286399549
-0.015210886 -0.027429936 -0.01959756 4287772214
-0.013178419 -0.02820513 -0.019084476 4287903538
-0.011277698 -0.028162196 -0.019201562 4288427563
-0.0095168464 -0.027301302 -0.019948307 4288100908
-0.0079040527 -0.025622725 -0.021324132 4288624424
-0.0060118437 -0.025579682 -0.021440469 4289016868
-0.0044156164 -0.023901246 -0.022815175 4289605408
-0.0028303713 -0.022223014 -0.024189096 4288820518
-0.0014095008 -0.019727405 -0.02619119 4288820263
0.00015100092 -0.018049534 -0.027563442 4288493098
0.0023356751 -0.01964133 -0.026420802 4288492588
0.0046926066 -0.022050152 -0.024650343 4288427564
0.0073941574 -0.026093015 -0.021624399 4287577139
0.0097888261 -0.028500777 -0.019856112 4286661178
-0.013490368 -0.028083961 -0.021466423 4287183674
-0.011321221 -0.029681297 -0.020326607 4288296749
-0.0095604435 -0.028818276 -0.021071767 4289016613
-0.0078052282 -0.027955284 -0.02181644 4289213218
-0.0059104189 -0.027912185 -0.021932941 4288951589
-0.0041635931 -0.027049214 -0.022676971 4288493353
-0.0025729313 -0.02536648 -0.024048047 4288558633
-0.00114654 -0.022864293 -0.026045615 4288624424
0.0007314384 -0.02282121 -0.026160806 4288754984
0.0026092827 -0.022778021 -0.02627591 4289147174
0.0051328018 -0.026012741 -0.023883857 4288296748
0.0075137317 -0.028427416 -0.022119705 4287315508
0.0095770732 -0.029202973 -0.021609306 4286726713
-0.011501655 -0.03037801 -0.022078255 4287968819
-0.009604007 -0.03033508 -0.022195105 4288623403
-0.0077064894 -0.030292045 -0.022311863 4288624169
-0.005809091 -0.030248892 -0.022428527 4288558634
-0.0040596053 -0.029383712 -0.023171125 4288951078
-0.0023156777 -0.02851855 -0.023913302 4289409569
-0.0010370314 -0.025187848 -0.026532073 4289016868
0.00068760663 -0.024322946 -0.027272929 4288886053
0.0027240142 -0.025101528 -0.026762743 4287904048
0.0050884932 -0.027523244 -0.025002453 4286988088
0.0074691325 -0.029944468 -0.023243144 4287119414
0.0095322952 -0.030722219 -0.022734361 4286661178
-0.0078924522 -0.030984409 -0.024059774 4288165169
-0.0061428994 -0.03011718 -0.024800856 4288688939
-0.0043989047 -0.029249961 -0.02554151 4289540129
-0.0026604906 -0.028382711 -0.026281778 4289016614
-0.0010807887 -0.026691556 -0.027645662 4288493354
0.00079969317 -0.026648467 -0.02776105 4288362283
0.0026800409 -0.026605312 -0.027876373 4287380534
0.0047215596 -0.027385857 -0.027368046 4286530108
-0.0067663342 -0.028323814 -0.028412543 4286006338
-0.0048856065 -0.028280998 -0.02852815 4288296238
-0.0031553879 -0.027411861 -0.029266298 4288296749
-0.0012776181 -0.027368939 -0.029381596 4288165933
0.00044421107 -0.026499823 -0.030119102 4288231214
0.0023190156 -0.026456805 -0.030234095 4286922554
-0.0014742687 -0.028041868 -0.031114232 4287903283
0.00055630505 -0.028827246 -0.030608635 4287576118
0.0022752434 -0.027955964 -0.031344306 4286071874
4.5530498e-05 -0.02783695 -0.033577543 4287837238
-0.0080773458 -1.5318394e-05 0.0052008694 4283265853
-0.0082623884 -0.00076901726 0.0034073247 4282614584
-0.0066413209 0.00082719885 0.0019696737 4283853374
-0.0081655122 -0.0030753538 0.0029346477 4282287673
-0.0065417513 -0.0014747158 0.0015000692 4282091579
-0.0049290359 0.00012580678 6.6191889e-05 4282286398
-0.0033273622 0.0017261542 -0.0013668714 4282546243
-0.0082096122 -0.0046049599 0.0018018447 4282483769
-0.0067294016 -0.0022192169 -0.00028644037 4282092599
-0.0051194131 -0.00061438791 -0.0017169034 4281831223
-0.0035204515 0.00099024549 -0.0031465702 4282025023
-0.0017808452 0.0018142201 -0.0039190794 4282220608
-0.0097504407 -0.0085269315 0.0027537756 4284443699
-0.0083944723 -0.0053513311 1.3727695e-05 4282418488
-0.0067734271 -0.0037420616 -0.0014142273 4282093364
-0.0051634461 -0.0021328535 -0.0028414363 4282028084
-0.0034155622 -0.0013066754 -0.0036128811 4281504314
-0.0016732737 -0.00048052706 -0.0043839104 4281047099
6.338954e-05 0.00034565665 -0.0051545464 4281829694
0.0021086559 -0.00039352104 -0.0046157092 4282286144
0.0039993674 -0.00034988672 -0.0047314893 4283919418
-0.0097945817 -0.010062591 0.001616477 4284379694
-0.0084384978 -0.006878281 -0.0011171084 4282811699
-0.0069609061 -0.004479466 -0.0031955531 4282029104
-0.005207479 -0.0036510918 -0.0039658011 4281963059
-0.0033107921 -0.0036077127 -0.0040822416 4281571123
-0.0014142543 -0.003564233 -0.0041985926 4281701429
0.00032780319 -0.0027358066 -0.0049679107 4281439544
0.0020642504 -0.001907412 -0.0057368139 4281764924
0.0036353245 -0.00029424019 -0.007158028 4282220863
0.0053578317 0.00053403154 -0.0079259295 4282678334
-0.0082012266 -0.0099796662 -0.00094322022 4282810678
-0.0067181364 -0.0075742425 -0.0030171112 4282616113
-0.0051054284 -0.0059562922 -0.0044380384 4282289714
-0.0030573234 -0.006700079 -0.003902846 4281637934
-0.0013070107 -0.0058693253 -0.0046711578 4281962039
0.00043769926 -0.0050386414 -0.0054390081 4281701429
0.0017059073 -0.0018470269 -0.0081602801 4281897268
0.0034312457 -0.0010166056 -0.0089268051 4281831223
0.0051509663 -0.00018620118 -0.0096929045 4281830458
0.0073604658 -0.0017162133 -0.008506313 4282222394
0.0092449859 -0.00167243 -0.0086214989 4282613308
0.01112932 -0.0016285684 -0.0087366113 4283594293
-0.0064756125 -0.010677458 -0.002844994 4283988524
-0.0050034821 -0.0082656704 -0.0049132975 4282681394
-0.003250353 -0.0074327774 -0.0056802398 4281571123
-0.0015028194 -0.0065999646 -0.0064467303 4281636148
0.00039328635 -0.0065563954 -0.0065629841 4281962039
0.0018185377 -0.0041452255 -0.0086281458 4281897268
0.0035465434 -0.0033125561 -0.0093932105 4281636404
0.0051065758 -0.0016908906 -0.010807177 4281635639
0.0071507841 -0.0024363007 -0.01027296 4281308218
0.009032473 -0.0023926012 -0.010387986 4281635128
0.010913968 -0.0023487993 -0.01050292 4282416448
0.012795284 -0.002304893 -0.010617762 4283853883
-0.004755713 -0.011370691 -0.0047429316 4283076134
-0.0029972047 -0.010535532 -0.0055085388 4282550323
-0.0015470982 -0.0081174672 -0.0075705284 4281963313
0.00034889579 -0.0080739008 -0.0076867742 4281962293
0.0017742068 -0.005656207 -0.0097470963 4281897014
0.0035021603 -0.004821362 -0.010510541 4281702704
0.0052244961 -0.0039865598 -0.011273579 4281636404
0.0071062371 -0.0039429441 -0.011388671 4281113654
0.0088200718 -0.0031081531 -0.012151049 4280918579
0.010528311 -0.002273405 -0.012913021 4281439033
0.012577251 -0.0030206088 -0.012380506 4281894208
0.014807314 -0.0045584943 -0.011201376 4281895483
-0.0012886748 -0.011222062 -0.0074006077 4283988524
0.00045856833 -0.010384768 -0.008163821 4282810678
0.0018866807 -0.0079605207 -0.010219418 4282223158
0.0036172867 -0.0071234182 -0.010981468 4281701173
0.0051800758 -0.0054929871 -0.012389136 4281766454
0.0068967566 -0.0046560522 -0.013150149 4281375029
0.008607842 -0.0038191658 -0.013910754 4281243958
0.01014293 -0.00218907 -0.015316576 4281178424
0.012532435 -0.0045248773 -0.013494431 4281438268
0.015289724 -0.008446387 -0.010382712 4281829693
0.018252499 -0.013160157 -0.0066274581 4282479434
0.0021557361 -0.011064596 -0.010050019 4282615604
0.0037323013 -0.0094296169 -0.01145539 4281767219
0.0054599717 -0.0085903145 -0.012215577 4281571123
0.0070171654 -0.0069555845 -0.013619613 4281572654
0.0085633323 -0.005321024 -0.015022912 4281571379
0.010439061 -0.0052773636 -0.015137501 4281374264
0.0128337 -0.0076195467 -0.013320572 4281110849
0.015771732 -0.012347101 -0.0095735416 4281633089
0.018920645 -0.017868932 -0.0051849727 4282283594
0.021201499 -0.019414186 -0.0040152962 4282804558
0.0057396293 -0.011696178 -0.012048263 4282550323
0.0073022619 -0.01005692 -0.013449438 4281962039
0.0085188225 -0.0068226624 -0.01613491 4281376048
0.010394447 -0.0067790411 -0.016249519 4280719934
0.012961753 -0.0099252593 -0.013795228 4280848964
0.01625336 -0.016260661 -0.0087739592 4281761864
0.01940988 -0.021797588 -0.0043971259 4282350659
0.0074223951 -0.012366961 -0.013926614 4282943279
0.0088092834 -0.0099236956 -0.015964929 4281700664
0.010690227 -0.0098799402 -0.016079854 4281699643
0.013435498 -0.013834449 -0.012991705 4281375029
0.01673463 -0.020187078 -0.0079838233 4282220354
0.019542083 -0.024139969 -0.0048993472 4282872644
0.010985762 -0.012989339 -0.015916485 4283856433
0.013908885 -0.017756496 -0.012197706 4282742593
0.017215535 -0.024126329 -0.007203267 4282871623
0.017520592 -0.02727451 -0.0070693796 4283852864
-0.0032499209 -0.002476342 0.040439885 4281356669
-0.0032957271 -0.0040756054 0.03925547 4279258274
0.0011879429 0.003539389 0.032078978 4279389598
-0.0031998456 -0.0064248312 0.038751014 4279191974
-0.0014915466 -0.0048790965 0.037268944 4278864553
-0.00067730993 0.0011674128 0.031711336 4278668714
-0.00080616027 0.011713659 0.022081092 4278468028
-0.0035290569 -0.0065206978 0.036209196 4279258019
-0.0025480911 -0.0012087114 0.031341039 4278865063
-0.0026351437 0.0093689505 0.021730859 4282267783
-0.005983077 -0.0058978312 0.033119731 4281487994
-0.005132325 0.00018429756 0.027585641 4279061923
-0.0047582537 0.0085292868 0.020025354 4278930343
