# .PCD v0.7 - Point Cloud Data file format
VERSION 0.7
FIELDS x y z rgba
SIZE 4 4 4 4
TYPE F F F U
COUNT 1 1 1 1
WIDTH 958
HEIGHT 1
VIEWPOINT 0 0 0 1 0 0 0
POINTS 958
DATA ascii
-0.027126666 0.00021841377 0.027966002 4289081383
-0.025060654 -0.00051842257 0.028526423 4289473828
-0.023212187 0.0002941601 0.027756976 4289997599
-0.021255136 0.00033221021 0.027652606 4289604899
-0.019415099 0.0011449307 0.026883755 4289866529
-0.017341398 0.00040866062 0.027444154 4289997343
-0.015507095 0.0012214947 0.026675774 4290193693
-0.013678364 0.0020342879 0.025907818 4290717209
-0.011727452 0.0020728018 0.02580421 4290651673
-0.0093851201 -0.0002113115 0.027692186 4290193949
-0.0074263364 -0.00017241761 0.027588325 4289932319
-0.0057396591 0.0014148708 0.026157456 4289473573
-0.0044801235 0.0053242641 0.022737108 4288229174
-0.034614362 -0.0046059182 0.029883174 4288164658
-0.032939181 -0.0022371686 0.027785782 4289080873
-0.031280443 0.0001313705 0.02568935 4290193694
-0.029431742 0.00094580278 0.024921255 4290455068
-0.027482659 0.00098334998 0.024817055 4290258973
-0.025316361 -0.00053266063 0.026039677 4290913049
-0.023250651 -0.0012716213 0.026598621 4290782488
-0.021407872 -0.00045678206 0.025831157 4290128158
-0.019570645 0.00035800599 0.025064103 4289931808
-0.017739009 0.0011728257 0.024297453 4289931808
-0.015668377 0.00043450296 0.024856461 4289604899
-0.013592441 -0.00030361488 0.025415262 4289866529
-0.011638936 -0.00026504323 0.02531152 4289670689
-0.0096855871 -0.0002263654 0.025207868 4289801504
-0.0079987571 0.001365127 0.023780176 4289867294
-0.0061870813 0.0021802234 0.023015086 4289539619
-0.034557153 -0.0069594346 0.029380986 4287314233
-0.032976948 -0.0038048658 0.026625959 4288623149
-0.031418644 -0.00065059587 0.023872199 4289604644
-0.029572755 0.0001659384 0.023105854 4290717209
-0.027732443 0.00098252017 0.022339923 4290717209
-0.025789067 0.0010200711 0.022236111 4290455578
-0.023734473 0.00027877931 0.022794003 4289931808
-0.021902677 0.0010955548 0.022028791 4290062623
-0.020076457 0.0019123713 0.021263916 4289800993
-0.0181363 0.0019503301 0.021160627 4290258974
-0.015951794 0.00043086614 0.022379527 4289997344
-0.013756547 -0.0010882281 0.023597905 4289932064
-0.011933587 -0.00027107447 0.022833573 4290193694
-0.010116234 0.00054610055 0.022069635 4289997599
-0.0084376037 0.0021418491 0.020645587 4290782744
-0.0064983368 0.0021804897 0.02054286 4290716954
-0.0045592114 0.0022192104 0.020440202 4289997343
-0.0029028654 0.0038148155 0.019017626 4287704639
-0.036104929 -0.012480664 0.031625759 4286594369
-0.034594964 -0.0085355742 0.028214907 4286725693
-0.033112362 -0.0045908778 0.024805622 4287380279
-0.031456344 -0.0022093039 0.022719039 4289931553
-0.029610567 -0.0013905531 0.021954345 4289473573
-0.02777034 -0.00057183299 0.021190004 4289605154
-0.025935687 0.00024697836 0.020426037 4289670689
-0.02388401 -0.00049658027 0.020982519 4289670178
-0.022055041 0.00032236893 0.020219037 4289997343
-0.020114891 0.00036022346 0.020115668 4289473828
-0.018294334 0.0011791773 0.019352835 4289866529
-0.016112816 -0.00034471136 0.02056866 4289997344
-0.014045436 -0.0010873294 0.021124704 4290128158
-0.012100391 -0.0010489235 0.021021413 4290390043
-0.010416202 0.0005511893 0.01960022 4290193949
-0.0087430514 0.0021511773 0.018179758 4291175445
-0.0068093538 0.002189693 0.018077318 4290586138
-0.0047372878 0.0014477093 0.018633509 4290782489
-0.002942428 0.0022670394 0.017872699 4289146153
-0.036050696 -0.014851113 0.031111214 4287705913
-0.034537904 -0.010895064 0.027708299 4286398528
-0.033150069 -0.0061558587 0.023647811 4286856763
-0.031594381 -0.0029841932 0.020907125 4289408293
-0.029751424 -0.0021633273 0.020144189 4289538853
-0.027914029 -0.0013424191 0.01938159 4289539363
-0.026082192 -0.00052152574 0.018619427 4289343524
-0.024144672 -0.00048395805 0.018516025 4290586393
-0.022321239 0.00033701118 0.01775449 4291175444
-0.020270009 -0.00040844828 0.018309521 4290782488
-0.018332869 -0.00037052855 0.018206405 4289670689
-0.016151588 -0.0018987684 0.01941902 4290259228
-0.014084414 -0.0026435824 0.019973451 4290128413
-0.01239467 -0.0010390962 0.018555125 4290651928
-0.010715943 0.00056522992 0.0171375 4290520859
-0.0090482756 0.002169488 0.015720498 4289081639
-0.0071201548 0.002207892 0.015618352 4289539619
-0.0050537139 0.0014635921 0.016173288 4290324764
-0.002981998 0.00071952958 0.016727965 4289539363
-0.038433254 -0.013333715 0.027410757 4287378749
-0.036272861 -0.01486804 0.028620277 4286855743
-0.034575772 -0.012472859 0.026541 4286202434
-0.033187777 -0.0077205515 0.022490213 4286398528
-0.031632032 -0.0045401687 0.019755986 4288295728
-0.029789172 -0.0037171389 0.018994663 4289604388
-0.027951878 -0.0028940402 0.018233692 4289473573
-0.02612013 -0.0020709704 0.017473152 4289343268
-0.024293941 -0.0012478912 0.016712995 4291437074
-0.02247332 -0.00042479485 0.01595323 4290979094
-0.020425018 -0.0011724848 0.016506804 4290913814
-0.018490743 -0.0011346284 0.016403833 4290848023
-0.016190376 -0.0034525623 0.018269578 4290128413
-0.014123384 -0.0041995575 0.018822402 4289801249
-0.012561195 -0.0018055295 0.016751409 4289932063
-0.011145718 0.001373399 0.014025607 4290913559
-0.0096192062 0.0037668943 0.011956709 4290062623
-0.0075664297 0.0030200733 0.012510626 4290193438
-0.0053699315 0.0014884789 0.013719651 4290651929
-0.0033038557 0.00074215047 0.01427303 4290128669
-0.0013763309 0.00078087859 0.014171164 4288818479
-0.034708407 -0.013262341 0.024717901 4286136643
-0.033030488 -0.010860857 0.022644592 4286333249
-0.031569451 -0.0068837833 0.019260777 4287053114
-0.029929873 -0.0044827741 0.017189717 4289473573
-0.02820107 -0.0028698035 0.015775109 4289669923
-0.026374858 -0.0020446787 0.015016468 4289605154
-0.024554223 -0.0012194738 0.014258189 4289539618
-0.02273915 -0.00039430708 0.013500331 4289670434
-0.020929623 0.00043086614 0.012742856 4290586393
-0.018887103 -0.00031900033 0.013295211 4289605154
-0.016595211 -0.0026436467 0.01515655 4289866783
-0.014536604 -0.0033929707 0.015708216 4289932063
-0.012855068 -0.0017799884 0.014296819 4289735713
-0.011314772 0.00062024407 0.012231908 4290390043
-0.0096580386 0.0022329614 0.010821994 4290716954
-0.0077410862 0.0022711642 0.010720456 4291174679
-0.0056859106 0.0015223157 0.011272708 4291043864
-0.0034843758 -1.341477e-05 0.012478324 4290062368
-0.0014159158 -0.00076178461 0.013030029 4289473319
0.00021825731 0.00085100718 0.011621699 4289080364
-0.032873396 -0.014009666 0.022792757 4286398273
-0.031406809 -0.010021551 0.019416675 4286529598
-0.029864661 -0.0068239463 0.016696213 4288165168
-0.028555661 -0.0020465893 0.012669278 4289408293
-0.026737723 -0.0012194449 0.011912694 4290390043
-0.025036421 0.00039759278 0.010502964 4289997598
-0.023118541 0.00043490157 0.010400701 4289343268
-0.021200772 0.00047235377 0.010298549 4289801248
-0.019044645 -0.0010695178 0.011502687 4290782488
-0.016877748 -0.0026110532 0.012706345 4290128414
-0.014824778 -0.0033627185 0.013256732 4289408293
-0.013021316 -0.0025349846 0.012501491 4289669923
-0.011353578 -0.00091780815 0.011094139 4289473829
-0.009564016 -9.0167858e-05 0.010339845 4290127903
-0.0076444745 -5.191844e-05 0.010238164 4290455069
-0.0057250634 -1.3562851e-05 0.010136572 4290455069
-0.0036647916 -0.00076437835 0.01068702 4290062368
-0.0017429888 -0.00072576478 0.010585455 4289866018
-0.00011427701 0.00089127198 0.0091806455 4289472808
-0.032911301 -0.015582299 0.021629285 4286332738
-0.031544719 -0.010791027 0.017608767 4286725693
-0.030108087 -0.0067925062 0.014242505 4289212199
-0.028698798 -0.0027943943 0.010877792 4289015849
-0.026883688 -0.0019651102 0.010122986 4289735969
-0.025296163 0.00044831168 0.0080646556 4290455579
-0.023383874 0.00048552174 0.0079626963 4291175444
-0.021471698 0.00052283704 0.0078608226 4290978838
-0.019202072 -0.0018154252 0.0097135762 4290324763
-0.017160058 -0.0025695376 0.010262815 4289539363
-0.015112735 -0.0033234474 0.010811846 4289408294
-0.013187449 -0.0032854057 0.010709623 4289015849
-0.011262301 -0.0032472587 0.010607487 4288819499
-0.0094700865 -0.0024174042 0.0098546548 4289146664
-0.0075479597 -0.0023790831 0.0097528519 4289931553
-0.0057642013 -0.001549202 0.0090006134 4289735459
-0.0038450956 -0.0015107207 0.0088991346 4289408293
-0.0022135153 0.00011065509 0.0074972715 4289604644
-0.00030016154 0.00014920067 0.00739623 4289211943
-0.033046544 -0.016360121 0.019814933 4286659394
-0.031482395 -0.013144737 0.017106088 4288295729
-0.03004292 -0.0091353077 0.013747722 4287184439
-0.028630789 -0.0051262495 0.010390931 4287773489
-0.027137771 -0.0019118697 0.0076861614 4289473573
-0.025333751 -0.0010805111 0.0069336463 4289866529
-0.023421612 -0.001043316 0.0068316855 4290324764
-0.021393161 -0.0018001017 0.0073798611 4289997598
-0.019359387 -0.0025567329 0.0079278657 4289997598
-0.017564014 -0.0017250259 0.0071761194 4289866784
-0.015649635 -0.001687312 0.0070743919 4289735714
-0.013608065 -0.002443444 0.0076222392 4289343013
-0.011691224 -0.0024054693 0.0075205374 4289408549
-0.0096417665 -0.0031611607 0.0080681024 4289539618
-0.0077224821 -0.0031229393 0.0079664188 4290063134
-0.0058033466 -0.0030845772 0.0078648496 4290193694
-0.0041661933 -0.00145884 0.0064658429 4290651673
-0.002396442 -0.00062682666 0.0057161339 4290913558
-0.00048593432 -0.00058834348 0.0056152386 4290390299
0.00097718835 0.0018306272 0.0035695243 4289342249
0.0024238229 0.0042493958 0.0015247043 4288032059
-0.035521541 -0.013983916 0.015510789 4287246404
-0.033376239 -0.015540062 0.016705152 4287901244
-0.031620186 -0.013909351 0.015301777 4286856509
-0.03008059 -0.01068561 0.012600792 4286595388
-0.028668344 -0.0066656796 0.0092520555 4287053624
-0.027175255 -0.0034426306 0.0065537081 4289669924
-0.025482245 -0.0018126802 0.0051541142 4289800739
-0.023345705 -0.003368217 0.0063494467 4289866784
-0.02154744 -0.0025345786 0.0055990112 4289932319
-0.019635674 -0.0024971394 0.0054972577 4289539618
-0.017967626 -0.00086723082 0.0040993243 4289997598
-0.015937019 -0.0016258345 0.0046460065 4289604899
-0.014028352 -0.0015881271 0.0045446609 4289539364
-0.011989843 -0.0023463247 0.0050911088 4289735969
-0.01007871 -0.0023083696 0.00498978 4289735969
-0.0080323145 -0.0030661994 0.0055359672 4289801248
-0.0062568858 -0.0022321325 0.0047873962 4290324764
-0.0044870526 -0.0013980349 0.0040392266 4289997599
-0.0028663948 0.00023178943 0.0026444402 4289670178
-0.00081787258 -0.00052559562 0.0031908131 4290193438
0.00093789399 0.00030851271 0.0024436044 4290651164
0.0026880577 0.0011426406 0.0016967151 4289015084
-0.031657908 -0.015468154 0.014148546 4286332484
-0.029912882 -0.013833223 0.012749123 4286529344
-0.028495073 -0.0098023219 0.0094081443 4286595134
-0.027320873 -0.0041744974 0.0047742059 4287838259
-0.025630608 -0.0025402876 0.0033779573 4290127648
-0.023610633 -0.0033017159 0.0039232653 4289800993
-0.021701604 -0.0032644453 0.0038215723 4289800993
-0.020030744 -0.0016302597 0.0024266192 4290520859
-0.018370908 3.8705766e-06 0.001032298 4291175188
-0.016348664 -0.00075706188 0.0015778202 4291109653
-0.014448296 -0.00071952771 0.0014769088 4290782488
-0.012288224 -0.0022783414 0.002668293 4290063134
-0.01051531 -0.0014423328 0.0019213313 4289997853
-0.0084772632 -0.0022025262 0.0024663305 4290128413
-0.0068481714 -0.00056834985 0.0010741265 4291109909
-0.0049484894 -0.00053027738 0.00097366096 4289081639
-0.0033360049 0.0011037216 -0.00041747547 4289146919
-0.0011495799 -0.00045388844 0.00077294069 4289212198
0.00089862198 -0.0012134081 0.0013178261 4289670689
0.0026487112 -0.00037710462 0.00057255593 4289800993
0.0040843934 0.0020545293 -0.0014619094 4287703108
-0.029848013 -0.016188325 0.01224524 4286398019
-0.028427362 -0.012146479 0.0089121852 4286398528
-0.027358286 -0.0057025878 0.0036437281 4287183928
-0.025889676 -0.002462463 0.00095969957 4289735459
-0.023988862 -0.0024254955 0.00085833768 4290062368
-0.022204392 -0.0015877704 0.00011186619 4289604644
-0.020306516 -0.0015506167 1.0841643e-05 4290389533
-0.018652152 8.7701716e-05 -0.0013799293 4289866529
-0.016635552 -0.00067551062 -0.00083571562 4290193694
-0.014740761 -0.00063810125 -0.00093634106 4291109143
-0.012586381 -0.0022013383 0.00025207372 4289931808
-0.010818988 -0.0013632621 -0.00049298053 4290259228
-0.008786574 -0.002125748 5.0701085e-05 4289932319
-0.0071629286 -0.00048737135 -0.001337945 4290782743
-0.0052688196 -0.00044944696 -0.0014381427 4290913559
-0.0036618039 0.0011888342 -0.0028258078 4290782233
-0.0013348609 -0.0011733361 -0.00099466462 4290651674
0.0010082573 -0.0035350956 0.00083568657 4290913814
0.0030642822 -0.0042964993 0.0013785715 4290194203
0.0043538138 -0.0010582153 -0.001294689 4288949293
-0.028254449 -0.015297806 0.0090573337 4286398528
-0.027395699 -0.0072304495 0.0025134187 4286529853
-0.025927018 -0.0039816205 -0.00016416033 4288950313
-0.024480239 -0.00073312502 -0.0028405034 4289997089
-0.022474352 -0.0014991276 -0.0022975581 4290389533
-0.020938817 0.00094624702 -0.0043286737 4289277734
-0.019054811 0.00098323543 -0.0044288812 4289081384
-0.017170928 0.00102033 -0.0045290012 4289408549
-0.015032995 -0.00054769218 -0.0033430206 4289800738
-0.013014104 -0.0013128864 -0.0028003571 4290390043
-0.010989901 -0.0020778296 -0.0022579418 4289997598
-0.0090956427 -0.0020400942 -0.0023582897 4289997854
-0.0074774697 -0.00039744657 -0.0037434725 4290194203
-0.0055889264 -0.00035963487 -0.0038433764 4290324763
-0.003700532 -0.00032172818 -0.0039432012 4291109909
-0.0015200078 -0.0018882067 -0.0027588862 4291044373
0.00067124516 -0.0034543495 -0.001575124 4290651673
0.0027216449 -0.0042180917 -0.0010335189 4290063134
0.004314445 -0.0025753723 -0.0024169302 4289735459
0.0055821612 0.00067123584 -0.0050825421 4289276458
-0.028397478 -0.016041981 0.0072685312 4286725694
-0.02732512 -0.0095632412 0.0020256916 4286987834
-0.025964346 -0.0055005616 -0.0012878615 4288753963
-0.024630904 -0.0014383262 -0.0045998921 4289342759
-0.022976361 0.00020847097 -0.0059843869 4290585884
-0.02133283 0.0018552141 -0.0073682517 4290716699
-0.019578718 0.0026969314 -0.0081097074 4290062623
-0.017457239 0.0011240765 -0.0069261203 4290193694
-0.015324995 -0.00044841785 -0.0057430691 4290716698
-0.013181999 -0.002020576 -0.0045604976 4290586138
-0.01116069 -0.0027878219 -0.0040195193 4290259228
-0.0094044842 -0.0019454816 -0.0047607282 4290128668
-0.0075159296 -0.0019077882 -0.0048607215 4289997854
-0.0057681501 -0.0010654666 -0.005601299 4289539619
-0.0040259585 -0.00022317469 -0.0063415198 4289474339
-0.0019972026 -0.00098968856 -0.0058005773 4289735969
3.6865473e-05 -0.0017560115 -0.0052598533 4289735713
0.002076216 -0.0025221673 -0.0047192886 4289801504
0.0036581308 -0.00087531004 -0.0060988935 4289539108
0.0052290186 0.0007713493 -0.0074778246 4288687408
-0.030678686 -0.015203929 0.0043042218 4287641145
-0.028645579 -0.01597422 0.004842144 4287379769
-0.027254637 -0.011900212 0.0015349465 4286856764
-0.02589101 -0.0078266235 -0.0017707108 4287053369
-0.024554729 -0.0037534065 -0.0050748657 4288492334
-0.023129672 -0.00048786961 -0.0077370265 4289277479
-0.021607701 0.0019702865 -0.0097577469 4290716699
-0.019737579 0.0020069666 -0.0098572429 4291043864
-0.017743327 0.0012367684 -0.0093166949 4291043864
-0.015362822 -0.0019541522 -0.0068569439 4290913559
-0.013349745 -0.0027237972 -0.0063172607 4289997343
-0.011463773 -0.0026863539 -0.0064172638 4289997599
-0.0095779374 -0.0026488174 -0.0065171891 4290325019
-0.0078300908 -0.0018044361 -0.0072562438 4289867039
-0.0060878322 -0.00096008275 -0.0079949414 4289932574
-0.0042078421 -0.00092236325 -0.008094335 4289867038
-0.0024740174 -7.795915e-05 -0.008832423 4290128158
-0.00059702992 -4.010275e-05 -0.0089315111 4289670434
0.00097686797 0.0016108248 -0.010307557 4290324764
0.0031564832 3.5878271e-05 -0.009129459 4290455324
0.0048760846 0.00088039786 -0.0098665729 4289866273
0.0064305067 0.0025311671 -0.011241341 4288818479
-0.028998606 -0.015087921 0.0017829812 4286267459
-0.027184248 -0.01424128 0.0010410962 4286529343
-0.025817782 -0.010156757 -0.002256647 4286398783
-0.02459196 -0.0052632242 -0.0061918083 4286857018
-0.023282856 -0.0011796011 -0.0094863307 4289539108
-0.021526076 -0.00033360999 -0.010224798 4289408294
-0.019653365 -0.00029687211 -0.010324426 4289997343
-0.017656576 -0.0010692282 -0.0097856494 4290193949
-0.015781377 -0.0010322295 -0.0098852534 4289997598
-0.013776656 -0.0018042633 -0.0093467003 4289932319
-0.012031343 -0.00095791649 -0.010084201 4290194203
-0.01002143 -0.001729629 -0.0095457621 4289997854
-0.008281827 -0.00088322908 -0.010282837 4289932318
-0.0064072683 -0.0008457154 -0.010382015 4290390298
-0.0046760961 6.8917871e-07 -0.01111844 4290390044
-0.0026585534 -0.00077044405 -0.010580163 4290389788
-0.00093309581 7.6049007e-05 -0.011316135 4289997343
0.00078677386 0.00092251413 -0.01205175 4291109654
0.002809301 0.0001517823 -0.011513514 4290193949
0.0046802759 0.00018977001 -0.011612097 4290127648
0.0065511018 0.00022785086 -0.011710601 4288818733
-0.027113948 -0.016586479 0.00054418785 4286464064
-0.02563411 -0.013302672 -0.0021082126 4286529343
-0.024402652 -0.0083960351 -0.0060339654 4286595644
-0.023087982 -0.0043014297 -0.0093207229 4288688684
-0.021563239 -0.0018302095 -0.011331945 4289604388
-0.019569248 -0.0026048906 -0.010794702 4290062623
-0.017818213 -0.0017566448 -0.011531108 4290324764
-0.015945867 -0.0017197095 -0.011630565 4289670433
-0.014332809 -6.0176477e-05 -0.013002808 4290390299
-0.012466144 -2.3139641e-05 -0.013101805 4290521114
-0.010599602 1.3978221e-05 -0.013200734 4289408804
-0.008733198 5.1213428e-05 -0.013299566 4289997343
-0.0067264438 -0.00072252005 -0.012762485 4289997343
-0.0047143996 -0.0014960268 -0.012225595 4290193694
-0.0028429627 -0.0014584018 -0.012324478 4290193183
-0.0011202767 -0.00060981512 -0.013058712 4290258718
0.00059682131 0.00023874361 -0.013792587 4290455068
0.0026164651 -0.00053425599 -0.013255836 4289146919
0.0046413839 -0.0013070162 -0.012719264 4290455068
0.0065121055 -0.0012689847 -0.012817798 4289539109
-0.027367018 -0.016494252 -0.0018637234 4286463554
-0.025561105 -0.015643273 -0.0026018946 4286594879
-0.024213549 -0.01153729 -0.0058824439 4286595133
-0.023125149 -0.0058043385 -0.010432547 4287118903
-0.021600388 -0.0033265813 -0.012438923 4288819498
-0.019849315 -0.0024762996 -0.013173821 4289866529
-0.017979715 -0.0024395213 -0.013273209 4290258973
-0.016363837 -0.00077570044 -0.014642463 4289670434
-0.014629446 7.4627809e-05 -0.015376273 4291175189
-0.012900595 0.00092490669 -0.01610967 4291109653
-0.010907374 0.00014853571 -0.015573629 4290782744
-0.0091842227 0.00099890307 -0.016306574 4289931553
-0.0070454031 -0.00059043802 -0.015136383 4289997089
-0.0051821023 -0.00055307895 -0.015234913 4289997343
-0.0031730682 -0.0013287454 -0.01469942 4290651163
-0.0014558956 -0.00047812704 -0.015431774 4290389789
0.00025570393 0.00037252251 -0.0161638 4288754475
0.002115719 0.00041018147 -0.016261885 4288950568
0.0041323379 -0.00036502536 -0.015726492 4289539619
0.0059947893 -0.00032715499 -0.015824584 4289997344
0.0075327381 0.001336392 -0.017188838 4289342759
-0.027619865 -0.016393054 -0.0042650723 4286071364
-0.02559863 -0.017172035 -0.0037328643 4286529345
-0.024137784 -0.013871174 -0.0063712578 4286725949
-0.023162309 -0.0073070312 -0.011544212 4286922554
-0.0218747 -0.0031911465 -0.014813358 4288885034
-0.020129152 -0.0023387973 -0.015546351 4290062368
-0.018265121 -0.0023021433 -0.015645454 4289801504
-0.016527954 -0.001449706 -0.016377887 4289539618
-0.014925826 0.00021828618 -0.017743116 4290258974
-0.013202492 0.0010706075 -0.018474625 4289997344
-0.011484731 0.0019229725 -0.019205794 4290913049
-0.0094972514 0.0011443561 -0.018670956 4290520348
-0.0073641017 -0.00044941902 -0.017503746 4289866274
-0.0053632781 -0.0012275334 -0.016969511 4289539108
-0.0035029501 -0.00119018 -0.017067844 4289866274
-0.001791276 -0.00033749267 -0.017798292 4290913048
-8.5167587e-05 0.00051515363 -0.018528391 4290717208
0.0016153455 0.0013677953 -0.019258115 4290520603
0.0036236495 0.00059027132 -0.01872395 4290586139
0.0054778308 0.00062796939 -0.01882161 4290455324
0.0074939877 -0.0001492342 -0.018287741 4289081384
0.009020932 0.0015184358 -0.019648114 4288818988
-0.025967244 -0.016246175 -0.0067615621 4286267459
-0.024175216 -0.015391074 -0.0074956641 4287183418
-0.022967808 -0.010445639 -0.011391093 4287314743
-0.021674626 -0.0063187843 -0.014652484 4287576883
-0.020287495 -0.0030103051 -0.017280312 4289212198
-0.018550292 -0.0021558548 -0.018011181 4289866783
-0.017072048 0.00033430755 -0.020005206 4290062878
-0.015351404 0.0011886396 -0.020735042 4288885289
-0.013636295 0.0020429567 -0.021464512 4289146919
-0.011657033 0.0012619412 -0.02093097 4289343013
-0.0098100416 0.0012987321 -0.021028815 4290258718
-0.00754226 -0.0011171279 -0.019233473 4290193693
-0.0055443197 -0.0018974962 -0.018700715 4289735713
-0.0036868304 -0.0018602293 -0.018798919 4289670434
-0.0021263808 -0.00018804241 -0.020158216 4290128414
-0.00042577833 0.00066670775 -0.020886457 4290324764
0.0014231503 0.00070408452 -0.020984 4291044374
0.0034285635 -7.5742602e-05 -0.020451272 4290455324
0.0054392517 -0.0008553192 -0.019918792 4289800994
0.0076173171 -0.0024518319 -0.018756654 4289473828
0.0093117729 -0.0015968322 -0.01948422 4289146663
-0.026335526 -0.015307007 -0.0097804917 4286202178
-0.024325661 -0.016090455 -0.0092508243 4286790973
-0.022889271 -0.012772529 -0.011874984 4286660668
-0.021711707 -0.007814616 -0.015759068 4286987833
-0.020324491 -0.0044974554 -0.018380463 4288754219
-0.018835217 -0.0020007142 -0.020370284 4289212198
-0.017235737 -0.00032416265 -0.021729065 4290716953
-0.015776608 0.0021721805 -0.023717137 4290389788
-0.013937645 0.0022085765 -0.023814732 4290520603
-0.011964004 0.0014252579 -0.023282519 4290847769
-0.0098475181 -0.00017765258 -0.022120953 4290716699
-0.0077202544 -0.001780333 -0.020959871 4289866784
-0.0054392889 -0.0042023142 -0.019170033 4289866784
-0.0037248731 -0.0033453759 -0.019897515 4289670434
-0.0021644309 -0.0016688793 -0.021253614 4289539364
-0.0004638806 -0.00081197452 -0.021980254 4289670178
0.0013849363 -0.00077461172 -0.022077801 4289735459
0.0032336265 -0.00073718 -0.022175288 4289343013
0.0054007322 -0.0023384267 -0.021015843 4289212199
0.0074165687 -0.0031200172 -0.020485204 4289277734
0.00943771 -0.0039014183 -0.019954782 4289016103
-0.024814952 -0.01431799 -0.01289042 4286529343
-0.022926524 -0.014281245 -0.012991107 4286529598
-0.021511901 -0.010955021 -0.015607565 4286595133
-0.020361476 -0.0059844502 -0.0194805 4287380533
-0.019119918 -0.0018366869 -0.022722891 4289473828
-0.017652478 0.00066619925 -0.024706678 4290258718
-0.016201474 0.003168935 -0.026689535 4290782233
-0.014238767 0.0023830961 -0.026158445 4290913558
-0.012270737 0.0015974613 -0.025627565 4290979094
-0.0098849684 -0.001653905 -0.023212994 4289997598
-0.007898137 -0.0024389862 -0.022682974 4289605154
-0.0057630837 -0.0040457523 -0.021525452 4289997089
-0.0039085224 -0.0040085977 -0.021623543 4289539108
-0.0022024512 -0.0031495718 -0.022348909 4289015848
-0.00035088509 -0.0031122798 -0.022446694 4288296493
0.0015005544 -0.0030748821 -0.02254439 4287838769
0.0035083592 -0.0038590115 -0.022015091 4287642674
0.0056806877 -0.0054644747 -0.020859199 4287511349
0.0077018142 -0.0062482087 -0.020330435 4287838003
0.0092342272 -0.0045673903 -0.021681506 4288099123
-0.023079399 -0.014965188 -0.014734585 4286529343
-0.021667428 -0.011630296 -0.01734451 4286464319
-0.020519525 -0.0066467803 -0.021207603 4286791483
-0.019280545 -0.0024882406 -0.024441829 4289081128
-0.017689247 -0.00080325361 -0.025793722 4289538853
-0.016108952 0.00088168122 -0.027144985 4289931553
-0.014143702 9.3699433e-05 -0.026615659 4289866274
-0.012173116 -0.00069412775 -0.026086504 4289473828
-0.0099223852 -0.0031299889 -0.02430491 4289408549
-0.0079357177 -0.0039172634 -0.023776509 4289408549
-0.0058008879 -0.0055284044 -0.022622213 4289147174
-0.0038008839 -0.006315236 -0.022094389 4288820009
-0.001943849 -0.0062779412 -0.022192542 4288034864
-8.6940825e-05 -0.0062405774 -0.022290634 4288100399
0.0017698109 -0.0062030833 -0.022388622 4287642419
0.0036264509 -0.0061655566 -0.022486577 4287642163
0.0058012903 -0.0077753919 -0.021334022 4287445814
0.0078249648 -0.0085612126 -0.02080705 4287510838
0.0091955215 -0.0060524521 -0.022779994 4287968563
-0.02334775 -0.014817892 -0.017100628 4286398784
-0.021586172 -0.013954528 -0.017826539 4286529343
-0.020435356 -0.0089579122 -0.021680189 4286595133
-0.019193508 -0.0047884616 -0.024906518 4287772979
-0.017599512 -0.0030991025 -0.026255356 4288819244
-0.016016506 -0.0014097854 -0.027603554 4289408293
-0.01418063 -0.0013734936 -0.027701015 4289473829
-0.012075577 -0.0029898859 -0.026548598 4289146919
-0.0099597685 -0.0046059289 -0.025396723 4288558123
-0.0078332052 -0.0062216958 -0.024245298 4288493098
-0.0058386773 -0.0070109125 -0.023718869 4289082404
-0.0038388371 -0.0077999374 -0.023192659 4288296748
-0.0018336624 -0.0085887723 -0.022666669 4287707443
0.00017680973 -0.0093774628 -0.022140855 4287642164
0.0023462549 -0.010991897 -0.02099142 4287576884
0.0042136535 -0.010954152 -0.021089943 4287576629
0.0062400326 -0.01174221 -0.020564813 4287641908
0.0081098899 -0.011704278 -0.020663362 4287510584
0.0094859526 -0.0091889538 -0.022631738 4287248698
-0.02350032 -0.015490659 -0.018835839 4286332994
-0.021859802 -0.01379631 -0.020184202 4286594624
-0.020472255 -0.010444438 -0.022779884 4286529598
-0.019230265 -0.0062641385 -0.025998181 4286857018
-0.017509855 -0.0053991438 -0.026720094 4288362029
-0.015794985 -0.0045341528 -0.027441632 4288427563
-0.013821919 -0.0053263889 -0.026915988 4288100908
-0.011843532 -0.0061183977 -0.026390538 4287773744
-0.009722501 -0.0077387416 -0.025242129 4287773743
-0.0077307597 -0.0085303178 -0.024717262 4287708208
-0.0055909306 -0.01015006 -0.023569759 4288035373
-0.0034403354 -0.011769548 -0.02242272 4288689448
-0.001575388 -0.011732148 -0.02252133 4287577138
0.00044037402 -0.012522887 -0.021997469 4287642673
0.0026150346 -0.014141586 -0.020851551 4287577138
0.0044877678 -0.014103757 -0.020950371 4287642673
0.0063603818 -0.014065882 -0.021049151 4287641908
0.0080710724 -0.013199913 -0.021769682 4287053113
0.0096117109 -0.011506054 -0.023111567 4286528578
-0.021896772 -0.015291314 -0.021290179 4287313723
-0.020146318 -0.014423792 -0.022012254 4287903028
-0.018896017 -0.010232486 -0.025222952 4287380278
-0.0172939 -0.0085342778 -0.026565852 4287969074
-0.015573665 -0.0076670242 -0.027286077 4289016359
-0.013727143 -0.0076305768 -0.027384147 4288362283
-0.011880741 -0.0075940234 -0.02748213 4287773488
-0.0097599328 -0.0092187403 -0.026336949 4287708208
-0.0076283813 -0.010843108 -0.025192315 4287708464
-0.0054860488 -0.012467235 -0.024048155 4287642928
-0.00333298 -0.014091002 -0.02290453 4287577138
-0.0013172626 -0.014884027 -0.022382362 4288885798
0.00070375204 -0.01567685 -0.021860404 4287577138
0.0027300864 -0.016469542 -0.02133863 4287642673
0.0046054348 -0.016431704 -0.021437621 4287642673
0.0063216537 -0.01556354 -0.022156974 4287445813
0.008032307 -0.014695439 -0.022875926 4287707954
-0.022406347 -0.013453348 -0.024879834 4286332738
-0.020304196 -0.015083378 -0.023737332 4286987324
-0.018809274 -0.012547519 -0.025698608 4287511094
-0.01707812 -0.011677999 -0.026417891 4287773234
-0.015481558 -0.0099754604 -0.027757203 4287904303
-0.013500668 -0.010771973 -0.027235188 4288493609
-0.011648942 -0.010735338 -0.02733347 4288428330
-0.009522941 -0.012364283 -0.026191851 4287446323
-0.0073861554 -0.013992975 -0.025050702 4287446323
-0.0052386224 -0.015621318 -0.023910096 4287708209
-0.0032256842 -0.016416669 -0.023389462 4287446069
-0.0012074187 -0.017211851 -0.022869067 4288100399
0.0005145818 -0.016341716 -0.023587275 4288623914
0.0023845211 -0.016304106 -0.023686068 4287642163
0.0039418861 -0.014601517 -0.025022617 4287315508
0.0058061481 -0.014563853 -0.025120985 4286202943
-0.020461936 -0.015738498 -0.025459105 4286725439
-0.018722605 -0.014866747 -0.026177365 4287052860
-0.016988792 -0.013995033 -0.026895205 4287904303
-0.015131548 -0.013958501 -0.026993938 4287642674
-0.013274383 -0.013921911 -0.027092623 4287642673
-0.01155176 -0.013050124 -0.027809648 4288362283
-0.0095604025 -0.013848389 -0.027289713 4288362539
-0.0072839856 -0.016316399 -0.025533622 4287904048
-0.0054191053 -0.016279275 -0.025632435 4287773233
-0.0035543367 -0.016242055 -0.025731169 4287641910
-0.0016896948 -0.016204756 -0.025829833 4287445558
0.00017484277 -0.016167376 -0.02592843 4287184439
-0.020981863 -0.01387663 -0.029030338 4286529089
-0.019006491 -0.014677862 -0.028511522 4287576119
-0.017025765 -0.015478902 -0.027992925 4288361774
-0.015039694 -0.016279742 -0.027474541 4288296494
-0.013311587 -0.015405808 -0.028190348 4287249718
-0.011723388 -0.013694693 -0.029522661 4287380789
-0.0098719969 -0.013658028 -0.029620897 4286857274
-0.0077411011 -0.015295552 -0.028485972 4287380533
-0.019660439 -0.011961261 -0.032686647 4287380024
-0.017567325 -0.013604364 -0.031553295 4287772469
-0.015463419 -0.015247185 -0.030420395 4287707444
-0.013743535 -0.014371232 -0.031134224 4286922553
0.016073279 0.0052531129 0.04248647 4279515824
0.019873403 0.0060902433 0.041603003 4278600373
0.022714026 0.0023510931 0.044871818 4280110484
0.0044141337 0.0019027656 0.043285619 4282143088
0.0062554926 0.0027014175 0.042506326 4281749879
0.0079384819 0.0042586019 0.041053459 4279718038
0.010076642 0.0035402542 0.041622702 4278537899
0.011587456 0.005855781 0.039496984 4278931109
0.013403445 0.006654338 0.038719334 4279061923
0.016852155 0.0090096043 0.036491875 4278467773
0.021469608 0.006057634 0.038977176 4278600375
-0.001740545 0.00094805937 0.04174798 4282536298
-3.4995377e-05 0.002509634 0.040296841 4281682814
0.0068289489 0.0079942131 0.035171237 4278996644
0.009103246 0.0065126223 0.036412138 4278472619
0.010913946 0.0073131667 0.035636324 4278341294
0.01451838 0.0089142369 0.034085754 4279323809
0.016312115 0.0097147161 0.033311035 4279650718
0.018269159 0.0097548002 0.03320818 4278929323
0.020397693 0.0090346625 0.033776749 4279323553
0.023403555 0.004513381 0.037701163 4279849619
-0.0061599538 0.0015650736 0.038764711 4281616258
-0.0044513643 0.0031309444 0.037316475 4279651739
-0.0027538165 0.0046966393 0.035868932 4278799273
-0.0010673702 0.0062622791 0.034422021 4278864298
0.0063305497 0.0087090032 0.031994831 4279389345
0.0085964426 0.0072229495 0.033232924 4278866085
0.010398917 0.0080255149 0.032459158 4278472619
0.013823405 0.010393328 0.030242566 4278401729
0.015772395 0.010433181 0.03014008 4278861239
0.017890096 0.0097105643 0.030707546 4278271168
0.020184666 0.0082256002 0.031944577 4278274483
0.022664256 0.0059785144 0.033850707 4278800039
0.025691211 0.0014446806 0.037764389 4278473384
-0.0051723868 0.0053755976 0.032795966 4279061668
-0.0016740635 0.0077498471 0.030579142 4278338999
-9.6037984e-06 0.0093194759 0.029136755 4279717528
0.0019379407 0.0093586324 0.029033855 4279847834
0.0040351152 0.0086327707 0.029600304 4278929324
0.0059850141 0.0086721657 0.029497415 4278537644
0.007934697 0.0087116761 0.029394627 4278472363
0.010042176 0.0079863099 0.029960744 4278669479
0.011994191 0.0080260402 0.029857963 4279127203
0.015565298 0.0096353842 0.028315859 4278795448
0.019628547 0.0089505827 0.028779559 4278603179
0.021576777 0.0089906892 0.028677315 4278669224
0.024232894 0.0059725884 0.031246532 4278669223
0.027449816 0.00066141784 0.035817776 4280701063
-0.005620636 0.0061071729 0.029628534 4281222283
-0.0038060769 0.0069136648 0.028856866 4278864299
0.0056396872 0.0086442744 0.027006689 4278668969
0.0074286163 0.0094508687 0.026236836 4278472874
0.0095277429 0.0087231742 0.026801793 4278669223
0.011792757 0.0072285933 0.028033622 4278472619
0.013741724 0.0072683757 0.027931083 4278603688
0.015358314 0.0088422084 0.026495058 4278669479
0.017301433 0.0088820541 0.026392967 4278407339
0.019244313 0.008922006 0.026290964 4278800294
0.021012731 0.0097288163 0.02552266 4278931109
0.023129441 0.0090021091 0.026087157 4279193759
0.026149824 0.0044420939 0.029981872 4279128223
0.029932275 -0.0031837621 0.036538724 4282406249
-0.0057963803 0.0053125592 0.02780455 4283314049
-0.004123427 0.0068909107 0.026368055 4280175254
-0.0026030913 0.0092388159 0.024265699 4279061413
-0.00081075728 0.010047278 0.023496998 4279255213
0.0011229217 0.010086176 0.023394842 4278338998
0.0032061115 0.0093556931 0.023958812 4278733229
0.0051421449 0.0093948646 0.023856696 4278603433
0.0069228485 0.010203463 0.023088885 4278538409
0.0090136304 0.0094734384 0.023652684 4278603434
0.011430845 0.0072050272 0.025547227 4278538154
0.013700873 0.0057062972 0.02677564 4278603434
0.015317462 0.0072844857 0.025342841 4278603688
0.017091706 0.0080934623 0.024575748 4278407084
0.022380494 0.010520226 0.022276565 4278532544
0.025030293 0.00748464 0.024833243 4278273718
0.028613374 0.00060545653 0.030710505 4281421694
-0.0043018162 0.0061052395 0.024550881 4282008193
-0.0027841628 0.0084596565 0.022453535 4278930854
-0.00099463761 0.009270248 0.021686602 4278865573
0.0010831207 0.0085373828 0.022249173 4278734759
0.0031661242 0.0078047281 0.022811547 4278669479
0.004949674 0.0086155115 0.022045162 4278733738
0.0065724775 0.010197868 0.020614959 4278995624
0.0084998384 0.010237061 0.020513451 4278996644
0.010748088 0.0087333815 0.021739742 4278603688
0.013006985 0.0072300835 0.022965517 4278603434
0.014944635 0.0072697466 0.02286366 4278668714
0.016713381 0.0080808057 0.02209848 4278340784
0.027295269 0.0044255164 0.024905033 4279453603
0.030537412 -0.00093070418 0.029441165 4279389343
-0.0031065643 0.0084591853 0.019981515 4279782555
-0.0013225451 0.0092718555 0.019216496 4278603179
0.00074956566 0.0085366955 0.019777751 4278537644
0.0025277883 0.0093494551 0.019013191 4278995878
0.0060673282 0.010974946 0.017485196 4278531014
0.010226235 0.0095058111 0.018607587 4279061668
0.01263994 0.0072243819 0.020492718 4278407084
0.014572039 0.0072639575 0.02039117 4278930598
0.017750166 0.010437015 0.017541602 4278273719
0.019496687 0.011249972 0.016779337 4279521434
0.021591142 0.010516289 0.017340172 4279061669
0.023870349 0.0090095857 0.018562049 4279191973
0.026342459 0.0067299483 0.02044455 4278865319
0.029200576 0.0029044766 0.023648173 4279520414
0.032461025 -0.0024665366 0.028172096 4282668134
-0.003287375 0.0076914532 0.018177804 4281288838
-0.0015061572 0.0085062636 0.017414562 4278668714
0.0023384914 0.008583772 0.017211575 4278602159
0.0057174712 0.010989471 0.015026157 4278662084
0.0097047314 0.010291551 0.015485352 4278469814
0.011783712 0.0095549589 0.016045077 4278537898
0.014033802 0.008042858 0.017264925 4279061413
0.015788831 0.0088580018 0.016503703 4278274229
0.021196827 0.010527755 0.014881951 4278273974
0.025572382 0.0082810735 0.016659863 4278405808
0.028419249 0.004444479 0.019856002 4278930853
0.031855948 -0.0017172801 0.025028396 4280046223
-0.0014016107 0.0061886506 0.016935792 4279585948
8.315593e-05 0.008562197 0.014854928 4278471599
0.0018503368 0.0093791718 0.014094171 4278271678
0.0034597218 0.010974207 0.012674353 4279978903
0.0053678527 0.011012922 0.012573793 4279127458
0.0072757974 0.011051741 0.01247332 4278667184
0.0093439147 0.010312668 0.013031942 4278798254
0.011254206 0.01035172 0.012931486 4278930598
0.013330117 0.0096129654 0.013489815 4278799528
0.015411265 0.0088743782 0.014047989 4278800039
0.025167055 0.0082947249 0.014204008 4278733994
0.027638391 0.0060021412 0.016076889 4278603179
0.030688532 0.0013775835 0.019921806 4278275759
-0.001297161 0.0038669351 0.016453978 4279977883
-0.00010304153 0.007808025 0.013061565 4279257764
0.0032680035 0.010226418 0.010886167 4278401729
0.0089833289 0.010342713 0.010585207 4278273719
0.010725044 0.01116176 0.0098277824 4278733994
0.012792617 0.010420688 0.010384961 4278865574
0.014696971 0.010459778 0.010284932 4278734758
0.016772322 0.0097190356 0.010841829 4278669479
0.018505089 0.01053827 0.01008515 4278800039
0.020408839 0.010577627 0.0099853585 4278930599
0.022312403 0.01061705 0.0098856315 4278668968
0.024397798 0.0098768352 0.010442239 4278406574
0.026488446 0.0091368267 0.010998641 4278800039
0.029334299 0.0052785091 0.01417874 4279062434
0.032777809 -0.00091787241 0.019325005 4280308364
4.1797757e-06 0.005493097 0.012584673 4281550214
0.0013231412 0.0086621279 0.009858069 4278602668
0.0087832287 0.009599342 0.0088008679 4278668714
0.010685131 0.009638234 0.0087008579 4278472619
0.012586847 0.0096772155 0.0086009298 4278734759
0.014488377 0.0097162677 0.008501065 4278603434
0.01656083 0.0089732865 0.0090564946 4278800039
0.018290833 0.0097946366 0.0083015719 4278734504
0.020015195 0.01061599 0.0075469613 4278406829
0.022092514 0.0098732999 0.0081023518 4278734504
0.02589336 0.0099522853 0.007903426 4278269383
0.027980894 0.0092101125 0.0084584337 4279188914
0.031024508 0.0045593856 0.012284316 4279978139
0.034486264 -0.0016539437 0.017416781 4281946229
0.0012837648 0.0071366476 0.00872966 4279061668
0.0028849393 0.0087446673 0.0073199533 4279062179
0.0049392879 0.0079985475 0.0078743566 4278996643
0.006998919 0.0072526755 0.008428514 4278734503
0.0087434202 0.0080760596 0.0076741152 4278603433
0.010319389 0.0096839247 0.006266003 4278603688
0.012215562 0.0097227832 0.006166358 4278669223
0.014111541 0.0097617349 0.006066795 4278538409
0.016178392 0.0090164626 0.0066209044 4278538154
0.017902911 0.0098398915 0.0058678966 4278472364
0.019974805 0.0090948762 0.0064218561 4278341039
0.021693505 0.009918333 0.0056692623 4278537134
0.025298633 0.010781099 0.0048180157 4278859964
0.027377881 0.010036551 0.0053718239 4278532033
0.033480287 0.0007093437 0.013003539 4281160319
0.0013936386 0.0048245061 0.008254583 4280763794
0.0028455406 0.007223797 0.0061949622 4278996388
0.0044356585 0.0088360002 0.0047891811 4278537643
0.0064869374 0.0080877887 0.0053421673 4278603433
0.008383356 0.0081264609 0.0052423677 4278471343
0.013566636 0.010602699 0.0029870162 4279388069
0.015625179 0.0098550366 0.0035399939 4278538154
0.017515227 0.0098940367 0.003440869 4278734758
0.019581541 0.0091467416 0.0039935177 4278668203
0.02318421 0.010011462 0.0031438866 4279650718
0.025073476 0.01005076 0.0030450355 4279324319
0.026962534 0.010090125 0.0029462487 4278405298
0.029231474 0.0085573914 0.0041495184 4278929834
0.031896628 0.0054528238 0.0066540139 4279323809
0.035169713 -9.149313e-06 0.011109563 4280242319
0.0013542026 0.0032973262 0.0071249162 4283249533
0.0025023371 0.0072812652 0.0037673865 4278799784
0.0042416304 0.0081087211 0.0030163613 4278537644
0.005975306 0.0089361845 0.0022656473 4278405808
0.0078634471 0.0089746965 0.0021662887 4278665144
0.0095886216 0.0098021263 0.0014162001 4278991289
0.011308163 0.010629549 0.00066648965 4278596803
0.015072308 0.010706929 0.00046885927 4278734249
0.017127767 0.0099571655 0.0010204122 4278538154
0.019188479 0.0092075663 0.0015717319 4278864808
0.02447933 0.010901793 -2.3941684e-05 4278469814
0.026734672 0.009364347 0.0011767575 4278601138
0.031277418 0.0062902495 0.0035766461 4279060904
0.034151025 0.0023891544 0.006723146 4278865064
0.0374479 -0.003087536 0.011166248 4281619063
0.0026149228 0.0049739992 0.0032957389 4281747074
0.0038931444 0.0081772422 0.00059726281 4278668714
0.0073438957 0.0098361904 -0.00089990889 4279453858
0.0092235953 0.0098746093 -0.0009987636 4279912604
0.012814268 0.010742624 -0.0018451407 4278404788
0.014861591 0.0099904248 -0.0012948413 4278929834
0.016914181 0.0092383819 -0.00074478361 4278799528
0.018972009 0.0084865661 -0.00019491318 4278603179
0.02782046 0.011053716 -0.0026310785 4278404788
0.030080654 0.0095121218 -0.0014337867 4278865063
0.032742225 0.0063901199 0.0010580238 4278734759
0.036019579 0.0008978257 0.0054908041 4279652504
0.0038539395 0.006667939 -0.00051916396 4279650973
0.0068246946 0.010711004 -0.00395633 4278664123
0.0085334331 0.011542435 -0.0047023366 4279978139
0.010401957 0.011580738 -0.0048005208 4279912604
0.014821857 0.0084854225 -0.0024080423 4278405043
0.016874276 0.0077312225 -0.0018595736 4278799528
0.018579401 0.0085630091 -0.0026050729 4278472364
0.020278916 0.0093947547 -0.0033502227 4278472364
0.022154495 0.0094336728 -0.0034484277 4278668969
0.02590508 0.0095117213 -0.0036446447 4279126693
0.02759023 0.010343506 -0.004388866 4278865063
0.029847525 0.0087974528 -0.0031946066 4278537644
0.032115459 0.0072517237 -0.0020009046 4278734759
0.034988143 0.0033288952 0.001129544 4278800804
0.038289256 -0.0021781516 0.0055498504 4281816178
0.0039692149 0.004363331 -0.00098902336 4281484424
0.0052284524 0.0075836396 -0.0036734845 4278995113
0.0098666325 0.012470669 -0.0078446409 4278400198
0.014440544 0.0085711079 -0.0048121912 4278995878
0.016487382 0.0078145331 -0.0042650299 4278865319
0.018363252 0.0078533022 -0.0043633655 4278733994
0.020059988 0.008687201 -0.0051068058 4278668969
0.021751106 0.0095210215 -0.0058498476 4278537899
0.023436613 0.010354814 -0.0065925303 4278668969
0.025490656 0.0095988223 -0.0060454994 4278734759
0.027360164 0.0096378261 -0.0061432309 4278603433
0.02922947 0.0096768839 -0.0062409071 4278537899
0.030903339 0.010510695 -0.0069827889 4278603433
0.033363439 0.0081658559 -0.0051478148 4279194014
0.036642335 0.0026431344 -0.00073769962 4279783828
0.0051893219 0.0060813082 -0.0047847489 4279324319
0.0064267293 0.0093100118 -0.0074615823 4278537388
0.011687517 0.011019523 -0.009043959 4278537643
0.013718046 0.010260369 -0.0084976051 4278472619
0.015580408 0.010298752 -0.008595312 4278603688
0.017442577 0.010337227 -0.008692937 4278341294
0.019483455 0.0095785717 -0.008146991 4278341039
0.021347985 0.0096172327 -0.0082446383 4278537644
0.023212343 0.0096559757 -0.0083422139 4278603179
0.025263526 0.0088977413 -0.0077966508 4278668458
0.026940487 0.0097336313 -0.0085372003 4278602924
0.035598211 0.0051091388 -0.0050721988 4278470068
0.038900889 -0.00042832457 -0.00067455071 4281750133
0.0054643601 0.0029795105 -0.0046097934 4279321769
0.0065475404 0.0070167901 -0.0079233721 4279193250
0.0077658594 0.010253868 -0.010592705 4278668714
0.0092927366 0.011891237 -0.011975543 4278472363
0.011144467 0.011929239 -0.012072812 4278734759
0.012996018 0.011967308 -0.01217002 4278603689
0.016874708 0.011244259 -0.011722174 4278931363
0.018907286 0.010483238 -0.01117742 4278668714
0.020763576 0.010521716 -0.011274644 4278603434
0.02280394 0.009761001 -0.010730187 4278864808
0.024849549 0.0090004159 -0.010185915 4278668203
0.027994499 0.011475406 -0.012304106 4278796469
0.029847145 0.011514154 -0.012400883 4278928813
0.03455472 0.0075970935 -0.0093904613 4278929069
0.037233502 0.0044407677 -0.0069252681 4280241553
0.040963754 -0.0027091936 -0.0012587477 4282339694
0.0065085068 0.0055213794 -0.0090295114 4281484933
0.0075645 0.0095690666 -0.012333534 4278799783
0.0089234933 0.0120126 -0.014354055 4278668714
0.010769673 0.012050453 -0.014451059 4278471598
0.016307212 0.012164547 -0.014741606 4278531269
0.018331483 0.011401149 -0.014198049 4278666928
0.020361021 0.010637882 -0.013654678 4278603433
0.022579998 0.0090734242 -0.012471545 4278537898
0.024435826 0.0091120368 -0.012568639 4278668203
0.027569942 0.011593285 -0.014681453 4279978649
0.029612154 0.01083064 -0.014138479 4279127968
0.031659625 0.010068196 -0.013595785 4278800038
0.03391283 0.0085048182 -0.01241417 4279192993
0.036176749 0.0069416584 -0.011233044 4278865574
0.039480954 0.0013738377 -0.0068580834 4281684344
0.0075256675 0.0080847321 -0.013431472 4278800039
0.0090498328 0.0097307442 -0.014807792 4278602414
0.010730818 0.010572619 -0.015544177 4278470833
0.012406178 0.011414454 -0.01628021 4278796468
0.014249206 0.011452419 -0.016376918 4279386028
0.020140126 0.0099593503 -0.015389609 4278865063
0.022172064 0.0091940174 -0.014847931 4278472619
0.024022385 0.0092324736 -0.014944769 4278537899
0.035730079 0.007054816 -0.013612394 4278799783
0.038616642 0.0030779336 -0.010522965 4278537643
0.041947372 -0.0025045774 -0.0061606192 4282012784
0.00748685 0.0066005541 -0.014529298 4281091979
0.0090110302 0.0082509229 -0.015902389 4278799019
0.012367286 0.0099389432 -0.017371604 4279258529
0.013863802 0.01158891 -0.018743044 4279128224
0.01570113 0.01162682 -0.018839404 4278930599
0.017895602 0.010052967 -0.017661579 4279126438
0.019919381 0.0092852479 -0.017121192 4278864299
0.021948449 0.0085177114 -0.016581029 4278734504
0.023609176 0.0093618436 -0.017314365 4278537644
0.025453821 0.0094002327 -0.017410869 4278603434
0.033431761 0.0071379384 -0.015888501 4278799528
0.035892971 0.0047605084 -0.014077768 4278800549
0.038370267 0.0023835236 -0.012267868 4278800549
0.041489273 -0.0024089827 -0.0085522169 4278538663
0.04464069 -0.0072008111 -0.0048381849 4282012528
0.0076103508 0.0043081595 -0.014990658 4282660484
0.0089722648 0.0067712842 -0.016996849 4278996134
0.019336194 0.010231749 -0.020120049 4278864298
0.021356963 0.0094618602 -0.019581068 4278864808
0.02319625 0.0095000556 -0.01967735 4278537388
0.025224842 0.0087304385 -0.019138698 4278603688
0.027066506 0.0087687979 -0.019235021 4278669734
0.028908007 0.0088072149 -0.019331291 4278932128
0.031144552 0.0072303088 -0.018158576 4278866593
0.033792429 0.0040383609 -0.0157177 4278604453
0.03585273 0.0032696603 -0.01518044 4278276269
0.038124047 0.0016936418 -0.014009424 4278538154
0.043754674 -0.0054947222 -0.0085001187 4282602855
0.0087685585 0.0061023617 -0.018725747 4279717274
0.0099436939 0.0093821688 -0.02136047 4278537388
0.011948839 0.0086093275 -0.020822546 4278468794
0.0189346 0.01038131 -0.022475461 4278800039
0.020949811 0.0096090948 -0.021937829 4278930598
0.022970274 0.0088370079 -0.021400383 4278669478
0.024996005 0.0080651483 -0.020863198 4279062179
0.02683489 0.0081034331 -0.020959388 4278865318
0.028868422 0.0073318342 -0.020422541 4278537899
0.031104788 0.0057505425 -0.019253064 4278603943
0.03355208 0.0033596838 -0.017451346 4278735014
0.035812549 0.0017789453 -0.01628302 4279324829
0.038083695 0.0001985291 -0.015115253 4279849363
0.04057394 -0.0021912828 -0.013315666 4281095038
0.0087299049 0.0046252245 -0.019818362 4281088918
0.010072783 0.0071009835 -0.021813821 4279520668
0.01173982 0.0079513239 -0.022543058 4278930854
0.013747364 0.0071764207 -0.022006825 4278668714
0.015584439 0.0072142417 -0.022103235 4279192993
0.017421335 0.0072521446 -0.022199575 4278996899
0.019076869 0.0081025427 -0.022927988 4279390109
0.021094665 0.0073281089 -0.022392102 4278996643
0.023117691 0.0065539265 -0.021856457 4278930853
0.025335357 0.0049677026 -0.020689372 4278275758
0.027179591 0.00500606 -0.020785872 4278667693
0.029413223 0.0034202188 -0.01961951 4279128479
0.031855032 0.0010226881 -0.017822443 4279128224
0.034312956 -0.0013745055 -0.016026141 4279259294
0.03597533 -0.00052357744 -0.016754553 4279718548
0.038043372 -0.0012964373 -0.016220976 4279980434
0.040325031 -0.0028809616 -0.015056965 4282340203
0.010536864 0.0031860285 -0.021007877 4281223559
0.012212031 0.0040386347 -0.02173591 4278734503
0.013881609 0.0048911991 -0.022463594 4278407083
0.015897006 0.0041143773 -0.021929391 4278537644
0.017560847 0.0049669705 -0.022656664 4278341548
0.019581348 0.0041903835 -0.022122633 4278734759
0.021607131 0.0034139864 -0.021588815 4278800549
0.023824759 0.0018232614 -0.020424992 4278931109
0.025674522 0.0018616458 -0.020521846 4278996388
0.027524121 0.0019001001 -0.020618634 4278274993
0.029762976 0.00031005591 -0.019455822 4279062179
0.032209978 -0.0020939903 -0.017663861 4279521434
0.034472957 -0.0036834232 -0.016502224 4279718549
0.0363409 -0.0036443886 -0.016599827 4279783829
0.038414255 -0.0044193557 -0.016068174 4279980178
0.040909462 -0.0068222 -0.014278586 4281030779
0.01217331 0.0025639515 -0.0228267 4279521689
0.014015779 0.0026017623 -0.022923484 4279849363
0.016033739 0.0018228069 -0.022391034 4279587223
0.017878629 0.0018607927 -0.022487853 4279586713
0.019723333 0.0018988717 -0.022584589 4279456153
0.022119291 -0.00051309448 -0.020795045 4279914899
0.024344876 -0.0021079755 -0.019634916 4279849363
0.026202716 -0.0020694453 -0.019732207 4279718039
0.027868442 -0.0012143627 -0.020457765 4278603688
0.029917896 -0.0019922382 -0.019926649 4279652504
