ply
format ascii 1.0
comment Author: CloudCompare (TELECOM PARISTECH/EDF R&D)
obj_info Generated by CloudCompare!
element vertex 680
property float x
property float y
property float z
property uchar red
property uchar green
property uchar blue
property float nx
property float ny
property float nz
end_header
-0.0152 0.51937 0.190918 160 20 7 0.999999 0.000977516 0.000977516 
-0.0152 0.526159 0.199804 160 20 7 0.999999 0.000977516 0.000977516 
-0.0152 0.529425 0.207208 160 20 7 0.999999 0.000977516 0.000977516 
-0.0152 0.532962 0.203157 160 20 7 0.999999 0.000977516 0.000977516 
-0.0152 0.527006 0.201054 160 20 7 0.999999 0.000977516 0.000977516 
-0.0152 0.52732 0.199901 160 20 7 0.999999 0.000977516 0.000977516 
-0.0152 0.532592 0.197244 160 20 7 0.999999 0.000977516 0.000977516 
0.00475431 0.522446 0.1848 160 20 7 0.000977516 0.000977516 0.999999 
0.00671941 0.522265 0.1848 160 20 7 0.000977516 0.000977516 0.999999 
-0.00752997 0.531798 0.1848 160 20 7 0.000977516 0.000977516 0.999999 
-0.00300146 0.530419 0.1848 160 20 7 0.000977516 0.000977516 0.999999 
-0.00216546 0.530756 0.1848 160 20 7 0.000977516 0.000977516 0.999999 
0.00766266 0.532713 0.1848 160 20 7 0.000977516 0.000977516 0.999999 
0.00243935 0.528703 0.1848 160 20 7 0.000977516 0.000977516 0.999999 
0.0120331 0.530849 0.1848 160 20 7 0.000977516 0.000977516 0.999999 
0.00564061 0.526756 0.1848 160 20 7 0.000977516 0.000977516 0.999999 
-0.0123325 0.532398 0.1848 160 20 7 0.000977516 0.000977516 0.999999 
0.00126848 0.526097 0.1848 160 20 7 0.000977516 0.000977516 0.999999 
-0.00828447 0.531008 0.1848 160 20 7 0.000977516 0.000977516 0.999999 
0.0148509 0.523447 0.1848 160 20 7 0.000977516 0.000977516 0.999999 
-0.00129739 0.532665 0.1848 160 20 7 0.000977516 0.000977516 0.999999 
0.0079428 0.525494 0.1848 160 20 7 0.000977516 0.000977516 0.999999 
0.00227485 0.528033 0.1848 160 20 7 0.000977516 0.000977516 0.999999 
-0.000841614 0.530323 0.1848 160 20 7 0.000977516 0.000977516 0.999999 
0.00951285 0.533124 0.1848 160 20 7 0.000977516 0.000977516 0.999999 
-0.00804302 0.529298 0.1848 160 20 7 0.000977516 0.000977516 0.999999 
0.00306475 0.530068 0.1848 160 20 7 0.000977516 0.000977516 0.999999 
0.0016059 0.53114 0.1848 160 20 7 0.000977516 0.000977516 0.999999 
-0.00200497 0.531698 0.1848 160 20 7 0.000977516 0.000977516 0.999999 
0.00248664 0.523079 0.1848 160 20 7 0.000977516 0.000977516 0.999999 
-0.00685162 0.529365 0.1848 160 20 7 0.000977516 0.000977516 0.999999 
-0.00840008 0.531608 0.1848 160 20 7 0.000977516 0.000977516 0.999999 
0.0117261 0.526813 0.1848 160 20 7 0.000977516 0.000977516 0.999999 
0.0141247 0.524661 0.1848 160 20 7 0.000977516 0.000977516 0.999999 
-0.000624873 0.533132 0.1848 160 20 7 0.000977516 0.000977516 0.999999 
-0.00130398 0.529651 0.1848 160 20 7 0.000977516 0.000977516 0.999999 
0.0144213 0.533157 0.1848 160 20 7 0.000977516 0.000977516 0.999999 
0.000599583 0.531723 0.1848 160 20 7 0.000977516 0.000977516 0.999999 
0.0118386 0.522079 0.1848 160 20 7 0.000977516 0.000977516 0.999999 
0.0115088 0.516926 0.1848 160 20 7 0.000977516 0.000977516 0.999999 
-0.00939609 0.522164 0.1848 160 20 7 0.000977516 0.000977516 0.999999 
0.00550147 0.518456 0.1848 160 20 7 0.000977516 0.000977516 0.999999 
-0.011352 0.530016 0.1848 160 20 7 0.000977516 0.000977516 0.999999 
-0.00266447 0.521275 0.1848 160 20 7 0.000977516 0.000977516 0.999999 
-0.0129351 0.519735 0.1848 160 20 7 0.000977516 0.000977516 0.999999 
-0.0140216 0.518011 0.1848 160 20 7 0.000977516 0.000977516 0.999999 
0.000411188 0.521892 0.1848 160 20 7 0.000977516 0.000977516 0.999999 
-0.00778985 0.525799 0.1848 160 20 7 0.000977516 0.000977516 0.999999 
0.00480435 0.519574 0.1848 160 20 7 0.000977516 0.000977516 0.999999 
0.00320011 0.520173 0.1848 160 20 7 0.000977516 0.000977516 0.999999 
-0.0121276 0.516519 0.1848 160 20 7 0.000977516 0.000977516 0.999999 
-0.00923075 0.524815 0.1848 160 20 7 0.000977516 0.000977516 0.999999 
-0.00751688 0.527922 0.1848 160 20 7 0.000977516 0.000977516 0.999999 
7.83988e-005 0.521135 0.1848 160 20 7 0.000977516 0.000977516 0.999999 
-0.014645 0.527543 0.1848 160 20 7 0.000977516 0.000977516 0.999999 
-0.00278725 0.52235 0.1848 160 20 7 0.000977516 0.000977516 0.999999 
0.00269217 0.517889 0.1848 160 20 7 0.000977516 0.000977516 0.999999 
0.00809331 0.515675 0.1848 160 20 7 0.000977516 0.000977516 0.999999 
8.64281e-005 0.519514 0.1848 160 20 7 0.000977516 0.000977516 0.999999 
-0.0149236 0.527197 0.1848 160 20 7 0.000977516 0.000977516 0.999999 
-0.001974 0.523294 0.1848 160 20 7 0.000977516 0.000977516 0.999999 
-0.0119645 0.525844 0.1848 160 20 7 0.000977516 0.000977516 0.999999 
-0.00817965 0.521291 0.1848 160 20 7 0.000977516 0.000977516 0.999999 
-0.0150294 0.532428 0.1848 160 20 7 0.000977516 0.000977516 0.999999 
-0.0117883 0.524992 0.1848 160 20 7 0.000977516 0.000977516 0.999999 
-0.014333 0.525091 0.1848 160 20 7 0.000977516 0.000977516 0.999999 
-0.0147278 0.524168 0.1848 160 20 7 0.000977516 0.000977516 0.999999 
0.0016956 0.521734 0.1848 160 20 7 0.000977516 0.000977516 0.999999 
-0.0108229 0.529421 0.1848 160 20 7 0.000977516 0.000977516 0.999999 
0.00306684 0.515351 0.1848 160 20 7 0.000977516 0.000977516 0.999999 
-0.00811608 0.555608 0.196857 0 68 152 -0.193909 0.00114739 0.981019 
-0.00435263 0.552992 0.193268 0 68 152 0.981019 0.00114739 0.193909 
-0.0209616 0.553708 0.211751 0 68 152 0.556887 0.00135496 0.830587 
-0.00969128 0.553071 0.196382 0 68 152 -0.556887 0.00135496 0.830587 
-0.00973702 0.554818 0.196351 0 68 152 -0.556887 0.00135496 0.830587 
0.00820147 0.552091 0.2109 0 68 152 0.193909 0.00114739 0.981019 
0.025714 0.554174 0.190724 0 68 152 0.830587 0.00135496 -0.556887 
0.0236736 0.554512 0.188014 0 68 152 0.193909 0.00114739 -0.981019 
-0.0201731 0.553862 0.194506 0 68 152 0.830587 0.00135496 0.556887 
0.00357209 0.552786 0.190378 0 68 152 -0.830587 0.00135496 -0.556887 
0.0236806 0.553185 0.211985 0 68 152 0.193909 0.00114739 0.981019 
0.0228628 0.55396 0.212148 0 68 152 0.193909 0.00114739 0.981019 
0.0270937 0.554894 0.193739 0 68 152 0.981019 0.00114739 0.193909 
0.0270942 0.55394 0.206263 0 68 152 0.981019 0.00114739 -0.193909 
-0.0251816 0.55574 0.210258 0 68 152 0.000977516 0.999999 0.000977516 
0.0195613 0.554656 0.206689 0 68 152 -0.981019 0.00114739 -0.193909 
0.0264825 0.555148 0.210139 0 68 152 0.830587 0.00135496 0.556887 
-0.00854978 0.552671 0.189169 0 68 152 -0.193909 0.00114739 -0.981019 
-0.00765362 0.552203 0.188991 0 68 152 -0.193909 0.00114739 -0.981019 
-0.0183667 0.554055 0.208237 0 68 152 0.981019 0.00114739 0.193909 
-0.0184962 0.554541 0.208888 0 68 152 0.981019 0.00114739 0.193909 
0.0106364 0.552432 0.209093 0 68 152 0.830587 0.00135496 0.556887 
-0.00658326 0.555362 0.203242 0 68 152 0.193909 0.00114739 -0.981019 
-0.0265107 0.553158 0.210097 0 68 152 -0.830587 0.00135496 0.556887 
-0.0267192 0.554131 0.209785 0 68 152 -0.830587 0.00135496 0.556887 
0.010803 0.553839 0.191309 0 68 152 0.981019 0.00114739 -0.193909 
0.0109049 0.555652 0.191821 0 68 152 0.981019 0.00114739 -0.193909 
-0.012039 0.552299 0.191792 0 68 152 -0.981019 0.00114739 -0.193909 
0.025314 0.554664 0.209875 0 68 152 0.830587 0.00135496 0.556887 
-0.0240938 0.551698 0.188097 0 68 152 -0.193909 0.00114739 -0.981019 
-0.0233436 0.553375 0.187948 0 68 152 -0.193909 0.00114739 -0.981019 
-0.00982032 0.553617 0.205049 0 68 152 -0.556887 0.00135496 -0.830587 
-0.0247326 0.555146 0.204857 0 68 152 -0.556887 0.00135496 -0.830587 
-0.0271933 0.553324 0.208438 0 68 152 -0.981019 0.00114739 0.193909 
-0.00447057 0.555168 0.193754 0 68 152 0.830587 0.00135496 0.556887 
0.00718352 0.551981 0.187923 0 68 152 -0.193909 0.00114739 -0.981019 
-0.0112092 0.553031 0.189751 0 68 152 -0.830587 0.00135496 -0.556887 
-0.0110867 0.555644 0.189568 0 68 152 -0.830587 0.00135496 -0.556887 
0.00485976 0.553105 0.209537 0 68 152 -0.830587 0.00135496 0.556887 
0.00333 0.551938 0.206142 0 68 152 -0.981019 0.00114739 -0.193909 
0.00333124 0.555091 0.206135 0 68 152 -0.981019 0.00114739 -0.193909 
0.0245766 0.552549 0.195247 0 68 152 0.556887 0.00135496 0.830587 
-0.0187563 0.55268 0.190402 0 68 152 0.830587 0.00135496 -0.556887 
-0.00577878 0.55381 0.203438 0 68 152 0.556887 0.00135496 -0.830587 
0.0105023 0.552731 0.21104 0 68 152 0.556887 0.00135496 0.830587 
0.0097468 0.553056 0.211545 0 68 152 0.556887 0.00135496 0.830587 
0.0184944 0.554149 0.208879 0 68 152 -0.981019 0.00114739 0.193909 
-0.0195707 0.55574 0.195037 0 68 152 0.000977516 0.999999 0.000977516 
0.0227913 0.555676 0.212158 0 68 152 -0.193909 0.00114739 0.981019 
0.0212664 0.552465 0.211855 0 68 152 -0.193909 0.00114739 0.981019 
0.0254906 0.552107 0.195981 0 68 152 0.556887 0.00135496 0.830587 
-0.0241091 0.553455 0.19556 0 68 152 -0.556887 0.00135496 0.830587 
-0.00321321 0.553209 0.208471 0 68 152 0.981019 0.00114739 0.193909 
0.00722627 0.552716 0.196886 0 68 152 -0.193909 0.00114739 0.981019 
0.0193409 0.551995 0.195273 0 68 152 -0.830587 0.00135496 0.556887 
0.0188358 0.553442 0.194517 0 68 152 -0.830587 0.00135496 0.556887 
-0.0304 0.538589 0.211789 0 68 152 0.999999 0.000977516 0.000977516 
-0.0304 0.546614 0.207415 0 68 152 0.999999 0.000977516 0.000977516 
-0.0304 0.540429 0.198796 0 68 152 0.999999 0.000977516 0.000977516 
-0.0304 0.547038 0.213394 0 68 152 0.999999 0.000977516 0.000977516 
-0.0304 0.536071 0.194677 0 68 152 0.999999 0.000977516 0.000977516 
-0.0304 0.534616 0.205499 0 68 152 0.999999 0.000977516 0.000977516 
-0.0304 0.54511 0.20509 0 68 152 0.999999 0.000977516 0.000977516 
-0.0304 0.542897 0.202717 0 68 152 0.999999 0.000977516 0.000977516 
-0.0304 0.540914 0.209742 0 68 152 0.999999 0.000977516 0.000977516 
-0.0304 0.538904 0.202211 0 68 152 0.999999 0.000977516 0.000977516 
-0.0304 0.538639 0.212309 0 68 152 0.999999 0.000977516 0.000977516 
-0.0304 0.534728 0.20181 0 68 152 0.999999 0.000977516 0.000977516 
-0.0304 0.534623 0.214789 0 68 152 0.999999 0.000977516 0.000977516 
-0.0304 0.541693 0.205332 0 68 152 0.999999 0.000977516 0.000977516 
-0.0304 0.535675 0.188929 0 68 152 0.999999 0.000977516 0.000977516 
-0.0304 0.53914 0.198444 0 68 152 0.999999 0.000977516 0.000977516 
-0.0304 0.542976 0.210225 0 68 152 0.999999 0.000977516 0.000977516 
-0.0304 0.534771 0.211021 0 68 152 0.999999 0.000977516 0.000977516 
-0.0304 0.5347 0.198208 0 68 152 0.999999 0.000977516 0.000977516 
-0.0304 0.539969 0.204888 0 68 152 0.999999 0.000977516 0.000977516 
-0.0304 0.535682 0.195079 0 68 152 0.999999 0.000977516 0.000977516 
-0.0304 0.540935 0.204339 0 68 152 0.999999 0.000977516 0.000977516 
-0.0304 0.543886 0.21214 0 68 152 0.999999 0.000977516 0.000977516 
-0.0304 0.538597 0.197366 0 68 152 0.999999 0.000977516 0.000977516 
-0.0304 0.533333 0.197217 0 68 152 0.999999 0.000977516 0.000977516 
-0.0304 0.535007 0.196528 0 68 152 0.999999 0.000977516 0.000977516 
-0.0304 0.533882 0.203391 0 68 152 0.999999 0.000977516 0.000977516 
-0.0304 0.534904 0.193586 0 68 152 0.999999 0.000977516 0.000977516 
-0.0304 0.542721 0.204712 0 68 152 0.999999 0.000977516 0.000977516 
-0.0304 0.53351 0.205891 0 68 152 0.999999 0.000977516 0.000977516 
-0.0304 0.544178 0.213787 0 68 152 0.999999 0.000977516 0.000977516 
-0.0304 0.542432 0.186474 0 68 152 0.999999 0.000977516 0.000977516 
-0.0304 0.54985 0.20022 0 68 152 0.999999 0.000977516 0.000977516 
-0.0304 0.542214 0.186853 0 68 152 0.999999 0.000977516 0.000977516 
-0.0304 0.536403 0.185522 0 68 152 0.999999 0.000977516 0.000977516 
-0.0304 0.548838 0.18864 0 68 152 0.999999 0.000977516 0.000977516 
-0.0304 0.540916 0.187647 0 68 152 0.999999 0.000977516 0.000977516 
-0.0304 0.549985 0.192461 0 68 152 0.999999 0.000977516 0.000977516 
-0.0304 0.550779 0.209832 0 68 152 0.999999 0.000977516 0.000977516 
-0.0304 0.548206 0.202296 0 68 152 0.999999 0.000977516 0.000977516 
-0.0304 0.540048 0.192645 0 68 152 0.999999 0.000977516 0.000977516 
-0.0304 0.538232 0.186703 0 68 152 0.999999 0.000977516 0.000977516 
-0.0304 0.54409 0.200634 0 68 152 0.999999 0.000977516 0.000977516 
-0.0304 0.540277 0.187711 0 68 152 0.999999 0.000977516 0.000977516 
-0.0304 0.540426 0.196493 0 68 152 0.999999 0.000977516 0.000977516 
-0.0304 0.534977 0.185335 0 68 152 0.999999 0.000977516 0.000977516 
-0.0304 0.549919 0.192495 0 68 152 0.999999 0.000977516 0.000977516 
-0.0304 0.54672 0.194316 0 68 152 0.999999 0.000977516 0.000977516 
-0.0304 0.546831 0.195082 0 68 152 0.999999 0.000977516 0.000977516 
-0.0304 0.544719 0.186596 0 68 152 0.999999 0.000977516 0.000977516 
-0.0304 0.5453 0.197798 0 68 152 0.999999 0.000977516 0.000977516 
-0.0304 0.538871 0.186868 0 68 152 0.999999 0.000977516 0.000977516 
-0.0304 0.544791 0.189617 0 68 152 0.999999 0.000977516 0.000977516 
-0.0304 0.5456 0.195827 0 68 152 0.999999 0.000977516 0.000977516 
-0.0304 0.548404 0.206415 0 68 152 0.999999 0.000977516 0.000977516 
-0.0304 0.546842 0.201465 0 68 152 0.999999 0.000977516 0.000977516 
-0.0304 0.542765 0.193042 0 68 152 0.999999 0.000977516 0.000977516 
-0.0304 0.549665 0.186009 0 68 152 0.999999 0.000977516 0.000977516 
-0.0304 0.550279 0.193537 0 68 152 0.999999 0.000977516 0.000977516 
-0.0304 0.548522 0.188848 0 68 152 0.999999 0.000977516 0.000977516 
-0.0304 0.546131 0.202946 0 68 152 0.999999 0.000977516 0.000977516 
-0.0304 0.546498 0.199575 0 68 152 0.999999 0.000977516 0.000977516 
-0.0304 0.538952 0.189991 0 68 152 0.999999 0.000977516 0.000977516 
0.00488943 0.551597 0.194381 0 68 152 -0.830587 0.00135496 0.556887 
0.00447166 0.552083 0.193756 0 68 152 -0.830587 0.00135496 0.556887 
0.0200439 0.552246 0.188863 0 68 152 -0.556887 0.00135496 -0.830587 
0.0208266 0.555054 0.18834 0 68 152 -0.556887 0.00135496 -0.830587 
-0.0194907 0.554286 0.204503 0 68 152 0.830587 0.00135496 -0.556887 
-0.00952191 0.55482 0.18965 0 68 152 -0.556887 0.00135496 -0.830587 
-0.00855703 0.554992 0.21083 0 68 152 -0.193909 0.00114739 0.981019 
-0.00741423 0.554056 0.189017 0 68 152 0.193909 0.00114739 -0.981019 
-0.0070334 0.555342 0.196847 0 68 152 0.193909 0.00114739 0.981019 
0.0247483 0.555067 0.204868 0 68 152 0.556887 0.00135496 -0.830587 
-0.00712304 0.55156 0.189882 0 68 152 0.000977516 -0.999999 0.000977516 
0.030299 0.55156 0.208936 0 68 152 0.000977516 -0.999999 0.000977516 
0.0299692 0.55156 0.197596 0 68 152 0.000977516 -0.999999 0.000977516 
0.00316469 0.55156 0.196341 0 68 152 0.000977516 -0.999999 0.000977516 
0.0237435 0.55156 0.192559 0 68 152 0.000977516 -0.999999 0.000977516 
-0.0108661 0.55156 0.189183 0 68 152 0.000977516 -0.999999 0.000977516 
-0.0143276 0.55156 0.190098 0 68 152 0.000977516 -0.999999 0.000977516 
0.021808 0.55156 0.191634 0 68 152 0.000977516 -0.999999 0.000977516 
0.0239082 0.55156 0.208626 0 68 152 0.000977516 -0.999999 0.000977516 
0.00238146 0.55156 0.187417 0 68 152 0.000977516 -0.999999 0.000977516 
0.00428724 0.55156 0.196736 0 68 152 0.000977516 -0.999999 0.000977516 
0.0282761 0.55156 0.193603 0 68 152 0.000977516 -0.999999 0.000977516 
0.0272971 0.55156 0.191731 0 68 152 0.000977516 -0.999999 0.000977516 
0.016506 0.55156 0.199311 0 68 152 0.000977516 -0.999999 0.000977516 
-0.00710562 0.55156 0.190618 0 68 152 0.000977516 -0.999999 0.000977516 
0.0113877 0.55156 0.201782 0 68 152 0.000977516 -0.999999 0.000977516 
-0.00615934 0.55156 0.191338 0 68 152 0.000977516 -0.999999 0.000977516 
0.0226908 0.55156 0.201661 0 68 152 0.000977516 -0.999999 0.000977516 
0.0132111 0.55156 0.185696 0 68 152 0.000977516 -0.999999 0.000977516 
0.0236273 0.55156 0.193115 0 68 152 0.000977516 -0.999999 0.000977516 
0.00774984 0.55156 0.202659 0 68 152 0.000977516 -0.999999 0.000977516 
-0.0166474 0.55156 0.188777 0 68 152 0.000977516 -0.999999 0.000977516 
-0.0207869 0.55156 0.185454 0 68 152 0.000977516 -0.999999 0.000977516 
0.00933414 0.55156 0.193541 0 68 152 0.000977516 -0.999999 0.000977516 
0.0302095 0.55156 0.189581 0 68 152 0.000977516 -0.999999 0.000977516 
0.0121388 0.55156 0.200861 0 68 152 0.000977516 -0.999999 0.000977516 
0.0298515 0.55156 0.189549 0 68 152 0.000977516 -0.999999 0.000977516 
0.00834919 0.55156 0.202138 0 68 152 0.000977516 -0.999999 0.000977516 
0.0279024 0.55156 0.194764 0 68 152 0.000977516 -0.999999 0.000977516 
0.00671904 0.55156 0.200283 0 68 152 0.000977516 -0.999999 0.000977516 
0.0176812 0.55156 0.203144 0 68 152 0.000977516 -0.999999 0.000977516 
0.00460517 0.55156 0.187349 0 68 152 0.000977516 -0.999999 0.000977516 
0.0180565 0.55156 0.195246 0 68 152 0.000977516 -0.999999 0.000977516 
0.00870852 0.55156 0.197113 0 68 152 0.000977516 -0.999999 0.000977516 
-0.00314754 0.55156 0.19736 0 68 152 0.000977516 -0.999999 0.000977516 
0.00902443 0.55156 0.19306 0 68 152 0.000977516 -0.999999 0.000977516 
0.00726701 0.55156 0.201918 0 68 152 0.000977516 -0.999999 0.000977516 
0.0209023 0.55156 0.190318 0 68 152 0.000977516 -0.999999 0.000977516 
0.0147101 0.55156 0.202083 0 68 152 0.000977516 -0.999999 0.000977516 
0.0126165 0.55156 0.185304 0 68 152 0.000977516 -0.999999 0.000977516 
0.016093 0.55156 0.19313 0 68 152 0.000977516 -0.999999 0.000977516 
0.0216025 0.55156 0.203742 0 68 152 0.000977516 -0.999999 0.000977516 
0.00508991 0.55156 0.191937 0 68 152 0.000977516 -0.999999 0.000977516 
0.0187609 0.55156 0.204449 0 68 152 0.000977516 -0.999999 0.000977516 
-0.0034334 0.55156 0.185482 0 68 152 0.000977516 -0.999999 0.000977516 
0.0199316 0.55156 0.208569 0 68 152 0.000977516 -0.999999 0.000977516 
0.0171657 0.55156 0.206047 0 68 152 0.000977516 -0.999999 0.000977516 
-0.021522 0.55156 0.185212 0 68 152 0.000977516 -0.999999 0.000977516 
0.0218415 0.55156 0.203276 0 68 152 0.000977516 -0.999999 0.000977516 
-0.0123744 0.55156 0.188619 0 68 152 0.000977516 -0.999999 0.000977516 
0.0244729 0.55156 0.207027 0 68 152 0.000977516 -0.999999 0.000977516 
0.0300307 0.55156 0.200335 0 68 152 0.000977516 -0.999999 0.000977516 
0.0130724 0.55156 0.197459 0 68 152 0.000977516 -0.999999 0.000977516 
0.0265519 0.55156 0.209927 0 68 152 0.000977516 -0.999999 0.000977516 
0.0232567 0.55156 0.19044 0 68 152 0.000977516 -0.999999 0.000977516 
0.00671717 0.55156 0.187954 0 68 152 0.000977516 -0.999999 0.000977516 
0.0113629 0.55156 0.190821 0 68 152 0.000977516 -0.999999 0.000977516 
0.0163202 0.55156 0.200339 0 68 152 0.000977516 -0.999999 0.000977516 
0.0219093 0.55156 0.189146 0 68 152 0.000977516 -0.999999 0.000977516 
0.013371 0.55156 0.194266 0 68 152 0.000977516 -0.999999 0.000977516 
0.0146135 0.55156 0.202635 0 68 152 0.000977516 -0.999999 0.000977516 
0.00213127 0.55156 0.19771 0 68 152 0.000977516 -0.999999 0.000977516 
0.0227282 0.55156 0.205886 0 68 152 0.000977516 -0.999999 0.000977516 
-0.000980821 0.55156 0.198299 0 68 152 0.000977516 -0.999999 0.000977516 
0.00537315 0.55156 0.201765 0 68 152 0.000977516 -0.999999 0.000977516 
0.00294009 0.55156 0.195345 0 68 152 0.000977516 -0.999999 0.000977516 
0.0122502 0.55156 0.196588 0 68 152 0.000977516 -0.999999 0.000977516 
0.00405352 0.55156 0.201328 0 68 152 0.000977516 -0.999999 0.000977516 
0.0293333 0.55156 0.186342 0 68 152 0.000977516 -0.999999 0.000977516 
-0.0249539 0.55156 0.186952 0 68 152 0.000977516 -0.999999 0.000977516 
-0.0122729 0.55156 0.186774 0 68 152 0.000977516 -0.999999 0.000977516 
0.0287032 0.55156 0.201963 0 68 152 0.000977516 -0.999999 0.000977516 
0.0231397 0.55156 0.201983 0 68 152 0.000977516 -0.999999 0.000977516 
0.0218191 0.55156 0.199766 0 68 152 0.000977516 -0.999999 0.000977516 
-0.0187425 0.55156 0.188835 0 68 152 0.000977516 -0.999999 0.000977516 
-0.01295 0.55156 0.190639 0 68 152 0.000977516 -0.999999 0.000977516 
0.024317 0.55156 0.205164 0 68 152 0.000977516 -0.999999 0.000977516 
-0.0193405 0.55156 0.187019 0 68 152 0.000977516 -0.999999 0.000977516 
0.029953 0.55156 0.201801 0 68 152 0.000977516 -0.999999 0.000977516 
0.00372693 0.55156 0.201403 0 68 152 0.000977516 -0.999999 0.000977516 
0.0145426 0.55156 0.205505 0 68 152 0.000977516 -0.999999 0.000977516 
0.011024 0.55156 0.190924 0 68 152 0.000977516 -0.999999 0.000977516 
0.0302319 0.55156 0.202259 0 68 152 0.000977516 -0.999999 0.000977516 
0.00748991 0.55156 0.201608 0 68 152 0.000977516 -0.999999 0.000977516 
0.0176255 0.55156 0.19086 0 68 152 0.000977516 -0.999999 0.000977516 
0.0255275 0.55156 0.200814 0 68 152 0.000977516 -0.999999 0.000977516 
0.0196078 0.55156 0.186695 0 68 152 0.000977516 -0.999999 0.000977516 
0.0218856 0.55156 0.204842 0 68 152 0.000977516 -0.999999 0.000977516 
0.0198988 0.55156 0.207972 0 68 152 0.000977516 -0.999999 0.000977516 
0.00581824 0.55156 0.195191 0 68 152 0.000977516 -0.999999 0.000977516 
0.0114019 0.55156 0.204793 0 68 152 0.000977516 -0.999999 0.000977516 
0.0106416 0.55156 0.189738 0 68 152 0.000977516 -0.999999 0.000977516 
0.0167656 0.55156 0.20014 0 68 152 0.000977516 -0.999999 0.000977516 
0.0302284 0.55156 0.192999 0 68 152 0.000977516 -0.999999 0.000977516 
0.0219525 0.55156 0.193353 0 68 152 0.000977516 -0.999999 0.000977516 
0.0277819 0.55156 0.206763 0 68 152 0.000977516 -0.999999 0.000977516 
-0.00289277 0.55156 0.198371 0 68 152 0.000977516 -0.999999 0.000977516 
0.0163181 0.55156 0.195582 0 68 152 0.000977516 -0.999999 0.000977516 
0.0134339 0.55156 0.192023 0 68 152 0.000977516 -0.999999 0.000977516 
0.00538937 0.55156 0.200512 0 68 152 0.000977516 -0.999999 0.000977516 
0.0243654 0.55156 0.185206 0 68 152 0.000977516 -0.999999 0.000977516 
-0.00727281 0.55156 0.18633 0 68 152 0.000977516 -0.999999 0.000977516 
-0.0114221 0.55156 0.188426 0 68 152 0.000977516 -0.999999 0.000977516 
0.0221824 0.55156 0.195877 0 68 152 0.000977516 -0.999999 0.000977516 
0.00107156 0.55156 0.1896 0 68 152 0.000977516 -0.999999 0.000977516 
0.00802962 0.55156 0.198318 0 68 152 0.000977516 -0.999999 0.000977516 
-0.0232022 0.55156 0.210637 0 68 152 0.000977516 -0.999999 0.000977516 
0.00435501 0.55156 0.202761 0 68 152 0.000977516 -0.999999 0.000977516 
-0.00639009 0.55156 0.210746 0 68 152 0.000977516 -0.999999 0.000977516 
0.00624014 0.55156 0.208827 0 68 152 0.000977516 -0.999999 0.000977516 
-0.0294678 0.55156 0.19302 0 68 152 0.000977516 -0.999999 0.000977516 
0.0172296 0.55156 0.214227 0 68 152 0.000977516 -0.999999 0.000977516 
0.0178158 0.55156 0.212333 0 68 152 0.000977516 -0.999999 0.000977516 
-0.00224322 0.55156 0.211516 0 68 152 0.000977516 -0.999999 0.000977516 
-0.0117998 0.55156 0.204882 0 68 152 0.000977516 -0.999999 0.000977516 
-0.00809619 0.55156 0.198086 0 68 152 0.000977516 -0.999999 0.000977516 
-0.00647336 0.55156 0.211426 0 68 152 0.000977516 -0.999999 0.000977516 
-0.0287441 0.55156 0.186104 0 68 152 0.000977516 -0.999999 0.000977516 
-0.0136057 0.55156 0.195113 0 68 152 0.000977516 -0.999999 0.000977516 
-0.0063705 0.55156 0.207478 0 68 152 0.000977516 -0.999999 0.000977516 
-0.0242966 0.55156 0.196383 0 68 152 0.000977516 -0.999999 0.000977516 
-0.0110799 0.55156 0.195164 0 68 152 0.000977516 -0.999999 0.000977516 
-0.0229962 0.55156 0.211032 0 68 152 0.000977516 -0.999999 0.000977516 
0.000669901 0.55156 0.202479 0 68 152 0.000977516 -0.999999 0.000977516 
-0.014403 0.55156 0.19806 0 68 152 0.000977516 -0.999999 0.000977516 
-0.0185863 0.55156 0.208491 0 68 152 0.000977516 -0.999999 0.000977516 
-0.0290888 0.55156 0.190385 0 68 152 0.000977516 -0.999999 0.000977516 
-0.0288102 0.55156 0.189257 0 68 152 0.000977516 -0.999999 0.000977516 
0.025192 0.55156 0.214009 0 68 152 0.000977516 -0.999999 0.000977516 
-0.0145295 0.55156 0.192905 0 68 152 0.000977516 -0.999999 0.000977516 
-0.00746512 0.55156 0.199018 0 68 152 0.000977516 -0.999999 0.000977516 
-0.0154674 0.55156 0.212966 0 68 152 0.000977516 -0.999999 0.000977516 
-0.0235031 0.55156 0.210624 0 68 152 0.000977516 -0.999999 0.000977516 
-0.0050687 0.55156 0.200313 0 68 152 0.000977516 -0.999999 0.000977516 
-0.0164272 0.55156 0.203726 0 68 152 0.000977516 -0.999999 0.000977516 
0.0209351 0.55156 0.214121 0 68 152 0.000977516 -0.999999 0.000977516 
-0.0156644 0.55156 0.201847 0 68 152 0.000977516 -0.999999 0.000977516 
0.00292247 0.55156 0.208534 0 68 152 0.000977516 -0.999999 0.000977516 
-0.0264612 0.55156 0.19231 0 68 152 0.000977516 -0.999999 0.000977516 
-0.0254098 0.55156 0.206064 0 68 152 0.000977516 -0.999999 0.000977516 
-0.0114619 0.55156 0.208415 0 68 152 0.000977516 -0.999999 0.000977516 
-0.0246087 0.55156 0.203509 0 68 152 0.000977516 -0.999999 0.000977516 
0.0260702 0.55156 0.214105 0 68 152 0.000977516 -0.999999 0.000977516 
0.0201424 0.55156 0.211232 0 68 152 0.000977516 -0.999999 0.000977516 
-0.00527191 0.55156 0.199459 0 68 152 0.000977516 -0.999999 0.000977516 
-0.021516 0.55156 0.202661 0 68 152 0.000977516 -0.999999 0.000977516 
-0.0120454 0.55156 0.202878 0 68 152 0.000977516 -0.999999 0.000977516 
-0.0288566 0.55156 0.196288 0 68 152 0.000977516 -0.999999 0.000977516 
0.00559489 0.55156 0.208427 0 68 152 0.000977516 -0.999999 0.000977516 
-0.0137111 0.55156 0.20971 0 68 152 0.000977516 -0.999999 0.000977516 
-0.0301092 0.55156 0.206394 0 68 152 0.000977516 -0.999999 0.000977516 
-0.0293928 0.55156 0.212175 0 68 152 0.000977516 -0.999999 0.000977516 
-0.00738652 0.55156 0.214305 0 68 152 0.000977516 -0.999999 0.000977516 
0.0231647 0.55156 0.2138 0 68 152 0.000977516 -0.999999 0.000977516 
0.0132333 0.55156 0.211287 0 68 152 0.000977516 -0.999999 0.000977516 
-0.0145132 0.55156 0.208384 0 68 152 0.000977516 -0.999999 0.000977516 
-0.00649174 0.55156 0.206967 0 68 152 0.000977516 -0.999999 0.000977516 
-0.00884523 0.55156 0.210823 0 68 152 0.000977516 -0.999999 0.000977516 
-0.0132479 0.55156 0.197239 0 68 152 0.000977516 -0.999999 0.000977516 
0.000455981 0.55156 0.213561 0 68 152 0.000977516 -0.999999 0.000977516 
-0.0181574 0.55156 0.195154 0 68 152 0.000977516 -0.999999 0.000977516 
-0.0233814 0.55156 0.19872 0 68 152 0.000977516 -0.999999 0.000977516 
0.0100923 0.55156 0.213377 0 68 152 0.000977516 -0.999999 0.000977516 
0.00188072 0.55156 0.20102 0 68 152 0.000977516 -0.999999 0.000977516 
-0.0281528 0.55156 0.201273 0 68 152 0.000977516 -0.999999 0.000977516 
-0.00657822 0.55156 0.197059 0 68 152 0.000977516 -0.999999 0.000977516 
-0.0145021 0.55156 0.202324 0 68 152 0.000977516 -0.999999 0.000977516 
0.00409761 0.55156 0.215133 0 68 152 0.000977516 -0.999999 0.000977516 
-0.0294846 0.55156 0.200439 0 68 152 0.000977516 -0.999999 0.000977516 
0.0191337 0.55156 0.214342 0 68 152 0.000977516 -0.999999 0.000977516 
-0.027783 0.55156 0.212478 0 68 152 0.000977516 -0.999999 0.000977516 
-0.0242849 0.55156 0.197157 0 68 152 0.000977516 -0.999999 0.000977516 
-0.00502519 0.55156 0.214408 0 68 152 0.000977516 -0.999999 0.000977516 
0.0156922 0.55156 0.212941 0 68 152 0.000977516 -0.999999 0.000977516 
0.00696742 0.55156 0.206743 0 68 152 0.000977516 -0.999999 0.000977516 
0.00785616 0.55156 0.205476 0 68 152 0.000977516 -0.999999 0.000977516 
-0.0134412 0.55156 0.210435 0 68 152 0.000977516 -0.999999 0.000977516 
-0.0291286 0.55156 0.213554 0 68 152 0.000977516 -0.999999 0.000977516 
-0.028825 0.55156 0.201597 0 68 152 0.000977516 -0.999999 0.000977516 
0.0156541 0.55156 0.209324 0 68 152 0.000977516 -0.999999 0.000977516 
0.0116931 0.55156 0.207374 0 68 152 0.000977516 -0.999999 0.000977516 
-0.0198323 0.55156 0.207244 0 68 152 0.000977516 -0.999999 0.000977516 
0.00860444 0.55156 0.214336 0 68 152 0.000977516 -0.999999 0.000977516 
-0.0269074 0.55156 0.205519 0 68 152 0.000977516 -0.999999 0.000977516 
-0.0259476 0.55156 0.202026 0 68 152 0.000977516 -0.999999 0.000977516 
-0.0184901 0.55156 0.210275 0 68 152 0.000977516 -0.999999 0.000977516 
-0.00132351 0.55156 0.209644 0 68 152 0.000977516 -0.999999 0.000977516 
-0.00122205 0.55156 0.209227 0 68 152 0.000977516 -0.999999 0.000977516 
-0.00309388 0.55156 0.209132 0 68 152 0.000977516 -0.999999 0.000977516 
-0.0256253 0.55156 0.211961 0 68 152 0.000977516 -0.999999 0.000977516 
-0.0235714 0.55156 0.202106 0 68 152 0.000977516 -0.999999 0.000977516 
-0.00994944 0.55156 0.212537 0 68 152 0.000977516 -0.999999 0.000977516 
0.0106945 0.55156 0.20734 0 68 152 0.000977516 -0.999999 0.000977516 
-0.0174003 0.55156 0.204758 0 68 152 0.000977516 -0.999999 0.000977516 
-0.0258614 0.55156 0.200225 0 68 152 0.000977516 -0.999999 0.000977516 
0.0128601 0.55156 0.207118 0 68 152 0.000977516 -0.999999 0.000977516 
-0.0239479 0.55156 0.196245 0 68 152 0.000977516 -0.999999 0.000977516 
0.00776684 0.55156 0.207199 0 68 152 0.000977516 -0.999999 0.000977516 
-0.025022 0.55156 0.192913 0 68 152 0.000977516 -0.999999 0.000977516 
-0.017591 0.55156 0.208274 0 68 152 0.000977516 -0.999999 0.000977516 
-0.0260183 0.55156 0.190053 0 68 152 0.000977516 -0.999999 0.000977516 
-0.0170949 0.55156 0.205372 0 68 152 0.000977516 -0.999999 0.000977516 
-0.004752 0.55156 0.201444 0 68 152 0.000977516 -0.999999 0.000977516 
0.0160874 0.55156 0.213386 0 68 152 0.000977516 -0.999999 0.000977516 
0.0119998 0.55156 0.213828 0 68 152 0.000977516 -0.999999 0.000977516 
0.0232095 0.55156 0.21287 0 68 152 0.000977516 -0.999999 0.000977516 
-0.0290953 0.55156 0.204867 0 68 152 0.000977516 -0.999999 0.000977516 
-0.0124569 0.55156 0.19388 0 68 152 0.000977516 -0.999999 0.000977516 
-0.0234429 0.55156 0.206627 0 68 152 0.000977516 -0.999999 0.000977516 
0.00992888 0.55156 0.212739 0 68 152 0.000977516 -0.999999 0.000977516 
-0.025178 0.55156 0.203801 0 68 152 0.000977516 -0.999999 0.000977516 
-0.0098248 0.55156 0.200309 0 68 152 0.000977516 -0.999999 0.000977516 
-0.0199652 0.552879 0.190605 0 68 152 0.830587 0.00135496 -0.556887 
-0.00470099 0.552172 0.188958 0 68 152 0.556887 0.00135496 -0.830587 
-0.0118827 0.552411 0.208994 0 68 152 -0.981019 0.00114739 0.193909 
-0.0119387 0.554386 0.208713 0 68 152 -0.981019 0.00114739 0.193909 
-0.0212763 0.555253 0.210616 0 68 152 0.556887 0.00135496 0.830587 
-0.024871 0.553746 0.196395 0 68 152 -0.556887 0.00135496 0.830587 
-0.0261602 0.552212 0.195421 0 68 152 -0.830587 0.00135496 0.556887 
-0.0182891 0.552052 0.192647 0 68 152 0.981019 0.00114739 0.193909 
-0.0195205 0.552546 0.208306 0 68 152 0.981019 0.00114739 0.193909 
-0.0195718 0.553383 0.208565 0 68 152 0.981019 0.00114739 0.193909 
0.00729612 0.53354 0.2152 0 68 152 0.000977516 0.000977516 -0.999999 
0.0238953 0.541617 0.2152 0 68 152 0.000977516 0.000977516 -0.999999 
0.00974424 0.544609 0.2152 0 68 152 0.000977516 0.000977516 -0.999999 
0.0177953 0.533532 0.2152 0 68 152 0.000977516 0.000977516 -0.999999 
0.0249896 0.544497 0.2152 0 68 152 0.000977516 0.000977516 -0.999999 
-0.00521738 0.538101 0.2152 0 68 152 0.000977516 0.000977516 -0.999999 
-0.0165285 0.534519 0.2152 0 68 152 0.000977516 0.000977516 -0.999999 
-0.013909 0.536947 0.2152 0 68 152 0.000977516 0.000977516 -0.999999 
0.015335 0.542663 0.2152 0 68 152 0.000977516 0.000977516 -0.999999 
0.0276217 0.534357 0.2152 0 68 152 0.000977516 0.000977516 -0.999999 
0.0269392 0.535557 0.2152 0 68 152 0.000977516 0.000977516 -0.999999 
0.017837 0.534669 0.2152 0 68 152 0.000977516 0.000977516 -0.999999 
-1.19047e-005 0.536177 0.2152 0 68 152 0.000977516 0.000977516 -0.999999 
0.0264223 0.534123 0.2152 0 68 152 0.000977516 0.000977516 -0.999999 
0.0300309 0.546391 0.2152 0 68 152 0.000977516 0.000977516 -0.999999 
-0.0143095 0.537545 0.2152 0 68 152 0.000977516 0.000977516 -0.999999 
-0.0155811 0.53623 0.2152 0 68 152 0.000977516 0.000977516 -0.999999 
0.0286215 0.537865 0.2152 0 68 152 0.000977516 0.000977516 -0.999999 
0.00421105 0.542383 0.2152 0 68 152 0.000977516 0.000977516 -0.999999 
-0.00117102 0.534281 0.2152 0 68 152 0.000977516 0.000977516 -0.999999 
0.020157 0.544095 0.2152 0 68 152 0.000977516 0.000977516 -0.999999 
0.0255499 0.547682 0.2152 0 68 152 0.000977516 0.000977516 -0.999999 
-0.0172082 0.535994 0.2152 0 68 152 0.000977516 0.000977516 -0.999999 
0.00419132 0.542379 0.2152 0 68 152 0.000977516 0.000977516 -0.999999 
0.015378 0.539613 0.2152 0 68 152 0.000977516 0.000977516 -0.999999 
-0.0088204 0.536974 0.2152 0 68 152 0.000977516 0.000977516 -0.999999 
0.0261857 0.548122 0.2152 0 68 152 0.000977516 0.000977516 -0.999999 
0.0235151 0.5486 0.2152 0 68 152 0.000977516 0.000977516 -0.999999 
0.0288168 0.533714 0.2152 0 68 152 0.000977516 0.000977516 -0.999999 
0.00184358 0.540837 0.2152 0 68 152 0.000977516 0.000977516 -0.999999 
-0.00819224 0.539839 0.2152 0 68 152 0.000977516 0.000977516 -0.999999 
0.0219628 0.535874 0.2152 0 68 152 0.000977516 0.000977516 -0.999999 
0.0223787 0.544199 0.2152 0 68 152 0.000977516 0.000977516 -0.999999 
0.00407005 0.541753 0.2152 0 68 152 0.000977516 0.000977516 -0.999999 
0.00105222 0.542648 0.2152 0 68 152 0.000977516 0.000977516 -0.999999 
0.029 0.540394 0.2152 0 68 152 0.000977516 0.000977516 -0.999999 
0.0111367 0.533583 0.2152 0 68 152 0.000977516 0.000977516 -0.999999 
0.0127597 0.541099 0.2152 0 68 152 0.000977516 0.000977516 -0.999999 
0.0297467 0.547143 0.2152 0 68 152 0.000977516 0.000977516 -0.999999 
0.00914362 0.544943 0.2152 0 68 152 0.000977516 0.000977516 -0.999999 
0.0192677 0.53727 0.2152 0 68 152 0.000977516 0.000977516 -0.999999 
0.0112178 0.537952 0.2152 0 68 152 0.000977516 0.000977516 -0.999999 
-0.0174207 0.534901 0.2152 0 68 152 0.000977516 0.000977516 -0.999999 
-0.00380435 0.538498 0.2152 0 68 152 0.000977516 0.000977516 -0.999999 
-0.00742597 0.539162 0.2152 0 68 152 0.000977516 0.000977516 -0.999999 
0.0215096 0.54433 0.2152 0 68 152 0.000977516 0.000977516 -0.999999 
-0.00574806 0.539249 0.2152 0 68 152 0.000977516 0.000977516 -0.999999 
0.0185736 0.533414 0.2152 0 68 152 0.000977516 0.000977516 -0.999999 
-0.00186654 0.535526 0.2152 0 68 152 0.000977516 0.000977516 -0.999999 
0.0055612 0.541564 0.2152 0 68 152 0.000977516 0.000977516 -0.999999 
0.0277863 0.541711 0.2152 0 68 152 0.000977516 0.000977516 -0.999999 
-0.00174322 0.53893 0.2152 0 68 152 0.000977516 0.000977516 -0.999999 
0.0218893 0.545025 0.2152 0 68 152 0.000977516 0.000977516 -0.999999 
0.0271823 0.550029 0.2152 0 68 152 0.000977516 0.000977516 -0.999999 
0.00898922 0.541873 0.2152 0 68 152 0.000977516 0.000977516 -0.999999 
0.0225945 0.536339 0.2152 0 68 152 0.000977516 0.000977516 -0.999999 
-0.000533742 0.534504 0.2152 0 68 152 0.000977516 0.000977516 -0.999999 
0.0111485 0.543904 0.2152 0 68 152 0.000977516 0.000977516 -0.999999 
-0.00342255 0.53911 0.2152 0 68 152 0.000977516 0.000977516 -0.999999 
0.0168669 0.543562 0.2152 0 68 152 0.000977516 0.000977516 -0.999999 
0.01967 0.540967 0.2152 0 68 152 0.000977516 0.000977516 -0.999999 
-0.00237867 0.536286 0.2152 0 68 152 0.000977516 0.000977516 -0.999999 
0.00685192 0.542364 0.2152 0 68 152 0.000977516 0.000977516 -0.999999 
-0.0218819 0.540163 0.2152 0 68 152 0.000977516 0.000977516 -0.999999 
0.01012 0.550565 0.2152 0 68 152 0.000977516 0.000977516 -0.999999 
-0.0149848 0.539897 0.2152 0 68 152 0.000977516 0.000977516 -0.999999 
-0.0243256 0.53941 0.2152 0 68 152 0.000977516 0.000977516 -0.999999 
-0.0142518 0.538275 0.2152 0 68 152 0.000977516 0.000977516 -0.999999 
0.0208731 0.551248 0.2152 0 68 152 0.000977516 0.000977516 -0.999999 
0.0195647 0.549717 0.2152 0 68 152 0.000977516 0.000977516 -0.999999 
-0.0154471 0.546887 0.2152 0 68 152 0.000977516 0.000977516 -0.999999 
-0.022206 0.543618 0.2152 0 68 152 0.000977516 0.000977516 -0.999999 
-0.0102473 0.548507 0.2152 0 68 152 0.000977516 0.000977516 -0.999999 
0.0209539 0.550891 0.2152 0 68 152 0.000977516 0.000977516 -0.999999 
-0.016025 0.545002 0.2152 0 68 152 0.000977516 0.000977516 -0.999999 
-0.0023138 0.550973 0.2152 0 68 152 0.000977516 0.000977516 -0.999999 
0.0191592 0.549679 0.2152 0 68 152 0.000977516 0.000977516 -0.999999 
-0.0216005 0.54189 0.2152 0 68 152 0.000977516 0.000977516 -0.999999 
-0.014514 0.549116 0.2152 0 68 152 0.000977516 0.000977516 -0.999999 
-0.0202328 0.543505 0.2152 0 68 152 0.000977516 0.000977516 -0.999999 
-0.0297507 0.551388 0.2152 0 68 152 0.000977516 0.000977516 -0.999999 
-0.021506 0.53837 0.2152 0 68 152 0.000977516 0.000977516 -0.999999 
0.0155297 0.548523 0.2152 0 68 152 0.000977516 0.000977516 -0.999999 
-0.0285816 0.543921 0.2152 0 68 152 0.000977516 0.000977516 -0.999999 
0.0202075 0.550147 0.2152 0 68 152 0.000977516 0.000977516 -0.999999 
-0.0176299 0.550764 0.2152 0 68 152 0.000977516 0.000977516 -0.999999 
0.00169709 0.551497 0.2152 0 68 152 0.000977516 0.000977516 -0.999999 
-0.0293084 0.549318 0.2152 0 68 152 0.000977516 0.000977516 -0.999999 
-0.0138719 0.542724 0.2152 0 68 152 0.000977516 0.000977516 -0.999999 
-0.000896815 0.549049 0.2152 0 68 152 0.000977516 0.000977516 -0.999999 
-0.00507015 0.546008 0.2152 0 68 152 0.000977516 0.000977516 -0.999999 
-0.0120956 0.539528 0.2152 0 68 152 0.000977516 0.000977516 -0.999999 
0.00985241 0.548788 0.2152 0 68 152 0.000977516 0.000977516 -0.999999 
-0.0186873 0.5493 0.2152 0 68 152 0.000977516 0.000977516 -0.999999 
-0.0252388 0.536353 0.2152 0 68 152 0.000977516 0.000977516 -0.999999 
-0.0243858 0.550155 0.2152 0 68 152 0.000977516 0.000977516 -0.999999 
-0.0259591 0.53853 0.2152 0 68 152 0.000977516 0.000977516 -0.999999 
0.00394949 0.546297 0.2152 0 68 152 0.000977516 0.000977516 -0.999999 
0.0103866 0.549858 0.2152 0 68 152 0.000977516 0.000977516 -0.999999 
-0.0220966 0.548757 0.2152 0 68 152 0.000977516 0.000977516 -0.999999 
0.00237144 0.546108 0.2152 0 68 152 0.000977516 0.000977516 -0.999999 
-0.0241431 0.538442 0.2152 0 68 152 0.000977516 0.000977516 -0.999999 
0.0102244 0.549666 0.2152 0 68 152 0.000977516 0.000977516 -0.999999 
0.00331371 0.544539 0.2152 0 68 152 0.000977516 0.000977516 -0.999999 
-0.0242178 0.543294 0.2152 0 68 152 0.000977516 0.000977516 -0.999999 
-0.0128782 0.54019 0.2152 0 68 152 0.000977516 0.000977516 -0.999999 
-0.0195181 0.546101 0.2152 0 68 152 0.000977516 0.000977516 -0.999999 
-0.0134259 0.542576 0.2152 0 68 152 0.000977516 0.000977516 -0.999999 
0.00166536 0.550124 0.2152 0 68 152 0.000977516 0.000977516 -0.999999 
-0.0154852 0.549173 0.2152 0 68 152 0.000977516 0.000977516 -0.999999 
0.00830635 0.545541 0.2152 0 68 152 0.000977516 0.000977516 -0.999999 
-0.0248171 0.542377 0.2152 0 68 152 0.000977516 0.000977516 -0.999999 
0.00823939 0.544932 0.2152 0 68 152 0.000977516 0.000977516 -0.999999 
-0.00399642 0.548393 0.2152 0 68 152 0.000977516 0.000977516 -0.999999 
-0.0287062 0.534823 0.2152 0 68 152 0.000977516 0.000977516 -0.999999 
0.00279899 0.543977 0.2152 0 68 152 0.000977516 0.000977516 -0.999999 
-0.0100896 0.542986 0.2152 0 68 152 0.000977516 0.000977516 -0.999999 
0.00594982 0.548053 0.2152 0 68 152 0.000977516 0.000977516 -0.999999 
-0.0227059 0.54897 0.2152 0 68 152 0.000977516 0.000977516 -0.999999 
-0.0292325 0.53896 0.2152 0 68 152 0.000977516 0.000977516 -0.999999 
-0.00653974 0.54256 0.2152 0 68 152 0.000977516 0.000977516 -0.999999 
-0.00464947 0.548502 0.2152 0 68 152 0.000977516 0.000977516 -0.999999 
0.0169704 0.551229 0.2152 0 68 152 0.000977516 0.000977516 -0.999999 
-0.0108272 0.545658 0.2152 0 68 152 0.000977516 0.000977516 -0.999999 
0.0101483 0.549732 0.2152 0 68 152 0.000977516 0.000977516 -0.999999 
-0.021805 0.541274 0.2152 0 68 152 0.000977516 0.000977516 -0.999999 
-0.0234669 0.55118 0.2152 0 68 152 0.000977516 0.000977516 -0.999999 
-0.0219373 0.554976 0.210848 0 68 152 0.193909 0.00114739 0.981019 
-0.00654334 0.553342 0.18805 0 68 152 0.193909 0.00114739 -0.981019 
-0.00485292 0.55574 0.204852 0 68 152 0.000977516 0.999999 0.000977516 
0.00997098 0.55574 0.189113 0 68 152 0.000977516 0.999999 0.000977516 
-0.0270156 0.554385 0.194132 0 68 152 -0.981019 0.00114739 0.193909 
-0.025088 0.552463 0.21145 0 68 152 -0.556887 0.00135496 0.830587 
-0.0257443 0.553366 0.211012 0 68 152 -0.556887 0.00135496 0.830587 
0.00559232 0.555407 0.204907 0 68 152 -0.556887 0.00135496 -0.830587 
-0.0101986 0.551609 0.205452 0 68 152 -0.830587 0.00135496 -0.556887 
0.0195033 0.552038 0.210716 0 68 152 -0.830587 0.00135496 0.556887 
0.0190945 0.553834 0.210104 0 68 152 -0.830587 0.00135496 0.556887 
0.00838326 0.554823 0.189136 0 68 152 0.193909 0.00114739 -0.981019 
-0.00461233 0.553015 0.190834 0 68 152 0.830587 0.00135496 -0.556887 
-0.0101486 0.553471 0.190177 0 68 152 -0.830587 0.00135496 -0.556887 
0.0234666 0.552148 0.189113 0 68 152 0.193909 0.00114739 -0.981019 
0.0185331 0.555097 0.206126 0 68 152 -0.981019 0.00114739 -0.193909 
0.00471233 0.551704 0.205884 0 68 152 -0.830587 0.00135496 -0.556887 
0.00763618 0.55574 0.196046 0 68 152 0.000977516 0.999999 0.000977516 
-0.010601 0.55574 0.195128 0 68 152 0.000977516 0.999999 0.000977516 
-0.00434507 0.553392 0.20843 0 68 152 0.981019 0.00114739 0.193909 
-0.0256833 0.553439 0.205878 0 68 152 -0.830587 0.00135496 -0.556887 
-0.0254951 0.554675 0.205596 0 68 152 -0.830587 0.00135496 -0.556887 
-0.0237143 0.551993 0.203222 0 68 152 -0.193909 0.00114739 -0.981019 
0.0197898 0.552544 0.206067 0 68 152 -0.830587 0.00135496 -0.556887 
-0.0194291 0.553092 0.210605 0 68 152 0.830587 0.00135496 0.556887 
-0.0188571 0.553609 0.194549 0 68 152 0.830587 0.00135496 0.556887 
-0.019392 0.553453 0.19535 0 68 152 0.830587 0.00135496 0.556887 
-0.00338256 0.554296 0.194123 0 68 152 0.981019 0.00114739 0.193909 
0.0270244 0.55272 0.190712 0 68 152 0.981019 0.00114739 -0.193909 
0.027192 0.554883 0.191555 0 68 152 0.981019 0.00114739 -0.193909 
0.00426026 0.553266 0.191996 0 68 152 -0.981019 0.00114739 -0.193909 
0.00430577 0.555458 0.191768 0 68 152 -0.981019 0.00114739 -0.193909 
0.0203691 0.553125 0.196155 0 68 152 -0.556887 0.00135496 0.830587 
0.0198397 0.553046 0.195801 0 68 152 -0.556887 0.00135496 0.830587 
0.0112223 0.55574 0.190005 0 68 152 0.000977516 0.999999 0.000977516 
-0.00786346 0.55574 0.211246 0 68 152 0.000977516 0.999999 0.000977516 
-0.00891763 0.55574 0.211001 0 68 152 0.000977516 0.999999 0.000977516 
0.018298 0.55574 0.192369 0 68 152 0.000977516 0.999999 0.000977516 
0.0208988 0.553116 0.203491 0 68 152 -0.556887 0.00135496 -0.830587 
-0.00669873 0.553738 0.195641 0 68 152 0.193909 0.00114739 0.981019 
0.01939 0.55279 0.19235 0 68 152 -0.981019 0.00114739 -0.193909 
-0.00443482 0.555733 0.206319 0 68 152 0.981019 0.00114739 -0.193909 
-0.0112854 0.554559 0.194935 0 68 152 -0.830587 0.00135496 0.556887 
-0.00422695 0.551804 0.195402 0 68 152 0.830587 0.00135496 0.556887 
-0.0119558 0.554056 0.193427 0 68 152 -0.981019 0.00114739 0.193909 
0.022959 0.553135 0.196928 0 68 152 0.193909 0.00114739 0.981019 
0.0247691 0.552458 0.188337 0 68 152 0.556887 0.00135496 -0.830587 
-0.0231141 0.553603 0.212098 0 68 152 -0.193909 0.00114739 0.981019 
0.00538589 0.552807 0.189845 0 68 152 -0.556887 0.00135496 -0.830587 
-0.0070785 0.552828 0.204284 0 68 152 0.193909 0.00114739 -0.981019 
-0.0218515 0.55553 0.189169 0 68 152 0.193909 0.00114739 -0.981019 
-0.0235592 0.55574 0.188713 0 68 152 0.000977516 0.999999 0.000977516 
-0.0244542 0.55574 0.211616 0 68 152 0.000977516 0.999999 0.000977516 
-0.0265241 0.55574 0.208113 0 68 152 0.000977516 0.999999 0.000977516 
0.0253579 0.55574 0.189476 0 68 152 0.000977516 0.999999 0.000977516 
0.0229055 0.551802 0.204201 0 68 152 0.193909 0.00114739 -0.981019 
0.0256083 0.552287 0.204098 0 68 152 0.556887 0.00135496 -0.830587 
0.0250463 0.555517 0.203722 0 68 152 0.556887 0.00135496 -0.830587 
-0.0233731 0.552214 0.189094 0 68 152 -0.193909 0.00114739 -0.981019 
-0.0233451 0.555038 0.189088 0 68 152 -0.193909 0.00114739 -0.981019 
-0.0101975 0.554963 0.20975 0 68 152 -0.830587 0.00135496 0.556887 
0.00907516 0.551946 0.211867 0 68 152 0.193909 0.00114739 0.981019 
0.0084859 0.554793 0.211984 0 68 152 0.193909 0.00114739 0.981019 
0.0100532 0.554479 0.18866 0 68 152 0.556887 0.00135496 -0.830587 
0.0304 0.539114 0.192717 0 68 152 -0.999999 0.000977516 0.000977516 
0.0304 0.537026 0.201181 0 68 152 -0.999999 0.000977516 0.000977516 
0.0304 0.539425 0.192475 0 68 152 -0.999999 0.000977516 0.000977516 
0.0304 0.536747 0.197871 0 68 152 -0.999999 0.000977516 0.000977516 
0.0304 0.537054 0.195003 0 68 152 -0.999999 0.000977516 0.000977516 
0.0304 0.535268 0.194063 0 68 152 -0.999999 0.000977516 0.000977516 
0.0304 0.541012 0.197951 0 68 152 -0.999999 0.000977516 0.000977516 
0.0304 0.534949 0.18912 0 68 152 -0.999999 0.000977516 0.000977516 
0.0304 0.533601 0.208239 0 68 152 -0.999999 0.000977516 0.000977516 
0.0304 0.540218 0.195405 0 68 152 -0.999999 0.000977516 0.000977516 
0.0304 0.536694 0.18847 0 68 152 -0.999999 0.000977516 0.000977516 
0.0304 0.533344 0.192644 0 68 152 -0.999999 0.000977516 0.000977516 
0.0304 0.539033 0.187143 0 68 152 -0.999999 0.000977516 0.000977516 
0.0304 0.543092 0.187199 0 68 152 -0.999999 0.000977516 0.000977516 
0.0304 0.536228 0.193245 0 68 152 -0.999999 0.000977516 0.000977516 
0.0304 0.545074 0.189251 0 68 152 -0.999999 0.000977516 0.000977516 
0.0304 0.541416 0.194136 0 68 152 -0.999999 0.000977516 0.000977516 
0.0304 0.538818 0.191696 0 68 152 -0.999999 0.000977516 0.000977516 
0.0304 0.543845 0.185996 0 68 152 -0.999999 0.000977516 0.000977516 
0.0304 0.542225 0.192751 0 68 152 -0.999999 0.000977516 0.000977516 
0.0304 0.536357 0.203659 0 68 152 -0.999999 0.000977516 0.000977516 
0.0304 0.550421 0.186352 0 68 152 -0.999999 0.000977516 0.000977516 
0.0304 0.534141 0.185992 0 68 152 -0.999999 0.000977516 0.000977516 
0.0304 0.534118 0.18566 0 68 152 -0.999999 0.000977516 0.000977516 
0.0304 0.534073 0.21092 0 68 152 -0.999999 0.000977516 0.000977516 
0.0304 0.536812 0.206471 0 68 152 -0.999999 0.000977516 0.000977516 
0.0304 0.535413 0.207901 0 68 152 -0.999999 0.000977516 0.000977516 
0.0304 0.535095 0.193606 0 68 152 -0.999999 0.000977516 0.000977516 
0.0304 0.535061 0.211281 0 68 152 -0.999999 0.000977516 0.000977516 
0.0304 0.538229 0.19217 0 68 152 -0.999999 0.000977516 0.000977516 
0.0304 0.538393 0.187357 0 68 152 -0.999999 0.000977516 0.000977516 
0.0304 0.549471 0.201824 0 68 152 -0.999999 0.000977516 0.000977516 
0.0304 0.547223 0.208869 0 68 152 -0.999999 0.000977516 0.000977516 
0.0304 0.543523 0.20903 0 68 152 -0.999999 0.000977516 0.000977516 
0.0304 0.545526 0.214725 0 68 152 -0.999999 0.000977516 0.000977516 
0.0304 0.549798 0.195167 0 68 152 -0.999999 0.000977516 0.000977516 
0.0304 0.546888 0.212701 0 68 152 -0.999999 0.000977516 0.000977516 
0.0304 0.53794 0.209281 0 68 152 -0.999999 0.000977516 0.000977516 
0.0304 0.551428 0.212197 0 68 152 -0.999999 0.000977516 0.000977516 
0.0304 0.547991 0.203601 0 68 152 -0.999999 0.000977516 0.000977516 
0.0304 0.550103 0.211318 0 68 152 -0.999999 0.000977516 0.000977516 
0.0304 0.550475 0.202307 0 68 152 -0.999999 0.000977516 0.000977516 
0.0304 0.54919 0.210639 0 68 152 -0.999999 0.000977516 0.000977516 
0.0304 0.547001 0.199703 0 68 152 -0.999999 0.000977516 0.000977516 
0.0304 0.549844 0.20305 0 68 152 -0.999999 0.000977516 0.000977516 
0.0304 0.550013 0.187782 0 68 152 -0.999999 0.000977516 0.000977516 
0.0304 0.54975 0.203436 0 68 152 -0.999999 0.000977516 0.000977516 
0.0304 0.545549 0.195339 0 68 152 -0.999999 0.000977516 0.000977516 
0.0304 0.549423 0.212364 0 68 152 -0.999999 0.000977516 0.000977516 
0.0304 0.54041 0.203421 0 68 152 -0.999999 0.000977516 0.000977516 
0.0304 0.549079 0.193925 0 68 152 -0.999999 0.000977516 0.000977516 
0.0304 0.54989 0.210609 0 68 152 -0.999999 0.000977516 0.000977516 
0.0304 0.548072 0.204033 0 68 152 -0.999999 0.000977516 0.000977516 
0.0304 0.545214 0.19687 0 68 152 -0.999999 0.000977516 0.000977516 
0.0304 0.545142 0.211343 0 68 152 -0.999999 0.000977516 0.000977516 
0.0304 0.551042 0.206473 0 68 152 -0.999999 0.000977516 0.000977516 
0.0304 0.539723 0.20729 0 68 152 -0.999999 0.000977516 0.000977516 
0.0304 0.542502 0.203038 0 68 152 -0.999999 0.000977516 0.000977516 
0.0304 0.545704 0.195562 0 68 152 -0.999999 0.000977516 0.000977516 
0.0304 0.543274 0.209222 0 68 152 -0.999999 0.000977516 0.000977516 
0.0304 0.545401 0.213746 0 68 152 -0.999999 0.000977516 0.000977516 
0.0304 0.545465 0.200009 0 68 152 -0.999999 0.000977516 0.000977516 
-0.00441298 0.554395 0.195649 0 68 152 0.556887 0.00135496 0.830587 
-0.0215046 0.552166 0.211902 0 68 152 0.193909 0.00114739 0.981019 
-0.0227793 0.553573 0.212156 0 68 152 0.193909 0.00114739 0.981019 
-0.0184241 0.553031 0.191474 0 68 152 0.981019 0.00114739 -0.193909 
-0.0182856 0.552513 0.192171 0 68 152 0.981019 0.00114739 -0.193909 
0.0272959 0.553025 0.207922 0 68 152 0.981019 0.00114739 0.193909 
