# .PCD v0.7 - Point Cloud Data file format
VERSION 0.7
FIELDS x y z rgba
SIZE 4 4 4 4
TYPE F F F U
COUNT 1 1 1 1
WIDTH 842
HEIGHT 1
VIEWPOINT 0 0 0 1 0 0 0
POINTS 842
DATA ascii
0.24812649 -0.083935581 0.71000004 4289637277
0.25004619 -0.083931416 0.71000004 4289703835
0.25161117 -0.083809152 0.70900005 4289572249
0.25460121 -0.084159814 0.71200001 4289637530
0.25652677 -0.084155962 0.71200001 4289637017
0.25845248 -0.084152222 0.71200001 4289703574
0.24359483 -0.085633084 0.708 4290095267
0.24308167 -0.084782064 0.70100003 4290030484
0.24288023 -0.08405216 0.69500005 4291280258
0.24405514 -0.083806172 0.69300002 4291411066
0.24557425 -0.083681241 0.69200003 4291148672
0.24816081 -0.083919182 0.69400001 4290951040
0.2503981 -0.084036313 0.69500005 4290819200
0.25155196 -0.083790809 0.69300002 4290884488
0.25342664 -0.083787255 0.69300002 4291346069
0.25640669 -0.084146522 0.69600004 4291149725
0.2594032 -0.084505893 0.69900006 4290426263
0.26129478 -0.084502682 0.69900006 4290098064
0.2631866 -0.084499605 0.69900006 4290032524
0.26507872 -0.084496669 0.69900006 4290296466
0.26735306 -0.084614746 0.70000005 4289967501
0.26963314 -0.08473295 0.70100003 4289769867
0.27114427 -0.084609546 0.70000005 4289572492
0.27460063 -0.08509063 0.70400006 4289703823
0.27807903 -0.08557184 0.708 4289965712
0.23302828 -0.087211013 0.70500004 4284229916
0.23426767 -0.086958684 0.70300001 4287180838
0.23616818 -0.086953856 0.70300001 4287049252
0.2384074 -0.087072819 0.70400006 4287381300
0.24031074 -0.087068178 0.70400006 4287121219
0.24049386 -0.086445294 0.69900006 4286533962
0.23960976 -0.085451573 0.69100004 4291342677
0.23903196 -0.08458171 0.68400002 4292529749
0.23982508 -0.084206663 0.68100005 4292924488
0.2416667 -0.084202684 0.68100005 4292989775
0.24386606 -0.084322453 0.68200004 4292727371
0.24535042 -0.084195055 0.68100005 4292793164
0.24682952 -0.084067777 0.68000001 4292595270
0.24866916 -0.084064275 0.68000001 4292924488
0.25198254 -0.08455535 0.68400002 4292663373
0.25457558 -0.084799297 0.68600005 4292399434
0.25605831 -0.084672518 0.68500006 4292004423
0.25715935 -0.084422275 0.68300003 4291941201
0.25900829 -0.084419385 0.68300003 4292727361
0.2620033 -0.084787428 0.68600005 4292792639
0.26386097 -0.084784798 0.68600005 4292924226
0.26571897 -0.084782317 0.68600005 4292792902
0.26835743 -0.085027158 0.68800002 4292925002
0.27297094 -0.085890055 0.69500005 4292858189
0.27920467 -0.087247372 0.70600003 4292725593
0.22127301 -0.089033514 0.70400006 4279641967
0.22222531 -0.08864864 0.70100003 4279644793
0.22412053 -0.08864326 0.70100003 4279381874
0.22666053 -0.088890851 0.70300001 4279775348
0.23078948 -0.089006916 0.70400006 4283834168
0.23137061 -0.088496149 0.70000005 4287898407
0.23226337 -0.088111944 0.69700003 4290126867
0.23381183 -0.08798071 0.69600004 4290652693
0.23569357 -0.087975964 0.69600004 4290258196
0.23825803 -0.08822412 0.69800001 4289733139
0.23980126 -0.088093176 0.69700003 4287503617
0.23891191 -0.087077677 0.68900001 4291537973
0.23832886 -0.086188763 0.68200004 4292924221
0.23876454 -0.085679159 0.67800003 4292134956
0.24024332 -0.085548788 0.67700005 4292134703
0.24243194 -0.085671268 0.67800003 4292661047
0.2439056 -0.085541144 0.67700005 4293055805
0.24537407 -0.085411154 0.67600006 4291937837
0.24683727 -0.085281283 0.67500001 4292332595
0.24940045 -0.085530572 0.67700005 4292529973
0.2519747 -0.085779965 0.67900002 4292728119
0.25343859 -0.085650481 0.67800003 4292004143
0.25452083 -0.08539483 0.67600006 4292333109
0.25635093 -0.085391946 0.67600006 4292662074
0.25818136 -0.085389227 0.67600006 4292530741
0.26078135 -0.085639246 0.67800003 4291872558
0.26261783 -0.085636802 0.67800003 4292464441
0.26484472 -0.085760795 0.67900002 4292990271
0.26825568 -0.086263858 0.68300003 4292330819
0.27366608 -0.087398529 0.69200003 4292721499
0.27952385 -0.088659607 0.70200002 4289826607
0.22032455 -0.090560742 0.70100003 4278723185
0.22095186 -0.090038508 0.69700003 4278195812
0.22251663 -0.089903921 0.69600004 4278196576
0.22504318 -0.09015692 0.69800001 4278460519
0.22758052 -0.090409972 0.70000005 4278392921
0.22947304 -0.090404786 0.70000005 4285144364
0.23037402 -0.090012267 0.69700003 4289274653
0.23125876 -0.089619868 0.69400001 4290192662
0.23313515 -0.089615002 0.69400001 4290192662
0.23501159 -0.089610234 0.69400001 4290126867
0.23757075 -0.0898638 0.69600004 4289667599
0.2394527 -0.08985921 0.69600004 4288297740
0.23925433 -0.089080133 0.69000006 4291076397
0.23832467 -0.088043042 0.68200004 4293055293
0.23805615 -0.087264329 0.67600006 4293647681
0.23952962 -0.087131232 0.67500001 4293319737
0.24207054 -0.087385491 0.67700005 4293253692
0.24390189 -0.087381698 0.67700005 4293516611
0.24537046 -0.087248959 0.67600006 4293450818
0.24719949 -0.087245412 0.67600006 4293056060
0.24902874 -0.087242 0.67600006 4293187646
0.25122929 -0.087367766 0.67700005 4293056060
0.2526879 -0.087235563 0.67600006 4293253437
0.25376487 -0.086974464 0.67400002 4293122106
0.25558972 -0.086971588 0.67400002 4292924727
0.25779673 -0.087097891 0.67500001 4293187644
0.25962493 -0.087095305 0.67500001 4293253950
0.26184079 -0.087221891 0.67600006 4292859191
0.2640624 -0.087348625 0.67700005 4292528949
0.2670753 -0.087733544 0.68000001 4292528189
0.27089587 -0.088376649 0.68500006 4293973344
0.27633661 -0.089535937 0.69400001 4292056925
0.28142574 -0.090566337 0.70200002 4285410087
0.22000468 -0.092335366 0.70000005 4279578493
0.22062938 -0.091802187 0.69600004 4279380854
0.22219154 -0.091664828 0.69500005 4278921586
0.22471546 -0.091923222 0.69700003 4278658151
0.22757527 -0.092313543 0.70000005 4279312481
0.23069948 -0.092039421 0.69800001 4286716959
0.23125383 -0.091506965 0.69400001 4289866020
0.23245844 -0.09123835 0.69200003 4290389016
0.23365235 -0.090969868 0.69000006 4290651925
0.23620075 -0.091228843 0.69200003 4290062096
0.23876007 -0.091487892 0.69400001 4288231182
0.23959664 -0.091087937 0.69100004 4291008819
0.23866986 -0.090029046 0.68300003 4291406134
0.23805207 -0.089102194 0.67600006 4293185859
0.23881592 -0.088702738 0.67300004 4293121853
0.24099399 -0.08883062 0.67400002 4293253437
0.24353789 -0.089090399 0.67600006 4293319230
0.24572979 -0.089218497 0.67700005 4293121851
0.24683033 -0.088951372 0.67500001 4292727093
0.2482886 -0.088816166 0.67400002 4292924474
0.24974167 -0.088681102 0.67300004 4293187132
0.25193721 -0.088809721 0.67400002 4293187130
0.25338542 -0.088674948 0.67300004 4292464176
0.25520769 -0.088672079 0.67300004 4293122106
0.25664836 -0.088537604 0.67200005 4293122106
0.2592378 -0.088798523 0.67400002 4293056571
0.26106375 -0.088796102 0.67400002 4293122110
0.26289004 -0.088793822 0.67400002 4293056318
0.26471674 -0.088791713 0.67400002 4292990532
0.26773021 -0.089184962 0.67700005 4292989512
0.27235308 -0.090105295 0.68400002 4288963895
0.27821699 -0.091420949 0.69400001 4285937417
0.28292489 -0.092341557 0.70100003 4287117892
0.22062384 -0.093694933 0.69600004 4278459751
0.22186638 -0.093420185 0.69400001 4279381621
0.22406529 -0.093549371 0.69500005 4279315565
0.22626953 -0.093678609 0.69600004 4280749875
0.22880703 -0.093942508 0.69800001 4284422435
0.23036388 -0.09380275 0.69700003 4287306523
0.23058242 -0.093124799 0.69200003 4288619293
0.23110992 -0.092581593 0.68800002 4290323223
0.23263173 -0.092442214 0.68700004 4290520339
0.23517212 -0.092706606 0.68900001 4290325015
0.23806745 -0.093105629 0.69200003 4287964682
0.23993894 -0.093101099 0.69200003 4290606904
0.23936448 -0.092154972 0.68500006 4291339318
0.23804796 -0.090939984 0.67600006 4293382724
0.23845711 -0.090397812 0.67200005 4292068910
0.23991747 -0.090259366 0.671 4292266797
0.24245335 -0.090524592 0.67300004 4292398383
0.24500024 -0.090789907 0.67500001 4293122106
0.24646117 -0.090651825 0.67400002 4292200749
0.24828522 -0.09064839 0.67400002 4292529200
0.24936739 -0.090376116 0.67200005 4292594993
0.25156033 -0.090507455 0.67300004 4293187130
0.25300601 -0.090369962 0.67200005 4292463662
0.25482568 -0.090367094 0.67200005 4292595762
0.25664571 -0.090364382 0.67200005 4293056570
0.25846609 -0.090361811 0.67200005 4292859192
0.26067409 -0.090493865 0.67300004 4293253696
0.26210779 -0.090357147 0.67200005 4291937071
0.26392919 -0.090355054 0.67200005 4293121605
0.26614648 -0.090487577 0.67300004 4293120084
0.27075863 -0.091426969 0.68000001 4293902437
0.27581012 -0.092500947 0.68800002 4286986279
0.2813091 -0.093709536 0.69700003 4283575611
0.22061826 -0.095587552 0.69600004 4278722923
0.2215412 -0.095169969 0.69300002 4278656868
0.22309269 -0.095027171 0.69200003 4278195035
0.22528891 -0.095159113 0.69300002 4279308613
0.22781838 -0.095428444 0.69500005 4281995559
0.2300282 -0.095560528 0.69600004 4286847253
0.23057741 -0.095006242 0.69200003 4287962904
0.23043323 -0.094177544 0.68600005 4290520349
0.23228833 -0.094172701 0.68600005 4290650904
0.23482612 -0.094442502 0.68800002 4290257682
0.23771885 -0.094849654 0.69100004 4289602834
0.23993444 -0.094982363 0.69200003 4290860080
0.24005899 -0.094291657 0.68700004 4291337521
0.23874804 -0.093052164 0.67800003 4291867444
0.23880795 -0.09236186 0.67300004 4293712707
0.23955603 -0.091946192 0.67000002 4293385023
0.24208933 -0.092216842 0.67200005 4293450816
0.24463363 -0.092487574 0.67400002 4293385278
0.24609198 -0.092346773 0.67300004 4293516350
0.24754512 -0.092206135 0.67200005 4293318971
0.248622 -0.091928422 0.67000002 4293252409
0.25080967 -0.092062481 0.671 4293449788
0.25225005 -0.091922276 0.67000002 4293318716
0.2540645 -0.09191943 0.67000002 4293384509
0.25587925 -0.091916725 0.67000002 4292727353
0.25769433 -0.091914169 0.67000002 4293187904
0.25989708 -0.092048958 0.671 4293319490
0.26171556 -0.09204673 0.671 4293187903
0.26314169 -0.091907486 0.67000002 4292397875
0.26495826 -0.091905594 0.67000002 4292463154
0.26836795 -0.092452541 0.67400002 4293711940
0.27340332 -0.09354832 0.68200004 4288707328
0.27888614 -0.094781406 0.69100004 4286658578
0.22121599 -0.096914217 0.69200003 4278788980
0.22244249 -0.096628621 0.69000006 4278656100
0.22430833 -0.096623212 0.69000006 4279244885
0.22682974 -0.09689796 0.69200003 4281144116
0.22936204 -0.097172759 0.69400001 4286257174
0.23057236 -0.096887596 0.69200003 4287634968
0.23042832 -0.096042544 0.68600005 4290389022
0.23194493 -0.09589766 0.68500006 4290716951
0.2341388 -0.096032895 0.68600005 4290783256
0.23668219 -0.096308194 0.68800002 4290850072
0.23888977 -0.096443608 0.68900001 4287973385
0.24005464 -0.096159227 0.68700004 4291402040
0.23909602 -0.095035203 0.67900002 4291209261
0.23844908 -0.094051361 0.67200005 4293646410
0.23847954 -0.093347639 0.66700006 4293187646
0.24064456 -0.093483761 0.66800004 4293187644
0.24317819 -0.093759961 0.67000002 4293319485
0.24535716 -0.093896329 0.671 4293187385
0.24606828 -0.093473092 0.66800004 4292726065
0.24750559 -0.093329906 0.66700006 4293383995
0.24931149 -0.093326777 0.66700006 4293383995
0.25224712 -0.093743525 0.67000002 4293055546
0.25406173 -0.093740679 0.67000002 4293055546
0.25549471 -0.093598075 0.66900003 4292858426
0.25692266 -0.093455657 0.66800004 4292464181
0.2587328 -0.093453288 0.66800004 4292990014
0.26054335 -0.093451083 0.66800004 4293253186
0.26196149 -0.093309149 0.66700006 4292990267
0.2637701 -0.093307287 0.66700006 4292990778
0.26677361 -0.093725257 0.67000002 4293121851
0.27099654 -0.09456306 0.67600006 4293120319
0.27686685 -0.09596055 0.68600005 4287056384
0.28197929 -0.097078428 0.69400001 4286196528
0.2205711 -0.098510139 0.69000006 4278854780
0.22179227 -0.098219067 0.68800002 4279183735
0.22300263 -0.097928129 0.68600005 4279444329
0.22551331 -0.098208286 0.68800002 4282061598
0.22869582 -0.098774001 0.69200003 4285142550
0.23109514 -0.098192871 0.68800002 4289404698
0.23194009 -0.097759806 0.68500006 4290454295
0.23345144 -0.097612299 0.68400002 4290849049
0.23564552 -0.097750336 0.68500006 4291112990
0.23749842 -0.097745761 0.68500006 4289213200
0.23970084 -0.097884022 0.68600005 4291332668
0.23944393 -0.097023591 0.68000001 4291141939
0.23844506 -0.095878027 0.67200005 4292330034
0.2381181 -0.095018014 0.66600001 4292528947
0.23992033 -0.095014192 0.66600001 4292200751
0.2420857 -0.095153175 0.66700006 4292201002
0.24425671 -0.09529227 0.66800004 4293450555
0.2453282 -0.095003545 0.66600001 4292397867
0.24676023 -0.094857641 0.66500002 4292397867
0.24856086 -0.094854526 0.66500002 4292661555
0.25186774 -0.095422097 0.66900003 4292858934
0.25367975 -0.095419265 0.66900003 4292924472
0.25472832 -0.095131345 0.66700006 4291937836
0.25538176 -0.09470097 0.66400003 4292924732
0.25718126 -0.094698638 0.66400003 4292661047
0.25976112 -0.094981693 0.66600001 4293318977
0.26117408 -0.094837092 0.66500002 4291871531
0.26258197 -0.094692647 0.66400003 4293252158
0.26438305 -0.094691008 0.66400003 4292989762
0.26858982 -0.095545165 0.67000002 4293580374
0.27404043 -0.096827298 0.67900002 4288765731
0.28035301 -0.098394789 0.69000006 4286594562
0.2196065 -0.099949583 0.68700004 4278525545
0.22114202 -0.099798538 0.68600005 4278854256
0.22234711 -0.099502139 0.68400002 4278654813
0.22518022 -0.09993317 0.68700004 4280094511
0.22769918 -0.10021882 0.68900001 4283109657
0.23109013 -0.10006312 0.68800002 4288224535
0.2315966 -0.099476427 0.68400002 4290257691
0.23276412 -0.099180765 0.68200004 4290257430
0.2342649 -0.099030674 0.68100005 4289995280
0.23680048 -0.099316925 0.68300003 4289143308
0.23934704 -0.09960331 0.68500006 4290930490
0.2397918 -0.099017359 0.68100005 4290877745
0.23844099 -0.097704634 0.67200005 4291013670
0.2377567 -0.096682921 0.66500002 4293581374
0.23919612 -0.096533723 0.66400003 4292594995
0.24099323 -0.096530035 0.66400003 4292793139
0.24315624 -0.096671872 0.66500002 4293385276
0.24421982 -0.09637773 0.66300005 4293451069
0.24638601 -0.09651985 0.66400003 4293385276
0.24855784 -0.096662097 0.66500002 4292727348
0.25186485 -0.09724056 0.66900003 4293187899
0.25329787 -0.09709239 0.66800004 4293319485
0.25472575 -0.096944399 0.66700006 4293319489
0.25499478 -0.096360549 0.66300005 4292595766
0.25679168 -0.09635824 0.66300005 4292792633
0.25858903 -0.096356109 0.66300005 4293318977
0.26038668 -0.096354142 0.66300005 4293055805
0.26178938 -0.096207038 0.66200006 4292331315
0.26398334 -0.096350759 0.66300005 4291541548
0.26738584 -0.096930631 0.66700006 4293119559
0.27242485 -0.098091945 0.67500001 4294036569
0.27832046 -0.099544086 0.68500006 4287184931
0.21960087 -0.10181721 0.68700004 4279446384
0.22049178 -0.10136701 0.68400002 4278723184
0.22169156 -0.10106515 0.68200004 4278787433
0.22386384 -0.10120796 0.68300003 4280425301
0.22670254 -0.10164722 0.68600005 4282388261
0.23159173 -0.10133567 0.68400002 4290389277
0.23275934 -0.10103455 0.68200004 4290716697
0.23391627 -0.10073358 0.68000001 4290651925
0.23610257 -0.10087714 0.68100005 4290258706
0.23794501 -0.1008727 0.68100005 4288896019
0.23978756 -0.10086836 0.68100005 4290547498
0.23914655 -0.099827394 0.67400002 4291209514
0.2388254 -0.09893474 0.66800004 4293712193
0.23883213 -0.098190397 0.66300005 4293186616
0.24062668 -0.098186716 0.66300005 4293253692
0.24205586 -0.098035097 0.66200006 4293253692
0.2442165 -0.098179795 0.66300005 4293319483
0.24601176 -0.098176569 0.66300005 4293122104
0.24780729 -0.098173477 0.66300005 4293385278
0.25035605 -0.098466679 0.66500002 4293253692
0.25177839 -0.098315828 0.66400003 4293188156
0.25395942 -0.098461278 0.66500002 4293188156
0.25422317 -0.097866587 0.66100001 4293122364
0.25640219 -0.09801238 0.66200006 4293319230
0.25819695 -0.098010279 0.66200006 4293253437
0.26038486 -0.0981564 0.66300005 4293318718
0.26218313 -0.098154657 0.66300005 4293187646
0.26358372 -0.098005049 0.66200006 4293187644
0.26618189 -0.098299757 0.66400003 4293253437
0.27040577 -0.099186808 0.67000002 4293582149
0.27588168 -0.10051816 0.67900002 4289102607
0.28140691 -0.10184968 0.68800002 4286066197
0.2201639 -0.10307542 0.68300003 4278591851
0.2213611 -0.10276811 0.68100005 4279052666
0.22353074 -0.10291361 0.68200004 4279444078
0.22636682 -0.10336101 0.68500006 4278979909
0.23124826 -0.10304397 0.68300003 4289273880
0.23173073 -0.10243567 0.67900002 4290322968
0.23253569 -0.10197841 0.67600006 4290848790
0.23471129 -0.10212471 0.67700005 4290651923
0.2372418 -0.10242195 0.67900002 4288357897
0.23943117 -0.10256846 0.68000001 4291528766
0.23949726 -0.10181012 0.67500001 4291470642
0.23882148 -0.10075033 0.66800004 4292724026
0.23882839 -0.099992417 0.66300005 4292527415
0.23989722 -0.099687107 0.66100001 4292990267
0.2413211 -0.099532776 0.66000003 4293187899
0.24347648 -0.099680215 0.66100001 4292990518
0.24489543 -0.099526204 0.66000003 4292201262
0.24668297 -0.099523149 0.66000003 4293056571
0.24847081 -0.099520236 0.66000003 4293253950
0.25063813 -0.099668287 0.66100001 4292990778
0.25319311 -0.099967279 0.66300005 4292727606
0.25383624 -0.099512525 0.66000003 4292135469
0.25562537 -0.099510297 0.66000003 4293253950
0.25702488 -0.099357471 0.65900004 4292990267
0.2599903 -0.099807888 0.66200006 4293187646
0.26178607 -0.099806197 0.66200006 4292595509
0.26358226 -0.099804677 0.66200006 4292529714
0.26577976 -0.099954113 0.66300005 4293319230
0.26959753 -0.10070676 0.66800004 4292924219
0.27384925 -0.10161037 0.67400002 4293185352
0.27854314 -0.10266494 0.68100005 4286990080
0.22103058 -0.10446551 0.68000001 4278655849
0.22286987 -0.10446011 0.68000001 4278983517
0.22537017 -0.10476203 0.68200004 4278783814
0.2305662 -0.10459316 0.68100005 4288290067
0.23104341 -0.103974 0.67700005 4290061336
0.23218706 -0.10366214 0.67500001 4290257682
0.23401339 -0.10365759 0.67500001 4290191888
0.23618923 -0.10380672 0.67600006 4288553996
0.23872271 -0.10410951 0.67800003 4290211124
0.23913838 -0.10349115 0.67400002 4290812712
0.23846006 -0.10241235 0.66700006 4291539246
0.23846443 -0.10164084 0.66200006 4294237263
0.23989362 -0.10148363 0.66100001 4292922685
0.2416833 -0.10148013 0.66100001 4292462134
0.24347319 -0.10147677 0.66100001 4292989498
0.24452126 -0.10116655 0.65900004 4293318718
0.24630626 -0.1011635 0.65900004 4292726842
0.2477151 -0.10100713 0.65800005 4292003119
0.24987715 -0.10115793 0.65900004 4292595509
0.25204492 -0.10130887 0.66000003 4292990265
0.25344935 -0.101153 0.65900004 4292595256
0.25484863 -0.10099731 0.65800005 4291542313
0.25702295 -0.1011488 0.65900004 4291739947
0.25920302 -0.10130045 0.66000003 4293056058
0.26138902 -0.10145228 0.66100001 4292924725
0.26278454 -0.10129734 0.66000003 4291870766
0.26457593 -0.10129607 0.66000003 4292002350
0.2675786 -0.10175545 0.66300005 4292066365
0.27100432 -0.10236847 0.66700006 4294104414
0.27608836 -0.1035956 0.67500001 4289488166
0.28080475 -0.10466947 0.68200004 4287179319
0.22070007 -0.10615738 0.67900002 4278460266
0.22253677 -0.10615195 0.67900002 4278525544
0.224704 -0.10630296 0.68000001 4278721112
0.23022272 -0.10628769 0.68000001 4287699730
0.23069741 -0.10565764 0.67600006 4289471768
0.23183846 -0.10534035 0.67400002 4290848023
0.23400889 -0.10549208 0.67500001 4290716949
0.23583548 -0.10548765 0.67500001 4290389521
0.2383664 -0.1057959 0.67700005 4290063891
0.23877949 -0.10516666 0.67300004 4291271222
0.23809862 -0.10406883 0.66600001 4291274801
0.23846072 -0.10344002 0.66200006 4290945579
0.23989005 -0.1032801 0.66100001 4290023976
0.24167988 -0.10327661 0.66100001 4290616113
0.24310158 -0.10311703 0.66000003 4290156329
0.2448892 -0.10311386 0.66000003 4290222122
0.24667706 -0.10311084 0.66000003 4291209269
0.24846524 -0.10310799 0.66000003 4291341110
0.25025374 -0.10310531 0.66000003 4291538487
0.25242436 -0.103259 0.66100001 4291209522
0.25421625 -0.10325666 0.66100001 4292196931
0.25562114 -0.10309828 0.66000003 4293249621
0.25741103 -0.10309631 0.66000003 4292658242
0.25920132 -0.10309453 0.66000003 4292724288
0.26099205 -0.10309292 0.66000003 4292987713
0.2627832 -0.10309152 0.66000003 4293710162
0.26497564 -0.1032465 0.66100001 4293446484
0.26717407 -0.10340171 0.66200006 4293644377
0.27019095 -0.10386948 0.66500002 4294498667
0.2748608 -0.10496224 0.67200005 4294292839
0.27915746 -0.10589902 0.67800003 4287244582
0.28265846 -0.10652363 0.68200004 4286401634
0.22036956 -0.10784372 0.67800003 4278921335
0.22154821 -0.10752018 0.67600006 4279184252
0.22403784 -0.10783295 0.67800003 4279839848
0.23069264 -0.1074948 0.67600006 4288487193
0.23183382 -0.10717206 0.67400002 4290389016
0.23331106 -0.10700851 0.67300004 4290980635
0.23478296 -0.1068451 0.67200005 4290784279
0.23730588 -0.10715879 0.67400002 4290587667
0.23842064 -0.10683669 0.67200005 4289095192
0.23845226 -0.10603781 0.66700006 4290681900
0.23917739 -0.10555708 0.66400003 4289825310
0.24061236 -0.10539448 0.66300005 4289759011
0.24240775 -0.10539099 0.66300005 4289759525
0.24383502 -0.1052287 0.66200006 4289957157
0.24562819 -0.10522554 0.66200006 4289628708
0.24742165 -0.10522255 0.66200006 4289497123
0.24883893 -0.10506075 0.66100001 4289628708
0.25063026 -0.1050581 0.66100001 4290023719
0.25280389 -0.10521457 0.66200006 4289497122
0.25498322 -0.10537118 0.66300005 4289628965
0.25639373 -0.10521014 0.66200006 4289695011
0.25818923 -0.1052082 0.66200006 4289892390
0.25959238 -0.10504753 0.66100001 4289892904
0.26138601 -0.10504597 0.66100001 4289958698
0.26357824 -0.10520355 0.66200006 4289695011
0.26537547 -0.10520241 0.66200006 4289563168
0.2671732 -0.10520146 0.66200006 4290023977
0.2701903 -0.10567746 0.66500002 4290547761
0.27404231 -0.10647152 0.67000002 4287116288
0.27751032 -0.10710686 0.67400002 4288491296
0.28100064 -0.10774244 0.67800003 4284302167
0.21971403 -0.10936273 0.67600006 4278460265
0.2212151 -0.10919552 0.67500001 4278525291
0.22304127 -0.1091902 0.67500001 4279180896
0.22553372 -0.10950851 0.67700005 4279441744
0.23034659 -0.10917014 0.67500001 4287438105
0.23114131 -0.10868026 0.67200005 4289864733
0.23226658 -0.10835227 0.67000002 4289995283
0.23407988 -0.10834788 0.67000002 4290323989
0.23624541 -0.10850532 0.671 4289603341
0.23770699 -0.1083395 0.67000002 4291323706
0.23880586 -0.10801215 0.66800004 4290741300
0.23953387 -0.10752327 0.66500002 4290083108
0.2413346 -0.10751965 0.66500002 4289821733
0.24276994 -0.10735449 0.66400003 4289821733
0.24456842 -0.10735118 0.66400003 4289559330
0.24636719 -0.10734803 0.66400003 4289625125
0.24816623 -0.10734507 0.66400003 4289888036
0.24996561 -0.10734227 0.66400003 4290020134
0.25176522 -0.10733962 0.66400003 4289954343
0.25356522 -0.10733717 0.66400003 4289361951
0.25575018 -0.10749655 0.66500002 4289493539
0.25755361 -0.10749447 0.66500002 4289756709
0.25896746 -0.10733095 0.66400003 4289757478
0.26037624 -0.10716761 0.66300005 4289756964
0.26217547 -0.10716611 0.66300005 4290019369
0.26397514 -0.10716482 0.66300005 4289822757
0.26617619 -0.10732538 0.66400003 4289757731
0.2687867 -0.10764777 0.66600001 4289888550
0.27140862 -0.10797037 0.66800004 4290209579
0.27363291 -0.10813156 0.66900003 4289411351
0.27586317 -0.10829297 0.67000002 4289341219
0.27934289 -0.10893951 0.67400002 4288558152
0.220882 -0.11086534 0.67400002 4278196583
0.22270559 -0.11086003 0.67400002 4278194267
0.22452919 -0.11085483 0.67400002 4279047512
0.23034182 -0.11100442 0.67500001 4286782238
0.23079272 -0.11034194 0.671 4289733663
0.23122214 -0.10967966 0.66700006 4290651674
0.23337683 -0.10983973 0.66800004 4290389268
0.23518503 -0.10983549 0.66800004 4290521877
0.2373482 -0.10999583 0.66900003 4289933328
0.23915946 -0.10999188 0.66900003 4288893467
0.24025059 -0.10965929 0.66700006 4288698389
0.24241975 -0.10982006 0.66800004 4288699413
0.24349777 -0.1094878 0.66600001 4289028631
0.24567018 -0.10964891 0.66700006 4288963606
0.24673517 -0.109317 0.66500002 4289227806
0.24891083 -0.10947844 0.66600001 4288898327
0.25033933 -0.10931128 0.66500002 4289490717
0.25252104 -0.10947307 0.66600001 4289293338
0.25432664 -0.10947065 0.66600001 4289688610
0.2561326 -0.10946843 0.66600001 4288964889
0.25755164 -0.10930203 0.66500002 4289227545
0.25935566 -0.1093002 0.66500002 4289688096
0.26116008 -0.10929856 0.66500002 4289622305
0.26256955 -0.10913277 0.66400003 4289358617
0.2647703 -0.1092959 0.66500002 4289426206
0.26617524 -0.10913055 0.66400003 4289426975
0.26878598 -0.10945845 0.66600001 4290149415
0.27140811 -0.10978656 0.66800004 4288097025
0.27322361 -0.1097862 0.66800004 4288684301
0.27545142 -0.10995044 0.66900003 4289143067
0.27809972 -0.11027923 0.671 4288291120
0.282011 -0.11110134 0.67600006 4285610577
0.2205489 -0.11252962 0.67300004 4278724716
0.22170907 -0.11218991 0.671 4279117943
0.22319156 -0.11201753 0.67000002 4279378544
0.22601204 -0.11251404 0.67300004 4281209910
0.23078811 -0.11216529 0.671 4289012509
0.23087104 -0.11132499 0.66600001 4290782490
0.2330232 -0.1114878 0.66700006 4290979607
0.23447675 -0.11131644 0.66600001 4290849041
0.23698942 -0.11164665 0.66800004 4291111699
0.23844068 -0.11147562 0.66700006 4290323727
0.24024689 -0.11147186 0.66700006 4290258448
0.24205334 -0.11146826 0.66700006 4290718224
0.24386007 -0.11146483 0.66700006 4290914320
0.24566701 -0.11146157 0.66700006 4290585869
0.24747421 -0.11145847 0.66700006 4289932306
0.24928173 -0.11145556 0.66700006 4290062610
0.25146601 -0.11161992 0.66800004 4291179034
0.25327688 -0.11161736 0.66800004 4290522127
0.25508809 -0.11161499 0.66800004 4289734926
0.25651512 -0.11144574 0.66700006 4289538062
0.25793704 -0.11127666 0.66600001 4290850838
0.25974393 -0.11127488 0.66600001 4290587150
0.26155132 -0.11127332 0.66600001 4289340168
0.26296368 -0.11110488 0.66500002 4288947980
0.26437107 -0.11093666 0.66400003 4290066460
0.26617438 -0.1109357 0.66400003 4290524696
0.26878533 -0.11126913 0.66600001 4289864715
0.2710014 -0.11143572 0.66700006 4289930257
0.27240536 -0.11126836 0.66600001 4289864723
0.27421623 -0.11126833 0.66600001 4290192409
0.27644217 -0.11143561 0.66700006 4290587427
0.27992561 -0.11210432 0.671 4290196287
0.21956043 -0.11384854 0.67000002 4278987116
0.2207126 -0.11350342 0.66800004 4279183988
0.22218713 -0.11332837 0.66700006 4280298862
0.22499958 -0.11383303 0.67000002 4279966804
0.23009567 -0.11364881 0.66900003 4287766039
0.23051997 -0.11296482 0.66500002 4290127129
0.23232017 -0.1129605 0.66500002 4290389268
0.23412055 -0.11295632 0.66500002 4290718485
0.23627585 -0.11312214 0.66600001 4290455313
0.23772188 -0.11294842 0.66500002 4290324241
0.23952286 -0.1129447 0.66500002 4290061069
0.24132404 -0.11294115 0.66500002 4291046420
0.24312551 -0.11293776 0.66500002 4291242771
0.24529549 -0.11310437 0.66600001 4290782734
0.24672918 -0.1129315 0.66500002 4290389520
0.24853145 -0.11292864 0.66500002 4290257932
0.25108695 -0.1132656 0.66700006 4290849555
0.2528953 -0.1132631 0.66700006 4290718483
0.25432208 -0.11309097 0.66600001 4290456080
0.25574386 -0.11291905 0.66500002 4289995786
0.2571606 -0.11274734 0.66400003 4290521357
0.25935233 -0.11291543 0.66500002 4290981396
0.26154986 -0.11308372 0.66600001 4290389773
0.26296246 -0.11291263 0.66500002 4290061326
0.26397195 -0.11257199 0.66300005 4290061843
0.26537186 -0.11240134 0.66200006 4290521620
0.26757407 -0.1125705 0.66300005 4290520854
0.27018845 -0.11290966 0.66500002 4290258196
0.27158725 -0.1127397 0.66400003 4289995283
0.27298117 -0.11256998 0.66300005 4290455323
0.27478468 -0.11257027 0.66300005 4290323995
0.27867469 -0.11341976 0.66800004 4288033863
0.21922739 -0.11549635 0.66900003 4279447153
0.22037698 -0.11514581 0.66700006 4278262879
0.22184891 -0.11496804 0.66600001 4278457425
0.22398718 -0.11513565 0.66700006 4279178572
0.22646944 -0.11547598 0.66900003 4279570479
0.22828022 -0.11547122 0.66900003 4285667599
0.22940323 -0.11512141 0.66700006 4287175441
0.22982231 -0.11442659 0.66300005 4289734167
0.23126791 -0.11424972 0.66200006 4290192660
0.2330603 -0.11424556 0.66200006 4289798671
0.23520765 -0.11441416 0.66300005 4289864976
0.23664571 -0.11423776 0.66200006 4290915865
0.23915905 -0.11457921 0.66400003 4290389521
0.24059482 -0.11440314 0.66300005 4289864717
0.24312222 -0.11474489 0.66500002 4289798669
0.2445558 -0.11456919 0.66400003 4290325013
0.24635525 -0.1145662 0.66400003 4289996048
0.24815497 -0.11456338 0.66400003 4290061841
0.25070792 -0.11490581 0.66600001 4289995534
0.25251374 -0.11490336 0.66600001 4290258452
0.25431994 -0.11490113 0.66600001 4290520853
0.25535735 -0.11455403 0.66400003 4290520337
0.25638425 -0.11420716 0.66200006 4290127120
0.25857073 -0.11437803 0.66300005 4289864464
0.26076311 -0.11454913 0.66400003 4290258195
0.26256588 -0.1145479 0.66400003 4290323474
0.26357284 -0.1142019 0.66200006 4289798930
0.26456943 -0.11385611 0.66000003 4289602321
0.26636285 -0.11385557 0.66000003 4289405202
0.268563 -0.11402775 0.66100001 4289930004
0.27036017 -0.11402769 0.66100001 4289601814
0.27133444 -0.11368284 0.65900004 4289602069
0.27312735 -0.11368324 0.65900004 4289536284
0.27658954 -0.11437392 0.66300005 4289209382
0.28091395 -0.11540989 0.66900003 4288033608
0.22004138 -0.11678265 0.66600001 4279578484
0.22151075 -0.11660219 0.66500002 4279577204
0.22297481 -0.11642188 0.66400003 4279246950
0.2254491 -0.11676767 0.66600001 4281013561
0.22759312 -0.11693828 0.66700006 4283897625
0.22905476 -0.11675835 0.66600001 4286127380
0.22981796 -0.11622802 0.66300005 4287963925
0.23161304 -0.11622375 0.66300005 4287831824
0.2334083 -0.11621962 0.66300005 4287569932
0.23520376 -0.11621567 0.66300005 4287766797
0.23699942 -0.11621187 0.66300005 4288225805
0.23879533 -0.11620824 0.66300005 4288949528
0.24059142 -0.11620476 0.66300005 4288686099
0.2427534 -0.11637673 0.66400003 4288817685
0.24455273 -0.11637361 0.66400003 4289146136
0.24672337 -0.11654592 0.66500002 4289013781
0.24852601 -0.11654315 0.66500002 4289276953
0.25070545 -0.11671583 0.66600001 4289341462
0.2521323 -0.1165382 0.66500002 4289473048
0.25393596 -0.11653602 0.66500002 4290062872
0.25497085 -0.11618356 0.66300005 4290258452
0.25638258 -0.11600656 0.66200006 4290128150
0.25817928 -0.11600501 0.66200006 4289998619
0.26036909 -0.11617888 0.66300005 4290127895
0.26216939 -0.11617775 0.66300005 4290192660
0.26317388 -0.11582638 0.66100001 4289668114
0.26416793 -0.11547525 0.65900004 4289799960
0.26555529 -0.11529959 0.65800005 4289996057
0.26775029 -0.11547459 0.65900004 4289995543
0.26913324 -0.1152994 0.65800005 4290259232
0.27092305 -0.11529965 0.65800005 4289602328
0.27271348 -0.11530017 0.65800005 4289340191
0.2761732 -0.11600185 0.66200006 4289144358
0.27965534 -0.11670379 0.66600001 4288884792
0.21970582 -0.11841401 0.66500002 4278788970
0.2211726 -0.11823086 0.66400003 4279577719
0.22229831 -0.11786979 0.66200006 4279707506
0.2247673 -0.11822106 0.66400003 4280818496
0.22656481 -0.11821637 0.66400003 4282455841
0.22870634 -0.11838984 0.66500002 4285144085
0.22981362 -0.11802939 0.66300005 4286978831
0.23160885 -0.11802515 0.66300005 4286913036
0.23375633 -0.11819908 0.66400003 4286585868
0.23555465 -0.11819515 0.66400003 4286915601
0.23735319 -0.11819138 0.66400003 4286980878
0.23915192 -0.11818777 0.66400003 4287046671
0.24131382 -0.11836234 0.66500002 4286915599
0.2431158 -0.11835907 0.66500002 4287112464
0.24491802 -0.118356 0.66500002 4287046157
0.25573814 -0.11834154 0.66500002 4287570446
0.25715551 -0.1181619 0.66400003 4287898383
0.25856784 -0.11798245 0.66300005 4287701004
0.2603679 -0.11798118 0.66300005 4287766797
0.26216844 -0.11798015 0.66300005 4287569418
0.26396942 -0.11797933 0.66300005 4287635213
0.26496917 -0.11762284 0.66100001 4286520845
0.26636216 -0.11744455 0.66000003 4286519822
0.2677502 -0.11726648 0.65900004 4286651408
0.26995146 -0.11744456 0.66000003 4286454546
0.27133521 -0.11726699 0.65900004 4286454291
0.2731286 -0.11726762 0.65900004 4286453786
0.27533978 -0.11744645 0.66000003 4286061598
0.27881679 -0.11815941 0.66400003 4286131528
0.21870953 -0.11967829 0.66200006 4279381621
0.21983527 -0.11931166 0.66000003 4278196840
0.22162183 -0.11930674 0.66000003 4278260575
0.22408557 -0.11966351 0.66200006 4278719317
0.22621901 -0.1198396 0.66300005 4279241282
0.26396877 -0.11978183 0.66300005 4286652945
0.26536959 -0.11960068 0.66200006 4286390030
0.26676553 -0.11941975 0.66100001 4286192398
0.26856288 -0.11941975 0.66100001 4285929741
0.26995179 -0.11923934 0.66000003 4285732623
0.27215925 -0.11942049 0.66100001 4285732622
0.27354389 -0.11924057 0.66000003 4285469975
0.27617523 -0.11960292 0.66200006 4285012770
0.27797833 -0.11960421 0.66200006 4284099663
0.28020471 -0.11978643 0.66300005 4279905639
0.21804367 -0.12110969 0.66000003 4279512953
0.21916415 -0.12073768 0.65800005 4278922102
0.22094545 -0.1207328 0.65800005 4278658161
0.22306538 -0.12091154 0.65900004 4278986610
0.22519082 -0.1210904 0.66000003 4279378275
0.22732182 -0.1212694 0.66100001 4283111731
0.2287652 -0.12108163 0.66000003 4283240990
0.23090196 -0.12126093 0.66100001 4283767321
0.23269227 -0.12125693 0.66100001 4283701013
0.26357004 -0.12140099 0.66200006 4285733894
0.26496843 -0.12121721 0.66100001 4286129168
0.26676548 -0.12121709 0.66100001 4285339660
0.26896936 -0.12140057 0.66200006 4285208076
0.27036121 -0.12121755 0.66100001 4285339148
0.27215993 -0.12121816 0.66100001 4285208076
0.27354482 -0.12103565 0.66000003 4284617749
0.27534211 -0.12103679 0.66000003 4282259514
0.27672008 -0.12085481 0.65900004 4278325579
0.27809331 -0.1206731 0.65800005 4279379554
0.28158858 -0.12140863 0.66200006 4279446376
0.21882612 -0.12233895 0.65700001 4278855024
0.22026908 -0.1221479 0.65600002 4279316348
0.22170676 -0.12195702 0.65500003 4279053176
0.22382154 -0.12213866 0.65600002 4279314798
0.22559795 -0.12213425 0.65600002 4279641961
0.22772115 -0.12231618 0.65700001 4279115102
0.22984995 -0.12249827 0.65800005 4279970673
0.23163231 -0.12249433 0.65800005 4279970158
0.255602 -0.12283213 0.66000003 4288786509
0.26237518 -0.12264255 0.65900004 4285432867
0.2641665 -0.12264228 0.65900004 4285300000
0.26595837 -0.12264225 0.65900004 4281609992
0.26815706 -0.12282857 0.66000003 4280883994
0.2691347 -0.12245684 0.65800005 4280423219
0.27133727 -0.12264368 0.65900004 4280751936
0.27313143 -0.12264469 0.65900004 4280424001
0.27534345 -0.12283207 0.66000003 4280427609
0.27630177 -0.12246139 0.65800005 4279050336
0.27767253 -0.12227708 0.65700001 4279643502
0.28031465 -0.12265144 0.65900004 4279381105
0.21882123 -0.12412365 0.65700001 4278789484
0.21992859 -0.123741 0.65500003 4278789484
0.22136369 -0.12354743 0.65400004 4279315828
0.22279353 -0.12335403 0.65300006 4278854246
0.22490588 -0.1235386 0.65400004 4279248754
0.22702383 -0.12372329 0.65500003 4278656363
0.22914733 -0.12390813 0.65600002 4278722409
0.23092444 -0.12390426 0.65600002 4279511409
0.23483674 -0.12408589 0.65700001 4285634653
0.23625708 -0.12389367 0.65600002 4286094630
0.23803511 -0.12389049 0.65600002 4287739188
0.23981345 -0.12388752 0.65600002 4287607855
0.24159203 -0.12388472 0.65600002 4287871027
0.24337092 -0.12388211 0.65600002 4286028316
0.24515012 -0.12387972 0.65600002 4287872061
0.24692969 -0.12387752 0.65600002 4287936824
0.2490887 -0.12406437 0.65700001 4288329527
0.25125355 -0.12425143 0.65800005 4287736878
0.25227055 -0.12387221 0.65600002 4287079733
0.25405163 -0.12387086 0.65600002 4288328770
0.25622311 -0.12405859 0.65700001 4288329274
0.26018834 -0.12424587 0.65800005 4286553894
0.26157856 -0.12405665 0.65700001 4288527947
0.26336467 -0.12405649 0.65700001 4288066881
0.26515135 -0.12405658 0.65700001 4288786784
0.26653227 -0.12386809 0.65600002 4280492833
0.2679083 -0.12367987 0.65500003 4279968857
0.26969123 -0.12368074 0.65500003 4279970918
0.27188924 -0.12387069 0.65600002 4279709548
0.27367613 -0.12387209 0.65600002 4279512683
0.27462387 -0.12349612 0.65400004 4278657121
0.27640665 -0.12349807 0.65400004 4279183726
0.27904087 -0.12387799 0.65600002 4279382392
0.21815027 -0.12552501 0.65500003 4279709302
0.21958813 -0.12532863 0.65400004 4278985328
0.22068217 -0.12494074 0.65200001 4278524767
0.22278915 -0.12512794 0.65300006 4279182951
0.22490163 -0.12531525 0.65400004 4279511411
0.22667311 -0.12531109 0.65400004 4279182183
0.2287941 -0.12549873 0.65500003 4278853218
0.23021665 -0.12530331 0.65400004 4278655070
0.23234347 -0.12549126 0.65500003 4279971424
0.23411848 -0.12548779 0.65500003 4283986546
0.23589373 -0.12548451 0.65500003 4286622526
0.23730637 -0.12528983 0.65400004 4286227507
0.23907948 -0.12528694 0.65400004 4287016238
0.24085283 -0.12528422 0.65400004 4288134456
0.2426265 -0.12528171 0.65400004 4287542329
0.24440047 -0.12527938 0.65400004 4286489641
0.24617481 -0.12527728 0.65400004 4286423334
0.24832863 -0.12546694 0.65500003 4287344942
0.25048822 -0.12565678 0.65600002 4287871538
0.25188461 -0.1254638 0.65500003 4286752293
0.25366318 -0.12546255 0.65500003 4286028574
0.25505221 -0.12526999 0.65400004 4286423593
0.25761437 -0.12565231 0.65600002 4287740214
0.25939703 -0.12565178 0.65600002 4286688038
0.26118016 -0.12565148 0.65600002 4286161190
0.26296383 -0.12565143 0.65600002 4286424363
0.26474807 -0.12565166 0.65600002 4286227254
0.26612648 -0.12546057 0.65500003 4283857200
0.26709107 -0.12507822 0.65300006 4278983507
0.2688688 -0.1250792 0.65300006 4279379816
0.2706472 -0.12508048 0.65300006 4279249258
0.27326056 -0.12546511 0.65500003 4279184493
0.27420583 -0.12508383 0.65300006 4278328931
0.27598622 -0.12508595 0.65300006 4278789230
0.27819261 -0.1252799 0.65400004 4279381619
0.2192477 -0.12691075 0.65300006 4279051340
0.22101618 -0.12690617 0.65300006 4279116621
0.22986096 -0.12688579 0.65300006 4279116882
0.23694055 -0.12687257 0.65300006 4286358075
0.23871115 -0.12686974 0.65300006 4285567782
0.24048197 -0.1268671 0.65300006 4286028070
0.24262413 -0.12705897 0.65400004 4285897251
0.2443983 -0.12705672 0.65400004 4285963046
0.24617288 -0.12705471 0.65400004 4286422827
0.24756862 -0.12685862 0.65300006 4286620458
0.24972306 -0.12705131 0.65400004 4286817837
0.25149873 -0.12704995 0.65400004 4286949676
0.25327483 -0.12704881 0.65400004 4287804985
0.25466138 -0.12685364 0.65300006 4287344697
0.26394129 -0.12704708 0.65400004 4287739734
0.26531458 -0.12685341 0.65300006 4285367414
0.26668298 -0.12666 0.65200001 4280038489
0.26845825 -0.12666112 0.65200001 4279445606
0.27064866 -0.12685682 0.65300006 4279511916
0.27242798 -0.1268585 0.65300006 4279512177
0.27378795 -0.12666619 0.65200001 4279446647
0.27514324 -0.12647417 0.65100002 4279051889
0.27734447 -0.126671 0.65200001 4278789223
0.27379012 -0.12844022 0.65200001 4279314000
0.27514574 -0.12824565 0.65100002 4279446352
0.2769219 -0.12824836 0.65100002 4279642963
