# .PCD v0.7 - Point Cloud Data file format
VERSION 0.7
FIELDS x y z rgba
SIZE 4 4 4 4
TYPE F F F U
COUNT 1 1 1 1
WIDTH 856
HEIGHT 1
VIEWPOINT 0 0 0 1 0 0 0
POINTS 856
DATA ascii
0.084229715 -0.08806105 0.69300002 4287857276
0.08612138 -0.08805646 0.69300002 4289565830
0.11068667 -0.087990209 0.69300002 4289703321
0.11241174 -0.087857693 0.69200003 4289506709
0.11446138 -0.087979034 0.69300002 4289572504
0.081739239 -0.089307822 0.68800002 4281148763
0.083252847 -0.088913888 0.68500006 4288750375
0.084874056 -0.08864969 0.68300003 4290128936
0.08699207 -0.088904604 0.68500006 4289404698
0.089250453 -0.089289181 0.68800002 4290326314
0.091392457 -0.089543872 0.69000006 4288944918
0.093274742 -0.089538932 0.69000006 4289734177
0.095156722 -0.089533888 0.69000006 4289734177
0.10094702 -0.08964812 0.69100004 4291190622
0.10268176 -0.089513078 0.69000006 4291586659
0.10456226 -0.089507714 0.69000006 4292184440
0.10613395 -0.089242846 0.68800002 4293042834
0.10722344 -0.088588834 0.68300003 4291471232
0.1082854 -0.087934837 0.67800003 4292530515
0.10980713 -0.087669939 0.67600006 4292925002
0.11181314 -0.087794058 0.67700005 4292464966
0.11382429 -0.087918103 0.67800003 4291939660
0.11584057 -0.088042073 0.67900002 4291545937
0.11768866 -0.088036314 0.67900002 4291018094
0.12006459 -0.088419467 0.68200004 4290821738
0.12299284 -0.089191422 0.68800002 4290624119
0.074327476 -0.091335379 0.68900001 4279115862
0.075766943 -0.090800904 0.68500006 4278986356
0.07763765 -0.090796553 0.68500006 4279116905
0.079624176 -0.09092468 0.68600005 4279510114
0.081259504 -0.090655081 0.68400002 4286981707
0.08276213 -0.090252906 0.68100005 4289142821
0.084123842 -0.089718178 0.67700005 4290192155
0.0859714 -0.089713469 0.67700005 4289994776
0.088207841 -0.090106204 0.68000001 4290126876
0.090327941 -0.090366341 0.68200004 4290061083
0.092188321 -0.090361372 0.68200004 4290126876
0.093910515 -0.090223834 0.68100005 4290389534
0.096048862 -0.090483688 0.68300003 4290061084
0.098197818 -0.090743437 0.68500006 4289930012
0.10006522 -0.090738147 0.68500006 4289470744
0.10163473 -0.090467885 0.68300003 4290324255
0.10364761 -0.090594925 0.68400002 4290061850
0.10489438 -0.090059698 0.68000001 4288620308
0.10564812 -0.089127161 0.67300004 4291854159
0.1063634 -0.088194668 0.66600001 4292726342
0.10768998 -0.08779192 0.66300005 4293252672
0.10966053 -0.087918781 0.66400003 4292990012
0.11180409 -0.088177972 0.66600001 4292990525
0.11361705 -0.088172302 0.66600001 4292397881
0.11542971 -0.088166565 0.66600001 4293252694
0.11759415 -0.088425539 0.66800004 4292596055
0.1204842 -0.089213885 0.67400002 4292268121
0.12376957 -0.090266801 0.68200004 4291873628
0.12691393 -0.091187172 0.68900001 4290752641
0.12897454 -0.09131334 0.69000006 4289766292
0.074107483 -0.09294492 0.68700004 4279249782
0.075652011 -0.092534743 0.68400002 4278460013
0.077519901 -0.09253034 0.68400002 4278326621
0.079503603 -0.092661135 0.68500006 4279443553
0.081254922 -0.09252128 0.68400002 4281343062
0.082757488 -0.092110857 0.68100005 4289602342
0.083994888 -0.091429889 0.67600006 4290192403
0.085839637 -0.091425113 0.67600006 4290192151
0.087943546 -0.091690734 0.67800003 4290257944
0.090058088 -0.09195625 0.68000001 4290192151
0.091777779 -0.091816008 0.67900002 4290257944
0.093491718 -0.091675691 0.67800003 4290257175
0.095621787 -0.091940932 0.68000001 4290323221
0.097619146 -0.092070885 0.68100005 4290323221
0.099475577 -0.092065558 0.68100005 4290323475
0.10088532 -0.091654599 0.67800003 4289930002
0.10303603 -0.091919512 0.68000001 4289273870
0.10442614 -0.091508478 0.67700005 4289211412
0.10517167 -0.0905568 0.67000002 4292919369
0.10587879 -0.089605175 0.66300005 4292726840
0.10719717 -0.089194179 0.66000003 4292003372
0.10899433 -0.089188568 0.66000003 4292529969
0.11095907 -0.089318037 0.66100001 4293187897
0.11292896 -0.089447446 0.66200006 4292661553
0.11455737 -0.089306556 0.66100001 4292200755
0.11635607 -0.089300729 0.66100001 4292199729
0.11904823 -0.08997032 0.66600001 4291739694
0.12249319 -0.091180094 0.67500001 4292660029
0.1256184 -0.092119522 0.68200004 4285805824
0.12765993 -0.092248395 0.68300003 4289800223
0.13027547 -0.092782371 0.68700004 4288748823
0.075315841 -0.093986802 0.68100005 4278986618
0.077175446 -0.093982361 0.68100005 4278985319
0.079034813 -0.093977831 0.68100005 4279442262
0.081012703 -0.094111197 0.68200004 4287045938
0.082388222 -0.093554549 0.67800003 4289602597
0.083865874 -0.093135834 0.67500001 4290717981
0.085580848 -0.092993036 0.67400002 4290520600
0.087679215 -0.093264058 0.67600006 4290389014
0.089788206 -0.093534976 0.67800003 4290389014
0.091637522 -0.093529887 0.67800003 4290520854
0.093348667 -0.093386784 0.67700005 4290389014
0.095616527 -0.093795337 0.68000001 4290454807
0.097470462 -0.093790017 0.68000001 4290586647
0.0993241 -0.0937846 0.68000001 4290389268
0.10073108 -0.093365416 0.67700005 4290323475
0.10272747 -0.093497798 0.67800003 4289535758
0.10426631 -0.093216419 0.67600006 4289015317
0.10516609 -0.092383467 0.67000002 4292194362
0.10571352 -0.091274798 0.66200006 4293319230
0.10702914 -0.090855546 0.65900004 4293319483
0.10882353 -0.090849876 0.65900004 4293253692
0.11095334 -0.091119848 0.66100001 4293253692
0.11292317 -0.091251895 0.66200006 4293187899
0.11455154 -0.091108195 0.66100001 4293122110
0.11617417 -0.090964459 0.66000003 4292990012
0.11850604 -0.091371976 0.66300005 4294041168
0.12157977 -0.092330597 0.67000002 4292912983
0.12469129 -0.093289055 0.67700005 4287830784
0.12671916 -0.093420617 0.67800003 4290062102
0.12932104 -0.093965456 0.68200004 4289668376
0.13136734 -0.094096869 0.68300003 4284298073
0.0735595 -0.0959896 0.68200004 4278723185
0.075090222 -0.095562942 0.67900002 4278723699
0.076944277 -0.09555845 0.67900002 4279115356
0.0787981 -0.095553868 0.67900002 4279310408
0.080532886 -0.095408484 0.67800003 4286783015
0.081897423 -0.094840869 0.67400002 4290192155
0.083612576 -0.094695352 0.67300004 4290388508
0.085448988 -0.094690472 0.67300004 4290389014
0.087674223 -0.095107585 0.67600006 4290389268
0.089650691 -0.095243193 0.67700005 4290323475
0.091362067 -0.09509737 0.67600006 4290586647
0.093205556 -0.09509214 0.67600006 4290520600
0.095189393 -0.095227502 0.67700005 4290718233
0.097321726 -0.09550342 0.67900002 4290323475
0.099026509 -0.095357306 0.67800003 4290389268
0.10057679 -0.095070504 0.67600006 4290782742
0.10241886 -0.095064916 0.67600006 4290389014
0.10410644 -0.094918646 0.67500001 4288028677
0.10484651 -0.09392865 0.66800004 4291995714
0.10538851 -0.092798114 0.66000003 4292990267
0.10669865 -0.092370622 0.65700001 4293450555
0.10865267 -0.092505477 0.65800005 4293385278
0.11061183 -0.092640251 0.65900004 4293122106
0.11257613 -0.092774957 0.66000003 4293122106
0.11419903 -0.092628464 0.65900004 4293253950
0.1159922 -0.092622504 0.65900004 4292991291
0.11814253 -0.092897572 0.66100001 4293120831
0.12121073 -0.093875222 0.66800004 4294166106
0.12413251 -0.094712153 0.67400002 4288094720
0.12633909 -0.094986908 0.67600006 4290061326
0.12855621 -0.095261544 0.67800003 4290126867
0.13078393 -0.095536135 0.68000001 4283899201
0.13302222 -0.095810644 0.68200004 4280558176
0.13507329 -0.095944598 0.68300003 4278788707
0.073231533 -0.097419269 0.67900002 4279315574
0.074754 -0.096984401 0.67600006 4278326874
0.076486461 -0.09683641 0.67500001 4279048534
0.078329258 -0.096831784 0.67500001 4281932084
0.080053046 -0.096683629 0.67400002 4287177257
0.081528097 -0.096248515 0.671 4290323475
0.083234996 -0.096100226 0.67000002 4290454295
0.085063137 -0.096095301 0.67000002 4290454807
0.087409772 -0.096663967 0.67400002 4290520600
0.089380711 -0.09680225 0.67500001 4290389014
0.091221683 -0.096797042 0.67500001 4290257682
0.092924513 -0.096648358 0.67400002 4290191635
0.095043421 -0.096929774 0.67600006 4290192403
0.097029619 -0.097067714 0.67700005 4290389782
0.098728888 -0.096918814 0.67600006 4290126867
0.10027364 -0.096626498 0.67400002 4290389268
0.1021102 -0.096620843 0.67400002 4290126867
0.10348382 -0.096185081 0.671 4288359954
0.1045269 -0.095462658 0.66600001 4291404848
0.10522313 -0.094453588 0.65900004 4293053749
0.10653051 -0.094017848 0.65600002 4293054777
0.10848172 -0.094155356 0.65700001 4292266797
0.11027027 -0.094149485 0.65700001 4293187899
0.11205851 -0.094143555 0.65700001 4292201261
0.1136732 -0.093994305 0.65600002 4292859705
0.11545815 -0.093988277 0.65600002 4293056832
0.11760027 -0.094268747 0.65800005 4292791868
0.12084162 -0.095408663 0.66600001 4293970251
0.12375789 -0.096261896 0.67200005 4288621568
0.12595895 -0.096542016 0.67400002 4290258448
0.12817058 -0.096822061 0.67600006 4289668131
0.13020048 -0.096958809 0.67700005 4284884805
0.13262558 -0.097381905 0.68000001 4280623453
0.13447343 -0.097375318 0.68000001 4279248744
0.072903551 -0.098832309 0.67600006 4279316601
0.074528322 -0.098535396 0.67400002 4279315575
0.076368548 -0.098530822 0.67400002 4279247460
0.078208528 -0.09852615 0.67400002 4281473329
0.079691969 -0.098082855 0.671 4287177257
0.081280276 -0.097785696 0.66900003 4290520854
0.082981639 -0.097634628 0.66800004 4290716697
0.08505813 -0.097921945 0.67000002 4290520600
0.087145299 -0.098209165 0.67200005 4290454807
0.089375488 -0.098642394 0.67500001 4290454807
0.09094613 -0.098344862 0.67300004 4290520600
0.09264344 -0.098193407 0.67200005 4290323735
0.094616205 -0.098334104 0.67300004 4290520600
0.096880771 -0.098766923 0.67600006 4290192662
0.098723292 -0.098761335 0.67600006 4290193690
0.10041676 -0.098609574 0.67500001 4289603349
0.1021045 -0.098457761 0.67400002 4289011983
0.10347807 -0.098013766 0.671 4288294930
0.10405031 -0.096839443 0.66300005 4293181774
0.10489802 -0.095957294 0.65700001 4293909824
0.10619993 -0.095513329 0.65400004 4293056313
0.10814563 -0.095653504 0.65500003 4293122106
0.10976085 -0.095501557 0.65400004 4293253692
0.11171143 -0.095641598 0.65500003 4293188156
0.11314736 -0.095343545 0.65300006 4292464433
0.11510008 -0.095483482 0.65400004 4291872044
0.1174154 -0.095915325 0.65700001 4292463415
0.12065393 -0.09707696 0.66500002 4294236245
0.12338319 -0.097800486 0.67000002 4287635712
0.12576562 -0.098231956 0.67300004 4290062096
0.12740572 -0.098079525 0.67200005 4289668641
0.12980931 -0.098510824 0.67500001 4286461775
0.13183887 -0.098650187 0.67600006 4280953185
0.13387355 -0.098789476 0.67700005 4279446637
0.13631432 -0.099220544 0.68000001 4286285224
0.072791226 -0.1005265 0.67500001 4278920302
0.074413188 -0.10022411 0.67300004 4279314032
0.076137297 -0.10007057 0.67200005 4278654804
0.077971727 -0.10006583 0.67200005 4281276986
0.079449631 -0.099614315 0.66900003 4286784302
0.081153899 -0.09946055 0.66800004 4290192149
0.082728229 -0.099157825 0.66600001 4290520853
0.084799178 -0.099450558 0.66800004 4290454807
0.086880788 -0.099743158 0.67000002 4290586393
0.088840626 -0.099886797 0.671 4290323223
0.090400279 -0.099583767 0.66900003 4290586393
0.092224456 -0.099578388 0.66900003 4290257942
0.094470128 -0.10001945 0.67200005 4290717979
0.096731871 -0.10046039 0.67500001 4289338897
0.098717622 -0.10060357 0.67600006 4286650633
0.10041103 -0.100449 0.67500001 4285143307
0.10240167 -0.10059201 0.67600006 4284421643
0.10347223 -0.099842139 0.671 4284292104
0.10388756 -0.098497175 0.66200006 4291405639
0.10441323 -0.097301058 0.65400004 4293252419
0.10570692 -0.096848868 0.65100002 4292858938
0.1078095 -0.097140484 0.65300006 4292924472
0.10975488 -0.097283259 0.65400004 4293056058
0.11153483 -0.097277209 0.65400004 4293056058
0.11314128 -0.097122379 0.65300006 4293253692
0.11474197 -0.096967511 0.65200001 4293319994
0.11705177 -0.09740746 0.65500003 4292990778
0.12010331 -0.09844213 0.66200006 4292858176
0.12319262 -0.099476628 0.66900003 4285800704
0.1253854 -0.099767514 0.671 4288684807
0.12702002 -0.099612288 0.67000002 4289143317
0.12922582 -0.099903055 0.67200005 4288163900
0.13144219 -0.10019372 0.67400002 4280233827
0.1334714 -0.10033569 0.67500001 4279446626
0.07235536 -0.10176 0.671 4279510381
0.074187443 -0.10175541 0.671 4278655840
0.076132588 -0.10190237 0.67200005 4278523470
0.078082941 -0.10204922 0.67300004 4281343555
0.079326019 -0.10128622 0.66800004 4286260017
0.080905989 -0.10097804 0.66600001 4290192660
0.082474791 -0.10066982 0.66400003 4290323475
0.084667124 -0.10111956 0.66700006 4290323475
0.086616226 -0.10126596 0.66800004 4290520600
0.088570535 -0.10141228 0.66900003 4290323221
0.090124674 -0.10110376 0.66700006 4290191635
0.092081167 -0.1012499 0.66800004 4290126356
0.094323993 -0.10169907 0.671 4290060822
0.10392893 -0.10212483 0.67400002 4282388480
0.10372473 -0.10014918 0.66100001 4290486080
0.10408805 -0.098779701 0.65200001 4292528957
0.10537629 -0.098319314 0.64900005 4292529974
0.10747333 -0.098616309 0.65100002 4292463921
0.10924537 -0.098610274 0.65100002 4293056313
0.11118765 -0.09875565 0.65200001 4292595762
0.11261535 -0.098446578 0.65000004 4293253690
0.11420786 -0.098288953 0.64900005 4293122106
0.11650941 -0.098737031 0.65200001 4292858426
0.11937126 -0.099639297 0.65800005 4293121096
0.12244958 -0.10069281 0.66500002 4286657792
0.12463144 -0.10098912 0.66700006 4289865492
0.12682384 -0.10128532 0.66900003 4289603095
0.12921916 -0.10173286 0.67200005 4288751157
0.13143547 -0.10202889 0.67400002 4279310921
0.072242968 -0.10343451 0.67000002 4279381367
0.073961675 -0.10327551 0.66900003 4279184242
0.075901255 -0.10342515 0.67000002 4278919264
0.077730037 -0.10342032 0.67000002 4281146428
0.079321109 -0.10310672 0.66800004 4285734959
0.080658048 -0.10248435 0.66400003 4290324246
0.082345538 -0.10232498 0.66300005 4290520854
0.084281169 -0.10247417 0.66400003 4290520854
0.086351655 -0.10277758 0.66600001 4290389014
0.088168018 -0.10277226 0.66600001 4290389014
0.089849025 -0.10261256 0.66500002 4290454807
0.091799974 -0.10276137 0.66600001 4290389016
0.09431839 -0.10352726 0.671 4290454554
0.1038757 -0.10210395 0.66200006 4289105461
0.10392249 -0.10040142 0.65100002 4293384776
0.10520796 -0.09993279 0.648 4292990775
0.10697204 -0.099926777 0.648 4292990520
0.10907146 -0.10022908 0.65000004 4293319485
0.11084044 -0.10022294 0.65000004 4293122106
0.11226266 -0.099908374 0.648 4292266801
0.11367372 -0.099593803 0.64600003 4291871531
0.11596704 -0.10005001 0.64900005 4292266549
0.11882063 -0.10096857 0.65500003 4293502809
0.12170655 -0.10188695 0.66100001 4288093696
0.1240643 -0.1023428 0.66400003 4289865492
0.12643808 -0.10279854 0.66700006 4289733914
0.12902014 -0.10340828 0.671 4289802816
0.13123369 -0.10370972 0.67300004 4280756844
0.072022721 -0.10494616 0.66800004 4279839609
0.073735885 -0.1047844 0.66700006 4279445616
0.075783171 -0.10509381 0.66900003 4279181402
0.077725142 -0.10524601 0.67000002 4280752695
0.079078659 -0.10461275 0.66600001 4285669933
0.080288619 -0.10382237 0.66100001 4290653211
0.081967831 -0.10366023 0.66000003 4290586393
0.084022112 -0.10396918 0.66200006 4290389268
0.086087048 -0.10427799 0.66400003 4290323221
0.087897874 -0.10427263 0.66400003 4290323221
0.089708455 -0.10426717 0.66400003 4290520600
0.091794424 -0.10457569 0.66600001 4290454809
0.094172157 -0.10519812 0.67000002 4290388761
0.10374693 -0.10752939 0.68500006 4280814342
0.10355587 -0.103593 0.66000003 4289039669
0.1039165 -0.10217437 0.65100002 4293121858
0.10503958 -0.10154056 0.64700001 4293188408
0.1068009 -0.10153449 0.64700001 4293122104
0.10872972 -0.10168527 0.648 4293056570
0.11032268 -0.10152216 0.64700001 4293122363
0.11173671 -0.10120212 0.64500004 4293253949
0.11331553 -0.10103894 0.64400005 4292991291
0.11560332 -0.10150327 0.64700001 4293186634
0.11863276 -0.10259499 0.65400004 4294754924
0.12133176 -0.1033728 0.65900004 4287567872
0.12349715 -0.10367989 0.66100001 4289470735
0.12605225 -0.1043006 0.66500002 4289470997
0.12862881 -0.10492118 0.66900003 4289605160
0.13083687 -0.10522801 0.671 4280823395
0.13246238 -0.10506432 0.67000002 4279708778
0.072018072 -0.10676626 0.66800004 4278786405
0.073510058 -0.10628207 0.66500002 4278391379
0.075438507 -0.10643709 0.66600001 4278981182
0.077256188 -0.10643218 0.66600001 4280752956
0.078954905 -0.10626739 0.66500002 4289012509
0.0801621 -0.10546335 0.66000003 4290061074
0.081962682 -0.10545821 0.66000003 4290191635
0.083763033 -0.105453 0.66000003 4290126096
0.085822418 -0.10576724 0.66200006 4290323475
0.087627709 -0.10576183 0.66200006 4290257682
0.089297652 -0.10559656 0.66100001 4290323475
0.09123753 -0.10575076 0.66200006 4290455321
0.093604252 -0.10638405 0.66600001 4290060823
0.10374077 -0.10939485 0.68500006 4280027910
0.10292223 -0.10475153 0.65600002 4288249649
0.10311236 -0.1031487 0.64600003 4292595254
0.10438414 -0.10266363 0.64300001 4293056060
0.10629958 -0.1028172 0.64400005 4292858938
0.10855573 -0.10328995 0.64700001 4292793399
0.10997543 -0.10296443 0.64500004 4292661813
0.11138397 -0.10263889 0.64300001 4293188157
0.11278136 -0.10231333 0.64100003 4293056571
0.11523961 -0.1029454 0.64500004 4293120319
0.11826347 -0.10405611 0.65200001 4294102108
0.12132514 -0.10516667 0.65900004 4288556288
0.12349048 -0.10547914 0.66100001 4289996048
0.12566639 -0.10579153 0.66300005 4290192662
0.12785293 -0.10610385 0.66500002 4286326329
0.13005006 -0.1064161 0.66700006 4280162625
0.13166468 -0.10624964 0.66600001 4278853461
0.071797766 -0.10826093 0.66600001 4278526830
0.073394746 -0.10793108 0.66400003 4278657644
0.075320363 -0.10808877 0.66500002 4279441742
0.07701923 -0.10792129 0.66400003 4280620605
0.078593694 -0.10759123 0.66200006 4288618528
0.080035537 -0.10709856 0.65900004 4290257944
0.081709132 -0.10693087 0.65800005 4290585877
0.083630838 -0.10708811 0.65900004 4290389268
0.085557751 -0.10724525 0.66000003 4290389268
0.087489858 -0.10740229 0.66100001 4290389268
0.089021936 -0.1070718 0.65900004 4290323475
0.091094069 -0.10739113 0.66100001 4290191889
0.093176872 -0.10771035 0.66300005 4290192149
0.10244548 -0.1060504 0.65300006 4290486829
0.10294669 -0.10474509 0.64500004 4293580868
0.10437805 -0.1044142 0.64300001 4292133938
0.1062934 -0.10457041 0.64400005 4292594742
0.1083817 -0.1048889 0.64600003 4293187644
0.10979864 -0.10455789 0.64400005 4293187899
0.11137764 -0.10438919 0.64300001 4292069423
0.11277501 -0.10405814 0.64100003 4291739945
0.11505449 -0.10453871 0.64400005 4291870766
0.11771278 -0.1053438 0.64900005 4293841748
0.12058207 -0.10631104 0.65500003 4288887553
0.12273648 -0.10662893 0.65700001 4289931022
0.12490147 -0.10694675 0.65900004 4289930779
0.12746157 -0.10758904 0.66300005 4287768903
0.12965322 -0.10790668 0.66500002 4281476446
0.13126235 -0.10773746 0.66400003 4279447406
0.13346702 -0.10805497 0.66600001 4279842143
0.071469642 -0.10957914 0.66300005 4279185276
0.073058337 -0.1092438 0.66100001 4278921590
0.074975677 -0.10940421 0.66200006 4279573075
0.076666258 -0.10923396 0.66100001 4280685891
0.078351162 -0.10906365 0.66000003 4288356642
0.079787485 -0.10856278 0.65700001 4290258201
0.08133138 -0.10822711 0.65500003 4290651670
0.082991011 -0.10805659 0.65400004 4290455060
0.085033819 -0.10838166 0.65600002 4290389267
0.087087288 -0.10870661 0.65800005 4290389268
0.088746175 -0.10853584 0.65700001 4290520853
0.090674974 -0.10869539 0.65800005 4290716949
0.092608973 -0.10885485 0.65900004 4290585877
0.09497793 -0.10950971 0.66300005 4289799962
0.097076438 -0.1098341 0.66500002 4288226329
0.10204845 -0.1093204 0.66200006 4282521088
0.10243934 -0.10782804 0.65300006 4289958698
0.10310017 -0.10666601 0.64600003 4291276335
0.10469653 -0.10649472 0.64500004 4291737645
0.1064522 -0.10648847 0.64500004 4292198711
0.10820764 -0.10648218 0.64500004 4293054779
0.10979229 -0.10631073 0.64400005 4293318463
0.11137126 -0.10613927 0.64300001 4293055291
0.11294451 -0.10596776 0.64200002 4292923193
0.11504799 -0.10629138 0.64400005 4292988994
0.11734345 -0.10677992 0.64700001 4294499680
0.12020721 -0.10776346 0.65300006 4286587136
0.1225429 -0.10825177 0.65600002 4289012750
0.12489465 -0.10873999 0.65900004 4289274133
0.12726243 -0.1092281 0.66200006 4288620328
0.12945127 -0.1095511 0.66400003 4282854998
0.13105769 -0.10937914 0.66300005 4279248997
0.13325959 -0.10970203 0.66500002 4279314527
0.071249299 -0.11104866 0.66100001 4278721387
0.07294298 -0.11087585 0.66000003 4278655588
0.074744225 -0.11087094 0.66000003 4278849605
0.076545246 -0.11086593 0.66000003 4280620866
0.078108631 -0.1105249 0.65800005 4288160797
0.079539426 -0.11001582 0.65500003 4290454291
0.081077784 -0.10967466 0.65300006 4290323475
0.082858771 -0.10966935 0.65300006 4290454291
0.084898755 -0.1099998 0.65500003 4290454291
0.086817034 -0.11016221 0.65600002 4290388498
0.088470414 -0.1099887 0.65500003 4290520084
0.090255864 -0.10998301 0.65500003 4290455061
0.092041075 -0.10997725 0.65500003 4290389268
0.094112515 -0.11030719 0.65700001 4290389268
0.095902652 -0.11030125 0.65700001 4290323475
0.097989939 -0.11063101 0.65900004 4290652440
0.099936426 -0.11079278 0.66000003 4290323989
0.10111739 -0.11011516 0.65600002 4287962633
0.10211942 -0.10926969 0.65100002 4290613041
0.10357275 -0.10892779 0.64900005 4290549035
0.10517721 -0.10875367 0.648 4290023973
0.10694098 -0.10874733 0.648 4290287145
0.10836902 -0.10840533 0.64600003 4290221609
0.10995635 -0.1082311 0.64500004 4290287402
0.11153801 -0.10805684 0.64400005 4289958951
0.11311392 -0.10788254 0.64300001 4290287655
0.11522006 -0.10821153 0.64500004 4290682154
0.11751816 -0.10870818 0.648 4291863611
0.12020046 -0.10954022 0.65300006 4287636480
0.12253609 -0.11003664 0.65600002 4289405708
0.12469824 -0.11036523 0.65800005 4289733914
0.12706323 -0.11086145 0.66100001 4289145123
0.12905437 -0.11102215 0.66200006 4282457398
0.130853 -0.1110151 0.66200006 4279050840
0.13285173 -0.11117571 0.66300005 4280300907
0.07113672 -0.11267772 0.66000003 4278921335
0.072717071 -0.11233144 0.65800005 4279246427
0.074512765 -0.1123265 0.65800005 4279705169
0.076308236 -0.11232146 0.65800005 4280687173
0.077984773 -0.11214563 0.65700001 4287898393
0.079412773 -0.11162835 0.65400004 4290389268
0.08094833 -0.1112817 0.65200001 4290454807
0.082726493 -0.11127634 0.65200001 4290520086
0.084763654 -0.11161221 0.65400004 4290520084
0.086546786 -0.11160665 0.65400004 4290585877
0.088329695 -0.11160102 0.65400004 4290388498
0.089836769 -0.11125402 0.65200001 4290454291
0.09175422 -0.11141886 0.65300006 4290520339
0.09353365 -0.11141299 0.65300006 4290585877
0.095458776 -0.11157764 0.65400004 4290126096
0.097240418 -0.11157161 0.65400004 4290126610
0.099173196 -0.11173607 0.65500003 4289733392
0.10064878 -0.11138873 0.65300006 4288619276
0.10211318 -0.11104134 0.65100002 4290545456
0.10372604 -0.11086449 0.65000004 4289889315
0.10533319 -0.11068761 0.64900005 4289824804
0.10709964 -0.11068121 0.64900005 4289759013
0.10869807 -0.11050421 0.648 4289955876
0.11029081 -0.11032718 0.64700001 4289955876
0.11187786 -0.11015013 0.64600003 4289759011
0.11345918 -0.10997304 0.64500004 4289891366
0.11539205 -0.11013689 0.64600003 4290219562
0.11769281 -0.11064164 0.64900005 4290478640
0.12037772 -0.11148722 0.65400004 4288226816
0.12252919 -0.11182126 0.65600002 4289931286
0.1246913 -0.11215524 0.65800005 4289799195
0.12686399 -0.11248911 0.66000003 4289407781
0.12846251 -0.11231164 0.65900004 4283771205
0.13005529 -0.11213416 0.65800005 4279511652
0.13224348 -0.11246786 0.66000003 4279774564
0.070808567 -0.11395413 0.65700001 4279184762
0.072601654 -0.11394925 0.65700001 4280036458
0.074507751 -0.11411772 0.65800005 4279704914
0.076187156 -0.1139392 0.65700001 4283112235
0.077860884 -0.11376061 0.65600002 4287964967
0.079164661 -0.11306172 0.65200001 4290717214
0.081067137 -0.11322981 0.65300006 4290848284
0.082847938 -0.11322439 0.65300006 4290454809
0.084887713 -0.11356563 0.65500003 4290389014
0.086408839 -0.11321329 0.65300006 4290520084
0.088053875 -0.11303423 0.65200001 4290585877
0.089693211 -0.11285511 0.65100002 4290651670
0.091467351 -0.11284929 0.65100002 4290520339
0.093384482 -0.11301672 0.65200001 4290586132
0.095160849 -0.11301073 0.65200001 4290455060
0.097085647 -0.11317798 0.65300006 4290455060
0.09886422 -0.11317182 0.65300006 4290455827
0.10064255 -0.11316561 0.65300006 4290193682
0.10226375 -0.11298601 0.65200001 4291194176
0.10387927 -0.11280637 0.65100002 4290340145
0.10548908 -0.11262669 0.65000004 4289881381
0.10725819 -0.11262024 0.65000004 4290739250
0.10919478 -0.11278696 0.65100002 4290082601
0.11096609 -0.11278037 0.65100002 4290148133
0.11239079 -0.11242727 0.64900005 4290016547
0.11398021 -0.11224736 0.648 4289886243
0.11592121 -0.11241387 0.64900005 4290084652
0.11823002 -0.11292667 0.65200001 4289413146
0.12018678 -0.11309301 0.65300006 4288684302
0.12214872 -0.11325928 0.65400004 4289668891
0.12392634 -0.11325232 0.65400004 4290062112
0.12628031 -0.11376478 0.65700001 4289867828
0.12806556 -0.1137577 0.65700001 4280756845
0.12985054 -0.11375059 0.65700001 4279315314
0.13203597 -0.11408971 0.65900004 4278854761
0.070480421 -0.11521391 0.65400004 4278262634
0.072154723 -0.11503284 0.65300006 4279508057
0.074049786 -0.11520399 0.65400004 4279440197
0.075834148 -0.11519891 0.65400004 4282850095
0.077618286 -0.1151937 0.65400004 4288029993
0.078916557 -0.1144839 0.65000004 4290322970
0.080689318 -0.11447855 0.65000004 4290783519
0.082461856 -0.11447311 0.65000004 4290323223
0.084493332 -0.11481979 0.65200001 4290323223
0.085873909 -0.11428587 0.64900005 4290256914
0.087507956 -0.11410408 0.648 4290651670
0.089274086 -0.11409832 0.648 4290651670
0.091320969 -0.11444461 0.65000004 4290651411
0.093378507 -0.11479077 0.65200001 4290454546
0.095008835 -0.11460868 0.65100002 4290389521
0.096633494 -0.11442654 0.65000004 4290784279
0.098252438 -0.11424433 0.64900005 4290586899
0.10048214 -0.11476615 0.65200001 4290323727
0.10225741 -0.11475981 0.65200001 4289735441
0.10371331 -0.11440141 0.65000004 4289931791
0.10548263 -0.11439496 0.65000004 4290458387
0.10725167 -0.11438844 0.65000004 4289012996
0.10935592 -0.11473382 0.65200001 4287767554
0.11095944 -0.1145512 0.65100002 4287048197
0.11273044 -0.1145445 0.65100002 4287904783
0.11414938 -0.11418587 0.64900005 4288498961
0.11591441 -0.11417907 0.64900005 4289091352
0.11767919 -0.11417225 0.64900005 4289342738
0.11981178 -0.11451719 0.65100002 4289405204
0.12158147 -0.11451025 0.65100002 4289732886
0.12354036 -0.11467914 0.65200001 4289667354
0.12569664 -0.11502387 0.65400004 4289274146
0.12747371 -0.11501677 0.65400004 4280358993
0.12925048 -0.11500964 0.65400004 4278985572
0.13142772 -0.11535417 0.65600002 4278526049
0.070152268 -0.11645701 0.65100002 4278654308
0.071928777 -0.1164521 0.65100002 4278783565
0.0739315 -0.11680484 0.65300006 4279507794
0.075597078 -0.11662082 0.65200001 4282259252
0.077257 -0.11643676 0.65100002 4287308843
0.078668423 -0.11589491 0.648 4289799709
0.080435641 -0.11588951 0.648 4289733147
0.082329504 -0.1160629 0.64900005 4289930265
0.084098987 -0.11605733 0.64900005 4290192923
0.085735917 -0.11587284 0.648 4290126615
0.08723215 -0.11550951 0.64600003 4290060822
0.089130498 -0.11568251 0.64700001 4290061074
0.091034062 -0.1158554 0.648 4290126867
0.092942849 -0.11602822 0.64900005 4290192660
0.094564945 -0.11584338 0.648 4290126609
0.096181355 -0.11565849 0.64700001 4290390292
0.09794344 -0.11565229 0.64700001 4290126866
0.10001351 -0.11600351 0.64900005 4290323988
0.10193736 -0.11617589 0.65000004 4290258449
0.10354732 -0.11599073 0.64900005 4290521621
0.10531385 -0.11598425 0.64900005 4290717718
0.10724511 -0.11615639 0.65000004 4290455060
0.10918155 -0.11632846 0.65100002 4290323728
0.11112317 -0.11650044 0.65200001 4290061074
0.11272369 -0.11631501 0.65100002 4290455575
0.11414261 -0.1159509 0.64900005 4290521107
0.11572898 -0.1157654 0.648 4290389521
0.11767232 -0.11593718 0.64900005 4290126610
0.11943677 -0.11593024 0.64900005 4290389014
0.12120098 -0.11592329 0.64900005 4290585626
0.12296493 -0.11591627 0.64900005 4290454554
0.12530516 -0.116445 0.65200001 4290127646
0.12727167 -0.11661647 0.65300006 4281211983
0.12924331 -0.11678787 0.65400004 4279181148
0.13122018 -0.11695923 0.65500003 4278920546
0.07003963 -0.11804671 0.65000004 4279381114
0.071702823 -0.11786016 0.64900005 4279247976
0.073699981 -0.11821831 0.65100002 4279574876
0.075360022 -0.11803158 0.65000004 4282062642
0.077133052 -0.11802633 0.65000004 4286062114
0.078541681 -0.11747627 0.64700001 4287700500
0.080430195 -0.11765242 0.648 4288094488
0.082070261 -0.11746537 0.64700001 4288750104
0.083834209 -0.11745977 0.64700001 4288552723
0.085465603 -0.11727256 0.64600003 4289404949
0.087226368 -0.1172668 0.64600003 4289798164
0.088986866 -0.11726096 0.64600003 4290061076
0.090887628 -0.11743654 0.64700001 4290389268
0.092650399 -0.11743053 0.64700001 4290521368
0.094412908 -0.11742445 0.64700001 4290455832
0.096175179 -0.11741827 0.64700001 4289668113
0.097937182 -0.11741203 0.64700001 4289930771
0.099698961 -0.11740572 0.64700001 4290323988
0.10146049 -0.11739933 0.64700001 4290455060
0.10322175 -0.11739288 0.64700001 4290061073
0.10482052 -0.11720494 0.64600003 4289929488
0.10657857 -0.11719837 0.64600003 4290061074
0.10850405 -0.11737315 0.64700001 4290192660
0.1102643 -0.11736645 0.64700001 4290061074
0.11202431 -0.1173597 0.64700001 4290455575
0.11360818 -0.11717152 0.64600003 4290389781
0.11536495 -0.11716466 0.64600003 4290323475
0.11694018 -0.11697641 0.64500004 4290323475
0.11887773 -0.11715082 0.64600003 4290323475
0.12044701 -0.1169625 0.64500004 4290520347
0.12238949 -0.11713681 0.64600003 4290586395
0.12452933 -0.11749236 0.648 4288557385
0.12667979 -0.11784784 0.65000004 4282000989
0.12864326 -0.11802195 0.65100002 4279576425
0.13061193 -0.11819601 0.65200001 4278460509
0.069711477 -0.11926199 0.64700001 4279381619
0.071587339 -0.11944136 0.648 4279709041
0.073468454 -0.11962061 0.64900005 4279900487
0.075238876 -0.11961543 0.64900005 4282588470
0.077009089 -0.11961016 0.64900005 4285537309
0.078657687 -0.11942049 0.648 4286453777
0.080548838 -0.11959933 0.64900005 4286716434
0.082191527 -0.11940948 0.648 4287240976
0.083828539 -0.11921958 0.64700001 4287306769
0.085459873 -0.1190296 0.64600003 4287831310
0.08722055 -0.11902381 0.64600003 4288159248
0.08898098 -0.11901794 0.64600003 4288421390
0.090741165 -0.11901196 0.64600003 4288749327
0.092644319 -0.11919013 0.64700001 4288750095
0.094260842 -0.11899979 0.64600003 4288815888
0.09616895 -0.11917779 0.64700001 4287897869
0.097930893 -0.11917149 0.64700001 4288095762
0.099846683 -0.11934933 0.648 4288487951
0.10129724 -0.11897455 0.64600003 4288553230
0.10305573 -0.11896806 0.64600003 4288619023
0.10448947 -0.11859322 0.64400005 4289013267
0.10640696 -0.11877076 0.64500004 4289144083
0.10816198 -0.1187641 0.64500004 4289537042
0.11025755 -0.11912561 0.64700001 4289931546
0.1120175 -0.11911882 0.64700001 4289996311
0.11377719 -0.11911196 0.64700001 4289930004
0.11535806 -0.11892096 0.64600003 4290126869
0.11693325 -0.11872996 0.64500004 4290323221
0.11850272 -0.11853891 0.64400005 4289733139
0.12006651 -0.11834782 0.64300001 4289405456
0.12181406 -0.11834078 0.64300001 4289339663
0.12413788 -0.11888582 0.64600003 4288490540
0.12628286 -0.11924671 0.648 4283377228
0.12843844 -0.11960752 0.65000004 4280625511
0.13040434 -0.11978427 0.65100002 4279315050
0.069491073 -0.12064771 0.64500004 4278262372
0.071250908 -0.12064274 0.64500004 4278260828
0.07323692 -0.12101172 0.64700001 4279374667
0.0751177 -0.12119354 0.648 4282390066
0.077003747 -0.12137528 0.64900005 4285012507
0.078773633 -0.12136986 0.64900005 4285601551
0.08408197 -0.12135307 0.64900005 4286323982
0.085586384 -0.12097334 0.64700001 4286980880
0.08734969 -0.1209675 0.64700001 4287046671
0.089112759 -0.12096156 0.64700001 4286850576
0.091016062 -0.12114249 0.648 4287046673
0.092924573 -0.12132333 0.64900005 4286717708
0.094692372 -0.12131713 0.64900005 4286915087
0.096459933 -0.12131086 0.64900005 4286979596
0.098227255 -0.12130451 0.64900005 4287373326
0.10160436 -0.12110472 0.648 4287504653
0.1032087 -0.12091129 0.64700001 4287504653
0.10480736 -0.12071782 0.64600003 4287701004
0.10640031 -0.12052431 0.64500004 4287701004
0.10832295 -0.12070445 0.64600003 4288028171
0.10990995 -0.12051082 0.64500004 4288093966
0.11183753 -0.12069084 0.64600003 4288159502
0.11359444 -0.12068395 0.64600003 4288421392
0.11535113 -0.12067702 0.64600003 4288749329
0.11692625 -0.12048323 0.64500004 4289077010
0.1183117 -0.12010264 0.64300001 4289405718
0.12005948 -0.1200956 0.64300001 4289537815
0.12180699 -0.12008851 0.64300001 4289472534
0.12393858 -0.1204549 0.64500004 4288360241
0.12608078 -0.12082119 0.64700001 4283176767
0.12803599 -0.12100069 0.648 4279835219
0.12999645 -0.12118014 0.64900005 4279183464
0.069162942 -0.12183246 0.64200002 4279053172
0.070914477 -0.12182746 0.64200002 4279051889
0.072892196 -0.12220189 0.64400005 4279838826
0.0748806 -0.12257617 0.64600003 4280424252
0.076761074 -0.12276058 0.64700001 4283700246
0.078525417 -0.12275515 0.64700001 4284093460
0.087343782 -0.12272663 0.64700001 4285930245
0.10512517 -0.12285301 0.648 4287242768
0.10688846 -0.12284629 0.648 4287504912
0.10848385 -0.12264995 0.64700001 4287373069
0.11024393 -0.12264314 0.64700001 4287504141
0.11200377 -0.12263625 0.64700001 4287307022
0.11376335 -0.12262931 0.64700001 4286783248
0.11552268 -0.12262232 0.64700001 4286848527
0.11710051 -0.12242576 0.64600003 4286782220
0.11848866 -0.12203969 0.64400005 4287175694
0.12023911 -0.1220326 0.64400005 4287306508
0.12179987 -0.12183598 0.64300001 4286519823
0.12373925 -0.12201829 0.64400005 4284947766
0.12568381 -0.12220055 0.64500004 4281477727
0.12783115 -0.12257218 0.64700001 4278986609
0.069050267 -0.12338557 0.64100003 4279184509
0.070909418 -0.12357302 0.64200002 4278791033
0.073000193 -0.12414533 0.64500004 4278921333
0.078034483 -0.12374439 0.64300001 4279576174
0.080035783 -0.12412375 0.64500004 4279510106
0.087067857 -0.12410066 0.64500004 4287472441
0.10989629 -0.12401696 0.64500004 4286193419
0.11358054 -0.12419534 0.64600003 4286062093
0.11884951 -0.12417416 0.64600003 4285929487
0.12023198 -0.1237826 0.64400005 4285929487
0.12198212 -0.12377542 0.64400005 4285995280
0.12353991 -0.12357602 0.64300001 4284423222
0.12548172 -0.12376097 0.64400005 4281412449
0.12723115 -0.1237537 0.64400005 4279117681
0.12938091 -0.1241307 0.64600003 4279380853
0.06893757 -0.12493291 0.64000005 4278394736
0.070904337 -0.12531829 0.64200002 4278395246
0.072768636 -0.12550831 0.64300001 4278591851
0.076157123 -0.12530251 0.64200002 4278525544
0.077786297 -0.12510191 0.64100003 4279315060
0.079657942 -0.12529153 0.64200002 4279314536
0.081534833 -0.12548102 0.64300001 4280168539
0.084907532 -0.12527433 0.64200002 4288132674
0.086656958 -0.12526841 0.64200002 4288330294
0.088543855 -0.12545754 0.64300001 4288066355
0.093944117 -0.12563412 0.64400005 4288987469
0.097451322 -0.12562138 0.64400005 4286614320
0.10971902 -0.12557462 0.64400005 4284752904
0.11147059 -0.12556769 0.64400005 4285145096
0.12003812 -0.12533739 0.64300001 4285077005
0.12159611 -0.12513529 0.64200002 4285142546
0.12314844 -0.12493316 0.64100003 4283047745
0.12527961 -0.12531571 0.64300001 4279309128
0.12682873 -0.12511352 0.64200002 4278985065
0.12877275 -0.12530108 0.64300001 4279181416
0.068932578 -0.12667248 0.64000005 4279642471
0.070678346 -0.12666741 0.64000005 4279248997
0.076033093 -0.12684949 0.64100003 4279183465
0.077538103 -0.12644826 0.63900006 4278787174
0.079280138 -0.12644272 0.63900006 4278853733
0.08102195 -0.12643707 0.63900006 4279971171
0.082893066 -0.12662917 0.64000005 4286227769
0.084372669 -0.12622763 0.63800001 4286161958
0.086246081 -0.12641959 0.63900006 4286949676
0.088124707 -0.12661141 0.64000005 4287081262
0.090008572 -0.12680314 0.64100003 4287673654
0.091897644 -0.12699477 0.64200002 4286160160
0.093646072 -0.12698852 0.64200002 4288002360
0.095394276 -0.12698217 0.64200002 4287870521
0.097142227 -0.12697573 0.64200002 4287343924
0.098889969 -0.12696925 0.64200002 4286818604
0.10063746 -0.12696268 0.64200002 4287674168
0.10222524 -0.12675831 0.64100003 4287936314
0.10413176 -0.12694934 0.64200002 4287804475
0.10587853 -0.12694259 0.64200002 4287342895
0.10920103 -0.12673119 0.64100003 4288725316
0.11094438 -0.12672426 0.64100003 4288789828
0.1126875 -0.12671728 0.64100003 4287145010
0.11965757 -0.1266889 0.64100003 4279440974
0.12139951 -0.1266817 0.64100003 4279440713
0.12294909 -0.12647684 0.64000005 4279378779
0.12488265 -0.12666717 0.64100003 4279116641
0.12622881 -0.12626469 0.63900006 4278657898
0.12796438 -0.12625737 0.63900006 4279053170
0.13051158 -0.12704033 0.64300001 4284643978
0.075909048 -0.12839071 0.64000005 4279182687
0.077532589 -0.12818463 0.63900006 4278787676
0.079150453 -0.12797846 0.63800001 4279509861
0.080889449 -0.1279728 0.63800001 4279116633
0.082757749 -0.12816761 0.63900006 4286885445
0.084366791 -0.12796119 0.63800001 4286753842
0.08624012 -0.12815584 0.63900006 4287344950
0.088118643 -0.12835035 0.64000005 4288199998
0.096681871 -0.12811846 0.63900006 4287739194
0.098421358 -0.12811196 0.63900006 4287739192
0.10000385 -0.12790491 0.63800001 4286883626
0.10189965 -0.12809877 0.63900006 4286883626
0.10380064 -0.12829252 0.64000005 4286620454
0.10728296 -0.12827893 0.64000005 4286554913
0.10885342 -0.12807161 0.63900006 4288134205
0.11041822 -0.12786426 0.63800001 4288528451
0.1123289 -0.1280577 0.63900006 4287409974
0.1142448 -0.12825105 0.64000005 4282075464
0.11754036 -0.12803644 0.63900006 4279708528
0.11909039 -0.12782891 0.63800001 4279642481
0.12082412 -0.12782171 0.63800001 4278853995
0.12294184 -0.12821516 0.64000005 4279117165
0.12448574 -0.12800755 0.63900006 4278987634
0.12622149 -0.12800024 0.63900006 4278922872
0.12755653 -0.12759228 0.63700002 4278857592
0.077405706 -0.12971739 0.63800001 4279247193
0.079144821 -0.12971181 0.63800001 4279509579
0.080883726 -0.12970611 0.63800001 4280431676
0.099840529 -0.12943475 0.63700002 4287672894
0.1017335 -0.12963128 0.63800001 4287409974
0.10850582 -0.12940092 0.63700002 4286687534
0.11023819 -0.12939398 0.63700002 4286030119
0.11197031 -0.12938699 0.63700002 4286753862
0.11370222 -0.12937994 0.63700002 4283723861
0.11543389 -0.12937286 0.63700002 4279051607
0.11698139 -0.12916265 0.63600004 4278853228
0.11870991 -0.12915549 0.63600004 4278525031
0.12024879 -0.12894522 0.63500005 4278855023
0.1221662 -0.12914105 0.63600004 4278723437
0.12389402 -0.12913379 0.63600004 4278526828
0.12581912 -0.12932952 0.63700002 4279512700
0.1275492 -0.12932217 0.63700002 4279118195
0.09952046 -0.13075297 0.63500005 4285435422
0.10988512 -0.13071218 0.63500005 4285897773
0.11178753 -0.13091102 0.63600004 4286358850
0.11351666 -0.13090396 0.63600004 4280433957
0.11542678 -0.13110268 0.63700002 4279643484
0.11679032 -0.13068391 0.63500005 4279444849
0.11832941 -0.13047095 0.634 4279380590
0.12024158 -0.13066955 0.63500005 4279447153
0.12177479 -0.13045652 0.634 4279446898
0.12388673 -0.13086078 0.63600004 4278592103
0.12541676 -0.13064769 0.63500005 4278459237
0.12734161 -0.1308461 0.63600004 4278723942
0.11832224 -0.13219233 0.634 4278853462
0.12023434 -0.13239361 0.63500005 4278985048
0.12176751 -0.13217784 0.634 4279116894
0.12540944 -0.13237171 0.63500005 4279510879
