# .PCD v0.7 - Point Cloud Data file format
VERSION 0.7
FIELDS x y z rgba
SIZE 4 4 4 4
TYPE F F F U
COUNT 1 1 1 1
WIDTH 973
HEIGHT 1
VIEWPOINT 0 0 0 1 0 0 0
POINTS 973
DATA ascii
-0.013908271 0.020269427 0.027629877 4290258463
-0.011665326 0.019016609 0.028676087 4290454558
-0.0094115026 0.017764587 0.02972017 4289604134
-0.0075699352 0.018586677 0.028602356 4289342504
-0.0057335831 0.019408494 0.027485648 4289734948
-0.0040488765 0.020920809 0.025651203 4289734948
-0.001778435 0.019670229 0.026692221 4289407783
0.00095812231 0.016349249 0.029884512 4289931043
0.0038760304 0.012339912 0.033788718 4290062114
0.0069833286 0.0076427311 0.038403265 4289669669
0.010927238 -0.0005011633 0.046591178 4289342504
-0.024131406 0.019398715 0.026967322 4289085974
-0.021921907 0.018138845 0.028016629 4289410844
-0.020075906 0.018962897 0.026899124 4289539363
-0.018362548 0.020480834 0.025061773 4289080873
-0.016529564 0.02130416 0.023947058 4288950058
-0.014436137 0.020739589 0.024273286 4289211689
-0.012066171 0.018788129 0.026037274 4289735459
-0.0098181628 0.017531332 0.027079182 4289931299
-0.0079818964 0.018355213 0.025964065 4289277224
-0.0061508417 0.019178845 0.024850065 4289669669
-0.0041787922 0.019309267 0.024454398 4289407783
-0.0017599054 0.017361529 0.026208861 4289211689
0.00067517161 0.015414901 0.027960183 4289342504
0.0031264462 0.013469424 0.029708317 4289342503
0.0055938922 0.011525162 0.031453237 4289669668
0.0083967634 0.008197926 0.034624107 4289866020
0.012362655 2.939254e-05 0.04278779 4290324254
-0.022050802 0.016527917 0.026820036 4289212198
-0.020578574 0.019443735 0.023544429 4289734949
-0.01887301 0.02096552 0.021711903 4289734949
-0.017048012 0.021790449 0.02060041 4289342503
-0.014697578 0.019831054 0.022363247 4290323744
-0.012330927 0.017872855 0.024122851 4290454558
-0.010224067 0.017307095 0.02444488 4289734948
-0.0083930939 0.01813281 0.023332411 4289604133
-0.0064239725 0.018262934 0.022937255 4289538854
-0.0043086484 0.017697994 0.023257779 4289538598
-0.0018904172 0.015743643 0.025007362 4289604134
0.00039262697 0.014485184 0.026039278 4289342504
0.0025323965 0.013922174 0.026355067 4289734949
0.0046776347 0.013359599 0.02666981 4289538598
0.0068283193 0.01279749 0.026983546 4290192673
0.0097950995 0.0087654516 0.030858235 4289342248
0.013782945 0.00057237595 0.038997591 4288949293
-0.023197327 0.0091950968 0.031774476 4287382574
-0.022179622 0.014917247 0.025623618 4288295728
-0.020955693 0.019239273 0.020917909 4289604134
-0.019382346 0.021463547 0.018372001 4290258208
-0.017305713 0.020893347 0.018698158 4290323744
-0.014958616 0.018927209 0.020456607 4290389023
-0.01259527 0.016962193 0.022211911 4290454559
-0.010767054 0.017789748 0.021101618 4289538599
-0.0088035278 0.01791938 0.02070749 4289603878
-0.0066966787 0.01735162 0.021027917 4289146154
-0.0044384599 0.01608697 0.022061342 4289211433
-0.002317965 0.015520286 0.022379169 4289080874
-0.00019199029 0.014954064 0.022695968 4289277224
0.0016316436 0.015781865 0.021587012 4289538599
0.0037631877 0.015216194 0.021902839 4290389023
0.0055816546 0.016043834 0.020795057 4290061858
0.0083665363 0.012693681 0.023952967 4289407529
0.011507552 0.0079532713 0.028525995 4289080108
0.016191952 -0.0030477047 0.039478801 4289407274
-0.022613872 0.0033595487 0.034871727 4287382318
-0.021822017 0.01050248 0.027296154 4287707444
-0.020710696 0.015539166 0.021881433 4289473319
-0.019255858 0.018471252 0.018622605 4289604133
-0.017303776 0.018599745 0.018230477 4289080874
-0.01521923 0.018027958 0.018553438 4289211433
-0.012994181 0.016756356 0.019589888 4289734693
-0.011171259 0.017585751 0.018482255 4289472808
-0.0092132017 0.017715007 0.018089211 4289865764
-0.0071120076 0.017144624 0.018409135 4290258209
-0.0048596188 0.015875243 0.019440336 4290323488
-0.0027447641 0.015306 0.019757627 4289407783
-0.00077548996 0.015436355 0.019362608 4289211689
0.0010401569 0.016265769 0.01825689 4289276968
0.0028505586 0.017094944 0.017152304 4289734438
0.004655689 0.017923851 0.016048836 4290388513
0.0071026199 0.01595876 0.017783025 4290323234
0.0098946206 0.012598284 0.020931261 4290585118
0.013549156 0.0057491809 0.027614543 4290585119
0.017936599 -0.0038878545 0.037117213 4289930789
-0.022151198 -0.0017984882 0.037233494 4286989364
-0.021222893 0.004663825 0.030387091 4287183674
-0.020342592 0.011123076 0.023550404 4287445559
-0.019129995 0.015470486 0.018866906 4288819244
-0.017431561 0.017004795 0.017045798 4289342248
-0.015479427 0.017133351 0.016653711 4289342248
-0.01339234 0.016559605 0.016974533 4289473319
-0.011574704 0.017390754 0.015869638 4289604134
-0.0097622685 0.018221658 0.014765868 4290389023
-0.0075265728 0.016946699 0.015797002 4290389023
-0.0052799992 0.015672516 0.01682608 4290519839
-0.003318999 0.015802208 0.01643263 4290454559
-0.001357872 0.015931997 0.016039224 4289473319
0.00044979528 0.016763095 0.014936717 4289407528
0.0025646798 0.016191881 0.01525257 4289996580
0.0045261048 0.016321972 0.014859321 4289996068
0.0068107992 0.01505091 0.01588113 4289342248
0.0091063008 0.013780642 0.01690091 4289800229
0.011913445 0.010410354 0.020037858 4289538599
0.014917087 0.0063418671 0.023875413 4289341994
0.019159149 -0.0026238486 0.032644153 4289211178
-0.020504575 -0.0019062385 0.034172617 4287249464
-0.019604076 0.0045738891 0.027346781 4287380024
-0.01875158 0.011050962 0.020530669 4287838259
-0.017430019 0.014705148 0.016573617 4289015338
-0.015739221 0.016243365 0.014757404 4289276968
-0.013924357 0.017076399 0.01365464 4289669413
-0.01225201 0.01861361 0.011842227 4289734949
-0.010450229 0.019445974 0.010742232 4289276968
-0.008225698 0.01816589 0.011772273 4289407784
-0.0059903152 0.016886588 0.012800252 4289603623
-0.0037441142 0.015608136 0.013826085 4289604134
-0.0017884634 0.015737548 0.013433771 4289734693
0.00016728044 0.015867047 0.013041491 4289734693
0.0022791922 0.015293498 0.013356233 4289734439
0.0043965615 0.014720362 0.013669996 4289930789
0.0065193661 0.01414771 0.013982689 4289800229
0.0088117011 0.01287289 0.014999716 4289931044
0.010948069 0.012301311 0.015309887 4289603878
0.013428751 0.010325655 0.017027536 4289341993
0.016441997 0.0062447935 0.020853309 4289930534
0.020536331 -0.0020453557 0.028891874 4289668905
-0.020272885 -0.0056760237 0.035086319 4287053624
-0.019239169 0.0001167804 0.02898526 4287314488
-0.01850092 0.0073215067 0.021470373 4287380024
-0.017299663 0.01169426 0.016809134 4287838003
-0.015866835 0.014651094 0.013574721 4288622894
-0.014320802 0.016899854 0.01105427 4289146153
-0.012653578 0.018441025 0.0092462376 4290323488
-0.010857102 0.019275162 0.0081489347 4289865763
-0.0087808855 0.018696573 0.0084687918 4290127394
-0.006554015 0.017412368 0.0094950926 4290192673
-0.0043163002 0.016128939 0.010519337 4290454304
-0.0022182949 0.01555207 0.010835042 4289865508
-0.00026802346 0.015681196 0.010443855 4289407529
0.0019941106 0.014399722 0.011463385 4289538344
0.0042670593 0.013119012 0.012480857 4289734693
0.0062283315 0.013249151 0.012087686 4289996323
0.0083535947 0.012674585 0.012398297 4289669414
0.010151099 0.013509769 0.011301532 4289800229
0.01211258 0.013640229 0.010908552 4289604134
0.014589991 0.011657923 0.012621948 4290061604
0.017782088 0.0068602785 0.017138561 4289538089
0.02243028 -0.0035662875 0.027256021 4289407274
-0.020042185 -0.0094586536 0.035990477 4286922553
-0.01887558 -0.0043575242 0.030610954 4287118394
-0.017872516 0.0014507398 0.024529388 4287118139
-0.016783182 0.0065469444 0.019165585 4287380024
-0.01559959 0.010931686 0.014517846 4287706933
-0.014447939 0.015314382 0.0098766536 4289015083
-0.01291744 0.017568659 0.0073643941 4289341994
-0.011402857 0.019822039 0.0048553683 4290192674
-0.0093349628 0.019240696 0.0051752143 4289800229
-0.0071165971 0.017951522 0.0061999373 4289800229
-0.0047397316 0.015955117 0.0079278219 4289865508
-0.0029480681 0.016791474 0.0068334229 4289342248
-0.00070258602 0.015504424 0.0078528784 4289276714
0.0012423135 0.015633274 0.0074628294 4289211178
0.0035040714 0.014347453 0.0084792227 4289473063
0.0054544993 0.014476869 0.0080882162 4289473063
0.0075687468 0.013899382 0.0083993617 4289603878
0.009355586 0.014736 0.0073063783 4289996580
0.010968026 0.01627909 0.0055134818 4290192673
0.012913357 0.016408563 0.0051237978 4289538599
0.015731052 0.013006613 0.0082339495 4289473064
0.019638419 0.0053697526 0.015535345 4289734438
0.024324046 -0.0050868317 0.025620511 4289734183
-0.018760104 -0.0074253008 0.030806741 4286333758
-0.017246138 -0.0044460371 0.027569139 4286921788
-0.016010899 -4.4956803e-05 0.022920894 4287183163
-0.014939051 0.0050653666 0.01757226 4287314234
-0.014038626 0.010884538 0.011524782 4287706423
-0.012770552 0.014568042 0.0076035243 4288426289
-0.011389662 0.017539088 0.0043929927 4289407529
-0.0094615258 0.017666318 0.0040059164 4289538343
-0.0073884539 0.017083216 0.004323123 4289669414
-0.005309891 0.016500525 0.0046393406 4289734693
-0.003526222 0.017338555 0.003548149 4289407529
-0.0015949346 0.017466392 0.0031607449 4290061093
0.00064750388 0.016174819 0.0041775927 4290257443
0.0029007345 0.014884118 0.0051923189 4290388769
0.0050038956 0.014303591 0.0055039357 4289799974
0.0069489218 0.014432739 0.0051140841 4289669413
0.0085615292 0.015980024 0.003324423 4289604134
0.0099945553 0.018235594 0.00083754584 4290389023
0.012097985 0.017655451 0.0011494625 4290258464
0.014729653 0.014950354 0.0035552941 4290454558
0.017913695 0.0101218 0.0080503542 4290127393
0.021135276 0.0052958876 0.012537917 4290258463
0.025306007 -0.0030672401 0.020501712 4289800483
-0.016873579 -0.0089409277 0.0291768 4286921789
-0.01549815 -0.005239822 0.02524201 4287182908
-0.014411811 -0.00011333823 0.019902056 4287183163
-0.013630647 0.0064374954 0.013160123 4287575608
-0.012487713 0.010845743 0.0085406173 4287771958
-0.011516061 0.015965011 0.0032238849 4288622383
-0.00973 0.016805012 0.0021336731 4289865253
-0.0078045391 0.016932148 0.0017471965 4289799718
-0.0057316385 0.016346935 0.0020628348 4290061859
-0.0041032508 0.017899007 0.00027285889 4289603623
-0.0023328103 0.018738415 -0.0008139573 4290192164
-0.00010155886 0.017441742 0.00020181388 4288884014
0.002298519 0.015434138 0.0019154064 4290257443
0.0043933354 0.014850874 0.002227027 4290388769
0.0060034133 0.016402267 0.0004410632 4289473319
0.0074367933 0.018664226 -0.0020409562 4289669413
0.0090229027 0.020214234 -0.0038219653 4289342504
0.011455476 0.018209305 -0.0021144897 4289342504
0.014078278 0.015494872 0.00028652325 4289080873
0.016899336 0.012071483 0.0033794828 4289146153
0.019388288 0.010070652 0.0050758459 4289407783
0.022257652 0.0066506565 0.0081593357 4289408039
0.026262743 -0.0010271892 0.015404852 4289211689
-0.017005261 -0.010588877 0.027952665 4286529854
-0.015243877 -0.0090245157 0.026138676 4286921789
-0.013886254 -0.0053136274 0.022215815 4287117883
-0.012956511 0.00054219365 0.01618894 4287248699
-0.011933025 0.0056799278 0.010873355 4287575609
-0.01094687 0.010815352 0.0055653062 4287771959
-0.0097145103 0.014518388 0.0016679168 4288426288
-0.0080754161 0.016075291 -0.00012105703 4289145899
-0.0064469092 0.017631635 -0.0019078702 4289604134
-0.0048290044 0.019187339 -0.0036924332 4289211434
-0.0030692182 0.020028152 -0.0047754301 4289015084
-0.00084916875 0.018726408 -0.0037607979 4288753454
0.0016973913 0.015997596 -0.0013516117 4289342249
0.0039444007 0.014697842 -0.00034222379 4289799974
0.0053861439 0.01696676 -0.0028210357 4289800228
0.0071436614 0.017807983 -0.0039032288 4289538854
0.0088958926 0.018648915 -0.0049842354 4289408039
0.011327811 0.016637392 -0.0032816269 4289146153
0.013775852 0.014627069 -0.0015821531 4289473319
0.016239993 0.012617953 0.00011412054 4289669669
0.018361684 0.012035027 0.00041924976 4289277224
0.020670729 0.010740191 0.0014168881 4289211688
0.02354444 0.0073097423 0.0044912379 4290258209
0.027756218 -0.0011026114 0.012407159 4290454049
-0.015503485 -0.0099497512 0.024215424 4286661689
-0.013885994 -0.0076639056 0.02170532 4286922553
-0.012551565 -0.0039436072 0.017795475 4287183163
-0.011380009 0.00049257278 0.013190081 4287444538
-0.010518309 0.0063614845 0.0071902759 4287575609
-0.0095576979 0.011510462 0.0018990636 4287575863
-0.0083458908 0.015223131 -0.0019859001 4288622383
-0.0067198277 0.016783595 -0.0037688781 4289538599
-0.0051043779 0.018343464 -0.0055496497 4290127139
-0.0034995489 0.019902773 -0.0073282616 4290192929
-0.0015953258 0.020028867 -0.0077101979 4289800228
0.0009396933 0.01729057 -0.0053053498 4290323488
0.0031755008 0.015985712 -0.0042970488 4290323488
0.0047699735 0.017544709 -0.0060732169 4289669669
0.0065195113 0.018387511 -0.0071521206 4289146153
0.0084321424 0.01851467 -0.0075353552 4289407783
0.010858033 0.016496271 -0.0058365613 4289473318
0.013126306 0.015194058 -0.0048343129 4289538854
0.015405323 0.013892703 -0.0038341917 4289604133
0.01769511 0.012592129 -0.0028360989 4289473318
0.01945027 0.013435934 -0.0039156489 4289800228
0.021753483 0.012136512 -0.0029201303 4289734949
0.024815995 0.0079812706 0.00083645061 4289080619
0.029429261 -0.0018835515 0.010108648 4289014829
-0.013886023 -0.010018289 0.021191781 4286727224
-0.012147967 -0.0084466338 0.01938921 4287117884
-0.010828707 -0.0047163889 0.015490757 4287248698
-0.0098135844 0.00045132637 0.010200072 4287182908
-0.0089772418 0.0063359961 0.0042187292 4287445049
-0.008039508 0.011498816 -0.0010562576 4288229938
-0.0068455637 0.015221201 -0.0049292399 4289211178
-0.0055288263 0.018223122 -0.0081001138 4289865253
-0.0040812679 0.020505063 -0.010570523 4290127394
-0.0020303763 0.019912079 -0.01025521 4289865764
0.00034093857 0.017883003 -0.0085508516 4289538598
0.0025682412 0.016573191 -0.0075441236 4289473318
0.0041548982 0.018136039 -0.0093154656 4289538854
0.0062275194 0.01754491 -0.0090041952 4289538854
0.0083055608 0.016954288 -0.0086939745 4289211689
0.010559898 0.015646718 -0.0076923911 4289473319
0.012304287 0.016491659 -0.0087683722 4289211433
0.014395859 0.015902266 -0.008460613 4289276968
0.016492821 0.015313324 -0.0081538633 4289473574
0.018231962 0.016158234 -0.0092285499 4290389024
0.020150045 0.016286377 -0.0096124019 4289342504
0.022629041 0.014265597 -0.0079286788 4289015338
0.02626198 0.0079490021 -0.0021163858 4288949804
0.030904751 -0.001944162 0.0071267746 4288818479
-0.01227862 -0.01007849 0.018177098 4287185203
-0.010686815 -0.0077811554 0.015682211 4287183929
-0.009388078 -0.0040413141 0.011796227 4287117629
-0.0085397586 0.0018615574 0.0058256909 4287313978
-0.0075902119 0.007040292 0.00055994838 4287706424
-0.0066780336 0.012216717 -0.0046982411 4287902774
-0.0055046529 0.015948713 -0.0085587287 4289537834
-0.0043579452 0.019679036 -0.012413794 4289734438
-0.0021553971 0.018363003 -0.011405593 4289407528
-9.9379569e-05 0.017768309 -0.011092947 4289669669
0.0019620731 0.017174095 -0.010781298 4289473319
0.0033782385 0.019460887 -0.013240129 4289734948
0.0054398477 0.018866844 -0.012928311 4289931043
0.0078429244 0.01683376 -0.011234989 4290454559
0.010091431 0.015521407 -0.010235518 4290519839
0.011657115 0.017087623 -0.011999028 4289604134
0.013212133 0.018653207 -0.013760269 4289211433
0.015113965 0.018780038 -0.01414104 4289800228
0.016834397 0.019625872 -0.015210325 4289996579
0.018733606 0.019752763 -0.015590391 4289865253
0.021193169 0.017724186 -0.013907816 4290192929
0.024426691 0.012823351 -0.0094803236 4289865509
0.027889851 0.0072069839 -0.0043737907 4289799464
0.033149265 -0.0048682839 0.0068975724 4289276204
-0.010681286 -0.010130316 0.015171325 4287708719
-0.0089639127 -0.0085511208 0.013379628 4287248698
-0.0079625249 -0.0033538789 0.0081149936 4287379514
-0.0069985129 0.0018410459 0.0028578974 4287313978
-0.0062182881 0.0077569932 -0.0030855685 4287640888
-0.0053316616 0.012946978 -0.0083269216 4288491058
-0.0043306537 0.017411619 -0.012867857 4289211178
-0.0024348497 0.01753711 -0.013248146 4289472808
-0.00038180873 0.016939994 -0.012936518 4289603878
0.00167666 0.016343378 -0.012625959 4289538598
0.0029280446 0.019358836 -0.015770094 4289865764
0.0049839765 0.018762279 -0.01545885 4290388769
0.0072131976 0.017444193 -0.01445891 4290192419
0.0096237026 0.015405193 -0.012771966 4290584864
0.010837819 0.018418595 -0.015908312 4290258209
0.012382347 0.019987803 -0.017664153 4289472808
0.014273338 0.020113919 -0.018042749 4289604134
0.016164351 0.02024015 -0.018421264 4289603368
0.018239319 0.019645602 -0.018113267 4288949293
0.02069287 0.017610066 -0.016434407 4288949293
0.023351789 0.014855206 -0.01407331 4289276204
0.026416056 0.01066117 -0.010346763 4289014574
0.031458911 -0.00073236972 0.00021655671 4289014574
-0.0090940297 -0.010173708 0.012174441 4287316529
-0.0075279288 -0.0078648776 0.0096947867 4287183929
-0.0065521039 -0.002654016 0.004446961 4287379259
-0.0056136362 0.0025545135 -0.00079334155 4287444793
-0.0050104074 0.0092114508 -0.0074096452 4287706679
-0.0040004365 0.013689667 -0.011942405 4288491823
-0.0025596097 0.015990779 -0.014396492 4289145898
-0.00066386163 0.016116351 -0.014776703 4289603623
0.0012319796 0.016242042 -0.015156843 4289472808
0.00280324 0.017816819 -0.016915146 4289538344
0.0043638609 0.019391019 -0.01867122 4289211434
0.0065845437 0.018068042 -0.017672941 4289211434
0.0088159963 0.016745903 -0.01667673 4289865253
0.010539103 0.017595928 -0.017743489 4289604134
0.011905458 0.019892909 -0.020181958 4289472808
0.013612553 0.020742122 -0.021245392 4289538089
0.01567648 0.020144526 -0.020936873 4289538089
0.018113278 0.018101286 -0.019259758 4289341738
0.020566165 0.016059205 -0.01758573 4289145389
0.023602447 0.011850163 -0.01386361 4288687664
0.026479078 0.0083659068 -0.010831038 4288294964
0.031327151 -0.002340056 -0.00097684562 4288556594
0.045860168 -0.040341429 0.034360647 4288360243
-0.0075168647 -0.010208778 0.0091865249 4287119923
-0.0061070472 -0.0071662515 0.0060232598 4287182908
-0.0051567815 -0.0019417405 0.00079218112 4287248444
-0.0042438768 0.0032803565 -0.0044312729 4287248698
-0.0035197921 0.0092275143 -0.010336827 4287510583
-0.0023760907 0.012990296 -0.014166379 4288426543
-0.0011022985 0.016024381 -0.017301934 4289276714
0.00062858686 0.016876541 -0.018369013 4289538344
0.0021920241 0.018455185 -0.02012248 4290257698
0.0039096549 0.019306693 -0.021186732 4289603879
0.0057894923 0.019431621 -0.021563437 4289342504
0.0080097504 0.018104337 -0.020568263 4289473319
0.0098950453 0.018229853 -0.020945886 4289865764
0.011955917 0.017629698 -0.020638628 4289341993
0.013843957 0.017755605 -0.021016644 4289538344
0.016274709 0.01570534 -0.019343376 4289210923
0.018537987 0.014381476 -0.018356396 4289145644
0.021184489 0.01160828 -0.016006161 4288949293
0.024041351 0.00811176 -0.012977991 4288949294
0.027116593 0.0038923919 -0.0092735244 4288033589
0.031778261 -0.0061210468 -0.00012686104 4287968053
0.045519002 -0.041340403 0.032401629 4287837239
-0.0062362775 -0.0087752044 0.0048282575 4287185459
-0.0048471875 -0.0057252645 0.0016758498 4287379514
-0.0039251633 -0.00048732758 -0.0035378914 4287510328
-0.0028892532 0.0040186197 -0.0080559971 4287772468
-0.0020393021 0.0092519596 -0.013255069 4287576373
-0.0010701418 0.013753764 -0.017759658 4288033843
2.6278198e-05 0.017524473 -0.021571288 4289015083
0.0014199428 0.01983574 -0.024005711 4289669414
0.0031268932 0.020688754 -0.025066214 4289604134
0.0049958862 0.020812955 -0.025440751 4289865763
0.0070349462 0.020208891 -0.025130913 4289866020
0.0094247609 0.018149056 -0.023454672 4289865763
0.011655334 0.016818326 -0.022464715 4289276968
0.013896629 0.015488461 -0.02147687 4289015338
0.016148679 0.014159434 -0.020491084 4289080873
0.018778246 0.011376321 -0.018144166 4288950314
0.021615326 0.0078674853 -0.015120419 4288688683
0.02466795 0.0036334395 -0.011421396 4288427053
0.027752697 -0.00059830397 -0.007728762 4288296239
0.032228328 -0.0099148825 0.00071366131 4287838004
0.044978745 -0.041608267 0.029767698 4287510584
-0.0046843514 -0.0087894276 0.0018625017 4287316529
-0.0033106431 -0.0057317168 -0.0012801178 4287445813
-0.0022604316 -0.0012118071 -0.0057911621 4287576374
-0.0013960004 0.0040376782 -0.010981557 4287642164
-0.00088185444 0.010747641 -0.01753504 4287641654
-9.7576529e-05 0.01599209 -0.022709226 4288295728
0.00097288564 0.019772023 -0.026507299 4289473063
0.0028390102 0.019895926 -0.026881343 4289015339
0.0047051869 0.020019926 -0.027255328 4289342503
0.0070809126 0.017952479 -0.025581269 4289407783
0.0093002319 0.016616594 -0.024592502 4289211689
0.011880673 0.013821166 -0.022242643 4289407783
0.013948984 0.013217274 -0.021940103 4289277223
0.016564291 0.01042439 -0.019597057 4289081383
0.018834617 0.0090923086 -0.018618116 4289081638
0.021301551 0.0070316419 -0.016961871 4289016359
0.024161706 0.0035136342 -0.013950915 4288820009
0.027431143 -0.0014607012 -0.0095885145 4288754729
0.032095555 -0.01153475 -0.00048877671 4288427308
0.044638511 -0.042595662 0.027817281 4287903539
-0.0034390166 -0.0073270202 -0.0024649277 4287512879
-0.001935143 -0.0049958974 -0.0049118716 4287380534
-0.00090800598 -0.00046439469 -0.0094082812 4287249464
-0.00022543594 0.0055323392 -0.015265599 4287445559
0.00041437149 0.011526316 -0.021114275 4287641654
0.0013346784 0.016051084 -0.025588999 4288361264
0.0028800964 0.017641641 -0.027328851 4289015338
0.0045818463 0.018498689 -0.02838489 4288753964
0.0069569014 0.016424671 -0.026715683 4289277223
0.009175729 0.015084401 -0.025730137 4288688938
0.011755321 0.012280241 -0.023386724 4288754473
0.013823319 0.011674128 -0.023085795 4288950824
0.016257424 0.0096045062 -0.021428062 4289082148
0.018524561 0.0082679018 -0.020451846 4289082404
0.020988151 0.00620047 -0.018799845 4289082658
0.023467815 0.0041342229 -0.017150976 4289410079
0.026345683 0.00060664117 -0.01415177 4288494373
0.031187806 -0.01022996 -0.0043958165 4288494373
0.04330314 -0.039924726 0.022494668 4288298023
0.047810279 -0.048551127 0.030173061 4287709484
0.050745979 -0.051330119 0.032446243 4287316529
-0.0019123442 -0.0073205009 -0.0054084323 4287249463
-0.00072820485 -0.0035116747 -0.0092130089 4287249464
0.00011707097 0.0017670542 -0.014376358 4287380024
0.00092495978 0.007043384 -0.019532075 4287445303
0.0016954355 0.012317389 -0.024680242 4287969074
0.0032491088 0.01391279 -0.026418403 4288296239
0.0051257238 0.014037471 -0.026794486 4289015849
0.0073413402 0.012692526 -0.025811691 4289277734
0.0093955658 0.012083061 -0.02550979 4288754983
0.011630006 0.010739602 -0.024530593 4288689703
0.013520177 0.010865644 -0.024909038 4289147939
0.015950929 0.0087892711 -0.023255615 4289213729
0.01803204 0.0081821084 -0.022958785 4289671964
0.020118518 0.0075754076 -0.022662945 4289934104
0.022398576 0.0062355101 -0.021692412 4289149469
0.024880232 0.0041630566 -0.020048853 4288430114
0.028926518 -0.0037744716 -0.013011718 4288430879
0.034209162 -0.016106457 -0.0019420367 4288168994
-0.0020404197 -0.0089108497 -0.0065895375 4287316018
-0.00070231408 -0.0058292672 -0.0097049996 4287118393
0.00045856461 -0.0020110309 -0.013496563 4287314233
0.0012755729 0.0032810643 -0.018642532 4287575864
0.0022164434 0.0078332797 -0.023101559 4287706933
0.0036170967 0.010171138 -0.025517453 4288295983
0.0051683597 0.011770867 -0.027251778 4288885544
0.0072168596 0.011158764 -0.026950527 4289147429
0.0092707761 0.010547116 -0.026650213 4288689959
0.011330068 0.0099359602 -0.026350945 4288690213
0.013217419 0.010061823 -0.026728828 4288690723
0.015284803 0.0094514489 -0.026431 4288953884
0.017540246 0.0081053749 -0.025459068 4288823068
0.00033182651 -0.0035815164 -0.014662841 4287118394
0.0013083443 0.00098590553 -0.019119136 4287576118
0.0022528023 0.0055513531 -0.023568965 4287903538
0.0036565214 0.0078959316 -0.025980508 4288361773
0.0050442331 0.010239579 -0.028388811 4289277989
0.0070924126 0.0096253082 -0.028089136 4288886054
0.0091460086 0.0090114251 -0.027790442 4289017888
0.011204984 0.0083981156 -0.027492749 4288887073
0.012915049 0.0092626438 -0.028545164 4288560419
0.014799606 0.0093884245 -0.028922403 4288234528
4.9564987e-05 -0.0044093579 -0.016506096 4286727224
0.0010243207 0.00017094612 -0.020952124 4287445814
0.0021279305 0.004007332 -0.024715526 4287642163
0.0032048486 0.0078420117 -0.028473463 4288231213
0.0047538653 0.0094502047 -0.03020069 4289539873
0.0067990534 0.0088335425 -0.029902084 4289279009
0.0086780228 0.008958593 -0.030278472 4289083678
0.010382734 0.0098248348 -0.031328242 4288625954
0.0016816147 0.003951855 -0.027210943 4287773998
0.0027539246 0.0077970698 -0.030959673 4288493863
0.0044638924 0.0086654797 -0.03200911 4289148703
0.0063373223 0.0087900534 -0.032384474 4289149469
0.0012360476 0.003905423 -0.029699642 4287577649
0.0021404959 0.0085073337 -0.034111604 4288362793
0.0036765561 0.010123327 -0.035829626 4288626209
-0.015975829 -0.038549379 0.0012331121 4286593858
-0.016106006 -0.040182546 1.9874424e-05 4286856253
-0.014622081 -0.037014395 -0.0030661672 4287771958
-0.016236145 -0.0418154 -0.0011931378 4287183674
-0.014491495 -0.040161215 -0.0029344708 4287445048
-0.013022933 -0.036985293 -0.006010727 4286398273
-0.016493488 -0.04268422 -0.003073981 4286920513
-0.014621396 -0.041789435 -0.0041440101 4286660158
-0.013019685 -0.039368212 -0.0065467851 4286332484
-0.011427931 -0.039328068 -0.0094810659 4286529343
-0.0098550357 -0.036901958 -0.011872966 4286659649
-0.011422276 -0.041712344 -0.010018841 4286463554
-0.009846326 -0.039279588 -0.012406358 4287052093
-0.011551678 -0.043330982 -0.011221194 4286789444
-0.0099753626 -0.040891714 -0.013603841 4286463299
-0.0084149726 -0.038453326 -0.015983224 4286397763
-0.0084036924 -0.04083015 -0.016516734 4286463554
-0.0069987848 -0.037614696 -0.01954684 4286398528
-0.0085324608 -0.042437367 -0.017710522 4286398019
-0.0071270093 -0.039213203 -0.020734128 4287052603
-0.0055977516 -0.036763698 -0.023097139 4287052093
-0.0089403242 -0.042492554 -0.020215372 4286528324
-0.0073974431 -0.04003574 -0.02257631 4286921024
-0.0054357648 -0.039906412 -0.0229702 4287379514
-0.0033264309 -0.040552258 -0.022709969 4288557104
-0.0054191872 -0.042279862 -0.023502462 4287117883
-0.0030126832 -0.044482768 -0.021939477 4288165424
-0.0013404638 -0.042797819 -0.023639087 4288165678
-0.0056920424 -0.04309766 -0.025340419 4287052094
-0.0034361258 -0.044527605 -0.024432519 4288753198
-0.001469247 -0.044397667 -0.024827251 4288230449
-0.0062532872 -0.042346746 -0.028474446 4287116608
-0.003858842 -0.044563413 -0.026918931 4287575353
-0.029261056 -0.0086658448 0.045323029 4282741319
-0.027770285 -0.0050119981 0.04132323 4284507958
-0.029286135 -0.011043064 0.044798359 4282413643
-0.027902458 -0.0066719875 0.040090032 4283397688
-0.029203791 -0.014132909 0.044985622 4282347343
-0.027813848 -0.0097484365 0.040285952 4282348873
-0.026116695 -0.0074904859 0.037734568 4283395903
-0.029337075 -0.015809774 0.043739825 4282347343
-0.027836028 -0.012122773 0.039762743 4282283338
-0.026248667 -0.0091477707 0.036503382 4282414918
-0.024104793 -0.0097251162 0.036807276 4283068738
-0.029148284 -0.019625135 0.044629544 4282216784
-0.027638469 -0.015926726 0.040658958 4282283338
-0.02604248 -0.0129425 0.037404463 4282088010
-0.024352353 -0.010671951 0.034864448 4281957703
-0.022323932 -0.010539003 0.034456566 4282219843
-0.029067624 -0.022738151 0.044799551 4282281298
-0.027551699 -0.019028522 0.040835992 4282152524
-0.026062306 -0.015320525 0.036877856 4282153034
-0.02436908 -0.013043329 0.034342214 4281697349
-0.022573855 -0.011481427 0.032517776 4281762884
-0.020668607 -0.010634378 0.031403013 4283199043
-0.028666597 -0.028011508 0.047088839 4282477393
-0.027246226 -0.023573019 0.042422727 4282348364
-0.025857721 -0.019136526 0.037763104 4282087499
-0.024271104 -0.016135506 0.03452377 4281566534
-0.02282336 -0.012419209 0.030582426 4281696839
-0.021161471 -0.010137357 0.028058132 4282283338
-0.025766294 -0.022246189 0.03793297 4282022218
-0.024173755 -0.01923614 0.034699053 4281565768
-0.022837434 -0.014789857 0.030059995 4281239879
-0.021412853 -0.011064135 0.02613165 4282021963
-0.019646224 -0.0094953254 0.024319736 4282544713
-0.017513517 -0.010081805 0.024619391 4283330113
-0.025339488 -0.027528226 0.040209159 4282347344
-0.02396233 -0.023066364 0.035571739 4281564494
-0.022617083 -0.018606491 0.030940806 4281499468
-0.021423776 -0.013427794 0.025613753 4282086988
-0.019776966 -0.011133894 0.023102513 4282217803
-0.018020641 -0.0095612854 0.021296008 4282544714
-0.022749227 -0.020266525 0.029707564 4281368654
-0.021195281 -0.017241471 0.026494777 4281891659
-0.01990762 -0.012772143 0.021885512 4281957194
-0.018151093 -0.011195228 0.020082245 4282154054
-0.016149346 -0.011063784 0.019679898 4284376889
-0.022764307 -0.022651553 0.029174408 4281954389
-0.021326799 -0.018892489 0.025268255 4281825868
-0.019915868 -0.01513508 0.021367507 4281891913
-0.018406484 -0.012104079 0.018170448 4282415685
-0.016407553 -0.01197286 0.017768642 4284508468
-0.02133875 -0.021270551 0.024739636 4281105239
-0.020046573 -0.016774938 0.020149289 4281956938
-0.018411782 -0.01446221 0.017655356 4282153543
-0.016665358 -0.012877271 0.015860831 4284573749
-0.020299215 -0.017685153 0.01823576 4281891148
-0.01854204 -0.016095243 0.016442237 4282088519
-0.016668048 -0.015234947 0.015345441 4284639028
-0.018547747 -0.018459328 0.01592272 4281496663
-0.016671035 -0.017596699 0.014827004 4284638774
0.023226593 0.0084859356 -0.026596533 4284511528
0.026089005 0.0049357042 -0.023610653 4282155583
0.029762443 -0.0015536994 -0.017940363 4282024258
0.036067735 -0.017595977 -0.003545044 4282024258
0.042692222 -0.034365177 0.011498228 4282024258
0.047807034 -0.045248121 0.021150431 4282088773
0.051347878 -0.05024901 0.025424352 4282478413
0.020453388 0.0097664669 -0.030053612 4283200063
0.022147447 0.010630563 -0.031102419 4281764413
0.024029367 0.010756746 -0.031478684 4280788019
0.026890719 0.0071957484 -0.028500825 4280525879
0.032161631 -0.0052106977 -0.017484935 4280524603
0.039133474 -0.023507729 -0.0011292174 4280459323
0.045627352 -0.039584816 0.013192197 4280459323
0.049966417 -0.047549769 0.020134902 4279676473
-0.0028972849 -0.0091199577 -0.011664294 4284574258
-0.0012629814 -0.0075066984 -0.013409065 4284116534
0.015829582 0.010941058 -0.033126917 4283396414
0.017888322 0.010326006 -0.032830492 4281569338
0.019764755 0.010451585 -0.033205837 4281243959
0.021260472 0.012057275 -0.034921594 4281046589
0.022745473 0.013662383 -0.036635172 4280981053
0.025198312 0.011568658 -0.035000525 4281240643
0.029452667 0.0028210282 -0.027351156 4280524859
0.035580829 -0.012575731 -0.013701392 4280524859
0.042228851 -0.029442996 0.0012611486 4279221809
0.047967874 -0.042607263 0.012863955 4278895663
0.052130453 -0.049854964 0.019115495 4280980288
0.05507588 -0.052667633 0.021360559 4281760333
-0.0031745695 -0.0099558234 -0.013514927 4284182068
-0.0015427396 -0.0083384141 -0.015255909 4283070014
-0.00038769841 -0.0044880211 -0.019021543 4283199554
0.011073872 0.012879834 -0.036866698 4282094638
0.013113528 0.012261093 -0.036568291 4281895993
0.015158564 0.011642836 -0.036270857 4281438778
0.017208952 0.011025041 -0.035974424 4281047354
0.019077212 0.011150077 -0.036348138 4280590394
0.020565115 0.012759574 -0.038059022 4280655163
0.021849444 0.015110493 -0.040435821 4281436994
0.024095373 0.013751332 -0.039471414 4281436994
0.027739435 0.0072015151 -0.033839844 4281567809
0.032636955 -0.0037937015 -0.024218807 4281242429
0.038225427 -0.017007247 -0.012615794 4281177404
0.044322677 -0.031696379 0.00029890612 4281177659
0.050109118 -0.044896342 0.011862567 4281177659
0.05429912 -0.052163735 0.018092206 4281503039
0.057256993 -0.054984093 0.020328278 4281565004
-0.0031517483 -0.01228109 -0.014011996 4284051509
-0.0015170388 -0.010659143 -0.015750242 4282612544
-0.00035858154 -0.0067977533 -0.019508267 4282283594
0.0070592202 0.011862375 -0.037917513 4283723579
0.0083947144 0.014222369 -0.040300161 4282092344
0.010067418 0.015090924 -0.041340128 4281570104
0.01227266 0.013724025 -0.040371481 4281176894
0.014488634 0.01235798 -0.039404877 4281046078
0.016530689 0.011737421 -0.039108388 4281176384
0.018390771 0.011861905 -0.039480463 4280850238
0.019870851 0.013475265 -0.041186519 4279156528
0.021340229 0.015087973 -0.042890303 4280133179
0.023384942 0.0144681 -0.042594027 4280915264
0.026623169 0.0093857422 -0.038306195 4280850238
0.030500947 0.0020751357 -0.03203113 4280459833
0.034838982 -0.0067186728 -0.024437988 4280591158
0.040271506 -0.019224465 -0.013538464 4280982074
0.047047369 -0.036182612 0.001322642 4281241918
0.052677825 -0.048674807 0.012182849 4281240643
0.056686513 -0.055218831 0.017727287 4281044549
0.059225965 -0.05656153 0.018630473 4281825613
-0.0029795542 -0.015359648 -0.013838599 4283265853
-0.0010345727 -0.015231058 -0.014228864 4282022729
-0.00017475709 -0.0098603368 -0.019325687 4281761098
0.00017456338 -0.0022459403 -0.026430381 4282283849
0.0030563995 0.010850772 -0.038966753 4282810424
0.0049108043 0.010974064 -0.03933832 4281961274
0.0064230859 0.012593038 -0.041048102 4281765943
0.0079246871 0.014211472 -0.042755689 4280267054
0.0094156303 0.015829258 -0.044461016 4280396594
0.011970595 0.01296293 -0.042158842 4279223085
0.014183387 0.011592314 -0.041194931 4280199989
0.016222436 0.010969438 -0.040899523 4281111359
0.017705414 0.012587152 -0.0426029 4280849984
0.01917769 0.014204275 -0.044304051 4280719679
0.020831734 0.015074499 -0.045338135 4280393534
0.022870786 0.01445204 -0.045042336 4280393789
0.025904404 0.010100089 -0.041428562 4280523838
0.029371176 0.0042587593 -0.036494553 4280784704
0.032880716 -0.0015795305 -0.031569045 4280717894
0.037462439 -0.011142172 -0.023340968 4280848198
0.044407781 -0.02889806 -0.0078484192 4280848198
0.05105906 -0.045154974 0.0062963534 4281175109
0.055902861 -0.05469957 0.01447239 4281370183
0.058433764 -0.056047171 0.015373981 4281629773
-0.0031070411 -0.016943812 -0.015015127 4283201084
-0.0010100268 -0.017566442 -0.014734088 4282022984
8.4079802e-06 -0.012931377 -0.019149305 4281826633
0.00036467984 -0.0052948296 -0.026238922 4282023238
0.00066752359 0.0023382604 -0.033317689 4282416448
0.0012426823 0.0084669366 -0.039047375 4281828928
0.002437342 0.011591546 -0.042093925 4281437503
0.0041153356 0.012464471 -0.043131959 4281048118
0.0057880282 0.013337113 -0.044168808 4281569339
0.0072818249 0.014959317 -0.045871481 4281111613
0.0089412108 0.015831295 -0.046905488 4281372224
0.011489958 0.012955926 -0.044608735 4279547954
0.01406014 0.010082066 -0.042316131 4280134964
0.015914578 0.010206059 -0.04268717 4280916029
0.017582055 0.011079066 -0.043722428 4280980544
0.019244179 0.011951827 -0.044756532 4280980544
0.02090095 0.012824349 -0.045789473 4280914499
0.023137333 0.011451572 -0.044833135 4281110084
0.025977422 0.0078350827 -0.041892268 4281109829
0.029244943 0.0027244762 -0.037633345 4280652613
0.032346867 -0.0016356409 -0.034042958 4280979780
0.036920749 -0.011226967 -0.025834801 4280783683
0.043647904 -0.028288059 -0.011039998 4281240898
0.050287023 -0.044593453 0.003070781 4281240898
0.055120297 -0.054166883 0.011227449 4281435973
0.057859063 -0.056266367 0.012785917 4281825103
-0.0032344908 -0.018527672 -0.01619144 4282610249
-0.0011378042 -0.019152507 -0.015911996 4282088008
0.0001909025 -0.016010784 -0.018979227 4281761864
0.00071149692 -0.0091051906 -0.02538508 4281566024
0.001184009 -0.00220263 -0.031781185 4281892934
0.0016084313 0.0046968386 -0.03816757 4281436229
0.0023155175 0.01008819 -0.043210223 4281241664
0.0038254894 0.011715606 -0.044913061 4281177659
0.005154077 0.014094517 -0.047279544 4280525623
0.0064666346 0.016472518 -0.049642771 4281111613
0.0082914345 0.016594198 -0.050008133 4281307199
0.010831311 0.013709512 -0.047716185 4281046078
0.013574041 0.010074943 -0.044764668 4280460343
0.015607093 0.0094473436 -0.044471357 4280785723
0.017458711 0.0095712543 -0.044841751 4281045568
0.019499797 0.008944422 -0.044549882 4281175874
0.021546232 0.0083180591 -0.044258986 4281109829
0.02398764 0.0061910748 -0.042646848 4281240134
0.026840067 0.0025645643 -0.039716728 4281044549
0.029719226 -0.001060009 -0.036791846 4281109829
0.032827962 -0.0054327026 -0.033212684 4281239878
0.037407376 -0.015051782 -0.025027169 4281501254
0.04393008 -0.031412825 -0.01092954 4281501254
0.050148703 -0.046266906 0.0018288512 4281632069
0.05433885 -0.053620875 0.0079924855 4281696584
0.0572851 -0.056476504 0.010204574 4282411349
-0.0033619031 -0.020111233 -0.017367519 4281494624
-0.0015692078 -0.019227095 -0.018425813 4281694034
0.00021821633 -0.018343225 -0.019482901 4281566024
0.0013716444 -0.014438741 -0.023206783 4281761609
0.0021786876 -0.0090258271 -0.028258089 4281630283
0.0022982061 -0.00059577078 -0.035965476 4281630794
0.0025241338 0.0070757866 -0.042995583 4281763904
0.0035360232 0.010971382 -0.046690714 4281569339
0.0046917573 0.014111001 -0.049716115 4280199733
0.0058261231 0.017249316 -0.052737139 4280199733
0.0078186579 0.016616479 -0.052437656 4280394808
0.010352325 0.01372271 -0.050151076 4280068664
0.013269939 0.0093232468 -0.046544347 4280655164
0.015667856 0.0071864203 -0.044928871 4281176128
0.017708611 0.006557256 -0.044638693 4281306434
0.020322587 0.0036693439 -0.042367812 4281175109
0.022574041 0.0022887588 -0.04142113 4281110339
0.02503081 0.00015634298 -0.039817072 4281109574
0.027700938 -0.0027274489 -0.037557144 4281109574
0.030192457 -0.0048573241 -0.035959788 4281305669
0.033307984 -0.0092425048 -0.032391943 4281500744
0.037687622 -0.018137418 -0.024886306 4281566534
0.044003539 -0.033794194 -0.011482127 4281500998
0.049799703 -0.047188386 -6.9087371e-05 4281631048
0.05355848 -0.053061396 0.0047674272 4281826634
-6.3441694e-05 -0.019164599 -0.021321369 4281695309
0.0014020465 -0.016764171 -0.02370589 4281761354
0.0025322028 -0.012850255 -0.027416736 4281826633
0.0029862486 -0.0059098378 -0.033779319 4281761354
0.0033922009 0.001027517 -0.040132165 4281436484
0.0039177649 0.0072050616 -0.045812044 4281436738
0.0045709386 0.012623459 -0.050820604 4281241409
0.005705867 0.01577048 -0.053835131 4281306433
0.0076980777 0.015135422 -0.053537257 4281110848
0.010230895 0.012232952 -0.051257104 4281111104
0.013328377 0.0070646182 -0.046999522 4280718404
0.015912052 0.0041657835 -0.044729371 4281044804
0.018330697 0.0020239428 -0.043122921 4281372224
0.021332731 -0.0023825094 -0.039542727 4281305414
0.02340794 -0.0030112565 -0.039260879 4281435464
0.025877401 -0.0051493272 -0.037664309 4281762118
0.028165778 -0.0065315142 -0.036728133 4281500234
0.030664638 -0.0086674094 -0.03513721 4281500234
0.033584483 -0.012310773 -0.032236882 4281434188
0.037967153 -0.021231428 -0.024751719 4281499214
0.04407667 -0.036179647 -0.012037668 4281499214
0.04945109 -0.04810521 -0.0019635577 4281564493
0.052992407 -0.053242207 0.0022064839 4281629774
-0.00034471229 -0.01998131 -0.023156378 4281167458
0.0012753047 -0.018334098 -0.02487174 4281563474
0.0027251951 -0.015928142 -0.027248053 4281826633
0.0035103783 -0.0104862 -0.032271795 4281760589
0.0042581819 -0.0050466433 -0.037287906 4281696839
0.0046335272 0.0019082725 -0.043619666 4281371203
0.0053011626 0.0073427781 -0.048619561 4281566788
0.0061042756 0.012016371 -0.052951328 4280913734
0.0081041977 0.011379682 -0.052656636 4281372734
0.0108224 0.0077108666 -0.049725085 4281438014
0.013929196 0.0025280118 -0.045480922 4281240899
0.016522709 -0.00037885457 -0.043219365 4281240389
0.018951373 -0.0025265068 -0.041619875 4281239623
0.021773953 -0.0061878413 -0.038708825 4281435973
0.02385686 -0.0068182573 -0.038430184 4281565003
0.026139393 -0.0082052872 -0.037496224 4281630793
0.028038695 -0.0080776885 -0.037875775 4281369419
0.030536864 -0.010220096 -0.036289651 4281434699
0.03386027 -0.015387416 -0.032088112 4281434699
0.038245991 -0.024333887 -0.024623334 4281107533
0.044149447 -0.038569108 -0.012596261 4281172814
0.04910285 -0.04901737 -0.0038545635 4281368143
0.052640058 -0.054169744 0.00030468591 4281629008
0.00099193677 -0.019142009 -0.026699517 4281233504
0.0024395213 -0.016729668 -0.029070448 4281825868
0.0038711317 -0.014318302 -0.031438038 4281825360
0.0051220693 -0.011146598 -0.034462869 4281760843
0.0056822486 -0.0049320683 -0.040123288 4281631303
0.0060296506 0.0020406172 -0.046434477 4281698114
0.0070197508 0.005967468 -0.050100297 4280978758
0.0092107765 0.0045691282 -0.049151994 4280979778
0.011768617 0.0016510338 -0.046890114 4281373244
0.014709342 -0.0027858764 -0.043317761 4281371458
0.017131962 -0.0049405545 -0.041722111 4281434953
0.019756727 -0.0078538433 -0.039473291 4281696583
0.02202539 -0.009246394 -0.038540065 4281761608
0.024304738 -0.010638058 -0.037608914 4281434953
0.026594788 -0.012028925 -0.036679775 4281369419
0.028895508 -0.013418883 -0.035752691 4281304649
0.031805262 -0.017084703 -0.032866959 4281174599
0.035145991 -0.022266053 -0.028680392 4281108299
0.039752916 -0.03199587 -0.020586263 4281173579
0.044844307 -0.043237641 -0.01120193 4281041999
0.049175281 -0.051441163 -0.0044392664 4280908888
0.0024725497 -0.019054078 -0.029569358 4281233504
0.0039071999 -0.016635977 -0.031932648 4281562708
0.0054903738 -0.014982231 -0.033633694 4281695309
0.0063941814 -0.010276169 -0.037966043 4281696329
0.0070961006 -0.0048091188 -0.042949658 4281240644
0.0081056617 -0.00087013841 -0.0466111 4281305923
0.0099644996 -0.00074622035 -0.046983302 4281696839
0.012534868 -0.0036721826 -0.044730499 4281565768
0.015307192 -0.0073589087 -0.041826211 4281631304
0.0175566 -0.0087572858 -0.040892668 4281696073
0.019816723 -0.010154799 -0.039961159 4281565003
0.021710403 -0.010027923 -0.04033985 4281434189
0.024560325 -0.013709016 -0.037450656 4281564748
0.027436974 -0.017388128 -0.034566756 4281434189
0.030733537 -0.022587799 -0.030383147 4281303883
0.034067538 -0.027784884 -0.026206888 4281173068
0.037640885 -0.03374014 -0.021386631 4281368908
0.041666247 -0.04121387 -0.015272991 4281303119
0.0039429478 -0.018957734 -0.032430284 4281102433
0.0055289939 -0.017299458 -0.034128603 4281499724
0.0067703798 -0.01411099 -0.037138242 4281371204
0.0073117279 -0.0078629404 -0.042768367 4281696838
0.0086720698 -0.0054428279 -0.045111395 4281566023
0.010541458 -0.0053182021 -0.045485705 4281761609
0.012943953 -0.0074874461 -0.043896109 4281761354
0.015362523 -0.0096555576 -0.042309612 4281696074
0.017614108 -0.011058107 -0.041379791 4281630539
0.020062119 -0.013223991 -0.039798994 4281564748
0.022526179 -0.015388675 -0.0382213 4281565258
0.025770549 -0.020607248 -0.034039009 4281369164
0.029246105 -0.026586846 -0.029212687 4281237839
0.033157267 -0.034090221 -0.023093067 4281433424
0.03652462 -0.039300218 -0.018935032 4281368399
0.039929383 -0.044507504 -0.014784398 4281890129
0.0057314299 -0.020388469 -0.033970851 4281102688
0.0069787204 -0.017190956 -0.036975067 4281628498
0.0078656711 -0.012459956 -0.041284084 4281695053
0.0090649128 -0.0092653781 -0.04427848 4281696074
0.010592483 -0.007606186 -0.045961414 4281695564
0.012996968 -0.0097817928 -0.044377178 4281695564
0.01559772 -0.012722917 -0.042143568 4281760588
0.018402748 -0.016428977 -0.039262231 4281760843
0.021420071 -0.020899482 -0.035734743 4281825614
0.02446948 -0.025367655 -0.032213606 4281760334
0.028123649 -0.032131448 -0.026747808 4281760078
0.03124525 -0.036594518 -0.023240898 4281561434
0.0073530301 -0.02104912 -0.0361646 4281494624
0.0079102665 -0.014765397 -0.041771498 4281695053
0.009284731 -0.012331352 -0.044107445 4281695563
0.010992508 -0.011436626 -0.045136325 4281760843
0.013581682 -0.01438731 -0.042907108 4281564748
0.016552303 -0.018874168 -0.03938036 4281565004
0.020103093 -0.025664732 -0.03390903 4281498448
0.023516648 -0.03168343 -0.02909705 4281628754
0.026973002 -0.037699178 -0.024293475 4281693779
0.029899992 -0.041407496 -0.021444499 4281953623
0.008800257 -0.020933613 -0.039005026 4281559904
0.010019321 -0.017720401 -0.041990176 4281760334
0.012089476 -0.018365405 -0.041719466 4281629773
0.015227992 -0.023637131 -0.037551142 4281565004
0.018763635 -0.030448325 -0.032091752 4281629264
0.022347428 -0.037256151 -0.026641872 4281759568
0.02560899 -0.042519316 -0.022497837 4282411603
0.011610366 -0.0269996 -0.036642745 4281692249
0.014055561 -0.029192165 -0.035081588 4281824594
0.01740174 -0.035250336 -0.030282807 4281760078
0.02061107 -0.040532425 -0.026140086 4281694288
0.016191538 -0.040846467 -0.027835194 4282149718
-0.022896487 -0.024313159 0.027939977 4281031798
-0.02314527 -0.025244795 0.026009137 4280506243
-0.023277152 -0.026903614 0.024776759 4280112013
-0.021840107 -0.023112111 0.020895457 4279718804
-0.023641583 -0.027093992 0.02215779 4280505223
-0.022209164 -0.023291968 0.018285679 4280045969
-0.020559993 -0.020958997 0.015803656 4280376193
-0.023656871 -0.029484108 0.02162089 4280701063
-0.022221033 -0.02567099 0.017756311 4280242574
-0.020568814 -0.023331337 0.015278621 4280178059
-0.018684175 -0.022464 0.01418451 4280441473
-0.023788404 -0.031139836 0.020390773 4280963459
-0.02235185 -0.027315855 0.016534312 4279914899
-0.020699237 -0.024969682 0.01406149 4279390619
-0.018938545 -0.023362279 0.012280444 4280046479
-0.017188381 -0.021755517 0.010501619 4281619829
-0.023572531 -0.035017014 0.021226449 4281028993
-0.022245672 -0.030441247 0.016688554 4280046223
-0.020829607 -0.026607707 0.012844594 4279194268
-0.019068692 -0.024995983 0.011066789 4280177293
-0.01731832 -0.023384862 0.0092912316 4280505223
-0.015449334 -0.022514045 0.0082036983 4281619573
-0.022140149 -0.033575043 0.016836474 4280571015
-0.020838957 -0.028987855 0.012313729 4279128733
-0.019198794 -0.026629381 0.0098533519 4279915664
-0.017321911 -0.025756001 0.0087657906 4279522453
-0.015579198 -0.024140969 0.0069951527 4279849873
-0.013583738 -0.02400995 0.0065940581 4282340203
-0.021799024 -0.038206816 0.018347679 4282012529
-0.020727824 -0.032116644 0.012464056 4279980433
-0.019081924 -0.029751346 0.010007519 4279915665
-0.0173258 -0.028131202 0.0082373396 4279719058
-0.015580203 -0.026511654 0.0064694136 4279653523
-0.013845172 -0.02489268 0.0047037043 4280767364
-0.012120701 -0.023274258 0.0029401518 4282405993
-0.01896571 -0.032881707 0.010155376 4280701573
-0.017455939 -0.029764004 0.0070243627 4280177549
-0.015838776 -0.027393878 0.0045787171 4279916174
-0.014237527 -0.025024645 0.0021363124 4280308619
-0.012652185 -0.022656336 -0.00030280277 4280636038
-0.018850122 -0.03602051 0.010297028 4282011509
-0.017711807 -0.030647911 0.005131714 4280112268
-0.016096953 -0.028271452 0.0026914775 4280112524
-0.014629129 -0.025147624 -0.00042433292 4280112013
-0.013048749 -0.022773132 -0.0028574839 4280308619
-0.0113478 -0.021147549 -0.0046095802 4279980943
-0.016226444 -0.029894941 0.0014854446 4280832644
-0.01462711 -0.027512863 -0.00094667077 4280177294
-0.013043676 -0.025131695 -0.0033755004 4279587478
-0.011476174 -0.02275151 -0.005800995 4279194524
-0.0097856075 -0.02112212 -0.0075476719 4280177804
-0.016227771 -0.032270931 0.00095574185 4282272629
-0.014625397 -0.029882163 -0.0014720447 4280242829
-0.01290546 -0.028246798 -0.0032214522 4279194268
-0.011468358 -0.025107443 -0.0063176965 4279653268
-0.0097749233 -0.023473531 -0.0080616353 4279915664
-0.0082335435 -0.021088339 -0.010476767 4280571268
-0.014754605 -0.031500712 -0.0026743785 4280177039
-0.01316775 -0.029106364 -0.0050939992 4279259549
-0.011596821 -0.026712969 -0.0075102821 4279784338
-0.0099031776 -0.025074735 -0.0092509789 4279718803
-0.0082201101 -0.023437105 -0.010989404 4280047244
-0.006979581 -0.019538298 -0.014739494 4280767618
-0.0050324164 -0.019409828 -0.015130396 4282668390
-0.013163414 -0.031474948 -0.0056193992 4281551743
-0.011861011 -0.02756159 -0.0093739294 4279850129
-0.010031387 -0.026675627 -0.010440089 4279588244
-0.008348126 -0.025033683 -0.012175269 4279718803
-0.0068192594 -0.022636175 -0.014577924 4280242829
-0.0051598512 -0.020995528 -0.016308118 4280767619
-0.029810067 -0.043381155 0.0048683751 4282863974
-0.011989199 -0.029164329 -0.010564446 4280243084
-0.01029785 -0.027517594 -0.012298092 4279784338
-0.0083351359 -0.027388372 -0.012692325 4279980433
-0.0065159611 -0.026500747 -0.013754513 4279980178
-0.0048483387 -0.024855226 -0.015483122 4279980433
-0.0034892783 -0.021694466 -0.018543378 4279591049
-0.010149568 -0.030637354 -0.012150113 4281748604
