# .PCD v0.7 - Point Cloud Data file format
VERSION 0.7
FIELDS x y z rgba
SIZE 4 4 4 4
TYPE F F F U
COUNT 1 1 1 1
WIDTH 963
HEIGHT 1
VIEWPOINT 0 0 0 1 0 0 0
POINTS 963
DATA ascii
-0.0063690245 -0.0027434602 0.0020792708 4288363814
-0.0045399852 -0.001888983 0.0010781977 4288361773
-0.0025941469 -0.0017797947 0.00075570866 4288427563
-0.00077302754 -0.00092550367 -0.00024392083 4288296494
0.0010427944 -7.1428716e-05 -0.0012425371 4288296238
0.0029834732 3.7796795e-05 -0.001563916 4288360243
0.004924234 0.00014715642 -0.0018852092 4288361008
0.0070006177 -0.00048773736 -0.0015310515 4288230704
0.008805912 0.00036618859 -0.0025275722 4288230703
0.010605857 0.0012199134 -0.0035231258 4288034353
0.012400448 0.0020734519 -0.0045177056 4288099889
0.013896957 0.0044142976 -0.0068585607 4288034099
0.015824493 0.0045235679 -0.0071771494 4288164914
0.017448537 0.0061197951 -0.0088410741 4287837238
0.018907366 0.0084588304 -0.011175443 4287706933
0.0004250221 0.0013669059 -0.0051404908 4288560673
0.0024848133 0.00072870404 -0.004785452 4288429093
0.004550077 9.0904534e-05 -0.0044311751 4288297258
0.0067562051 -0.0012929365 -0.0034040324 4288034864
0.0088350512 -0.0019297153 -0.003051877 4288100144
0.010496888 -0.00032751262 -0.0047190282 4287903539
0.01214797 0.001274243 -0.0063843578 4287772723
0.013788316 0.0028754547 -0.0080477782 4287903283
0.015715707 0.0029847249 -0.0083663352 4287838004
0.017643109 0.0030940995 -0.0086848121 4287772978
0.018953357 0.0061853155 -0.011685663 4287707698
0.0063768514 -0.0013449043 -0.0059455391 4287970348
0.0084500127 -0.0019841492 -0.0055941306 4287904304
0.010247283 -0.0011262968 -0.0065858774 4287969074
0.012039192 -0.00026858598 -0.0075766873 4287903284
0.013825756 0.00058888644 -0.0085664801 4288034099
0.015904438 -4.9598515e-05 -0.0082156323 4287838003
0.017534211 0.0015555322 -0.0098737478 4287511348
0.018999061 0.0039077774 -0.012198985 4287380788
0.013425201 0.00054886192 -0.011094127 4286988853
0.015498206 -9.2081726e-05 -0.010744028 4287054134
0.017274033 0.00076713413 -0.011730189 4287119414
0.018890494 0.0023759678 -0.013382679 4287381808
-0.022037312 -0.034657471 -0.0017058766 4287183419
-0.023586683 -0.041010343 0.0013564453 4287117629
-0.021866776 -0.038569428 -0.00095249293 4287706933
-0.020162866 -0.036129318 -0.0032586372 4287641654
-0.018179581 -0.036019154 -0.003588221 4287510074
-0.016297311 -0.035132639 -0.0045752255 4287247423
-0.023515612 -0.044162802 0.001438871 4286986813
-0.02179002 -0.041715182 -0.00086597307 4287968309
-0.019984819 -0.04004699 -0.0025113332 4287837748
-0.017993599 -0.039936401 -0.0028422433 4288230449
-0.01600226 -0.039825685 -0.0031730826 4288622894
-0.014010787 -0.039714828 -0.0035038362 4288361264
-0.012338378 -0.0372696 -0.0057993298 4287903284
-0.010572933 -0.035603017 -0.0074376045 4287510074
-0.0089299083 -0.033159174 -0.0097280247 4287509818
-0.0067306124 -0.034604274 -0.0087477034 4286854723
-0.023895577 -0.043417819 -0.0017649904 4286790463
-0.021992199 -0.042526223 -0.0027524345 4287968564
-0.020094045 -0.041634746 -0.003738943 4287837748
-0.018102989 -0.041524179 -0.0040698419 4287968564
-0.016111799 -0.041413471 -0.0044006594 4288230193
-0.014120482 -0.041302636 -0.0047314055 4288426288
-0.012235295 -0.040411457 -0.0057153548 4287838004
-0.010355376 -0.039520435 -0.0066983174 4287838003
-0.0085923746 -0.037849657 -0.0083326986 4287772469
-0.0064970851 -0.03851869 -0.0080093993 4288360499
-0.0046303272 -0.037628032 -0.0089898994 4287771449
-0.024094716 -0.044226237 -0.0036500208 4286659138
-0.022008747 -0.044898935 -0.0033276454 4287771703
-0.02001258 -0.044788204 -0.0036594868 4287771958
-0.018212341 -0.043111652 -0.0052972101 4287902518
-0.016221292 -0.043000974 -0.0056280196 4288033333
-0.01423014 -0.042890169 -0.0059587471 4288164914
-0.012238868 -0.042779222 -0.0062893927 4287837748
-0.010356266 -0.04188592 -0.0072711296 4287903284
-0.0083674677 -0.041774869 -0.0076011717 4287968563
-0.0064927414 -0.04088176 -0.0085814074 4288884269
-0.0046233088 -0.039988808 -0.0095606558 4288099379
-0.0027591735 -0.03909605 -0.010538951 4288230449
-0.0010225885 -0.037421942 -0.01216523 4287771958
0.00095317885 -0.037310988 -0.012492612 4287575608
0.0033118948 -0.039543472 -0.010875732 4287117373
-0.024473153 -0.043459229 -0.0068368576 4287769918
-0.022395544 -0.044134505 -0.0065147616 4287377728
-0.020312428 -0.044809386 -0.0061935112 4287509054
-0.018419541 -0.043913879 -0.0071756728 4287902518
-0.016431339 -0.043803357 -0.0075060017 4287902773
-0.014443018 -0.043692715 -0.0078362599 4288164148
-0.012348644 -0.044366457 -0.0075164847 4287837495
-0.010574691 -0.042686664 -0.0091460571 4287902773
-0.0084774159 -0.043360002 -0.0088265724 4287903284
-0.0064886846 -0.04324884 -0.009156514 4288230193
-0.0044998564 -0.043137528 -0.0094863586 4288034099
-0.0026303381 -0.042242326 -0.010463845 4287903284
-0.00076613948 -0.041347302 -0.011440367 4287706933
0.0013423339 -0.04201939 -0.01112223 4287968819
0.0038386844 -0.045041017 -0.0088656917 4287510584
0.0060962886 -0.046494946 -0.0079045668 4286332994
-0.018626392 -0.044711508 -0.0090505816 4287900989
-0.016641051 -0.044601165 -0.0093804486 4287509819
-0.014552481 -0.045277499 -0.0090614967 4287770938
-0.012458406 -0.0459534 -0.0087433457 4287705913
-0.01057582 -0.045055851 -0.0097217411 4287641144
-0.0085873343 -0.044944823 -0.010051735 4287771959
-0.0065987594 -0.044833668 -0.010381646 4287706679
-0.0046100952 -0.044722393 -0.01071148 4287968563
-0.0027405843 -0.043825068 -0.011687294 4287903540
-0.00075445324 -0.043713666 -0.012016512 4288034609
0.0013563968 -0.044387743 -0.011700451 4287903283
0.0037273578 -0.046632372 -0.010095697 4287379513
-0.011010572 -0.044274382 -0.012885291 4287835454
-0.0088082552 -0.04574085 -0.011922423 4287443263
-0.006708812 -0.046418227 -0.011606567 4287443518
-0.0046038926 -0.047095165 -0.011291523 4287640123
-0.0028508082 -0.045407511 -0.012910519 4287771448
-0.00098662451 -0.044508211 -0.013883673 4287903540
0.001121223 -0.045184605 -0.0135688 4288100654
0.0033616871 -0.046648175 -0.012611672 4286987325
-0.0072731301 -0.044840433 -0.015405901 4286854723
-0.0050630122 -0.046310551 -0.014447469 4287574079
-0.0031989142 -0.04540924 -0.015419029 4287509054
-0.0013401285 -0.044508085 -0.016389646 4287575864
0.0005133599 -0.043607131 -0.017359238 4287642164
0.0029966608 -0.046655141 -0.015120734 4286594623
-0.038200729 0.0022092909 0.04233538 4281958978
-0.036410779 0.0044675469 0.039867867 4279223593
-0.034105979 0.0017165393 0.04237777 4281111868
-0.032172024 0.0025435388 0.041333027 4281440054
-0.040928505 0.006952025 0.035032384 4281567808
-0.039084308 0.0084977746 0.033282395 4281242938
-0.036958717 0.0071717873 0.034372088 4281307709
-0.034822144 0.0058465227 0.035459969 4282024003
-0.033066437 0.0081094056 0.033003364 4282221628
-0.043086536 0.0059735104 0.033424608 4281565513
-0.041509509 0.010404576 0.028842762 4280655418
-0.039473549 0.009793207 0.029223926 4280330293
-0.037359133 0.0084622577 0.03031205 4281046844
-0.035460323 0.0092914179 0.029276397 4281505844
-0.043776549 0.01088975 0.025830492 4281436993
-0.041886464 0.011720318 0.024797697 4281176128
-0.039721534 0.0096616149 0.026592128 4280394554
-0.037830979 0.010492351 0.025559444 4281113908
-0.036247134 0.014210708 0.021704998 4283531564
-0.045717187 0.0077649653 0.026356954 4281762118
-0.044141524 0.012221497 0.021795519 4281698623
-0.042195 0.01232899 0.021471549 4281503294
-0.040038697 0.010263368 0.023262277 4281438268
-0.038156189 0.011095751 0.022232573 4282026299
-0.04625579 0.011282939 0.020210039 4281308474
-0.044505239 0.013570752 0.017774075 4279744813
-0.042435572 0.012224179 0.018859219 4280136749
-0.0402155 0.0094251409 0.021349072 4281113399
-0.038263239 0.0095330775 0.021024253 4282026553
-0.049518727 3.0189753e-05 0.028803661 4282088263
-0.048187472 0.0081615373 0.02073729 4281633600
-0.04654634 0.011914711 0.016898237 4278964258
-0.044675186 0.012750428 0.015873544 4280852533
-0.042742334 0.012857072 0.015551778 4280592944
-0.040391937 0.0085915029 0.019439422 4280526644
-0.038153499 0.0057849213 0.021919489 4282287164
-0.050241895 0.0064946041 0.019855656 4282087753
-0.048645549 0.010990608 0.015320973 4280916539
-0.046835922 0.012559686 0.013596627 4281633343
-0.044972822 0.013397057 0.012574929 4281958724
-0.042914733 0.012041163 0.013655162 4281632578
-0.040568002 0.0077624172 0.017533273 4281177658
-0.038260855 0.0042163208 0.020706568 4282419254
-0.050626956 0.0086040422 0.015147327 4281240899
-0.048926309 0.011644952 0.012024892 4280591924
-0.04706338 0.012484327 0.011004816 4280459833
-0.045205623 0.013323508 0.0099856621 4280720699
-0.043153301 0.011962976 0.011063448 4280395574
-0.040812962 0.0076709986 0.014932408 4279746344
-0.038440116 0.0033808574 0.018796064 4283005499
-0.052348681 0.0025329515 0.018467769 4281630538
-0.050787851 0.0077915713 0.013251078 4281371969
-0.049031056 0.010105126 0.010834089 4281372478
-0.047290184 0.01241789 0.0084198071 4280915008
-0.045437776 0.013258882 0.0074032089 4281111104
-0.043391243 0.011893652 0.0084785921 4280784959
-0.041057274 0.0075884089 0.012338436 4281176128
-0.038690813 0.0032850578 0.01619295 4282808893
-0.052348964 -0.00050452352 0.018655743 4282023238
-0.050781831 0.0047694519 0.013449748 4281437759
-0.049019337 0.0070897117 0.01103684 4281240899
-0.047211841 0.0086713806 0.0093229329 4281240388
-0.04541491 0.010252535 0.0076108435 4281240388
-0.043429688 0.0096207708 0.0079865986 4280849219
-0.04123196 0.0067773834 0.010446223 4281045824
-0.038869187 0.002460897 0.014291172 4282613054
-0.052297078 -0.0042906627 0.019533131 4282804814
-0.050720975 0.00099873543 0.014337475 4281763649
-0.048833974 0.0018456504 0.013318284 4281372224
-0.047012843 0.0034323558 0.011605405 4281046079
-0.045138836 0.0042787418 0.010588522 4280719168
-0.043336116 0.0058646053 0.0088788448 4280849218
-0.041199833 0.0037524775 0.010637219 4281372223
-0.039047204 0.001641348 0.012392939 4282612543
-0.036952429 0.00027043372 0.013453639 4284574768
-0.052140951 -0.00957454 0.021789275 4282674255
-0.050550476 -0.0042693838 0.016603012 4281762883
-0.048707895 -0.0026773438 0.014889832 4281501508
-0.046875849 -0.0010858476 0.013178517 4281371459
-0.044991031 -0.0002367571 0.012161498 4281306179
-0.043177359 0.0013539717 0.010453354 4281241409
-0.04116822 0.00071920455 0.010821805 4281175364
-0.03908214 -0.00065660477 0.01188047 4281437758
-0.03713318 -0.00054904073 0.011556047 4281829949
-0.035260782 0.00029983371 0.010541457 4281893953
-0.033393562 0.0011485144 0.0095278034 4282285378
-0.031285152 -0.00022567809 0.010583057 4283396158
-0.029250599 -0.00085841864 0.010947694 4284704818
-0.052300483 -0.010411546 0.019873418 4281824083
-0.050546601 -0.0073251203 0.016775653 4281305159
-0.048640691 -0.0064729601 0.015756618 4281435973
-0.046800382 -0.0048767403 0.014047283 4281567299
-0.044970624 -0.0032809749 0.012339733 4281306179
-0.043085553 -0.002429679 0.011324397 4281240899
-0.041137129 -0.0023223609 0.010999893 4281437249
-0.039188519 -0.0022149459 0.010675422 4281306689
-0.037239678 -0.0021074116 0.010350998 4281241918
-0.035443865 -0.00051308423 0.0086495196 4281371459
-0.033579327 0.00033759326 0.0076379227 4281566789
-0.031637982 0.00044500828 0.00731498 4281762629
-0.029611789 -0.00019041449 0.0076793367 4281894209
-0.027580038 -0.00082538277 0.0080427984 4283135804
-0.025632784 -0.00071734935 0.0077191079 4284245564
-0.052407444 -0.011990823 0.018652 4281955664
-0.050598145 -0.0096425191 0.016251352 4281240133
-0.048631914 -0.0095346197 0.015923567 4281436228
-0.046846345 -0.0071874708 0.013527065 4281436738
-0.045013733 -0.0055873021 0.011822381 4281436738
-0.04312595 -0.0047337487 0.010808249 4281306689
-0.041174956 -0.0046263337 0.010483283 4281306434
-0.039223768 -0.0045187995 0.01015837 4281371713
-0.037272356 -0.0044111609 0.0098334877 4281240898
-0.035397224 -0.0035578981 0.0088217771 4281109828
-0.03352727 -0.0027048588 0.0078109903 4281305924
-0.031662509 -0.0018519908 0.0068011507 4281436484
-0.029802971 -0.00099926442 0.0057922192 4281371458
-0.027861409 -0.00089167804 0.0054693632 4281633343
-0.026009597 -3.9227307e-05 0.0044619162 4281829694
-0.052305944 -0.016565762 0.020187888 4282086989
-0.050540358 -0.013461627 0.017101612 4281567554
-0.048566177 -0.01335334 0.016772464 4281763394
-0.04683239 -0.010250755 0.013691648 4281762884
-0.044994205 -0.0086460784 0.011989419 4281567044
-0.043166563 -0.0070418343 0.010288992 4281502019
-0.041213006 -0.0069342926 0.0099635823 4281371203
-0.039330162 -0.0060787052 0.0089520896 4281305924
-0.037305288 -0.0067189112 0.0093128672 4281240644
-0.035427414 -0.0058633983 0.0083023673 4281175109
-0.033475749 -0.005755581 0.0079775741 4281110084
-0.031687297 -0.0041529611 0.0062841699 4281306179
-0.029825017 -0.0032980144 0.0052764975 4281306688
-0.028055049 -0.0016961619 0.0035862848 4281307453
-0.02620592 -0.00084174424 0.0025809482 4281700408
-0.048157297 -0.021689743 0.02173182 4281631303
-0.046518862 -0.017075889 0.017281111 4281762629
-0.044787094 -0.013964795 0.014207424 4281567300
-0.04307662 -0.010854766 0.011137362 4281632834
-0.041183189 -0.0099965855 0.010125692 4281435973
-0.039224178 -0.0098886862 0.0097994162 4281175363
-0.037264951 -0.0097806826 0.0094731888 4281240644
-0.035381697 -0.0089227706 0.0084634377 4281109828
-0.033503629 -0.0080649927 0.0074545974 4281109828
-0.031712294 -0.0064579472 0.0057640709 4281240644
-0.02993156 -0.0048513934 0.0040753856 4281306179
-0.028074495 -0.0039944649 0.0030702837 4281308474
-0.026222646 -0.0031377748 0.0020661652 4281571124
-0.042726494 -0.017690532 0.014710772 4282478414
-0.041085988 -0.013819538 0.010964568 4281957703
-0.039260268 -0.012206748 0.0092713526 4281434954
-0.037371807 -0.011346541 0.0082623204 4281174089
-0.035488524 -0.010486498 0.007254242 4281109828
-0.033453025 -0.011130251 0.0076099997 4281175109
-0.031656146 -0.009518601 0.0059218658 4281109318
-0.029785775 -0.0086589754 0.0049161678 4281240134
-0.028007403 -0.0070481896 0.0032313149 4281240388
-0.026150145 -0.006189093 0.002227962 4281894974
-0.02420596 -0.0060812086 0.0019047894 4284051253
-0.039226122 -0.015283205 0.0094213178 4282214998
-0.037478589 -0.012912087 0.0070516793 4280909909
-0.035519429 -0.012804039 0.0067254947 4281107279
-0.033560082 -0.012695879 0.0063993586 4280977738
-0.031681791 -0.011833817 0.0053939251 4280846413
-0.029724769 -0.011725575 0.0050683366 4281108043
-0.027854219 -0.010863669 0.0040643262 4281173579
-0.026078194 -0.0092486367 0.0023833057 4281959489
-0.02412875 -0.0091405064 0.0020592278 4284182324
0.0059981272 -0.0013879091 -0.0084801931 4283857963
0.0082034245 -0.0027803257 -0.007459553 4283006008
0.0098574907 -0.0011699349 -0.009118706 4283593274
-0.027874835 -0.013180517 0.0035340441 4280712539
-0.026095964 -0.011561021 0.0018558623 4281696073
-0.024143957 -0.011452764 0.0015313448 4284181304
0.0038282461 -0.0022836551 -0.010020288 4284640303
0.0056200475 -0.00142207 -0.01100794 4283333939
0.0075441673 -0.0013134554 -0.01132632 4282025789
0.0094683357 -0.0012047514 -0.011644645 4282090814
0.011392545 -0.0010958984 -0.011962852 4282612798
0.013462529 -0.0017392784 -0.011614041 4283853373
0.0034561753 -0.0023107529 -0.012543725 4284118319
0.0052425861 -0.0014472902 -0.013528852 4282680119
0.0071611777 -0.001338996 -0.013846325 4281633598
0.0090798065 -0.0012305975 -0.014163723 4281634364
0.010855578 -0.00036742538 -0.015146764 4282026044
0.012917183 -0.001013428 -0.014798256 4282157369
0.014687616 -0.00015033782 -0.015780238 4282222393
0.016754657 -0.00079578161 -0.015432434 4282874428
0.018519741 6.7234039e-05 -0.016413348 4281894464
0.020123053 0.001683943 -0.018056791 4283071288
0.021715578 0.0033002049 -0.019698398 4284117554
0.0036126375 -0.0053585395 -0.012396855 4283922988
0.0052697808 -0.0037354305 -0.014046555 4282549049
0.0073282756 -0.004384093 -0.013699492 4281828419
0.0089720339 -0.0027614757 -0.015346846 4281567808
0.010890558 -0.0026529655 -0.015664136 4281503038
0.01280912 -0.0025443211 -0.01598133 4281438269
0.014431417 -0.0009226203 -0.017624823 4281372223
0.016495466 -0.0015703663 -0.017278204 4281372478
0.018411383 -0.0014615506 -0.017594704 4281240898
0.020171082 -0.00059657544 -0.018572947 4281764669
0.02192539 0.0002682209 -0.019550208 4282352954
0.023674294 0.0011328533 -0.020526534 4283137333
0.025746431 0.00048610568 -0.020180751 4283855414
-0.011241492 -0.012324534 -0.0070243822 4284704563
0.003504876 -0.0068955347 -0.013584798 4283924774
0.0055657253 -0.007546328 -0.013239905 4282352953
0.0073575824 -0.0066782087 -0.01422243 4281828673
0.009144105 -0.0058102831 -0.015203984 4281632323
0.010925271 -0.0049425364 -0.016184555 4281436739
0.012701072 -0.0040749311 -0.017164188 4281306434
0.01447152 -0.0032075569 -0.018142803 4281371714
0.016537957 -0.0038573369 -0.01779828 4281241664
0.018303048 -0.0029900298 -0.018775823 4281305924
0.020062754 -0.0021229088 -0.019752378 4281305923
0.021975836 -0.0020140037 -0.020068215 4281568573
0.02388891 -0.0019049719 -0.020383945 4282091834
0.025801972 -0.0017958358 -0.020699592 4282091834
0.027715012 -0.001686573 -0.021015143 4282614583
0.029967114 -0.0030919984 -0.020014664 4283398453
0.032229971 -0.0044967532 -0.019015824 4284248368
0.0057264343 -0.010608323 -0.013105041 4281958724
0.0075236782 -0.0097377226 -0.014086816 4281893698
0.0094553381 -0.0096285939 -0.014406376 4281501509
0.011102144 -0.0079971626 -0.016047355 4281436228
0.012738205 -0.0063662231 -0.017686462 4281436228
0.014659189 -0.0062573403 -0.018003972 4281371459
0.016580187 -0.0061483309 -0.018321393 4281240644
0.018654425 -0.006799683 -0.017979747 4281240644
0.020266285 -0.0051696002 -0.019614531 4281240899
0.022025995 -0.0043002218 -0.020589309 4281306433
0.023941617 -0.004191041 -0.020905463 4281436993
0.025693221 -0.0033218935 -0.021878721 4281306433
0.027439419 -0.0024529323 -0.022850998 4281436738
0.029688371 -0.0038628131 -0.021853356 4281501509
0.032808512 -0.0090690777 -0.017578028 4281763394
0.03684023 -0.018069275 -0.010031709 4281894719
0.0034209676 -0.010732464 -0.01529912 4284049724
0.0054839067 -0.011387445 -0.014957962 4281564748
0.0072784647 -0.010514893 -0.015937556 4281435208
0.0093468837 -0.011169322 -0.015597121 4281435464
0.010851551 -0.0087703839 -0.017893858 4281435719
0.012920041 -0.0094245598 -0.017553233 4281305668
0.014993943 -0.010078304 -0.0172134 4281305414
0.016922876 -0.0099688545 -0.017532133 4281305668
0.01885182 -0.0098592788 -0.017850775 4281240644
0.02031347 -0.0074621588 -0.020139914 4281240644
0.022075864 -0.0065904334 -0.021113491 4281240899
0.023832873 -0.0057189614 -0.022086056 4281240644
0.025748333 -0.0056096911 -0.022402098 4281175619
0.02749723 -0.0047384128 -0.023373118 4281436228
0.029579185 -0.0053907409 -0.023033863 4281370949
0.033213899 -0.012896702 -0.016807523 4281305414
0.0092384666 -0.012709759 -0.016787633 4280580703
0.01088557 -0.01106976 -0.018421929 4280909398
0.012956452 -0.01172594 -0.018083382 4280911184
0.014885213 -0.011616625 -0.018402182 4281042508
0.016813997 -0.011507176 -0.018720891 4281239369
0.018742789 -0.0113976 -0.019039497 4281305414
0.020360354 -0.0097586885 -0.020668447 4281240644
0.022125458 -0.008884728 -0.021640748 4281045058
0.023885159 -0.0080108866 -0.022612095 4281175619
0.025639463 -0.0071372837 -0.023582408 4281240644
0.02755475 -0.0070279017 -0.023898337 4281174854
0.029808195 -0.0084461197 -0.022908125 4281304393
0.03379016 -0.017500639 -0.015394157 4281173833
0.015071277 -0.014689155 -0.018280946 4280451419
0.017005291 -0.014579408 -0.018600509 4280649553
0.018939322 -0.014469542 -0.018919989 4281108553
0.020717878 -0.01359275 -0.019892961 4281174853
0.022332909 -0.011949562 -0.021518011 4281241409
0.023937156 -0.010306872 -0.023141187 4281240899
0.025694149 -0.0094309375 -0.024110306 4281240644
0.027611982 -0.0093213916 -0.024426639 4281174853
0.03020552 -0.012275755 -0.022137512 4281174598
0.034365207 -0.022121489 -0.013993846 4281239623
0.025595846 -0.02029296 -0.01716332 4282087754
0.026892297 -0.017107852 -0.020087317 4281304138
0.028333265 -0.01469212 -0.022357542 4281370184
0.030601952 -0.016118035 -0.021376591 4281305924
0.034939039 -0.026759207 -0.01260657 4281240644
0.030214559 -0.025477275 -0.015765587 4282153034
0.032177847 -0.025364995 -0.0160893 4281892679
-0.037658356 -0.013720959 0.0051622288 4279129753
-0.035702012 -0.013613097 0.0048364932 4279326614
-0.03366708 -0.014261238 0.0051889205 4279328143
-0.031707682 -0.014152996 0.0048628366 4279657093
-0.039089195 -0.022219859 0.010379809 4282012529
-0.037619136 -0.016800903 0.0053083887 4278997409
-0.035733111 -0.015934356 0.0043048551 4278669988
-0.033930555 -0.014309734 0.0026257439 4278997919
-0.03197667 -0.014201812 0.0023005633 4279129499
-0.030106254 -0.013335839 0.0012998646 4279654798
-0.027982034 -0.014743499 0.0023255134 4279722629
-0.039056778 -0.025323413 0.010508803 4282012018
-0.037507698 -0.020649888 0.0061238557 4278997153
-0.035764456 -0.018259652 0.0037700962 4278997408
-0.033880919 -0.017391048 0.0027687112 4278604453
-0.0320834 -0.015762322 0.001093884 4278866594
-0.03012947 -0.015654318 0.00076876115 4278735523
-0.028089188 -0.016306214 0.0011171876 4278669988
-0.026221119 -0.015437983 0.00011867378 4279063708
-0.024175122 -0.016089343 0.0004663216 4279391893
-0.022406407 -0.014461659 -0.0012032846 4280309384
-0.020454384 -0.014353231 -0.001527668 4281947758
-0.039024897 -0.028435253 0.010631367 4282339949
-0.037469685 -0.023748562 0.0062555056 4278866084
-0.035720743 -0.021351628 0.0039058272 4278669733
-0.033909798 -0.019718058 0.0022320729 4278866593
-0.032028764 -0.018847369 0.0012328569 4278801058
-0.030236296 -0.017214544 -0.00043768017 4278801058
-0.028110243 -0.018630721 0.00058088638 4278669988
-0.026239477 -0.017760269 -0.00041636964 4278867103
-0.024282515 -0.017651804 -0.00074176257 4278998174
-0.022607751 -0.015258208 -0.0030784919 4278998429
-0.020561747 -0.015911452 -0.0027324106 4278801824
-0.018709242 -0.015041575 -0.0037262822 4280307854
-0.016759776 -0.014933065 -0.0040500658 4281225343
-0.03899353 -0.031555451 0.010747549 4281946994
-0.037504651 -0.026090562 0.0057083517 4278735014
-0.035677582 -0.024451956 0.0040351767 4278800803
-0.033783272 -0.023578517 0.0030353349 4278735523
-0.031974673 -0.021940663 0.0013653766 4278735523
-0.030010253 -0.021832138 0.0010384656 4278669988
-0.028045662 -0.021723479 0.00071161985 4278669988
-0.026258081 -0.020086505 -0.00095454371 4278801058
-0.024389856 -0.019213974 -0.0019496246 4278801058
-0.022526845 -0.018341556 -0.0029437742 4279062943
-0.020572416 -0.018233024 -0.0032685823 4278735268
-0.018717192 -0.017360866 -0.0042612269 4278669479
-0.016969286 -0.015725523 -0.005920344 4279128479
-0.015232019 -0.014090627 -0.0075776586 4278735778
-0.013183102 -0.014745466 -0.0072333673 4279063709
-0.011128694 -0.015399836 -0.0068899365 4279522709
-0.0090687722 -0.016053766 -0.006547322 4280374408
-0.0073499121 -0.014419474 -0.0082011679 4281815923
-0.0388235 -0.036218531 0.012199615 4281947249
-0.037395269 -0.029970907 0.0064995484 4279718804
-0.035634957 -0.02756054 0.0041580591 4278669734
-0.033812925 -0.025917828 0.0024891812 4278735523
-0.03200148 -0.024275579 0.00082208775 4278604964
-0.030034505 -0.024166934 0.00049473532 4278669988
-0.027981624 -0.024824612 0.00083596073 4278669988
-0.026188515 -0.023183025 -0.00082780607 4278866593
-0.024406016 -0.021541946 -0.0024896767 4278932128
-0.022446483 -0.021433257 -0.0028154422 4278866338
-0.020583324 -0.020558648 -0.0038078181 4278800803
-0.018725425 -0.019684173 -0.0047992747 4278669988
-0.016872771 -0.018809922 -0.0057897246 4278801058
-0.015129954 -0.017170489 -0.0074445545 4278604453
-0.012968667 -0.01859235 -0.0064379475 4278735523
-0.011126429 -0.01771833 -0.0074263974 4278735523
-0.0090641119 -0.018374294 -0.0070858835 4279260569
-0.0074577741 -0.015970804 -0.0094003836 4279391893
-0.0057494454 -0.01433266 -0.011049067 4279457429
-0.0038102902 -0.014223956 -0.011370533 4280439688
-0.037070267 -0.036171697 0.0092881555 4281750133
-0.035368346 -0.03298489 0.006280371 4279718293
-0.03361024 -0.03056819 0.0039444165 4278997664
-0.031787887 -0.028921068 0.002278869 4278801568
-0.029893182 -0.028043151 0.0012824778 4278736033
-0.027918123 -0.027933948 0.00095385872 4278669478
-0.026119471 -0.026287861 -0.00070744613 4278473639
-0.02433145 -0.024642169 -0.0023669209 4279062943
-0.022460341 -0.023765109 -0.0033590328 4278866593
-0.020498127 -0.023656167 -0.0036851559 4278932128
-0.018535785 -0.02354712 -0.0040112268 4278473384
-0.016776793 -0.021902636 -0.0056654681 4278604453
-0.01481957 -0.021793634 -0.0059904996 4278866593
-0.01286222 -0.021684512 -0.0063154567 4278866338
-0.011014596 -0.020808019 -0.007303169 4278866593
-0.0091722496 -0.019931749 -0.0082898643 4278801313
-0.0074503869 -0.018288746 -0.0099374857 4278932128
-0.0057392083 -0.016646184 -0.011583278 4278669988
-0.00367691 -0.017303981 -0.011244135 4278931873
-0.0018557385 -0.016428374 -0.012226986 4279390874
8.6110085e-05 -0.016319267 -0.012548709 4279325593
0.0016419962 -0.013911612 -0.014849334 4279719059
0.0033131503 -0.012270704 -0.016488034 4279785104
0.0053757802 -0.012927853 -0.016148515 4279786888
-0.031335175 -0.035896458 0.0057207691 4282340204
-0.029504418 -0.034244508 0.004057263 4281357688
-0.027684256 -0.032593049 0.0023956681 4280307599
-0.026050985 -0.029400937 -0.00059353421 4279914133
-0.024166584 -0.028521135 -0.0015862868 4279587223
-0.022474483 -0.026100971 -0.0039057308 4279128989
-0.02050972 -0.025991909 -0.0042322897 4278670243
-0.018643722 -0.025112778 -0.005221704 4278473384
-0.016681373 -0.025003612 -0.0055476818 4278604453
-0.014927506 -0.023355044 -0.0071976352 4278735523
-0.013077304 -0.022476383 -0.0081841815 4278735523
-0.011232365 -0.021597974 -0.0091697332 4278932128
-0.0092803203 -0.021488905 -0.0094936211 4278735523
-0.0073282011 -0.021379732 -0.0098174419 4278997663
-0.0056114867 -0.019732632 -0.011460761 4278866593
-0.0037849993 -0.01885476 -0.012442866 4278801059
-0.0019638315 -0.017977007 -0.013424026 4279062944
-0.00014797226 -0.017099492 -0.014404198 4279062944
0.0016625747 -0.016222149 -0.015383368 4278800803
0.0033365712 -0.0145768 -0.017019168 4279062943
0.0054016039 -0.015235998 -0.016681701 4279195034
0.0070622489 -0.013591148 -0.018315084 4279522964
0.0091300607 -0.014249898 -0.017977919 4279327123
0.010919314 -0.013373144 -0.018953092 4279458449
-0.025631063 -0.035613135 0.0021661678 4281813884
-0.024002574 -0.032412685 -0.00081538316 4281091978
-0.022302084 -0.029985644 -0.0031311759 4280307088
-0.020425469 -0.029103927 -0.0041207732 4279587223
-0.018455334 -0.028994463 -0.004448148 4278735014
-0.016687982 -0.027340949 -0.0060971142 4278669733
-0.01482711 -0.026459746 -0.0070838202 4278866593
-0.013185211 -0.024035372 -0.0093894098 4278735523
-0.011340272 -0.023154803 -0.010373274 4278866593
-0.009388376 -0.023045756 -0.010697147 4278866338
-0.0073214918 -0.0237078 -0.010362385 4278669988
-0.0053667203 -0.023598351 -0.010686545 4278735523
-0.0036524683 -0.021947019 -0.012326004 4279128988
-0.0019488931 -0.020296134 -0.013963575 4279063198
-4.6566129e-06 -0.020186938 -0.014285719 4278932128
0.0018112697 -0.019307099 -0.01526414 4278997408
0.0036218725 -0.018427499 -0.016241556 4278931873
0.0055609159 -0.018318214 -0.016562542 4279259548
0.007227093 -0.016668841 -0.018193457 4278800803
0.0090216845 -0.015789732 -0.019167971 4278538663
0.010810934 -0.014910832 -0.020141453 4278538918
0.012883898 -0.015571207 -0.01980665 4278998429
0.014962286 -0.016231164 -0.019472577 4279195289
0.01734592 -0.018429093 -0.01783379 4279195289
0.020050963 -0.022164173 -0.014892878 4280113289
-0.016593531 -0.030456401 -0.0059904447 4282075003
-0.014727287 -0.029572718 -0.0069764056 4281092999
-0.013079688 -0.027141675 -0.0092778672 4279586458
-0.011338748 -0.025484987 -0.01091879 4279586713
-0.0093843341 -0.025375821 -0.011243099 4278931874
-0.0072002709 -0.026813276 -0.010253469 4279062944
-0.0052402765 -0.026703551 -0.010578519 4278670753
-0.0036406443 -0.024274535 -0.012871576 4278670753
-0.0018113926 -0.023392111 -0.01385068 4278932383
-0.00011299178 -0.021737143 -0.015483951 4278801313
0.0017029271 -0.020855181 -0.016460696 4278735523
0.0035135299 -0.019973449 -0.017436435 4278932128
0.0055860355 -0.020636462 -0.017103607 4278538918
0.0073913559 -0.019754775 -0.018078277 4278604453
0.0089133307 -0.017329268 -0.020357795 4278407849
0.01070258 -0.016448244 -0.021329604 4278604453
0.012630854 -0.016339093 -0.021648433 4279128733
0.015000399 -0.018544421 -0.020012433 4278998173
0.018134989 -0.024605572 -0.015123365 4278932894
0.021617606 -0.032206617 -0.008939988 4280046479
0.024998933 -0.039033398 -0.0034156363 4281160829
-0.010900579 -0.030922391 -0.0088427765 4281158534
-0.0092686117 -0.028485581 -0.011136411 4280175763
-0.0070796348 -0.029926993 -0.010151009 4279521178
-0.005231712 -0.029041633 -0.011131724 4278997663
-0.0032690838 -0.028931662 -0.011457121 4278736033
-0.0015517697 -0.027271472 -0.013090247 4278801059
0.00015484914 -0.025611728 -0.014721556 4278801568
0.0017227009 -0.023177758 -0.01700397 4278736289
0.0035359859 -0.022293694 -0.01797851 4278801313
0.0053439476 -0.021409847 -0.018952025 4278538918
0.0075550452 -0.022849075 -0.017969472 4278407849
0.0090827085 -0.020416826 -0.02024488 4278801058
0.010877334 -0.019533373 -0.021215908 4278866593
0.012666602 -0.01865004 -0.022185983 4278997664
0.015332092 -0.022409037 -0.019255521 4278867103
0.018772621 -0.030033968 -0.013082137 4278801569
0.022876281 -0.040749222 -0.0043214448 4278998173
-0.0031384006 -0.03205093 -0.01136114 4282337654
-0.0015380941 -0.029608972 -0.013644082 4281093254
0.00029660761 -0.028721869 -0.014620638 4280307343
0.0018701255 -0.026281141 -0.016898992 4279390108
0.0036887936 -0.025394686 -0.017872704 4279128223
0.0055021383 -0.024508409 -0.018845433 4278604453
0.0075821504 -0.025175154 -0.018517127 4278539173
0.0092515014 -0.023512609 -0.020138407 4278801059
0.011051506 -0.022626691 -0.021108629 4278539173
0.012990244 -0.022516944 -0.021429179 4278539173
0.01566289 -0.026286185 -0.018508365 4278604964
0.019408762 -0.035483517 -0.011057238 4278670498
0.023371438 -0.04545255 -0.002969332 4278932893
0.00056285784 -0.032619447 -0.013876024 4282990709
0.0025280826 -0.032508969 -0.014201562 4281943423
0.0046238378 -0.033177234 -0.013877752 4280372879
0.0061923936 -0.030730151 -0.01614999 4279455898
0.0081523992 -0.030619577 -0.016474374 4279063199
0.0098353475 -0.028951995 -0.018094532 4278604708
0.011648815 -0.0280632 -0.019065307 4278538918
0.013456926 -0.027174577 -0.020035094 4278604964
0.015992802 -0.030175984 -0.01777092 4278670754
0.019446136 -0.037842952 -0.011633313 4278670753
0.023257358 -0.047062069 -0.0042130649 4279260314
0.01055612 -0.035193138 -0.015420708 4281551998
0.012103546 -0.032740422 -0.017684147 4280177039
0.013778642 -0.031068794 -0.019299399 4279194524
0.016175352 -0.033298187 -0.017688129 4278801568
0.019483231 -0.040206343 -0.012212455 4278998173
0.022991432 -0.047891431 -0.0061006434 4279719058
0.01496125 -0.039670087 -0.014711101 4282079084
0.017088927 -0.040340029 -0.014395323 4280636804
0.019818068 -0.044137992 -0.011508998 4279849618
-0.0045851097 -0.045327514 -0.02538465 4282994023
-0.0045754872 -0.047687747 -0.025955517 4282994534
-0.0048022568 -0.048445858 -0.027795125 4282928743
0.037646513 0.011106692 0.016648963 4285295653
0.038912572 0.014084574 0.013568119 4285493023
0.041601487 0.011333037 0.01599697 4285754909
0.034005329 0.015880488 0.009562186 4285557538
0.034733403 0.021021664 0.0044277404 4285689628
0.036312219 0.022569001 0.0027348027 4285689374
0.038782228 0.020524837 0.004476646 4285623838
0.042366978 0.014173504 0.01033277 4285820954
0.046557613 0.0056714192 0.018238042 4285886488
0.03217233 0.021527193 0.0014932361 4285689628
0.033049241 0.02596128 -0.0029392685 4285755419
0.034781516 0.026791051 -0.0039394847 4285557794
0.037049107 0.025459535 -0.002883961 4285492258
0.040425114 0.019807622 0.0022766814 4285623839
0.043472935 0.015598305 0.0060623009 4285624604
0.046929713 0.0099512264 0.011209789 4285624859
0.049665414 0.0071856007 0.013617725 4285427999
0.052422591 0.0044213086 0.016022198 4285427998
0.053236902 0.0088525414 0.011600665 4285493534
0.054416999 0.011843503 0.0085481694 4285558304
0.057190046 0.0090804175 0.010950266 4285689374
0.029967187 0.020600744 -6.3635409e-05 4285492769
0.031202443 0.023602478 -0.0031192261 4285558813
0.032241382 0.027325876 -0.0068553118 4285887253
0.033962891 0.028157234 -0.007852097 4285886999
0.036219269 0.026820794 -0.0067980951 4285821208
0.039217543 0.022595707 -0.0030145715 4285821719
0.042248119 0.018372566 0.000763705 4285690393
0.044934604 0.015595447 0.0031729154 4285558814
0.047260821 0.014263414 0.0042157285 4285493533
0.048823386 0.015819073 0.0025326777 4285559579
0.049982518 0.018817328 -0.00050967559 4285559068
0.051318966 0.021092974 -0.0028682072 4285755418
0.053849138 0.019040264 -0.0011458043 4285689628
0.057621591 0.012661874 0.0046496028 4285755164
0.028842684 0.023415294 -0.0053515597 4285493533
0.030577809 0.024249345 -0.0063490025 4285493789
0.031783845 0.027258109 -0.0093929237 4285558558
0.033500005 0.028091267 -0.01038709 4285689883
0.035930496 0.026025556 -0.0086539211 4285690138
0.038742386 0.022511892 -0.0055610519 4285624348
0.04158118 0.01899986 -0.0024725385 4285558813
0.044070791 0.016937889 -0.00074891001 4285559068
0.04581359 0.017773077 -0.0017470699 4285559069
0.047164056 0.020055801 -0.0041029733 4285624348
0.048302114 0.023061462 -0.0071350685 4285887254
0.049617324 0.025342401 -0.0094850454 4285557794
0.051923826 0.024005391 -0.0084420964 4285558049
0.055262074 0.019052729 -0.0040128101 4285623838
0.059465569 0.011209935 0.0031189257 4285689629
0.028396053 0.023346223 -0.0078924112 4285559069
0.03012581 0.024182122 -0.0088872723 4285624348
0.031850126 0.025017835 -0.0098812133 4285624093
0.033923201 0.024399351 -0.0095133614 4285558303
0.036361184 0.022327695 -0.0077865287 4285558559
0.038815301 0.020257019 -0.006062232 4285558558
0.041285533 0.018187366 -0.0043405071 4285559069
0.043020338 0.019024197 -0.005335778 4285559324
0.044940263 0.019134596 -0.0056518726 4285559069
0.046087004 0.02214925 -0.0086787064 4285558558
0.047604024 0.023710966 -0.010347348 4286018578
0.04891149 0.025997914 -0.012690969 4285886744
0.05120948 0.024656102 -0.011649936 4285755163
0.053926259 0.021864176 -0.0092587452 4285755929
0.058111742 0.013996772 -0.0021426086 4285821463
0.02622023 0.022448082 -0.0094331373 4285558813
0.027612343 0.024745241 -0.011786489 4285821209
0.029502882 0.024853244 -0.012098305 4285886998
0.031567626 0.024232086 -0.011730889 4285952788
0.03416853 0.021423928 -0.009328153 4285953044
0.03661133 0.019346081 -0.0076071303 4285624348
0.039070241 0.017269298 -0.0058887284 4285559068
0.040990189 0.017379493 -0.0062049888 4285559068
0.042534612 0.018946793 -0.0078749824 4285559324
0.043877751 0.021241955 -0.010219624 4285558814
0.045397747 0.022808053 -0.011885442 4285624094
0.046906855 0.024373665 -0.013549428 4285624093
0.048603602 0.025210831 -0.014536362 4285755674
0.05069726 0.024592325 -0.014172921 4285690138
0.053611793 0.021063931 -0.011113202 4285690394
0.058412552 0.010990351 -0.0019933833 4285624603
0.025614213 0.02312687 -0.012641681 4285755674
0.02716727 0.02469825 -0.014310278 4285689374
0.028880889 0.025537573 -0.015299132 4285557793
0.031111354 0.024182335 -0.014254497 4285755164
0.033706125 0.021365259 -0.0118575 4285952534
0.036322407 0.018549562 -0.0094640106 4285690139
0.038595863 0.017197087 -0.008426223 4285493278
0.040510289 0.017306983 -0.0087415632 4285559324
0.042049497 0.018878333 -0.010407351 4285559324
0.04319733 0.021910105 -0.013420854 4285624349
0.044516452 0.024210442 -0.015756382 4285624094
0.04660194 0.023589149 -0.015393419 4285624094
0.048494376 0.023698293 -0.015704738 4285623839
0.050788812 0.022347733 -0.014669843 4285558813
0.053705141 0.018808734 -0.011618849 4285559069
0.058712713 0.0079756454 -0.0018506283 4285559069
0.023290038 0.022977307 -0.014851781 4285558304
0.024843287 0.02455293 -0.016517151 4285886998
0.026217187 0.026861928 -0.018857349 4285755419
0.028088592 0.026968852 -0.019165996 4285558048
0.030307831 0.025608677 -0.018122895 4285624094
0.032891072 0.022782378 -0.015730742 4285755928
0.03549584 0.019957405 -0.013342066 4285690138
0.038122099 0.017133817 -0.010956889 4285493278
0.040031005 0.017243408 -0.011271311 4285559068
0.041377597 0.01955153 -0.013606392 4285624604
0.042327713 0.023324162 -0.017285055 4285755674
0.043829195 0.024897859 -0.018941075 4285886999
0.045906331 0.02427391 -0.018578377 4285952788
0.048583336 0.02145385 -0.016201071 4285821463
0.05088003 0.020099163 -0.015169905 4285624093
0.05461251 0.013622008 -0.0094438959 4285558813
0.060043655 0.0012939796 0.0016381778 4285559068
0.020977516 0.022837382 -0.017056812 4285622564
0.022530966 0.024417169 -0.018718861 4285493533
0.024239289 0.025260292 -0.019703612 4285690139
0.025773825 0.026839197 -0.021362394 4285887508
0.027468625 0.027681708 -0.022344705 4285887509
0.029679332 0.026316807 -0.021303613 4285821974
0.03207726 0.024217002 -0.019590463 4285756439
0.034670494 0.021382801 -0.017206633 4285558813
0.037285235 0.018549941 -0.014826259 4285559069
0.039367788 0.017923802 -0.014466504 4285559069
0.04070662 0.020237982 -0.016795265 4285624604
0.041839246 0.023286108 -0.019792771 4285689628
0.043528181 0.024129115 -0.020773467 4285558048
0.045797683 0.022768371 -0.019741362 4285623838
0.048473943 0.019939713 -0.017370669 4285887253
0.051372405 0.016378172 -0.014333677 4285755929
0.055518314 0.0084140152 -0.0072853575 4285558814
0.020550586 0.022813722 -0.019566031 4285492004
0.022098806 0.024397541 -0.021223888 4285427998
0.02380177 0.025242463 -0.02220602 4285558813
0.025162848 0.027563598 -0.024533965 4285558814
0.027191449 0.026931677 -0.024167363 4285624604
0.029399022 0.025562316 -0.02312912 4285493278
0.031969979 0.022718173 -0.020748448 4285493279
0.034204423 0.021350559 -0.019714475 4285493278
0.036631308 0.019246209 -0.018010983 4285493533
0.038336679 0.020092003 -0.018992931 4285559069
0.039849468 0.021674737 -0.020644205 4285821974
0.040971801 0.02473088 -0.023633234 4285690138
0.042842478 0.024838619 -0.023941085 4285426978
0.045103457 0.023473114 -0.022910945 4285492769
0.048364546 0.018425867 -0.018540038 4285558559
0.051663272 0.013380848 -0.014175203 4285624604
0.056625828 0.0024485961 -0.0044756304 4285559068
-0.022035733 -0.00056823343 0.0045011342 4285491493
-0.02009353 -0.00046020001 0.0041785017 4285688353
-0.018251859 0.00039210171 0.0031730607 4285818913
-0.016105302 -0.00098783523 0.0042158663 4287194638
0.021084232 0.018354032 -0.018030096 4285294379
0.022480723 0.020683423 -0.020358983 4285229353
0.024026403 0.022271506 -0.022012947 4285295653
0.025561294 0.023859031 -0.023665011 4285427743
0.027256137 0.024705842 -0.024643946 4285427744
0.029465966 0.023332335 -0.023609452 4285493789
0.031686544 0.021959495 -0.022576602 4285493788
0.033738986 0.021327164 -0.0222154 4285494043
0.035615209 0.021434814 -0.022524487 4285559579
0.037307121 0.022281993 -0.023502521 4285493278
0.038432714 0.025346812 -0.026485402 4285493278
0.039915957 0.026932254 -0.028128337 4285821973
0.041773029 0.02703923 -0.028433938 4285756438
0.044410158 0.024191044 -0.026070338 4285690393
0.047661956 0.019128218 -0.021709673 4285756184
0.051753074 0.011113718 -0.014689588 4285625113
0.057731457 -0.0035423636 -0.0016856194 4285625113
-0.024269536 -0.00073426217 0.0022591036 4284968489
-0.022237845 -0.0013732687 0.0026194043 4285426978
-0.020298466 -0.0012654141 0.0022972189 4285623329
-0.018358953 -0.0011574402 0.0019750968 4285557538
-0.016316064 -0.001795508 0.0023337863 4285492004
-0.014479503 -0.00094116479 0.001331035 4285425704
-0.01243097 -0.0015786961 0.0016889572 4285687334
0.021456826 0.014620431 -0.017178657 4285163053
0.02302427 0.016213886 -0.018832885 4285229354
0.024580905 0.017806873 -0.020485286 4285360679
0.02612675 0.019399315 -0.022135776 4285493023
0.028003016 0.019506544 -0.022445206 4285559068
0.030052567 0.018871702 -0.022085376 4285559069
0.032107465 0.018237252 -0.021726361 4285493533
0.033631589 0.019828893 -0.023372918 4285493533
0.035144862 0.02142005 -0.02501766 4285493789
0.036463208 0.023752224 -0.027327869 4285559068
0.037578508 0.026825041 -0.030302297 4285493533
0.039051168 0.028414138 -0.031940058 4285559068
0.040897328 0.028520495 -0.032243852 4285690394
0.043717802 0.02492214 -0.029219486 4285690648
0.047355443 0.018362187 -0.023538772 4285493533
0.052243106 0.0073612481 -0.013877583 4285493533
-0.024283707 -0.0030301809 0.0017438736 4284968488
-0.022249609 -0.0036712214 0.0021020621 4285427234
-0.020307675 -0.0035632327 0.0017794427 4285558304
-0.018465988 -0.0027066991 0.00077734143 4285492768
-0.016423382 -0.0033469424 0.0011343695 4285493025
-0.014586806 -0.0024904683 0.00013329834 4285558559
-0.012647033 -0.002382189 -0.00018863752 4285558559
-0.010818303 -0.0015259236 -0.0011882391 4285558303
-0.0087671243 -0.0021652579 -0.00083228573 4285492258
-0.006827008 -0.002056621 -0.001154013 4285622819
-0.0048868023 -0.0019478798 -0.0014756713 4285950748
0.021828528 0.010874137 -0.016336948 4285426213
0.02340422 0.012472399 -0.0179892 4285361443
0.024969121 0.014070109 -0.019639539 4285361444
0.026690992 0.014922649 -0.020619636 4285361443
0.028748373 0.014286008 -0.020262869 4285492514
0.03063795 0.014394119 -0.020574396 4285492514
0.032351628 0.015246525 -0.021552878 4285492259
0.033702753 0.01758685 -0.023863629 4285426468
0.035037648 0.019926358 -0.026171613 4285558304
0.036540266 0.02152127 -0.027811084 4285426978
0.037845388 0.023859281 -0.030113999 4285361698
0.039512947 0.024709582 -0.031084467 4285295908
0.041175034 0.025559679 -0.032053936 4285362208
0.043805275 0.022693984 -0.029702682 4285427999
0.047246661 0.016857777 -0.024700843 4285427999
0.05313243 0.0021105409 -0.011749234 4285427999
-0.022261612 -0.0059732348 0.0015816577 4285493024
-0.020317122 -0.0058651343 0.0012585893 4285558814
-0.018572979 -0.0042556748 -0.00042020157 4285493023
-0.016530655 -0.0048981011 -6.4827502e-05 4285493024
-0.014694072 -0.0040394887 -0.0010642242 4285493024
-0.012646101 -0.0046813786 -0.00070961611 4285558559
-0.01081467 -0.0038228557 -0.0017080028 4285493278
-0.0089885145 -0.0029644966 -0.002705412 4285558813
-0.0071676373 -0.0021063462 -0.003701875 4285558304
-0.00523296 -0.0019979104 -0.0040226206 4285623583
-0.0034199879 -0.0011399239 -0.0050176308 4285622563
-0.0014878213 -0.0010314211 -0.0053377859 4285622053
0.021880258 0.0086098164 -0.016841125 4285492514
0.023458822 0.010212481 -0.018490434 4285558304
0.025356431 0.010320712 -0.018803548 4285426979
0.027086392 0.011175916 -0.019783325 4285426979
0.029151578 0.010537531 -0.019429497 4285426979
0.031049104 0.010646109 -0.019742321 4285492514
0.032770872 0.011501186 -0.020720478 4285492513
0.034130421 0.013848387 -0.023027502 4285492513
0.035473727 0.016194813 -0.02533181 4285558303
0.037168398 0.017048609 -0.026305206 4285558304
0.038857609 0.017902203 -0.027277619 4285558813
0.040541347 0.018755633 -0.028249089 4285558813
0.042219628 0.019608818 -0.029219527 4285559069
0.044281565 0.018971279 -0.028864428 4285427488
0.047926921 0.012373246 -0.023215324 4285361954
0.054020189 -0.003161408 -0.009637285 4285361954
-0.022273868 -0.0082791969 0.0010581156 4285493025
-0.020424224 -0.0074180812 5.7949685e-05 4285493534
-0.018780015 -0.0050515831 -0.0022937176 4285558814
-0.016740665 -0.0056963339 -0.0019395468 4285493024
-0.014801294 -0.0055882111 -0.0022615273 4285493024
-0.012861788 -0.005479984 -0.0025834353 4285493023
-0.011033043 -0.0046194643 -0.0035796878 4285493025
-0.0090960041 -0.0045111552 -0.0039010216 4285492513
-0.0072751269 -0.003650859 -0.0048958007 4285558049
-0.0054595433 -0.0027907118 -0.0058896579 4285558303
-0.0035276003 -0.0026823357 -0.0062098671 4285623583
-0.0017199181 -0.0018224418 -0.0072021931 4285557793
-4.4580549e-05 -0.00021149218 -0.008865295 4285558304
0.0017497838 0.00064788759 -0.0098552182 4285492513
0.0038036667 5.1632524e-06 -0.0095025096 4284901168
0.021772321 0.0070908815 -0.018014804 4285492768
0.023513125 0.0079485923 -0.018994812 4285558304
0.025413288 0.0080569834 -0.01930834 4285492513
0.027145967 0.0089144483 -0.020286832 4285492514
0.029043388 0.0090229139 -0.020599723 4285492514
0.030940773 0.0091314837 -0.020912532 4285492514
0.032487005 0.010737196 -0.022552725 4285492513
0.034022428 0.012342364 -0.024191003 4285558558
0.035727952 0.013198834 -0.025164578 4285558304
0.037795298 0.012559041 -0.024812385 4285558559
0.039681632 0.012667529 -0.025122933 4285558304
0.041567899 0.012776121 -0.025433384 4285492768
0.04326237 0.013632394 -0.026404791 4285558559
0.045145772 0.01374105 -0.026714597 4285493024
0.048803058 0.0071244761 -0.021082684 4285493024
-0.022191815 -0.011344396 0.0012068851 4285426979
-0.02033677 -0.010480836 0.00020750891 4285492769
-0.018686876 -0.0081076249 -0.0021400568 4285558813
-0.016745068 -0.0079995021 -0.0024625403 4285558814
-0.014908463 -0.0071366504 -0.003458601 4285493024
-0.01286108 -0.0077828988 -0.0031072986 4285427233
-0.011029627 -0.0069201142 -0.0041023348 4285427233
-0.0092034563 -0.0060575008 -0.0050964025 4285493025
-0.0072664544 -0.00594908 -0.005417638 4285427233
-0.0054481663 -0.0050867051 -0.0064102318 4285492513
-0.0033921748 -0.0057318956 -0.0060599074 4285558304
-0.0015790947 -0.0048695877 -0.0070514586 4285558304
0.00022866577 -0.0040073842 -0.0080420561 4285493025
0.0019015372 -0.0023921952 -0.0097012948 4285426978
0.021823633 0.0048206896 -0.018523522 4285295144
0.023405218 0.0064321086 -0.020166572 4285492768
0.025469854 0.0057892427 -0.019816224 4285492259
0.02720524 0.006648995 -0.020793483 4285427234
0.029275216 0.0060066432 -0.020443849 4285492514
0.030832456 0.0076171383 -0.022082519 4285492514
0.032554254 0.0084765106 -0.023057293 4285492513
0.034092534 0.010086127 -0.024692673 4285558303
0.03580077 0.010944888 -0.025665011 4285558303
0.037870511 0.01030311 -0.025314879 4285492769
0.040131755 0.0089117065 -0.024305265 4285492768
0.042025968 0.009020783 -0.024617005 4285558304
0.0439201 0.0091299638 -0.024928652 4285558304
0.045814145 0.0092392415 -0.025240198 4285493024
0.049677648 0.0018544421 -0.018966386 4285493024
-0.022204719 -0.013660528 0.00067547429 4284966958
-0.020249866 -0.013551921 0.00035063084 4285164074
-0.018594272 -0.011172019 -0.0019927835 4285493024
-0.01664722 -0.01106362 -0.0023161517 4285493024
-0.014910422 -0.0094415471 -0.0039834646 4285493025
-0.01296851 -0.0093332008 -0.0043058032 4285426979
-0.011247605 -0.0077118203 -0.0059702476 4285426978
-0.0091976039 -0.0083598644 -0.0056209085 4285427233
-0.007142093 -0.0090074688 -0.0052723801 4285426978
-0.0051997527 -0.0088986605 -0.0055944351 4285427233
-0.0033786669 -0.0080338642 -0.0065857084 4285427233
-0.0015628897 -0.0071692616 -0.0075760228 4285492769
0.00024758279 -0.0063048378 -0.0085653607 4285427233
0.0017938688 -0.0039297417 -0.010889696 4285361444
0.023459092 0.0041623414 -0.02067548 4284903209
0.025526132 0.0035174713 -0.020327222 4285099048
0.02743138 0.0036262795 -0.020641487 4285361188
0.029336598 0.0037351996 -0.020955663 4285295399
0.030896693 0.0053501278 -0.022591434 4285361443
0.032621209 0.0062117651 -0.023564931 4285493025
0.034162343 0.0078258887 -0.025197428 4285492514
0.036053918 0.0079344809 -0.025509004 4285492514
0.038128756 0.0072908551 -0.025161393 4285492514
0.040208928 0.0066476092 -0.024814539 4285492513
0.042294409 0.0060048029 -0.024468519 4285492513
0.043810967 0.0076180845 -0.026096523 4285492514
0.046093091 0.0062238872 -0.025093421 4285493023
0.050550669 -0.0034367517 -0.0168665 4285558304
-0.01491262 -0.011750489 -0.0045113908 4285098284
-0.012968153 -0.011642031 -0.0048341667 4285163818
-0.011134002 -0.010774784 -0.0058263363 4285230373
-0.0090788789 -0.011424735 -0.0054794932 4285295908
-0.0071340837 -0.011315905 -0.0058020474 4285361444
-0.0053077117 -0.010448754 -0.006792658 4285360934
