# .PCD v0.7 - Point Cloud Data file format
VERSION 0.7
FIELDS x y z rgba
SIZE 4 4 4 4
TYPE F F F U
COUNT 1 1 1 1
WIDTH 826
HEIGHT 1
VIEWPOINT 0 0 0 1 0 0 0
POINTS 826
DATA ascii
0.019429723 0.0018363893 0.062101368 4288883248
0.021870792 0.00066108257 0.063162282 4289537323
0.025410941 -0.004442431 0.068659857 4289602603
0.015133848 0.0078618564 0.052415382 4289472044
0.016657624 0.0099666342 0.049784113 4289145133
0.018879484 0.0094415173 0.050111186 4289014573
0.021831607 0.006288588 0.053390112 4289341738
0.025730057 -0.0001469925 0.060352121 4289472554
0.030241879 -0.0085490793 0.069514737 4289668648
0.012269262 0.008665476 0.048664909 4286071363
0.013617724 0.011436455 0.045300629 4289144878
0.015120471 0.013546519 0.042678442 4290257444
0.017142257 0.013677225 0.0422711 4290061349
0.019707207 0.011830136 0.044073734 4289668904
0.023023164 0.0073477104 0.048817586 4289995813
0.026376678 0.0028678477 0.05355389 4290192164
0.029767765 -0.0016095415 0.058282744 4289145388
0.032621108 -0.0041086227 0.060800631 4289014829
0.034718115 -0.0039725453 0.060378503 4288687153
0.037406497 -0.0058110878 0.062156606 4288491059
0.041309822 -0.011596955 0.068328723 4289014064
0.0095952637 0.0088263005 0.045660701 4287444538
0.010946933 0.011606257 0.042302176 4288817969
0.012622871 0.013060819 0.040421396 4289079598
0.014112629 0.015176676 0.037806652 4289407274
0.016299102 0.014644776 0.038137652 4289668904
0.018852696 0.012790345 0.039937686 4290388769
0.021789514 0.0096143223 0.043203589 4290126883
0.024566945 0.0071012974 0.045730185 4289341993
0.026988031 0.0059117004 0.046785656 4289538599
0.029419851 0.0047229379 0.047838982 4289407783
0.031473849 0.0048562288 0.047425512 4289342504
0.034118719 0.0030081645 0.049207572 4289604643
0.037378557 -0.00081962347 0.053180289 4289734694
0.04249141 -0.010586351 0.063723266 4289472554
0.0087954365 0.0097969882 0.041518696 4288163893
0.009967003 0.013249557 0.037433021 4289275949
0.011975069 0.01337919 0.037028298 4289407274
0.013457213 0.015501145 0.034419972 4289342249
0.015813367 0.014302615 0.035484992 4289276714
0.018180296 0.01310483 0.036547955 4289341993
0.021108102 0.0099171512 0.039807606 4289472808
0.023318529 0.0093848743 0.040132299 4289146154
0.025723062 0.0081898198 0.041187827 4289342504
0.02775551 0.0083216242 0.040778629 4289342759
0.029787961 0.0084535107 0.040369492 4290127649
0.032017194 0.0079227574 0.040690694 4289342759
0.034850147 0.0054049306 0.043199915 4289211944
0.0389174 -0.0010855868 0.050079945 4289145898
0.043447886 -0.0088968202 0.058406431 4289276459
0.048665203 -0.018689781 0.068904325 4288818479
0.0068086982 0.0073210597 0.041470598 4287967544
0.0078299083 0.011452544 0.036654897 4289930023
0.0094982237 0.012915373 0.03478203 4290388258
0.011328351 0.013711121 0.033644892 4290258208
0.013503484 0.013173986 0.033974823 4289734949
0.016039718 0.011304993 0.035768636 4289146153
0.018231032 0.010769092 0.03609544 4289080618
0.020610947 0.0095678382 0.037152573 4289276968
0.022443969 0.010364193 0.03601516 4289211433
0.024648774 0.0098294206 0.036339432 4289276968
0.026476469 0.010625612 0.035203226 4289407783
0.028298801 0.011421535 0.034068152 4290062114
0.030312371 0.011552293 0.033662885 4290650653
0.033322372 0.0083593838 0.036898293 4290192673
0.037167035 0.0025099963 0.043038707 4289799973
0.041469224 -0.0046649575 0.050623562 4290192418
0.046037704 -0.012500234 0.058923166 4289668904
0.050670467 -0.020331196 0.067209855 4288949293
0.0056931414 0.0096559189 0.035876971 4288686899
0.0070330985 0.012461524 0.032540113 4289341738
0.009030167 0.01259033 0.032137528 4289015084
0.011027303 0.012719233 0.031734992 4290323744
0.013374466 0.011511162 0.032795295 4289669669
0.015910074 0.0096354783 0.034584396 4289342503
0.017920762 0.009765517 0.034179322 4289276968
0.019931488 0.0098956414 0.033774298 4289276968
0.021570822 0.011361573 0.031910826 4289407783
0.023953017 0.010156162 0.032964438 4289276968
0.025963802 0.010286566 0.032559603 4289146153
0.027780831 0.0110844 0.031427167 4289604134
0.029788937 0.011214796 0.031022999 4289145899
0.032593485 0.0086773708 0.033525076 4288884269
0.036226641 0.0034742281 0.038926944 4289145898
0.041129518 -0.005725801 0.04867303 4289210923
0.045485951 -0.012921482 0.05622929 4288884014
0.048432454 -0.015449308 0.058703076 4289015083
0.051400356 -0.017975636 0.061172631 4286071874
0.0027496628 0.011217844 0.031436626 4288621108
0.0044156089 0.012689155 0.029570535 4289733674
0.0060709119 0.014159925 0.027706619 4290192164
0.0082239248 0.0136167 0.028037682 4289734949
0.010726627 0.011732105 0.029828392 4289865763
0.013070662 0.010519348 0.030886136 4290389023
0.01542546 0.0093074143 0.031941723 4289342503
0.017610848 0.008766681 0.032266483 4289604133
0.01943594 0.0095668547 0.031133823 4289473318
0.021255694 0.010366779 0.030002311 4289604134
0.023258317 0.01049656 0.029599052 4290389023
0.025642738 0.0092869923 0.030649003 4290192929
0.027844328 0.008747723 0.030970875 4289800228
0.030247517 0.0075395517 0.032017183 4289146153
0.032860368 0.0056629404 0.033786401 4289276714
0.036900625 -0.0008957088 0.040623412 4289145644
0.041811675 -0.010126188 0.050345276 4289341738
0.045969818 -0.016676985 0.057158705 4289145389
0.048084904 -0.016539156 0.056733351 4286529089
0.00062783435 0.0094340034 0.030664306 4288947508
0.0021380596 0.011583839 0.028069314 4289275694
0.0037961937 0.013059106 0.026207972 4289538089
0.0056102909 0.013860244 0.025078744 4289996068
0.0075883828 0.013987798 0.024679959 4290454304
0.01008242 0.012095939 0.026467606 4290454559
0.012417953 0.010878231 0.027523782 4289996835
0.014764261 0.0096612833 0.028577901 4289277224
0.016941331 0.0091177896 0.028902717 4289734948
0.01875844 0.009919662 0.02777328 4289473319
0.020755569 0.010048989 0.02737106 4289473319
0.022940762 0.0095062889 0.027694434 4290388769
0.025703505 0.0069481693 0.030191828 4290454049
0.028294284 0.0050633401 0.031960472 4290257698
0.030705068 0.0038512051 0.033002075 4289669159
0.033722859 0.0006256029 0.036211718 4289080108
0.037976108 -0.0066256672 0.043753121 4289014573
0.04310482 -0.016557328 0.054171983 4289014318
0.04686626 -0.021787353 0.059522372 4288817968
-0.0018050335 0.0090034045 0.028431308 4287705148
-0.00013345107 0.010483768 0.026570335 4289537324
0.001688581 0.011287425 0.025440976 4289537578
0.003341604 0.012766737 0.023583926 4289080363
0.0051504038 0.013569724 0.022457361 4289145643
0.0072921291 0.013021354 0.022787414 4289080874
0.0096110627 0.01179805 0.023843635 4289604133
0.012115248 0.0099002868 0.02562445 4289473319
0.014104128 0.010028806 0.025223691 4289734948
0.016272865 0.0094825439 0.025548562 4289407783
0.017899485 0.010960799 0.023697302 4289800228
0.019885788 0.011089414 0.023297258 4289865764
0.022247836 0.0098694563 0.024345197 4289407784
0.025192281 0.0066277385 0.027561337 4289407529
0.027970299 0.0040618554 0.030049283 4289407529
0.030965671 0.00082363188 0.033255298 4289015084
0.034782209 -0.0051073581 0.039343257 4289015084
0.039452069 -0.013729043 0.048306655 4289014574
0.044599492 -0.023692675 0.058697563 4288621874
0.047760963 -0.026919708 0.061870452 4288229428
-0.0036147125 0.0058675669 0.029120293 4287770938
-0.0023988783 0.0093888603 0.025073685 4289144880
-0.00089331344 0.011551548 0.022489212 4290257444
0.0012398511 0.011000123 0.022819169 4290388769
0.0028877296 0.012483556 0.020966321 4290388769
0.0050237477 0.01193247 0.021295879 4289211433
0.0069962516 0.012059629 0.020898201 4289407783
0.0093120523 0.010831684 0.021951821 4289604133
0.01129004 0.010959391 0.021553174 4289800484
0.013445053 0.010409933 0.021879129 4289800484
0.015425812 0.010538001 0.021480061 4289538598
0.01722428 0.011343088 0.020357598 4289734438
0.019387435 0.010794435 0.020682111 4290650143
0.021555975 0.010246236 0.021005616 4290323488
0.024491405 0.0069928281 0.024215553 4290258209
0.027453631 0.0037413016 0.027420126 4289996580
0.031421345 -0.0028886497 0.034223221 4289800228
0.035839487 -0.010866761 0.042456042 4289211434
0.040724143 -0.020192005 0.052115422 4288622128
0.04548005 -0.028836757 0.061040621 4288098613
-0.0046582408 0.0082991607 0.023579318 4288686899
-0.0033023767 0.011149645 0.020271134 4288883504
-0.0016517676 0.012637429 0.018420856 4289341738
0.00047039241 0.012083068 0.018751405 4289407528
0.0027613938 0.010848805 0.019806582 4290258209
0.0048971251 0.010295462 0.020134572 4289669413
0.0068695173 0.010422613 0.019736912 4289669669
0.0090134181 0.0098700263 0.020063348 4289473318
0.010814492 0.010677192 0.018941753 4289865763
0.012787051 0.010804638 0.018544264 4289473319
0.014939141 0.010252863 0.018869258 4289342504
0.016914465 0.010380678 0.018471353 4289276714
0.018704973 0.011187539 0.01735216 4289799974
0.02067766 0.011315376 0.016954929 4289473063
0.023791574 0.0073715709 0.020879384 4289669413
0.027516311 0.0013945848 0.026956644 4290061859
0.032071553 -0.0072922781 0.035901051 4289472808
0.036894709 -0.016652606 0.045550149 4289081128
0.041391034 -0.024652071 0.053747978 4288950313
0.045340851 -0.030614033 0.059780236 4287968563
-0.0069115125 0.007214684 0.022087246 4286528324
-0.005547151 0.010074452 0.018783715 4289798954
-0.0042041242 0.012932938 0.015484549 4289668649
-0.0027245432 0.015107241 0.01291493 4289668904
-0.00045819953 0.013866808 0.013971817 4289211434
0.0021454133 0.011262026 0.016474769 4290061604
0.0044387169 0.010023568 0.017526321 4289538344
0.0065742172 0.0094681196 0.017852753 4289538598
0.0085438788 0.0095951669 0.017455701 4289734948
0.010339651 0.010404203 0.016336784 4289342504
0.012306739 0.010531276 0.015940391 4290192929
0.01445318 0.0099769309 0.016264912 4290389023
0.016968993 0.0080602504 0.018029056 4289996578
0.018762238 0.0088695139 0.016910933 4289669413
0.020737492 0.0089975037 0.016513176 4289211433
0.023662906 0.0057213716 0.019708969 4289145899
0.027964083 -0.0023176447 0.027926493 4289538344
0.032915771 -0.012393922 0.03828406 4289537834
0.037947841 -0.022464827 0.04862548 4289210668
0.041655045 -0.027769372 0.053935055 4288098869
-0.0095996372 0.0081929602 0.018420171 4287247678
-0.0082348324 0.01106149 0.015122909 4289341229
-0.0064343028 0.011872251 0.014004074 4289603369
-0.0052591115 0.015424062 0.0099898018 4290388513
-0.0033221133 0.015548509 0.0095989723 4290257698
-0.0012246482 0.014988098 0.0099312458 4290126883
0.0016935505 0.011004116 0.013875078 4290257698
0.003815297 0.010445472 0.014202606 4289211433
0.0061108992 0.0092027597 0.015250564 4289734948
0.0080750808 0.0093294568 0.014854614 4289538854
0.0098655485 0.010140348 0.013738368 4289669923
0.01182716 0.01026706 0.01334307 4290127393
0.014147077 0.009026356 0.014386371 4290323744
0.016841391 0.0064192489 0.016865078 4290585374
0.018819185 0.0065473057 0.016466737 4290519839
0.021171346 0.0053090043 0.017503776 4289341994
0.024483535 0.00065609068 0.022124335 4289407529
0.029373527 -0.0094574392 0.032470014 4289341993
0.034148701 -0.01888293 0.042083565 4289014828
0.038603116 -0.026938356 0.050251115 4288098869
0.04171779 -0.030212849 0.053401049 4286529088
-0.010458868 0.010003917 0.013643172 4288621364
-0.0088079013 0.011504687 0.011802197 4289210923
-0.0068631917 0.011629429 0.011409663 4289341993
-0.0053829178 0.01381686 0.0088495072 4289276968
-0.0034460388 0.013941295 0.0084586982 4289080363
-0.0015090629 0.014065828 0.0080679357 4289211689
0.0010795444 0.011442348 0.010560995 4289146154
0.0033585206 0.010194089 0.011608966 4289146153
0.0054800473 0.0096332915 0.011934981 4289669669
0.0074360743 0.0097594373 0.011540659 4289342503
0.0092185475 0.010572013 0.010427622 4289735203
0.011172 0.010698196 0.010033969 4289473318
0.01366239 0.0087664947 0.01179349 4289407783
0.016532175 0.0054643266 0.014984146 4289407783
0.019060131 0.0035353079 0.016736202 4289538598
0.021978213 0.00023642182 0.019917309 4289276968
0.0258715 -0.0064870566 0.026670765 4289276714
0.030587848 -0.015947431 0.036273517 4289276459
0.034989133 -0.024032913 0.044432294 4288883503
0.038663842 -0.029375061 0.049722549 4286202179
-0.012676798 0.0089515783 0.012165736 4288948529
-0.011169694 0.0111471 0.0096047278 4290258209
-0.0093798935 0.01196146 0.0084911752 4290454559
-0.0071393363 0.010705795 0.0095433053 4289604133
-0.0053519979 0.011520196 0.0084303934 4289342503
-0.0032552071 0.010955196 0.0087594893 4289407783
-0.0013129897 0.011080034 0.0083676483 4289407783
0.00079201534 0.010515746 0.008695228 4289408039
0.0027370639 0.010640979 0.0083029699 4289342504
0.0046821907 0.010766324 0.0079107713 4289408039
0.0066273771 0.010891762 0.0075186286 4289735459
0.0083991922 0.011705853 0.0064093508 4290192928
0.010341804 0.011831325 0.0060178712 4289604133
0.012820829 0.0098922402 0.0077748392 4289538598
0.015678916 0.0065782629 0.010959797 4289407783
0.018932112 0.0018903986 0.015569482 4289407783
0.022783354 -0.0048580617 0.022315253 4289604134
0.027067203 -0.01297792 0.030478176 4289276714
0.031607561 -0.021780871 0.039341699 4289014573
0.035438113 -0.027830511 0.045339707 4287510073
-0.01460639 0.0065188147 0.012134798 4288752434
-0.013375893 0.01010688 0.0081332009 4289275950
-0.011586163 0.01092333 0.0070211906 4289603879
-0.0095033571 0.010354891 0.0073512588 4289865763
-0.0074151009 0.0097869001 0.0076803062 4290520093
-0.0053213798 0.0092193671 0.008008318 4289866020
-0.0032221936 0.008652281 0.0083353054 4289473318
-0.0014372878 0.0094689168 0.0072246268 4289277224
0.00034234673 0.010285307 0.0061150845 4289604134
0.0022819154 0.010410171 0.0057239216 4289473319
0.0042215548 0.010535132 0.0053328071 4289343014
0.0061612651 0.01066022 0.0049417708 4289734948
0.0079277679 0.011476163 0.0038351621 4290192928
0.0098649003 0.011601273 0.0034447815 4290127393
0.012337919 0.0096552186 0.0051980857 4290323744
0.01555226 0.0049492195 0.0098042954 4290323744
0.018988108 -0.00044433773 0.015116464 4289800228
0.023213468 -0.0085946321 0.023271754 4289145898
0.027881822 -0.018120147 0.03283897 4289080108
0.032241192 -0.026261568 0.040967491 4288164148
-0.016817782 0.0054721646 0.010659881 4287377728
-0.015575971 0.0090718903 0.0066639651 4289015594
-0.014073573 0.011280235 0.0041134711 4289801248
-0.012294497 0.012098182 0.003005201 4289277224
-0.010073729 0.010832261 0.0040547755 4289277224
-0.0079937987 0.01026151 0.0043838713 4289473318
-0.0057540536 0.0089969672 0.0054298099 4290127393
-0.0035035126 0.0077332594 0.0064735916 4289604133
-0.0017212369 0.0085519217 0.0053650495 4289342503
-0.00010660663 0.010064017 0.0035414267 4289342503
0.0013323314 0.012269109 0.0010043364 4289342504
0.0035939105 0.011006501 0.0020461846 4289211689
0.0058662817 0.0097446702 0.0030859839 4289473319
0.0078032389 0.0098696575 0.0026955586 4289277224
0.0097402409 0.0099947527 0.0023051966 4289604133
0.012391079 0.0073493309 0.0047668014 4289473319
0.015969004 0.0012429804 0.010786287 4289603878
0.019778989 -0.0055524334 0.01750803 4289537833
0.024388511 -0.01511284 0.027064454 4289276204
0.028694738 -0.023284309 0.035184208 4288949038
0.032297917 -0.02868437 0.040450048 4287248699
-0.018184248 0.010134526 0.0030385014 4289146408
-0.016543481 0.011651944 0.0012121871 4289474083
-0.014913287 0.013168745 -0.00061186962 4290651419
-0.013001438 0.013291091 -0.00099798106 4290520093
-0.010643028 0.011323255 0.00076794066 4290193184
-0.0082684457 0.0093565024 0.0025307182 4290454558
-0.0060318448 0.0080873258 0.0035740566 4289931299
-0.0039412901 0.0075152256 0.0038995314 4289734948
-0.0021643229 0.0083357356 0.0027936529 4289865763
-0.00055484101 0.0098519512 0.00097423978 4289407783
0.0012088902 0.010671817 -0.00012882613 4290585374
0.0036375709 0.0087091587 0.0016234834 4290454558
0.00591214 0.0074430816 0.0026595667 4290127393
0.0078516528 0.007568229 0.0022686217 4290323488
0.0097912177 0.0076934807 0.0018777419 4289473063
0.012622178 0.0043444559 0.0050438978 4289604134
0.016746646 -0.0038656667 0.013180736 4289538088
0.020935424 -0.012071505 0.021304652 4289472809
0.025374845 -0.020967446 0.03012551 4289407274
0.02912797 -0.027082026 0.036095463 4288752689
0.032162651 -0.030417301 0.039220992 4286790974
-0.015321411 0.012981761 -0.0031707566 4290130709
-0.013415031 0.013103731 -0.0035557784 4289082149
-0.011211235 0.011827804 -0.0025092009 4289146663
-0.0088453367 0.0098538995 -0.0007495638 4289407783
-0.0066172406 0.008579731 0.00029225275 4289342758
-0.0045350119 0.0080048703 0.0006177891 4289539108
-0.0026066899 0.0081287585 0.00022871234 4289669923
-0.0011643693 0.01034718 -0.0022995044 4289473318
0.00059136748 0.011168726 -0.0033993516 4289866018
0.0030113645 0.0091988742 -0.0016501322 4289408038
0.0056175664 0.0065325573 0.00080733746 4289866018
0.00789975 0.0052626245 0.0018387251 4290258463
0.010192715 0.0039934739 0.0028680731 4289015594
0.013386924 -0.00076033175 0.0074443724 4289538598
0.017884137 -0.010390095 0.016978171 4289407783
0.022272939 -0.019318163 0.025788207 4289472808
0.026172986 -0.026151851 0.032459658 4288752943
0.028993737 -0.028803527 0.034874473 4286529344
-0.013682101 0.012224123 -0.0053923139 4289019419
-0.011629939 0.011644803 -0.005062554 4289997854
-0.0095722973 0.011065893 -0.0047337832 4289212453
-0.0075092129 0.010487467 -0.0044060862 4289277478
-0.005440671 0.0099095069 -0.0040794052 4289669924
-0.0033666864 0.0093319975 -0.0037537534 4289669924
-0.0016109757 0.010155629 -0.0048520742 4290455069
0.00030398741 0.010278869 -0.0052383058 4289473573
0.002386231 0.0097021982 -0.004914091 4289015849
0.0049835779 0.0070264563 -0.00246129 4289015594
0.0077749677 0.0036525503 0.00069657527 4288884778
0.010593206 0.00028049201 0.0038491189 4289146408
0.014149975 -0.0058870092 0.0098293144 4289146408
0.018658042 -0.015547022 0.019338377 4289211433
0.022691278 -0.023105189 0.026710942 4288884014
0.026039602 -0.027864158 0.031245168 4286790973
-0.01044884 0.012999274 -0.0094173448 4289344798
-0.008706741 0.013823908 -0.010511553 4289866783
-0.0065009072 0.012539551 -0.0094716316 4289474083
-0.0041252784 0.010553282 -0.0077234181 4289605918
-0.0022185519 0.010675859 -0.0081080832 4289998619
-0.00031175092 0.010798555 -0.0084926821 4290456088
0.0015951209 0.010921348 -0.0088772262 4290389533
0.0043506548 0.0075339749 -0.0057202615 4289931298
0.0074778274 0.0027446374 -0.0011531096 4289931298
0.011167776 -0.0041472837 0.005528152 4289866019
0.015266854 -0.012438722 0.013612062 4288949804
0.019430235 -0.020725869 0.021683037 4288687663
0.022925492 -0.026204005 0.026918828 4286725693
0.025720453 -0.028875157 0.02932585 4286201924
-0.0010906123 0.012036465 -0.012445193 4289867804
0.001139164 0.010749634 -0.011413016 4289277989
0.0042274483 0.0059422478 -0.0068494268 4289277479
0.0078699701 -0.00097499043 -0.00017474405 4289538598
0.0119159 -0.009296447 0.0079004243 4289473318
0.01620375 -0.018317424 0.016667847 4288884268
0.020020474 -0.025223032 0.023307614 4288622638
0.022976099 -0.028607979 0.026416618 4286398274
0.00085062161 0.0098804235 -0.013236644 4289213984
0.0044430308 0.0029378086 -0.0065680724 4289147429
0.008777272 -0.0068265572 0.0029081684 4289277479
0.013011813 -0.015879817 0.011665314 4289473829
0.016961198 -0.023516484 0.019001443 4289407783
0.020069093 -0.027620204 0.022810876 4287837493
0.013488244 -0.053302966 -0.00814893 4286855744
0.010664035 -0.05208458 -0.011607225 4287117883
0.013011653 -0.053460442 -0.010669219 4286856508
0.010194007 -0.05222813 -0.014118999 4287118394
0.011346925 -0.043916278 0.0055329856 4282934864
0.008690428 -0.043516926 0.0026982296 4283001163
0.011047341 -0.044857197 0.0036598612 4282412113
0.010578472 -0.045055978 0.0011074897 4282607188
-0.00076024607 -0.034805395 -0.012583399 4283721794
0.002011966 -0.038390562 -0.0095746983 4283066954
-0.0047202408 -0.027619354 -0.021507241 4283526463
-0.0015192591 -0.03345269 -0.016457194 4282219589
0.0010801293 -0.03630513 -0.014133649 4282347343
-0.0078469589 -0.0241118 -0.027008461 4283788349
-0.0051544569 -0.027724363 -0.023999911 4282220608
-0.0021185987 -0.032828912 -0.019639729 4281631558
-1.0903925e-05 -0.033450536 -0.019354599 4282086988
-0.007815849 -0.026444592 -0.027453948 4282352189
-0.0051216744 -0.030068099 -0.024453711 4281631813
-0.0024006851 -0.033689722 -0.021458836 4281761353
-0.00045676529 -0.033564836 -0.021851068 4282084949
-0.0068695545 -0.033291496 -0.023843883 4283330624
-0.0044681802 -0.035421886 -0.022207012 4282284359
-0.0020506978 -0.037551045 -0.020573316 4282021454
-0.0056207776 -0.041676752 -0.018905902 4283328074
0.043205447 -0.048037529 0.043829609 4281816689
0.04286541 -0.049099967 0.041877918 4282274923
0.043331116 -0.052984253 0.042718004 4282536809
0.04319229 -0.05475492 0.041462339 4282339948
0.045532983 -0.055324256 0.041727651 4282733414
0.037019242 -0.050400749 0.034811243 4282668134
0.04032179 -0.05453071 0.038553171 4282274668
0.043053478 -0.05652526 0.040206909 4282405484
0.036686853 -0.051437154 0.032876704 4282405994
0.039787393 -0.054867148 0.035916846 4282339948
0.04251305 -0.056868702 0.037566986 4282667113
0.032899521 -0.047593586 0.026522513 4282471274
0.036354836 -0.052468807 0.030945525 4282274668
0.039451674 -0.055910058 0.033978391 4282536808
0.032956786 -0.050041236 0.025986835 4282340203
0.036023173 -0.053495616 0.029017705 4282471273
0.030351643 -0.050467104 0.02380012 4282340459
0.033013746 -0.052493036 0.025448289 4282471018
0.027198011 -0.048713833 0.019551434 4282537063
0.030406265 -0.052916482 0.023263834 4282144109
0.024440991 -0.048387013 0.016688816 4282471783
0.027250826 -0.051154166 0.019022193 4282208879
0.030460564 -0.055369943 0.022724658 4282405739
0.021339342 -0.046589755 0.012459259 4281882224
0.024491664 -0.050822735 0.016163465 4280439179
0.027489716 -0.054326065 0.019175664 4281881204
0.030325474 -0.057100229 0.021497481 4282471018
0.021207344 -0.04828646 0.011255795 4281947248
0.024542022 -0.053262621 0.015635233 4281356923
0.027541732 -0.056776851 0.01863908 4281159808
0.018313609 -0.047185831 0.0077289734 4282210408
0.021256069 -0.050715044 0.010736126 4282078064
0.024592059 -0.055706553 0.015104067 4282471273
0.015618213 -0.046800457 0.0048937816 4282211174
0.018004661 -0.048138395 0.0058496986 4282078573
0.021123951 -0.052413307 0.0095315501 4282339693
0.012940273 -0.046400227 0.0020649973 4282079848
0.015662819 -0.049217649 0.0043834466 4282078574
0.018229123 -0.051296659 0.0060166791 4282143598
0.021172209 -0.054847889 0.0090076402 4282601578
0.012638431 -0.047334053 0.00019760244 4281095293
0.015532289 -0.050899722 0.0031902716 4281357179
0.018275419 -0.05372449 0.0054982528 4282274414
0.0094735734 -0.044684298 -0.0046571596 4281881969
0.012852907 -0.050487913 0.00037027523 4282012784
0.015576435 -0.053322889 0.0026756935 4282142834
0.018498726 -0.056897618 0.0056546964 4283124584
0.0060103647 -0.040517159 -0.010856071 4281227638
0.0093453079 -0.046341352 -0.0058326675 4281816179
0.012379479 -0.050675072 -0.0021724254 4282078318
0.015096813 -0.053519264 0.00012781471 4282733158
0.0021021999 -0.034071706 -0.019070486 4281098354
0.0055510551 -0.040663414 -0.013372557 4279982219
0.0093860403 -0.048744358 -0.0063316217 4281881714
0.012078401 -0.051599048 -0.0040329024 4282274413
0.014617894 -0.05370643 -0.002413597 4282925938
0.0018141121 -0.03493733 -0.020891605 4279785104
0.0052585937 -0.041549131 -0.015207237 4280439688
0.0085824728 -0.047409296 -0.010207213 4282012018
0.0023427717 -0.039553091 -0.019338133 4279850383
0.0052984022 -0.0439317 -0.015691144 4280636039
0.0082861744 -0.048308171 -0.01205052 4282863209
0.0030332096 -0.044939369 -0.017124297 4281685109
0.005503688 -0.047071405 -0.015505794 4282666604
0.016814312 -0.058932073 -0.014339332 4282469744
0.020700173 -0.06033089 -0.016324528 4282207859
0.022205498 -0.06033393 -0.019225035 4282601834
-0.021580812 0.015415888 -0.0048892796 4286015773
-0.017227668 0.012859888 -0.0027856883 4287064078
-0.025620554 0.014304783 -0.0059566675 4285165348
-0.024390388 0.017936528 -0.0099263554 4285623073
-0.022646498 0.018758394 -0.011023026 4285754143
-0.020356786 0.016772419 -0.0092531685 4285819424
-0.018050883 0.014787614 -0.0074865557 4285621798
-0.026647124 0.017667763 -0.01208522 4285164329
-0.025170494 0.019900486 -0.014611544 4285820698
-0.023574848 0.021427959 -0.016419236 4285885978
-0.02130184 0.019434303 -0.014650898 4285885978
-0.019012626 0.01744175 -0.012885705 4285885978
-0.016707223 0.015450321 -0.011123722 4285556774
-0.028258476 0.013873957 -0.010662951 4285361699
-0.027153712 0.018234737 -0.015332276 4285690139
-0.025684711 0.020473562 -0.017852252 4285558048
-0.024231616 0.022711445 -0.020368885 4285492004
-0.022107359 0.021416746 -0.01931629 4285623838
-0.019832168 0.019416638 -0.017553123 4285689884
-0.017398003 0.016711682 -0.015081037 4285624348
-0.015233245 0.015419878 -0.014036407 4285689628
-0.013205763 0.014834519 -0.013704915 4285689629
-0.011474431 0.015660569 -0.014795411 4285623584
-0.0095948689 0.015781067 -0.015174835 4286410769
-0.029389571 0.017987929 -0.017480325 4285493279
-0.027917657 0.020233437 -0.019996159 4285821208
-0.026593562 0.023186926 -0.023221394 4285821209
-0.025021564 0.024721682 -0.025017902 4285689373
-0.022773903 0.022713117 -0.023254124 4285755419
-0.0202302 0.019288883 -0.020071359 4285886999
-0.017944809 0.017282888 -0.018315012 4285689884
-0.015933804 0.016694143 -0.017981891 4285624093
-0.014213234 0.017521583 -0.019068699 4285624348
-0.012648553 0.01905648 -0.020863287 4285689628
-0.010941185 0.019883327 -0.021947326 4285754398
-0.0087710992 0.018587798 -0.020906651 4285884704
-0.0064315498 0.016585901 -0.019160785 4285818658
-0.031737324 0.01846277 -0.020336827 4285427998
-0.03001241 0.019291867 -0.021423511 4285493533
-0.028421771 0.020832036 -0.023220785 4285690139
-0.027105134 0.023793824 -0.026438044 4285821208
-0.02527215 0.023910593 -0.02680861 4285821463
-0.023027789 0.021895178 -0.025049005 4285755673
-0.020487729 0.018459648 -0.021873562 4285755674
-0.018205646 0.01644678 -0.020121401 4285624093
-0.016632963 0.017986439 -0.02191459 4285624348
-0.015070841 0.019525457 -0.023705533 4285689884
-0.013519328 0.02106392 -0.02549425 4285689883
-0.011672162 0.021182314 -0.025867162 4285886489
-0.0096690692 0.020591252 -0.025533756 4285820954
-0.0073435642 0.018581845 -0.023789948 4286017304
-0.0050019026 0.016573556 -0.022049259 4285886489
-0.0023164116 0.013148285 -0.018902494 4285689374
0.00089551881 0.007598184 -0.013648722 4285688863
0.0049963668 -0.0014926568 -0.0048857164 4285883938
0.0096825399 -0.012704469 0.0059723854 4286343449
-0.034309249 0.020380449 -0.024610315 4285427743
-0.032595169 0.021210931 -0.025693296 4285559068
-0.030760054 0.021327514 -0.026064526 4285624093
-0.028795924 0.0207307 -0.025725633 4285624093
-0.027352531 0.022987705 -0.028226003 4285624094
-0.025388103 0.02239107 -0.027886972 4285558303
-0.023281302 0.021081947 -0.026840549 4285558558
-0.020744886 0.017635126 -0.023672426 4285624094
-0.01889291 0.017753396 -0.024046622 4285624348
-0.017185759 0.018584248 -0.025127608 4285624349
-0.015631475 0.020127214 -0.026913807 4285689883
-0.014238074 0.022381704 -0.029403504 4285689629
-0.012554701 0.023211349 -0.030479465 4285557794
-0.010565303 0.022617191 -0.030144913 4285557794
-0.0079371668 0.019176975 -0.02699478 4285689373
-0.005282186 0.015738595 -0.023849981 4285624093
-0.0024366789 0.011590779 -0.020007456 4285624348
0.0011064522 0.0046006963 -0.013361221 4285493278
0.005717393 -0.0066514686 -0.0025137421 4285493278
0.010757495 -0.019319497 0.0097194202 4285492768
0.014324546 -0.025585867 0.015625026 4285228589
-0.036144208 0.018024027 -0.024609141 4285164583
-0.03490765 0.021721859 -0.02853227 4285886489
-0.03308085 0.021837786 -0.028901912 4285886234
-0.03100181 0.020522024 -0.027853353 4285952788
-0.028783213 0.018491354 -0.026098453 4285821463
-0.027073983 0.019324012 -0.027178645 4285624349
-0.025235888 0.019441064 -0.027550278 4285624604
-0.023260925 0.018843021 -0.02721497 4285624604
-0.021001656 0.01681532 -0.025467947 4285624604
-0.019294571 0.017648261 -0.026547398 4285624603
-0.017737512 0.019195698 -0.028331032 4285624094
-0.016043585 0.020027999 -0.029407673 4285755674
-0.014655165 0.022288822 -0.031891596 4285953044
-0.013129901 0.023834493 -0.033668533 4285821209
-0.011148836 0.023237575 -0.03333392 4285690138
-0.008529719 0.019785732 -0.030190017 4285755928
-0.0055620819 0.014908358 -0.02564735 4285756183
-0.002229888 0.0086065233 -0.019709213 4285624858
0.001815293 -0.00054536015 -0.010976922 4285493278
0.0069433302 -0.013971657 0.0019439608 4285493278
0.011315461 -0.023826323 0.01134498 4285492513
-0.036731225 0.0193731 -0.028528344 4285427233
-0.035263594 0.021644384 -0.031024259 4285820953
-0.033442263 0.021759935 -0.031392816 4285755418
-0.031243172 0.019721292 -0.029638879 4285886999
-0.029027868 0.017683737 -0.027888108 4285821463
-0.026927609 0.016365118 -0.026846977 4285755674
-0.025084298 0.01648248 -0.027219679 4285624348
-0.023240853 0.016599957 -0.027592331 4285624604
-0.021397281 0.016717546 -0.027964937 4285624859
-0.019979361 0.01898649 -0.030450199 4285558813
-0.018288184 0.019820701 -0.031524766 4285624094
-0.016307708 0.019221198 -0.031191893 4285624093
-0.01492158 0.021488488 -0.033670533 4285689883
-0.013551421 0.023754839 -0.036145881 4285755673
-0.011575989 0.023155302 -0.035811704 4285821719
-0.0086472519 0.018259894 -0.031272583 4285624603
-0.0051989742 0.011219345 -0.024639545 4285559069
-0.0013704114 0.002750881 -0.01661738 4285493278
0.0031865127 -0.0085754767 -0.0058106007 4285427999
0.0079978555 -0.020611621 0.0056778286 4285427743
0.011700708 -0.027635321 0.01225986 4285229353
-0.038675029 0.01774101 -0.02923435 4285427234
-0.037081484 0.019298479 -0.031019667 4285755674
-0.03537811 0.020134725 -0.032095782 4285624093
-0.033679936 0.02097078 -0.03317083 4285558049
-0.031609844 0.019645561 -0.032126933 4285624094
-0.029400524 0.017600983 -0.030379791 4285755419
-0.027043972 0.0148376 -0.027931059 4285690138
-0.025200803 0.014954925 -0.028303755 4285559069
-0.023357484 0.015072376 -0.028676394 4285559069
-0.021792192 0.016628884 -0.030455392 4285624349
-0.020379256 0.018904138 -0.032934889 4285689884
-0.018693376 0.019740213 -0.034006782 4285755163
-0.016865652 0.01985709 -0.034375962 4285689629
-0.015037835 0.019974083 -0.034745086 4285623839
-0.013362367 0.020809792 -0.035814658 4285624094
-0.011381902 0.020208392 -0.035483163 4285559069
-0.008449126 0.015297763 -0.030956065 4285493788
-0.0045158826 0.006081067 -0.022243183 4285559324
-2.3461878e-05 -0.0052849278 -0.011449176 4285428253
0.004554674 -0.016645215 -0.00067240372 4285296418
0.0085444637 -0.025129564 0.0072981212 4285362209
-0.040954862 0.01827953 -0.03206126 4285493278
-0.039478783 0.020564381 -0.03454946 4285689884
-0.037548523 0.019956093 -0.034210503 4285953299
-0.035973322 0.021516886 -0.035988845 4285887508
-0.034162927 0.021631695 -0.03635522 4285690138
-0.032101329 0.020301554 -0.035312876 4285755928
-0.029772464 0.017527413 -0.032865033 4285887509
-0.027552944 0.015476957 -0.031124707 4285690139
-0.025584359 0.014871709 -0.03079306 4285558813
-0.02388275 0.015710652 -0.031866778 4285624604
-0.022464197 0.01799278 -0.034342665 4285689883
-0.021061573 0.020273987 -0.03681526 4285886998
-0.019097853 0.019668821 -0.036482271 4285886999
-0.01698174 0.01834299 -0.035450339 4285952533
-0.015004434 0.017738957 -0.035119977 4285821209
-0.013173968 0.017856214 -0.035489567 4285624093
-0.011033487 0.016532224 -0.034462273 4285624604
-0.0079363771 0.01088611 -0.029249988 4285559323
-0.0033535026 -0.001240097 -0.017770384 4285493789
0.0014834367 -0.014080465 -0.0056122933 4285493788
0.0057541206 -0.024034582 0.0037414841 4285428253
0.0085846893 -0.02750551 0.0068189166 4285296419
-0.041068908 0.016770542 -0.033132419 4285427743
-0.039477777 0.018336572 -0.034910969 4285558814
-0.037779827 0.019176722 -0.035982899 4285558813
-0.036207076 0.020741753 -0.037757535 4285690394
-0.034399483 0.020856366 -0.038123362 4285690138
-0.032466393 0.020246338 -0.037786379 4285624603
-0.030271713 0.018187594 -0.036045991 4285624349
-0.028060842 0.016129937 -0.034308761 4285493278
-0.026233975 0.016246192 -0.034678191 4285558813
-0.024406973 0.016362567 -0.035047553 4285690139
-0.022996064 0.018650789 -0.037517101 4285755674
-0.021318268 0.019490611 -0.038584262 4285820954
-0.019645695 0.020330202 -0.039650284 4285820954
-0.017244544 0.017552573 -0.037222944 4285952533
-0.015120782 0.01622292 -0.036195699 4285886999
-0.012986209 0.014894012 -0.035170522 4285624348
-0.010531258 0.012120165 -0.032753799 4285559068
-0.0069525316 0.0042888373 -0.025467368 4285559324
-0.0021938235 -0.0085963979 -0.01332252 4285493533
0.0024984889 -0.020752929 -0.0018922221 4285362463
0.005957868 -0.027125932 0.0039624497 4285098539
-0.040735584 0.012350518 -0.031387765 4285295398
-0.039133552 0.013921615 -0.033165336 4285493023
-0.037542041 0.015492111 -0.034940656 4285361698
-0.036200743 0.018516701 -0.038118359 4285427488
-0.034390602 0.018631462 -0.038484715 4285493533
-0.032705519 0.019473292 -0.039552215 4285559323
-0.030642029 0.018134501 -0.038516644 4285493533
-0.028698247 0.017523143 -0.038183287 4285493533
-0.026748981 0.016912222 -0.037850972 4285559068
-0.024930131 0.017028049 -0.038218711 4285690139
-0.023526859 0.019322358 -0.040681846 4285690138
-0.021857049 0.020163856 -0.041745804 4285558048
-0.019904625 0.019553568 -0.041413814 4285557794
-0.017360378 0.016041279 -0.038295336 4285558304
-0.015087806 0.013981689 -0.036574855 4285624348
-0.012647152 0.011198021 -0.034161814 4285624603
-0.0095664971 0.0055153891 -0.028971978 4285559069
-0.0054991469 -0.0045139268 -0.019622453 4285493533
-0.00087687001 -0.016712599 -0.0082054399 4285427999
0.0030232109 -0.025282331 -0.00027491525 4285296674
-0.04018021 0.0064529963 -0.028250847 4285295143
-0.038561929 0.0080295131 -0.030028511 4285426723
-0.037071172 0.010335125 -0.032505166 4285558813
-0.035715993 0.013369381 -0.035679273 4285690648
-0.034137327 0.014943693 -0.037448693 4285624604
-0.032694224 0.0172466 -0.039915469 4285559324
-0.03101163 0.018090557 -0.040980805 4285559324
-0.029203858 0.018205456 -0.041346464 4285559323
-0.027262922 0.017591789 -0.041014083 4285493533
-0.02545223 0.017707091 -0.041380182 4285558814
-0.023918223 0.019279208 -0.043140102 4285953043
-0.022253718 0.020122547 -0.044201389 4285887509
-0.020450708 0.020237692 -0.044565693 4285755674
-0.01806188 0.017441601 -0.042148747 4285821719
-0.015502457 0.013919353 -0.039041296 4285755928
-0.012309074 0.0074889846 -0.033162303 4285624859
-0.0084496178 -0.0018474385 -0.024518237 4285559069
-0.0038920082 -0.014087878 -0.013115585 4285493534
-4.2364001e-05 -0.022687443 -0.0051942561 4285362209
0.0032216534 -0.028375588 -5.4022297e-05 4284966448
-0.03996129 0.0027259588 -0.027234908 4285360933
-0.038334768 0.0043073297 -0.029011004 4285361189
-0.036718782 0.0058881529 -0.030784886 4285492259
-0.03535236 0.0089319274 -0.033954859 4285492514
-0.033762801 0.01051132 -0.03572328 4285492513
-0.032308642 0.012821507 -0.0381875 4285492514
-0.030615304 0.013668381 -0.039253458 4285427233
-0.029187601 0.015977114 -0.041712157 4285493279
-0.027377162 0.016092259 -0.042078301 4285427999
-0.025837731 0.017669011 -0.043836195 4285493533
-0.024308834 0.019245155 -0.045591831 4285559068
-0.022790577 0.020820767 -0.047345288 4285756184
-0.020708542 0.019474905 -0.046319403 4285756184
-0.018323209 0.01666978 -0.043908171 4285690649
-0.015320644 0.01094662 -0.038728446 4285493788
-0.011517152 0.0015778691 -0.030094098 4285493534
-0.0068725944 -0.011434011 -0.018013155 4285427999
-0.0024455525 -0.022980884 -0.0073346989 4285427999
0.00047085807 -0.027230211 -0.0035837572 4285427999
-0.039743323 -0.0010141358 -0.026228163 4285295399
-0.038108576 0.00057214499 -0.02800273 4285361188
-0.036367703 0.0014237985 -0.02907702 4285426723
-0.034751337 0.003009133 -0.030847702 4285492514
-0.033267546 0.0053277239 -0.033313241 4285492259
-0.031674955 0.0069117695 -0.03507895 4285426468
-0.030220281 0.009228725 -0.037538446 4285426468
-0.0287815 0.011544757 -0.039994583 4285492514
-0.027225938 0.013126813 -0.041752618 4285493023
-0.02581631 0.015441209 -0.044202693 4285559578
-0.024284575 0.017021962 -0.045955755 4285493533
-0.022763412 0.018602099 -0.047706563 4285493533
-0.020966005 0.018716853 -0.048069753 4285493533
-0.018438067 0.015170433 -0.044972099 4285493533
-0.014990728 0.0072332844 -0.037730113 4285493533
-0.010424364 -0.0058233887 -0.025662363 4285493534
-0.0056074969 -0.01960551 -0.012923475 4285493534
-0.0020999834 -0.026796825 -0.006415016 4285427999
0.0005043447 -0.029596172 -0.0040540081 4285229354
-0.039748628 -0.0032938123 -0.0266259 4285164838
-0.038111005 -0.0017029569 -0.028397845 4285361698
-0.036367398 -0.00084900856 -0.029471066 4285492259
-0.034748178 0.00074093789 -0.031239174 4285492514
-0.032895785 0.00085827708 -0.031614147 4285426468
-0.031292293 0.0024473965 -0.03337888 4285361188
-0.029572155 0.0033003017 -0.034447029 4285426724
-0.028116968 0.0056240074 -0.036901727 4285360678
-0.026545148 0.007211443 -0.038659811 4285361188
-0.025119122 0.0095335133 -0.041108448 4285426468
-0.023709025 0.011854671 -0.043553799 4285360934
-0.02231485 0.014174893 -0.045995787 4285493023
-0.020363647 0.01355565 -0.045670021 4285427743
-0.017531488 0.008530058 -0.041201748 4285427999
-0.013621636 -0.0016331673 -0.031910639 4285362463
-0.0088804588 -0.015462145 -0.019187072 4285362463
-0.0048072599 -0.025614671 -0.0099287713 4285296419
-0.037886377 -0.0054597035 -0.027404893 4285360933
-0.036134738 -0.0046030208 -0.02847819 4285492259
-0.034507286 -0.0030082092 -0.03024473 4285426978
-0.032890383 -0.001413919 -0.032009099 4285426723
-0.031408366 0.00091781467 -0.034464538 4285361188
-0.029688191 0.0017728955 -0.035531111 4285426979
-0.027843516 0.0018900782 -0.035904281 4285426724
-0.026263479 0.0034824684 -0.037660874 4285361444
-0.024558965 0.004336901 -0.038724024 4285426979
-0.02299739 0.005928304 -0.040476672 4285426468
-0.021446396 0.0075191893 -0.042227138 4285426468
-0.019619863 0.0076357611 -0.042596243 4285558813
-0.016772974 0.0025956184 -0.03814216 4285559068
-0.01270118 -0.0083341002 -0.028187796 4285559068
-0.0079446435 -0.02220396 -0.015497828 4285493533
-0.0046241097 -0.02870544 -0.0097022587 4285098538
-0.037549231 -0.0099703148 -0.02572727 4285163563
-0.035903025 -0.0083700418 -0.027494486 4285295399
-0.034386199 -0.0060296878 -0.029952377 4285361444
-0.032885257 -0.0036902949 -0.032406941 4285426724
-0.031276021 -0.0020919889 -0.034166481 4285361188
-0.029550467 -0.00123436 -0.035232529 4285426724
-0.027700584 -0.0011168793 -0.035606779 4285426723
-0.026114997 0.00048020482 -0.037361249 4285426978
-0.02427021 0.00059760362 -0.0377343 4285492514
-0.022562873 0.0014545545 -0.038796388 4285426723
-0.02086075 0.0023112446 -0.039857306 4285492259
-0.018878076 0.0016895831 -0.039541118 4285426979
-0.016016476 -0.0033650473 -0.035101254 4285361188
-0.012079556 -0.013588242 -0.025860565 4285361188
-0.0079167448 -0.024545066 -0.015948582 4285229608
-0.032637741 -0.0074560344 -0.031426303 4284967469
-0.031268317 -0.0043678954 -0.034564696 4285229354
-0.029540058 -0.0035079196 -0.035629712 4285426214
-0.027687643 -0.0033902824 -0.036004476 4285492258
-0.025967147 -0.0025305748 -0.037067756 4285492514
-0.02425186 -0.0016710833 -0.038129903 4285492258
-0.022679199 -7.0154667e-05 -0.039878435 4285558049
-0.020696934 -0.0006942004 -0.03956382 4285492258
-0.018709216 -0.0013177469 -0.039250262 4285426724
-0.01569818 -0.007128641 -0.034136571 4285361188
-0.012051936 -0.015900418 -0.026290169 4285361188
-0.0081906542 -0.025408775 -0.017771829 4285295399
-0.028770793 -0.010252729 -0.031901248 4285097518
-0.027158204 -0.0086452141 -0.03365491 4285426214
-0.025688048 -0.0062941313 -0.036093302 4285426468
-0.024099264 -0.0046878979 -0.037841983 4285426979
-0.022658277 -0.0023384318 -0.040274307 4285492514
-0.020953443 -0.0014771372 -0.04133261 4285492514
-0.018826138 -0.0028466135 -0.040335186 4285426723
-0.015671358 -0.0094185397 -0.034549739 4285426979
-0.011876706 -0.018959917 -0.0260389 4285361188
-0.0086147748 -0.025524758 -0.020274926 4285360933
-0.023678567 -0.0092057288 -0.03619032 4285163819
-0.022363562 -0.0061028823 -0.039304465 4285295143
-0.020790394 -0.0044930726 -0.041046575 4285360934
-0.01880062 -0.0051208958 -0.040736645 4285295398
-0.015789904 -0.010967053 -0.035648581 4285361188
-0.012293097 -0.019046441 -0.028522534 4285360934
-0.0091886148 -0.024886385 -0.023453239 4285228844
-0.019930232 -0.011257969 -0.037355423 4285098029
-0.018064279 -0.011138916 -0.037732519 4285163818
-0.015328825 -0.01550629 -0.034022547 4285360678
-0.012266055 -0.021366589 -0.028957795 4285294888
-0.0099116452 -0.023487009 -0.027301978 4285097774
