# .PCD v0.7 - Point Cloud Data file format
VERSION 0.7
FIELDS x y z rgba
SIZE 4 4 4 4
TYPE F F F U
COUNT 1 1 1 1
WIDTH 966
HEIGHT 1
VIEWPOINT 0 0 0 1 0 0 0
POINTS 966
DATA ascii
-0.019954592 0.004408136 -0.0055398829 4288295728
-0.017755684 0.0030662119 -0.0045369668 4288295728
-0.015545946 0.0017251447 -0.0035361061 4288230704
-0.01361585 0.0018491074 -0.0039104959 4288230704
-0.01124192 -0.00022268295 -0.0022264896 4288165169
-0.0091530085 -0.00082974881 -0.001916728 4288296495
-0.0065988302 -0.0036311597 0.00044727419 4288165169
-0.0044909939 -0.0042367876 0.0007535331 4287968563
-0.0028536245 -0.0026481822 -0.00099320803 4288230703
-0.0010656118 -0.0017912015 -0.0020543477 4288296494
0.00088109449 -0.0016654059 -0.0024313638 4288297769
0.0029945411 -0.0022702366 -0.0021257875 4288494884
-0.032313913 0.0065286979 -0.0086086355 4289017635
-0.03053534 0.0073856562 -0.0096674226 4288558378
-0.028509401 0.0067714006 -0.0093478635 4288688939
-0.026219994 0.0046869218 -0.0076530394 4288295984
-0.024177693 0.0040739253 -0.0073364922 4288230448
-0.022129916 0.0034613907 -0.0070209252 4288164914
-0.01993965 0.0021145046 -0.0060197981 4288230194
-0.017738536 0.00076837093 -0.0050206473 4288230193
-0.01566897 0.00015757233 -0.0047090529 4288230703
-0.013739012 0.00028150529 -0.0050834259 4288100144
-0.011661217 -0.00032856315 -0.0047732657 4288165678
-0.0094275475 -0.0016721487 -0.0037800847 4288230958
-0.0071830824 -0.0030148774 -0.0027889563 4288231214
-0.0052393787 -0.0028896183 -0.0031656502 4287904303
-0.0032956079 -0.0027642325 -0.0035422659 4288362538
-0.032192588 0.0035073832 -0.0083890874 4288430369
-0.030408613 0.00436683 -0.009447284 4288427563
-0.028377607 0.0037507042 -0.0091303922 4288558124
-0.026212297 0.0023975 -0.0081279594 4288099378
-0.024299107 0.0025198162 -0.0084994957 4288164914
-0.022251628 0.0019050613 -0.008185558 4287968564
-0.020335525 0.0020277649 -0.008557504 4288164914
-0.01814026 0.0006769672 -0.0075605912 4288165425
-0.016218577 0.00080024451 -0.0079334592 4288231214
-0.014151901 0.00018712133 -0.0076228576 4288165933
-0.032433674 0.002698198 -0.010235094 4288493864
-0.03040579 0.0020795986 -0.0099193398 4288100399
-0.028372407 0.0014613941 -0.0096045453 4288033843
-0.026333533 0.00084370375 -0.0092907688 4287837494
-0.024289154 0.00022648275 -0.0089779692 4287837494
-0.022373311 0.00034903735 -0.0093499748 4287838259
-0.020457335 0.00047170371 -0.0097219078 4287773234
-0.018541254 0.00059450418 -0.010093776 4287707699
-0.016767111 0.0014562234 -0.011147837 4287513390
-0.032915235 0.0033784583 -0.01344721 4287774763
-0.030649476 0.0012726933 -0.011762963 4287904303
-0.028744869 0.0013941824 -0.012133044 4287968564
-0.026583172 3.2059848e-05 -0.011136579 4287641144
-0.024672948 0.00015411526 -0.011507592 4287641143
-0.022628762 -0.0004651919 -0.011196344 4287315764
0.010873508 -0.040760554 -0.0053355014 4286854978
0.013929807 -0.045193277 -0.0017778864 4286724929
0.0058978871 -0.038831241 -0.0090634096 4288229683
0.0082295984 -0.040228195 -0.0081350338 4287968563
0.011088438 -0.043912776 -0.0052391021 4287575608
0.013624456 -0.046070166 -0.0036602905 4287117629
-0.0054185167 -0.034960277 -0.013610145 4287116865
-0.0032916367 -0.035599276 -0.013334127 4287509819
-0.0010007769 -0.037003659 -0.012401586 4287575608
0.0016233362 -0.039938651 -0.010157095 4287510329
0.0039410815 -0.041341089 -0.0092295278 4287903284
0.0062695667 -0.042742647 -0.0083039766 4288820009
0.008439526 -0.043378226 -0.0080358041 4288230193
0.010958783 -0.045543343 -0.0064587658 4287575608
0.013494126 -0.047707252 -0.0048847934 4286921024
-0.0096336007 -0.036042757 -0.014699234 4287247933
-0.0072144866 -0.038221858 -0.013108572 4287575864
-0.0050853193 -0.038863011 -0.012834763 4288230449
-0.0029507428 -0.039503701 -0.012561915 4287903284
-0.00081073493 -0.040143915 -0.012289947 4287772469
0.0016568042 -0.042319357 -0.010708339 4287838004
0.003976725 -0.04372596 -0.0097844889 4287837494
0.0061409548 -0.044364199 -0.0095169796 4287575864
0.0083105788 -0.045001961 -0.0092504052 4287641144
0.010829158 -0.047173604 -0.0076782103 4287510329
0.013014894 -0.047810055 -0.0074145566 4286463044
-0.016359538 -0.034159645 -0.018036829 4287772214
-0.013836663 -0.037119322 -0.01578665 4288164914
-0.01158195 -0.038535379 -0.014854198 4287903284
-0.009168949 -0.040721454 -0.013267475 4287968819
-0.0068899877 -0.042135693 -0.012339524 4287838004
-0.004753124 -0.042778507 -0.012068863 4288229939
-0.0029219203 -0.041880064 -0.013108629 4287706933
-0.00077958032 -0.042522281 -0.01283884 4287575864
0.001368165 -0.043164022 -0.012569993 4287641144
0.0040120482 -0.046114869 -0.010342482 4287510329
0.0061786249 -0.046755128 -0.010077077 4287379258
0.0083505921 -0.047394887 -0.0098126121 4287444793
0.010527946 -0.048034213 -0.0095490478 4287051328
-0.019587718 -0.040637352 -0.014519691 4286791229
-0.017891046 -0.038963757 -0.016215717 4287052858
-0.016065657 -0.038064338 -0.017253315 4287773233
-0.013677575 -0.040258788 -0.015666878 4288165423
-0.011418007 -0.041678794 -0.014738712 4288361264
-0.0091476664 -0.043097995 -0.013812556 4287575864
-0.0068665221 -0.044516414 -0.012888345 4287837494
-0.0047273189 -0.04516124 -0.012619796 4287575864
-0.0028934292 -0.044260517 -0.013658456 4287510329
-0.00090679154 -0.044132337 -0.014043356 4287313978
0.0012406185 -0.044776253 -0.013776108 4287510074
0.0035568476 -0.046191745 -0.012858185 4287051839
0.0058838129 -0.047606364 -0.011942289 4287182144
0.0080527663 -0.048248477 -0.011678897 4287377728
-0.02141992 -0.043912373 -0.014019622 4286201668
-0.019444875 -0.043786131 -0.01440319 4286856764
-0.017879114 -0.041331924 -0.016752107 4287380788
-0.0159119 -0.041205935 -0.017133949 4287445558
-0.013660949 -0.042630993 -0.016207503 4287772469
-0.011543706 -0.043279789 -0.015936652 4287641654
-0.0091266856 -0.04547862 -0.014360613 4287641144
-0.0069932267 -0.046126105 -0.014092713 4287510074
-0.0048543438 -0.046773113 -0.013825758 4287444283
-0.0033308603 -0.04432074 -0.016165785 4287182143
-0.0013497435 -0.044192947 -0.016549643 4287508543
0.00063142926 -0.044065006 -0.016933396 4287246658
-0.019970767 -0.043051921 -0.017563127 4287444539
-0.018140104 -0.042147979 -0.018598532 4287445049
-0.016036741 -0.042800091 -0.018326858 4287575608
-0.01378629 -0.044229515 -0.017403629 4287379514
-0.011669368 -0.044880487 -0.017134372 4287444539
-0.0096940286 -0.044753589 -0.017517503 4287378749
-0.0077186078 -0.044626541 -0.017900545 4287182144
-0.0057431236 -0.044499375 -0.01828352 4287247169
-0.004077632 -0.042818286 -0.019966133 4286789188
-0.020495608 -0.042304486 -0.020713091 4287247168
-0.018264573 -0.043739662 -0.019789625 4287313215
-0.016022742 -0.045174085 -0.01886813 4287444029
-0.014053077 -0.045047812 -0.019250374 4287444793
-0.012227476 -0.044141613 -0.020282891 4287378494
-0.010260321 -0.044015236 -0.020664439 4287116354
0.041530401 -0.0013783276 0.0058731548 4283789113
0.045918547 -0.0091296062 0.012979016 4283136313
0.051913913 -0.021891259 0.024835363 4283071543
-0.047267184 0.0015474334 0.011746297 4281565768
-0.046025574 0.0067548305 0.0064539928 4281369929
-0.044100024 0.0068769678 0.0060793143 4281894719
-0.041751429 0.0040952787 0.0085084718 4281961784
0.034615945 -0.00050442666 0.0030908156 4284510764
0.037010446 -0.0018133968 0.0040713586 4283922734
0.039202634 -0.0024025217 0.0043697562 4282876469
0.042047061 -0.0051478371 0.0067062061 4281763138
0.04709617 -0.015078612 0.015830027 4281763139
-0.051460885 0.0011781976 0.0099156536 4282025535
-0.050471 0.0085891262 0.0025242083 4279418158
-0.04924193 0.013810825 -0.0027541555 4280590905
-0.047449023 0.014659248 -0.0038229795 4280135219
-0.045455538 0.014050819 -0.0034910571 4281896758
-0.043139882 0.011258349 -0.0010621659 4282222393
-0.040586174 0.0070113838 0.0027601719 4284056609
0.02600088 -0.00045824051 0.0013706628 4283988014
0.027966848 -0.00032972544 0.00099104643 4283070524
0.030336898 -0.0016449466 0.0019727405 4282416448
0.032512896 -0.0022376552 0.0022724047 4282286653
0.035109036 -0.0042730197 0.0039302316 4282025788
0.037300993 -0.004864417 0.0042269398 4281697859
0.039711036 -0.0061766282 0.0052012969 4281632324
0.042778146 -0.0096511617 0.0082077384 4281436229
0.048489846 -0.021774366 0.019339278 4281304903
-0.054323979 0.0060613826 0.0028055348 4281306688
-0.052870139 0.0098382235 -0.0010686796 4281111359
-0.051442847 0.013613477 -0.0049376525 4281307199
-0.049750112 0.015194628 -0.0067036552 4281697858
-0.047967859 0.016044516 -0.0077687665 4281243194
-0.04608807 0.01616367 -0.0081346035 4281179189
-0.043891966 0.014091924 -0.0064073093 4281765943
-0.041571558 0.011291154 -0.0039859414 4281832499
0.021558659 -0.00086233765 -0.00042635296 4283853118
0.023519196 -0.00073440373 -0.00080509204 4282612544
0.025676239 -0.0013308376 -0.00050367694 4282286653
0.028037801 -0.0026510581 0.00047625136 4282156093
0.030410063 -0.0039705038 0.0014542378 4281763393
0.032588419 -0.0045651719 0.0017517488 4281763394
0.034979329 -0.0058831275 0.0027262717 4281763649
0.037380919 -0.007200323 0.0036988538 4281567554
0.039793145 -0.0085166544 0.0046694372 4281567299
0.043077212 -0.012725137 0.0083436389 4281697858
0.049009126 -0.02560807 0.020122364 4281632579
-0.056097761 0.0021829382 0.0041121542 4282086734
-0.054978579 0.0089059621 -0.0025548842 4281176129
-0.053540073 0.01269263 -0.0064178295 4280654909
-0.051844634 0.014278166 -0.0081811231 4281241153
-0.050256878 0.016596097 -0.010639876 4280850749
-0.048285589 0.015981756 -0.010307087 4279939378
-0.046411268 0.016100541 -0.010671875 4281243704
-0.044326365 0.014754415 -0.0096445307 4281570104
-0.042230546 0.013409048 -0.0086191818 4282222138
-0.039571039 0.0084036738 -0.004120823 4283594294
0.017324703 -0.0019829497 -0.0015400453 4284114749
0.019470762 -0.0025825575 -0.0012384662 4282547265
0.021622181 -0.0031817481 -0.00093779434 4282285633
0.023778928 -0.0037804469 -0.00063811522 4282025024
0.026137359 -0.0051052943 0.00033901352 4282025279
0.028307464 -0.0057029352 0.00063633081 4281763904
0.030482877 -0.0063000545 0.00093267858 4281567298
0.032663599 -0.0068967417 0.0012280717 4281502274
0.034849629 -0.0074929371 0.0015225429 4281110593
0.037460484 -0.00954023 0.0031677056 4281175874
0.039874908 -0.010860749 0.0041345432 4281436484
0.043590717 -0.01653295 0.0091480687 4281632578
0.049745165 -0.030179784 0.021570213 4281501254
-0.055958927 -0.0015874356 0.0050363783 4282281808
-0.055275202 0.0088341534 -0.0051053558 4281306178
-0.053841323 0.012631323 -0.0089591164 4280328764
-0.052245349 0.014956143 -0.01141458 4279872569
-0.05037421 0.015074495 -0.011778926 4280133179
-0.048502892 0.015192956 -0.012143234 4278897959
-0.046529017 0.014576696 -0.011812549 4281307964
-0.044654638 0.014695529 -0.012177311 4281177659
-0.042672358 0.014079981 -0.011848124 4281700409
-0.040242977 0.010527484 -0.0087463744 4281506099
-0.037786648 0.0069768056 -0.0056497902 4283537684
0.01505731 -0.0029705912 -0.0030300776 4283921203
0.017197696 -0.0035728514 -0.0027291561 4282286653
0.019343443 -0.0041746497 -0.0024291771 4281697603
0.021494549 -0.0047760233 -0.0021301052 4281828674
0.023650983 -0.0053768903 -0.001832013 4281763138
0.026008926 -0.0067061037 -0.00085811224 4281632579
0.028178714 -0.0073059201 -0.00056239031 4281632323
0.030353811 -0.0079052225 -0.00026764348 4281436483
0.032738443 -0.0092323497 0.00070137158 4281371458
0.034926839 -0.0098305568 0.00099372119 4281175618
0.037958886 -0.013340123 0.0039818883 4281175364
0.040593121 -0.015392207 0.0056176186 4281175109
0.045177896 -0.02399148 0.013308657 4281435974
0.050697416 -0.035496034 0.023677874 4281435719
-0.054860607 0.00286825 -0.0020816149 4281957449
-0.053867392 0.010365851 -0.0094074458 4280523328
-0.052456662 0.01417245 -0.013248336 4280914498
-0.050491497 0.013553198 -0.012917757 4280914753
-0.048520781 0.012934413 -0.012588238 4280981564
-0.046646699 0.013053123 -0.012953026 4281112123
-0.044877313 0.013908781 -0.01401058 4281243448
-0.043113112 0.014764253 -0.015067086 4281243448
-0.040802948 0.011936851 -0.012663668 4281178934
-0.038471185 0.0091109052 -0.010264371 4280988704
0.015295824 -0.0060217232 -0.0028619161 4283334194
0.017255986 -0.005894132 -0.0032408284 4281894208
0.019592067 -0.0072294921 -0.0022662506 4281632324
0.02155757 -0.0071013197 -0.0026460178 4281567043
0.023909688 -0.0084353611 -0.0016743988 4281567043
0.026272517 -0.0097686276 -0.00070472434 4281632323
0.028646022 -0.01110103 0.00026294589 4281632324
0.031030223 -0.012432687 0.0012286678 4281567299
0.033833183 -0.01522442 0.0035395883 4281501763
0.036657523 -0.018014602 0.0058464147 4281306434
0.040131494 -0.022993676 0.010166904 4280980033
0.043218736 -0.026510276 0.013136176 4280979523
0.047621332 -0.034403585 0.020129461 4281305159
-0.054182053 -0.0053436309 0.0030056443 4282348363
-0.053528458 0.0051367655 -0.007083714 4280653123
-0.052385621 0.011174161 -0.012998816 4280915773
-0.050512053 0.011292603 -0.013363689 4280915263
-0.048638292 0.01141116 -0.013728514 4281111869
-0.046866357 0.01226902 -0.014784997 4280461109
-0.045204312 0.013865735 -0.016531594 4280591668
-0.043338023 0.013984106 -0.016894747 4280981819
-0.041251451 0.012625165 -0.015877565 4281374264
-0.038928531 0.0097900257 -0.013483256 4282743103
0.015168829 -0.0076132044 -0.0040522423 4282812208
0.017313963 -0.0082195178 -0.0037555099 4281763904
0.019840002 -0.010292724 -0.0021096691 4281436484
0.022001196 -0.010897748 -0.0018158574 4281500998
0.024167724 -0.011502281 -0.0015230365 4281435719
0.026731236 -0.013572685 0.00011584163 4281435463
0.029509317 -0.016374938 0.0024247356 4281761863
0.033113562 -0.022106983 0.0074194819 4281827398
0.036760658 -0.027836107 0.012406038 4281828164
0.040244028 -0.032829784 0.016712971 4281893953
0.043555647 -0.03708864 0.020341892 4281696839
0.046687443 -0.04061313 0.023294266 4281694798
-0.053099982 -0.00085590035 -0.0040838839 4282085714
-0.052221358 0.0074255988 -0.012064043 4280981309
-0.05062937 0.0097696632 -0.014503766 4280982328
-0.048854925 0.010629717 -0.015559183 4281111613
-0.047289334 0.012972355 -0.017993655 4279223084
-0.045530565 0.013831615 -0.019045861 4280395830
-0.04366976 0.013949618 -0.019407963 4280006189
-0.041589014 0.012585998 -0.018393034 4281374774
-0.039609954 0.011963859 -0.018068116 4281570614
-0.03716439 0.0083800331 -0.014994344 4281507119
0.015406357 -0.010676853 -0.0038933698 4282745654
0.017556522 -0.011284955 -0.0035993122 4281828673
0.019899663 -0.012628496 -0.0026327297 4281567043
0.022253497 -0.013971202 -0.0016681775 4281305414
0.024425069 -0.01457756 -0.0013779886 4281304649
0.027188934 -0.017389536 0.00092691183 4281304393
0.031164214 -0.024611004 0.0072559398 4281173068
0.035796113 -0.034033887 0.015587261 4281565004
0.039886579 -0.041247584 0.021894239 4281956683
-0.052673452 -0.0068743452 -0.0011034338 4282150994
-0.052151687 0.0044082999 -0.011828773 4281305159
-0.050842971 0.0089908987 -0.016333118 4281178679
-0.04936818 0.01208413 -0.019453268 4280785724
-0.047711246 0.013689026 -0.02119234 4281371969
-0.045856096 0.013806537 -0.021553442 4281567808
-0.043893732 0.013180956 -0.02122711 4281176893
-0.041816115 0.011812728 -0.020214874 4281112634
-0.040064827 0.01267397 -0.021263743 4281569848
-0.037858419 0.010564171 -0.019568231 4281894974
0.015461132 -0.013010435 -0.0044136345 4282482748
0.01779842 -0.014358826 -0.0034493469 4281434953
0.019958984 -0.014968298 -0.0031588748 4281172814
0.02212489 -0.015577309 -0.0028693266 4280645473
-0.05215805 -0.013665058 0.0025465935 4282281299
-0.051895648 -0.00010990351 -0.010223108 4281824339
-0.051056199 0.0082167983 -0.01815905 4280718658
-0.049682379 0.01206442 -0.021959484 4280068664
-0.048132084 0.014418975 -0.024381019 4280654908
-0.0460767 0.013044834 -0.023367995 4281046079
-0.044117302 0.012416869 -0.023042768 4280720189
-0.042042837 0.011044096 -0.022033257 4280069174
-0.040406413 0.01265239 -0.023764737 4280980798
-0.038435824 0.012025453 -0.023441441 4281503294
-0.035871789 0.0076753497 -0.019700684 4282418233
-0.027089044 0.00071313232 -0.014342156 4284048959
-0.025056012 9.0815127e-05 -0.014030508 4283134529
-0.022883825 -0.001274772 -0.013039253 4281892933
-0.020973496 -0.0011524931 -0.013410126 4281893953
-0.019202076 -0.00028670579 -0.014460477 4283138354
0.01569749 -0.016088702 -0.0042656995 4283464754
0.017855052 -0.016700663 -0.0039764009 4280646239
-0.051454246 -0.0061420128 -0.00725677 4282019923
-0.050885014 0.0044542924 -0.017236579 4281239878
-0.049897164 0.011305582 -0.023773259 4280589118
-0.048450522 0.014414404 -0.026874594 4280524348
-0.046400957 0.013035499 -0.025863731 4280655163
-0.044447206 0.012404986 -0.025539085 4280720444
-0.04226917 0.010280162 -0.023848208 4281046334
-0.040523149 0.011145324 -0.024892777 4280916029
-0.038438119 0.0097690895 -0.023888495 4281307453
-0.03598997 0.0061529949 -0.020840105 4281568319
-0.033514909 0.0025387183 -0.017796881 4282416448
-0.031258464 0.00041940063 -0.016120845 4282873154
-0.029236704 -0.00020609051 -0.015808815 4282350404
-0.027081333 -0.001577273 -0.014817842 4282024003
-0.025176734 -0.001455605 -0.015187786 4281892934
-0.023005031 -0.0028255656 -0.014199764 4281697094
-0.021094836 -0.0027033016 -0.014570608 4281502019
-0.019045699 -0.0033264533 -0.014263521 4281698368
-0.016991079 -0.0039491132 -0.013957388 4284705839
-0.050642163 -0.015202306 -0.0015692879 4282149974
-0.050618961 -7.1406364e-05 -0.015639102 4282283593
-0.049816035 0.0083006397 -0.02353137 4280784193
-0.048565872 0.012918588 -0.027994342 4281176639
-0.046412893 0.010785412 -0.026303697 4281306688
-0.044456765 0.010152861 -0.025981192 4280915009
-0.04216747 0.0072720423 -0.023613688 4281241663
-0.040304169 0.0073903054 -0.023976188 4281110848
-0.038097002 0.0052609742 -0.022295779 4281371203
-0.035873622 0.0031328127 -0.020618489 4281240389
-0.033514097 0.00025686622 -0.018264318 4280913733
-0.031255603 -0.0018688813 -0.016593643 4281043019
-0.029231489 -0.0024963617 -0.016283786 4281108809
-0.027201876 -0.0031233802 -0.015974918 4281304649
-0.025166765 -0.0037499145 -0.01566701 4281304649
-0.022992887 -0.0051240921 -0.01468276 4281370694
-0.02108014 -0.0050016865 -0.015054113 4281501764
-0.018889956 -0.0063745305 -0.014072889 4281828418
-0.049780183 -0.0091297552 -0.0099566169 4282543949
-0.049342148 0.0022775233 -0.020565953 4281240898
-0.048176065 0.0076617971 -0.025704239 4281176638
-0.046217732 0.0070271045 -0.025383914 4281045823
-0.044041142 0.0048889965 -0.023702798 4281045824
-0.041957341 0.0035037845 -0.022705106 4280981053
-0.039862692 0.0021193847 -0.021709496 4281372734
-0.037757188 0.00073578954 -0.020715918 4281044804
-0.035523728 -0.0013982877 -0.019045539 4281240389
-0.033393815 -0.0027801171 -0.018056538 4281109318
-0.031375483 -0.0034102872 -0.017747276 4281174343
-0.029351674 -0.0040399656 -0.017439032 4281239369
-0.027194574 -0.0054197237 -0.016455054 4281239113
-0.025157101 -0.0060483441 -0.016149249 4281304649
-0.022981018 -0.0074266717 -0.015168799 4281370438
-0.020929933 -0.0080541521 -0.014865505 4281436228
-0.018734861 -0.0094310567 -0.013888504 4281893953
-0.049326703 -0.015212215 -0.0070318468 4282412624
-0.048772059 -0.0045259371 -0.016939087 4282089794
-0.047687039 0.0016290694 -0.022749877 4281503549
-0.045712948 0.00099319965 -0.02243429 4281177149
-0.043627135 -0.00039631128 -0.021440465 4281111613
-0.041530423 -0.0017850697 -0.020448633 4281111104
-0.039422855 -0.0031729788 -0.019458864 4281176129
-0.037418664 -0.003806524 -0.019148812 4281240644
-0.035408974 -0.0044396296 -0.018839767 4281174853
-0.033274166 -0.0058255196 -0.017855002 4281109318
-0.031250805 -0.0064575151 -0.017548429 4281305159
-0.02922193 -0.0070890412 -0.017242838 4281239368
-0.027187578 -0.0077201575 -0.016938187 4281173833
-0.02501744 -0.0091033205 -0.015959991 4281108043
-0.022836484 -0.010485664 -0.01498381 4281435208
-0.020644687 -0.011867262 -0.014009614 4281631813
-0.018718734 -0.011743911 -0.014383458 4282089793
-0.049065828 -0.019806586 -0.0054858094 4282281299
-0.04849828 -0.0090892613 -0.015372356 4281891913
-0.047300674 -0.003672801 -0.02049353 4281566789
-0.045520201 -0.0027971417 -0.021538503 4281436738
-0.043320782 -0.0049468204 -0.019871822 4281240644
-0.041322559 -0.0055831373 -0.019562449 4281240133
-0.03931883 -0.0062190071 -0.019254072 4281240133
-0.037309572 -0.0068544596 -0.018946648 4281305414
-0.035294831 -0.0074894056 -0.018640241 4281174854
-0.033394001 -0.0073684826 -0.019009842 4280978503
-0.03124883 -0.0087579116 -0.018030379 4281109064
-0.029217593 -0.009391509 -0.017726883 4281173833
-0.027053423 -0.010779507 -0.016750941 4281238603
-0.025008544 -0.011411972 -0.016449967 4281173833
-0.022825375 -0.012798555 -0.015477499 4281238603
-0.020766884 -0.013429932 -0.01517899 4281630794
-0.018702921 -0.01406081 -0.014881443 4282022729
-0.016633503 -0.014691241 -0.014584865 4283459399
-0.049282074 -0.020622484 -0.0073430045 4282477904
-0.048519306 -0.011392817 -0.015851134 4281891403
-0.047317974 -0.0059610084 -0.020961439 4281632324
-0.045431614 -0.0058416799 -0.021328742 4281371204
-0.043439209 -0.0064806566 -0.021019997 4281370949
-0.041224197 -0.0086357445 -0.019361258 4281435974
-0.039215416 -0.0092734694 -0.019055527 4281500999
-0.037087224 -0.010668658 -0.018076368 4281239368
-0.035181321 -0.010547556 -0.018447053 4281304393
-0.033275269 -0.010426298 -0.018817671 4281239879
-0.031247146 -0.011062391 -0.018515322 4280979778
-0.029088952 -0.012455232 -0.017541656 4281240134
-0.027047195 -0.013090178 -0.017241823 4281303884
-0.024999946 -0.013724662 -0.016942967 4281303374
-0.023079865 -0.013601966 -0.017315883 4281040979
-0.021024358 -0.014235735 -0.017018415 4280777563
-0.049117938 -0.024478905 -0.0064908927 4282478414
-0.048540607 -0.01370047 -0.016332921 4281826633
-0.047235236 -0.0090142116 -0.020756984 4281566789
-0.045446664 -0.0081338212 -0.021800222 4281436228
-0.043346196 -0.0095354095 -0.020819226 4281306179
-0.041234843 -0.010936275 -0.019840246 4281371203
-0.039112635 -0.012336291 -0.018863326 4281305414
-0.036979564 -0.013735555 -0.017888397 4281108299
-0.035068445 -0.013614126 -0.018260114 4281172303
-0.03327626 -0.012732834 -0.019303536 4281172048
-0.031367533 -0.012611322 -0.019674597 4280910163
-0.029209815 -0.014008515 -0.018704155 4280385118
-0.04875721 -0.014485545 -0.018166449 4282021963
-0.047353461 -0.010549612 -0.021906406 4281502019
-0.045153446 -0.012718864 -0.020254884 4281436738
-0.043042742 -0.014124177 -0.019279232 4281566789
-0.040812939 -0.016291313 -0.017633332 4281436738
-0.038677834 -0.017694876 -0.016662275 4281370694
-0.036531851 -0.019097634 -0.015693169 4281238603
-0.034839973 -0.01745116 -0.01740884 4280909908
-0.033158638 -0.015805267 -0.019122316 4280711774
-0.04657153 -0.018972345 -0.017006084 4281762883
-0.044245385 -0.021911733 -0.014692479 4281763394
-0.041897662 -0.024849646 -0.012382996 4281763139
-0.039636403 -0.027021311 -0.010748217 4281628754
-0.037469655 -0.028427169 -0.0097866189 4281102434
-0.042930543 -0.034216911 -0.0064822678 4282545733
0.027645601 -0.021219112 0.0017284639 4279853953
0.032419667 -0.031411253 0.010718638 4279983749
0.037268743 -0.041598372 0.019694414 4280376448
0.021806367 -0.016443066 -0.0047399104 4279458958
0.024167232 -0.017793842 -0.0037832642 4279261588
0.027905924 -0.024321742 0.0018518064 4279261079
0.03307873 -0.036023058 0.012154439 4279457939
0.013059737 -0.015589334 -0.0070921145 4281095804
0.015387982 -0.016947038 -0.006132856 4279260823
0.017726962 -0.018303953 -0.0051755244 4278802078
0.019702472 -0.018175237 -0.0055572996 4278736033
0.021677975 -0.018046387 -0.0059389817 4278997918
0.024423245 -0.020885639 -0.0036504949 4279063198
0.028360706 -0.028174631 0.0026359316 4279390874
0.033538591 -0.039910197 0.012910975 4279586969
0.0088298768 -0.016693361 -0.0081940815 4281947248
0.010791829 -0.016565993 -0.0085735992 4280177294
0.013111528 -0.017928712 -0.0076161032 4279456663
0.015441969 -0.019290633 -0.0066605369 4279259803
0.017783117 -0.020651706 -0.0057069892 4278867104
0.01976116 -0.020522811 -0.0060892524 4278866848
0.02192878 -0.021138184 -0.0058050128 4279128733
0.024486296 -0.023241572 -0.0041899206 4278932128
0.028424539 -0.030552141 0.0020797495 4278866339
0.033404522 -0.041578479 0.011663439 4279128478
0.0046117902 -0.017791457 -0.0092944279 4281357434
0.0067415237 -0.018412359 -0.0090051405 4279849874
0.0087032989 -0.01828514 -0.0093847364 4279653269
0.010841114 -0.01890523 -0.0090968646 4279521944
0.012984298 -0.019524857 -0.0088099465 4279062943
0.015314244 -0.020891137 -0.007857603 4278801058
0.017654892 -0.022256576 -0.0069072852 4278932383
0.020006254 -0.023621164 -0.0059589306 4278866848
0.02217892 -0.024238415 -0.0056772912 4279128733
0.024549015 -0.025601558 -0.004732375 4278801058
0.028682817 -0.03367991 0.0021842998 4278604453
0.033270471 -0.043246426 0.010416156 4279390873
-0.0041349903 -0.016132914 -0.012312751 4280505734
-0.0025091767 -0.014506049 -0.014027331 4279981965
-0.00024424493 -0.015881702 -0.013066433 4279653779
0.0021965802 -0.018006884 -0.011439674 4279195034
0.0044857189 -0.019380711 -0.010483265 4279194268
0.0067856088 -0.020753779 -0.0095288204 4278538408
0.0087499171 -0.020626388 -0.0099088894 4279194268
0.010890082 -0.021248497 -0.009623141 4278997663
0.013214152 -0.022619613 -0.0086730802 4278932383
0.015367743 -0.023240596 -0.0083897384 4278866848
0.017894454 -0.02535931 -0.0067789787 4278867103
0.020064127 -0.025979035 -0.0064985091 4279063453
0.022428378 -0.027346998 -0.0055558728 4279063708
0.02499526 -0.02946274 -0.0039525386 4278866594
0.028940428 -0.036816098 0.0022826176 4278997663
0.033136439 -0.044914059 0.0091691092 4280242573
-0.010541409 -0.015826203 -0.014370181 4280767874
-0.0084528923 -0.016454943 -0.014076956 4279719313
-0.0060504638 -0.018589579 -0.012448113 4279391638
-0.0041026473 -0.018464006 -0.012825571 4279326104
-0.0023143739 -0.017585419 -0.013870206 4278998173
-0.00036912784 -0.017459758 -0.014246967 4278932893
0.0020710304 -0.019591488 -0.012625066 4278998173
0.00435967 -0.020969681 -0.011671891 4278866594
0.0066590607 -0.0223471 -0.010720664 4278800803
0.0087962002 -0.022971682 -0.010436081 4279194013
0.011114404 -0.024347641 -0.0094883004 4278866593
0.013264976 -0.024971105 -0.0092061246 4279063198
0.015601948 -0.026345529 -0.0082618129 4278736033
0.018133357 -0.028470449 -0.0066568907 4278932639
0.020680841 -0.030594207 -0.0050549824 4279195033
0.023244372 -0.032716759 -0.0034561325 4279391893
0.026207475 -0.036339633 -0.00053821318 4278867359
0.029780643 -0.042212375 0.0043561254 4279391638
0.03339665 -0.04808221 0.0092422739 4280373899
-0.018825401 -0.015625373 -0.016052209 4279980944
-0.016756296 -0.016257979 -0.015757233 4279653014
-0.014681734 -0.016890183 -0.015463192 4278932384
-0.012747753 -0.016765997 -0.015838347 4278801824
-0.010516286 -0.018153049 -0.014878069 4279194523
-0.0081226304 -0.020294875 -0.013252606 4279194779
-0.0060209669 -0.020924792 -0.012963482 4279129244
-0.0039138794 -0.021554247 -0.012675327 4278735778
-0.0021202266 -0.020673215 -0.013719306 4278801313
-7.6703727e-06 -0.021302052 -0.013432012 4279128478
0.002275072 -0.022685088 -0.012481113 4279194268
0.0045685694 -0.02406735 -0.011532166 4278800803
0.0067026801 -0.024694413 -0.011248746 4279194268
0.0091878176 -0.02682934 -0.0096402485 4279390364
0.01151355 -0.028209083 -0.0086972807 4279521433
0.014028199 -0.030341819 -0.0070942808 4279194269
0.01655893 -0.032473408 -0.0054943021 4279128989
0.019289266 -0.0353572 -0.0032364409 4279587988
0.022227257 -0.038992777 -0.0003221659 4279981454
0.025003135 -0.041873403 0.0019271392 4281880693
-0.025121428 -0.015282355 -0.018108699 4279654798
-0.02320151 -0.015159674 -0.018481594 4279260313
-0.021146316 -0.015795633 -0.018185731 4279456409
-0.018947843 -0.017189629 -0.017222751 4279128224
-0.016879052 -0.017824434 -0.016929373 4278997408
-0.01480481 -0.018458828 -0.016636949 4278604453
-0.01272513 -0.019092694 -0.016345512 4278604453
-0.010342937 -0.021241821 -0.014722933 4278932383
-0.0080958046 -0.022632144 -0.013768901 4278736033
-0.0059917867 -0.02326408 -0.013481897 4278932383
-0.004038915 -0.023138188 -0.013860338 4278866848
-0.0020859875 -0.023012176 -0.014238701 4278932128
2.8915703e-05 -0.023643039 -0.013953534 4279194268
0.0023138449 -0.0250303 -0.013006338 4279521434
0.0047768094 -0.027173348 -0.011398746 4278931363
0.0070859231 -0.028558783 -0.010456031 4279455899
0.0097510703 -0.031456031 -0.008192556 4279718294
0.012262344 -0.033595555 -0.0065940116 4280110994
0.015323732 -0.038001888 -0.0030173939 4280111248
0.018236589 -0.041650183 -0.00010675844 4280831879
0.020809505 -0.043785319 0.0014801566 4282077299
0.023398498 -0.045919329 0.003064096 4282798438
-0.02920638 -0.016323082 -0.01919735 4279656329
-0.027162574 -0.016962267 -0.018901259 4279326869
-0.025113262 -0.017601006 -0.018606093 4278867359
-0.023190804 -0.017478183 -0.018979494 4279063198
-0.020998273 -0.018877015 -0.018018778 4278931364
-0.018932581 -0.0195143 -0.017726563 4278996899
-0.016861439 -0.02015119 -0.01743529 4279128479
-0.014784846 -0.020787545 -0.017145004 4279062944
-0.012557119 -0.022183642 -0.016190752 4278669733
-0.010318592 -0.023578964 -0.015238454 4278538918
-0.0080692768 -0.024973452 -0.014288207 4278866848
-0.0061166324 -0.024847686 -0.0146667 4279063453
-0.0041639172 -0.024721816 -0.015045122 4278998174
-0.0018929839 -0.026114516 -0.014098764 4279063708
0.00038871914 -0.027506433 -0.013154362 4279521688
0.0025167391 -0.028138481 -0.012873286 4280242319
0.0049843974 -0.03028775 -0.011271542 4280699534
0.0072983578 -0.031677179 -0.010333145 4282140028
-0.035745606 -0.026774503 -0.011505288 4280835449
-0.034496389 -0.022065245 -0.01589803 4280899964
-0.033160396 -0.018122017 -0.019615913 4280047243
-0.03136535 -0.017236136 -0.020656513 4279325593
-0.02932734 -0.017877966 -0.020361053 4279391129
-0.027283832 -0.018519327 -0.020066563 4278997664
-0.025364302 -0.018396817 -0.020439487 4278276779
-0.02318041 -0.019800715 -0.019480478 4278735523
-0.021120492 -0.020440653 -0.0191889 4278931873
-0.019055128 -0.021080144 -0.018898293 4278800803
-0.016984299 -0.02171921 -0.018608615 4278800803
-0.014765188 -0.023120321 -0.01765611 4278866593
-0.012680788 -0.023758225 -0.017368924 4278801058
-0.010442756 -0.025157914 -0.016419852 4278473128
-0.0083448142 -0.025794692 -0.016135091 4278866338
-0.0062414445 -0.026431009 -0.015851295 4279063198
-0.0039764345 -0.027828544 -0.014907212 4279653268
-0.0017006397 -0.029225297 -0.013965076 4280242829
0.00090910122 -0.032143921 -0.011704532 4280700809
-0.035075232 -0.033719152 -0.0080111492 4280965498
-0.034270018 -0.02592995 -0.015067429 4280571268
-0.033043861 -0.021209128 -0.019445613 4279784083
-0.031364702 -0.019554608 -0.021152021 4279128989
-0.029448241 -0.019432537 -0.021524539 4279063708
-0.027405053 -0.020076104 -0.021231659 4278801314
-0.025614962 -0.019188024 -0.022269374 4278669988
-0.023566186 -0.019830987 -0.021977395 4278407849
-0.021242674 -0.022003993 -0.020358801 4278800803
-0.019040309 -0.023410805 -0.01940652 4278866593
-0.016827136 -0.024816744 -0.018456275 4278866338
-0.014745828 -0.025457129 -0.018170236 4278801059
-0.01265908 -0.026097067 -0.017885173 4278866338
-0.010418866 -0.027500935 -0.016939847 4278931618
-0.0081678778 -0.028903939 -0.015996555 4279390109
-0.0059060901 -0.030306183 -0.015055219 4279914899
-0.0034774803 -0.032471426 -0.013456305 4280307598
-0.0013502017 -0.033108138 -0.013178552 4283121778
-0.034746334 -0.038387559 -0.0065384638 4282733414
-0.034276068 -0.028270133 -0.015577959 4280439688
-0.032927983 -0.024304599 -0.019281648 4279195034
-0.031485438 -0.021108873 -0.022315312 4278801314
-0.029445365 -0.021754935 -0.022023585 4278800803
-0.027652688 -0.020864651 -0.023060244 4278669988
-0.025736138 -0.020742342 -0.023432601 4278735524
-0.023555882 -0.022155128 -0.022479519 4278866338
-0.021364819 -0.023567036 -0.021528482 4278866084
-0.019162945 -0.024978213 -0.020579424 4278997153
-0.017090086 -0.025621422 -0.020293506 4279521178
-0.014726788 -0.027797975 -0.018687388 4280765833
-0.012492504 -0.029206693 -0.017744334 4281879419
-0.010099582 -0.031381093 -0.016143756 4282992238
-0.034513555 -0.029072843 -0.017419862 4280767619
-0.033167437 -0.025096618 -0.021114882 4279325593
-0.031606123 -0.022662848 -0.023478385 4278604453
-0.029319189 -0.024851672 -0.021863021 4278538663
-0.027394868 -0.024728976 -0.022236977 4278473129
-0.025212556 -0.026146047 -0.02128776 4279062944
-0.023151025 -0.026792586 -0.021001557 4279587479
-0.021084044 -0.027438596 -0.020716352 4279521944
-0.018874627 -0.028853551 -0.019772118 4280764813
-0.016654402 -0.030267753 -0.018829847 4281550214
-0.034404479 -0.032189719 -0.017270667 4281356923
-0.032934248 -0.028975174 -0.020296542 4279324829
-0.03112305 -0.028079607 -0.021333719 4278669224
-0.028699964 -0.031046525 -0.019064819 4279520923
-0.026633643 -0.03169512 -0.018781437 4280044693
-0.024304301 -0.033887491 -0.017179115 4280634763
-0.032466225 -0.034416333 -0.018166939 4280307854
-0.030521043 -0.034292594 -0.018545164 4279783318
-0.028205983 -0.036492549 -0.016945263 4280765833
-0.026000671 -0.037916966 -0.016007205 4282927723
-0.029800631 -0.041308224 -0.015117674 4282798438
0.012615845 -0.048060022 -0.020346701 4282863463
-0.014142439 -0.044991426 -0.032022841 4282993769
-0.014265873 -0.046564095 -0.033199597 4282862444
-0.014389299 -0.04813654 -0.034376182 4282862953
0.049541689 0.018647488 0.039830994 4285688353
0.04331971 0.016595878 0.039770227 4285427744
0.043835253 0.021471784 0.034400098 4285624094
0.044970125 0.024313055 0.031169374 4285623838
0.047191799 0.02376692 0.031493589 4285689374
0.050764911 0.019158933 0.036074642 4285755419
0.032635108 0.022580199 0.031556424 4285754398
0.035454381 0.019988801 0.034017101 4285754399
0.038295075 0.017398875 0.036473695 4285623838
0.040314123 0.017530896 0.036083858 4285493278
0.041052394 0.021742616 0.031433687 4285493533
0.04219063 0.024592787 0.028208893 4285755929
0.04374494 0.026082467 0.026406378 4285755164
0.045731418 0.026212696 0.026023086 4285755164
0.048614543 0.023626037 0.028471868 4285689629
0.052653391 0.017645579 0.034453996 4285689629
0.027095174 0.018512994 0.033634339 4285493024
0.027917968 0.022742797 0.028977484 4285689629
0.028908357 0.026287574 0.025037937 4285689119
0.030884519 0.026416562 0.024656203 4285689118
0.033476286 0.024497703 0.026404493 4285820953
0.03670783 0.0205325 0.030278228 4285821209
0.038918566 0.019981015 0.030600999 4285624093
0.040068228 0.022840578 0.02738063 4285558559
0.041412286 0.025016863 0.024872396 4285689883
0.042740162 0.027192134 0.022367392 4285821464
0.044715811 0.02732167 0.021986205 4285886998
0.047139369 0.026088443 0.023017801 4285887254
0.05093373 0.020768523 0.028282538 4285690138
0.055459045 0.013408311 0.035655037 4285690139
0.025021598 0.02373581 0.025309052 4285623838
0.026212463 0.026606265 0.022087026 4286345743
0.027781159 0.028105047 0.020287987 4285820189
0.029541438 0.028918166 0.019200005 4285557794
0.03232152 0.026306842 0.02165493 4285755164
0.035538476 0.022327702 0.025521439 4285820953
0.037945934 0.021088649 0.026552554 4285624349
0.039298557 0.023271956 0.024047624 4285624349
0.040850781 0.024770122 0.022252198 4285558814
0.042173702 0.026951659 0.019753132 4285624094
0.044586193 0.025713269 0.020783532 4285558303
0.0470093 0.024475697 0.02181191 4285558559
0.049896076 0.021872032 0.024246749 4285624094
0.052804202 0.01926985 0.026677538 4285624349
0.057124987 0.012570705 0.033323329 4285690139
0.022722635 0.022684339 0.02377772 4285752868
0.023728039 0.026251726 0.019851793 4285623329
0.024903402 0.029129833 0.016639479 4286279953
0.027054735 0.028569814 0.016970154 4286083349
0.029009216 0.028697409 0.016592629 4285952533
0.031783126 0.026077006 0.019042078 4285952534
0.034786001 0.022771243 0.022193655 4285755673
0.037395176 0.020840686 0.023928732 4285624349
0.038955785 0.02234368 0.022134975 4285624349
0.040721182 0.023159754 0.021048013 4285559069
0.042481117 0.023975547 0.019962173 4285559069
0.044898506 0.0227332 0.020988274 4285559069
0.047326528 0.021491636 0.022012383 4285624349
0.049312495 0.021622054 0.021629363 4285689883
0.051069319 0.02243799 0.020544387 4285821209
0.054210905 0.019142088 0.023669787 4285886489
0.059957523 0.0083120689 0.034501426 4285885978
0.024579633 0.028231263 0.014744924 4285689374
0.026728012 0.027668841 0.015074547 4285689884
0.02888171 0.027106889 0.015403166 4285755419
0.031654812 0.024477754 0.017846115 4285689629
0.034034569 0.02322818 0.018875826 4285623839
0.036425009 0.021979351 0.019903582 4285624094
0.037975118 0.023486074 0.018115159 4285624094
0.040160701 0.022926647 0.018437956 4285624349
0.042351581 0.022367615 0.018759843 4285624348
0.04498931 0.020432774 0.020484686 4285624349
0.046972603 0.020562965 0.020102147 4285624348
0.048051119 0.023444433 0.016915891 4285755673
0.049794596 0.024261687 0.015835173 4285689629
0.052227192 0.023016311 0.016855326 4285558048
0.057012528 0.014899086 0.024867404 4285754654
0.024649169 0.025953405 0.014263904 4285623583
0.026799943 0.025389019 0.014591366 4285624093
0.029157871 0.0241335 0.015621822 4285689628
0.031731017 0.022187375 0.017353792 4285624093
0.033284187 0.023698475 0.015567988 4285689629
0.035246339 0.023826867 0.015189204 4285821208
0.037208416 0.023955341 0.014810503 4285821208
0.040031433 0.02132114 0.017237421 4285755674
0.042439975 0.020069439 0.018258572 4285624093
0.044638511 0.019508887 0.018577356 4285558558
0.046172403 0.021019217 0.016795721 4285624349
0.04701747 0.02459893 0.012918256 4285887509
0.048750293 0.025417682 0.011841277 4285755418
0.051171698 0.024167255 0.012860276 4285558559
0.055007923 0.01878095 0.018063817 4285558559
0.05959712 0.011329662 0.025350962 4285558558
0.027070498 0.022411156 0.014807951 4285687588
0.029030027 0.02253912 0.01442948 4285624348
0.030785162 0.02336074 0.013349276 4285690139
0.031913787 0.026262302 0.010166254 4285755164
0.033859722 0.026389644 0.0097906105 4285886489
0.036017984 0.025824036 0.010115314 4285886488
0.039256934 0.021794468 0.013937853 4285952279
0.041874707 0.019845236 0.015656509 4285821209
0.043847155 0.019974675 0.015276024 4285558558
0.044926975 0.022873573 0.012102835 4285558558
0.04575941 0.0264633 0.0082362015 4285887509
0.047707386 0.026591398 0.0078606419 4285887509
0.049886424 0.026027728 0.0081818476 4285821463
0.05347386 0.021314722 0.012678836 4285755673
0.057098728 0.016604222 0.017168716 4285821464
0.062196352 0.0077486411 0.025821969 4285690138
0.028700706 0.021640915 0.012536632 4285624093
0.030044876 0.023856085 0.010058207 4285755674
0.030959193 0.027461439 0.0061836429 4285820699
0.032684747 0.028283488 0.0051109586 4285557539
0.035041533 0.02701956 0.0061353147 4285557538
0.038483478 0.022281192 0.010648236 4285754909
0.041092571 0.020324852 0.012363624 4285689628
0.043277122 0.019759085 0.012681808 4285624349
0.044352181 0.022666384 0.0095162187 4285558558
0.045405656 0.02557236 0.0063548647 4285558814
0.046894208 0.027088627 0.00458882 4285624348
0.049295902 0.025828321 0.0056049526 4285624348
0.052409261 0.022487316 0.0087026134 4285558814
0.056022059 0.01776085 0.013183175 4285558814
0.059911303 0.012343492 0.018350068 4285493023
0.066744097 -0.0013904124 0.031824112 4285493279
0.028897665 0.025760658 0.0053800307 4285755164
0.030006001 0.028678283 0.0022142734 4286083348
0.031720884 0.029501833 0.0011453368 4285886999
0.034066476 0.02823285 0.0021685436 4285821209
0.037066892 0.024872959 0.0052791834 4285821464
0.039876658 0.022211973 0.0076887719 4285690393
0.042487688 0.020249408 0.0093988366 4285558814
0.044000845 0.021771487 0.0076312646 4285558813
0.0452777 0.023989506 0.005171394 4285559323
0.046994634 0.02481382 0.0041025523 4285493533
0.049398549 0.023549341 0.0051149465 4285427743
0.052747123 0.019501586 0.008896865 4285493279
0.055891544 0.01615189 0.011980295 4285493024
0.059301518 0.012108419 0.01575049 4285426978
0.065883741 -0.0009740293 0.02850166 4285492514
0.028159855 0.026287042 0.0021122526 4285623584
0.029260727 0.029212907 -0.0010453723 4285624093
0.030967627 0.0300381 -0.0021110969 4285689629
0.033304684 0.02876427 -0.0010896176 4285755419
0.036510613 0.024693552 0.0027093049 4285689883
0.039531425 0.021324255 0.0058077648 4285558813
0.042359062 0.01865587 0.0082073305 4285559068
0.044095062 0.019483443 0.0071363505 4285559324
0.046050869 0.019612044 0.006759271 4285559324
0.047550637 0.021137804 0.0049977768 4285559578
0.050423428 0.018472794 0.0073888768 4285625114
0.053784247 0.01441285 0.011158461 4285558814
0.056705076 0.011751149 0.013540488 4285558303
0.060363293 0.0069975033 0.017989062 4285492514
0.066955447 -0.0061255023 0.030706696 4285492003
0.029341796 0.026952356 -0.0015159864 4285623329
0.031051442 0.027779929 -0.0025805589 4285624349
0.033390723 0.026501928 -0.0015628217 4285558558
0.036169417 0.023821481 0.00083939545 4285559068
0.03940361 0.019739687 0.0046229418 4285493278
0.042450167 0.016361345 0.0077082012 4285493279
0.044411331 0.01649024 0.0073300451 4285493024
0.046597514 0.015918277 0.0076431502 4285492514
0.048788927 0.015346792 0.0079552811 4285493023
0.05190748 0.01197356 0.011026943 4285492514
0.054586433 0.010002911 0.012714351 4285492514
0.057281315 0.0080334395 0.014398722 4285492513
0.060946248 0.0032650083 0.018834397 4285427234
0.032179076 0.021996979 0.00041004363 4285690138
0.034322478 0.021419622 0.00072934479 4285755674
0.037542172 0.01732374 0.004505679 4285690138
0.040143322 0.015340954 0.0062026288 4285558813
0.043199614 0.011952404 0.0092776902 4285558813
0.044949144 0.012785267 0.0082074739 4285492768
0.047368016 0.011508603 0.0092069563 4285492514
0.049569868 0.01093566 0.0095154215 4285492514
0.05246786 0.0082549676 0.011888428 4285426978
0.054688245 0.0076834485 0.012193479 4285361443
0.057620842 0.0050052255 0.014559966 4285361188
0.061528102 -0.00048024207 0.019670133 4285361188
0.033304606 0.016188111 0.0033812691 4285426468
0.035675157 0.014903463 0.0043863822 4285558304
0.038484409 0.012207694 0.0067694057 4285558304
0.040664919 0.011630811 0.0070800427 4285492768
0.043508872 0.0089375302 0.0094565302 4285427234
0.045263831 0.0097729266 0.0083869416 4285426979
0.047687579 0.0084922984 0.0093821231 4285426979
0.050121941 0.0072124749 0.01037533 4285426978
0.052797034 0.0052285045 0.012053465 4285360933
0.055022493 0.0046551749 0.012355892 4285361188
0.057488665 0.0033776984 0.013343245 4285295143
0.061632574 -0.0028296188 0.019125737 4285295143
0.034219556 0.011061825 0.005643772 4285426469
0.036391888 0.010482021 0.0059542302 4285427234
0.038783338 0.0091945603 0.0069520213 4285427233
0.041185461 0.0079078525 0.0079478696 4285427233
0.043598201 0.0066219941 0.0089417119 4285427233
0.045799684 0.0060445294 0.0092468038 4285426724
0.048006427 0.0054675415 0.0095509756 4285361444
0.050672952 0.0034764186 0.011225702 4285426979
0.05335544 0.0014864579 0.012897437 4285427234
0.056053892 -0.00050232559 0.014566118 4285426979
0.059003606 -0.0031967089 0.016916037 4285295654
0.063402548 -0.010128938 0.023363955 4285295399
0.034507841 0.0080460384 0.0058270209 4285360678
0.036896214 0.0067539439 0.0068220049 4285493025
0.038867898 0.0068833008 0.0064416453 4285427233
0.041272223 0.0055924281 0.0074337628 4285427234
0.043468136 0.0050123706 0.0077382121 4285427233
0.046112768 0.0030131117 0.0094120279 4285427233
0.048997782 0.0003053993 0.011767458 4285360934
0.052131228 -0.00311023 0.014802963 4285295144
0.055521127 -0.0072332844 0.018516973 4285294889
0.058710642 -0.010645017 0.021541826 4285229608
0.062397078 -0.01547271 0.025926724 4285032239
0.034587279 0.0057346895 0.0053178165 4285426978
0.036977872 0.0044383779 0.0063091032 4285427233
0.038952116 0.0045679286 0.0059282631 4285427233
0.041358635 0.0032729134 0.0069166012 4285426979
0.043994661 0.0012665018 0.0085870139 4285492259
0.047311299 -0.0028746501 0.012304952 4285492258
0.051332705 -0.0091490224 0.018065795 4285360934
0.05540226 -0.015420131 0.02381742 4285229098
0.034458425 0.0041343123 0.004121121 4285426978
0.037059173 0.0021187887 0.0057931263 4285427233
0.03924929 0.0015338287 0.0060952287 4285427233
0.041228693 0.0016638413 0.0057134964 4285361188
0.04452011 -0.0024920776 0.0094262343 4285360934
0.048950452 -0.010216646 0.01654233 4285294889
0.055008024 -0.022935092 0.028416708 4285098284
0.034537353 0.0018169954 0.003607465 4285098284
0.036719207 0.0012291968 0.0039094724 4284967214
-0.038897358 0.0063019097 0.00052122027 4285949728
0.0067214742 -0.0012872741 -0.003561913 4286539543
0.0084936172 -0.00043078512 -0.0046195006 4285688354
0.010437809 -0.00030457228 -0.0049955836 4285622819
0.012562104 -0.00090811402 -0.0046917228 4285163564
0.0022030361 -0.00092156231 -0.0060333228 4285622053
0.0043108314 -0.0015287921 -0.0057282867 4285622563
0.0064240284 -0.002135545 -0.0054241968 4285622819
0.0085426122 -0.0027418509 -0.0051210718 4285623074
0.010843817 -0.0040799379 -0.0041401042 4285492258
0.012795933 -0.0039530993 -0.0045176344 4285426724
-0.0037368611 -0.0028713271 -0.0060845567 4285425448
-0.0016375631 -0.0034816116 -0.0057797981 4285426724
0.0001398474 -0.002620928 -0.006835443 4285361188
0.0019119419 -0.0017604679 -0.0078899721 4285426978
0.0038477369 -0.0016351566 -0.0082647046 4285361188
0.0064703338 -0.0044486597 -0.0059266938 4285426468
0.008591298 -0.0050570071 -0.00562564 4285360678
0.010894682 -0.0063992515 -0.0046484629 4285360679
0.012669597 -0.005538024 -0.0057030888 4285294889
-0.034809828 0.0055383891 -0.01261265 4285167133
-0.010725878 0.00034855306 -0.010899912 4285556518
-0.0083483793 -0.0017423257 -0.0092314193 4285425959
-0.0062656067 -0.0023560748 -0.0089252992 4285426213
-0.0041774064 -0.0029693618 -0.0086201439 4285492259
-0.0022445805 -0.0028445944 -0.0089945765 4285426978
-0.0001482144 -0.0034571663 -0.0086907847 4285426723
0.0019535534 -0.0040692389 -0.0083879894 4285361188
0.0040607192 -0.0046808496 -0.0080861598 4285426723
0.0063448027 -0.0060288981 -0.007108747 4285360934
0.0084654503 -0.0066394508 -0.0068093045 4285360934
0.010945225 -0.0087226108 -0.0051598549 4285360678
0.012902418 -0.0085954368 -0.005538363 4285294888
-0.012767516 -0.0013329089 -0.011693538 4285491493
-0.010548696 -0.0026904866 -0.010707474 4285426468
-0.0084716715 -0.0033069029 -0.010402008 4285492003
-0.0062339492 -0.0046629682 -0.0094194673 4285361188
-0.0044592693 -0.0037983879 -0.010471455 4285426979
-0.0023686402 -0.0044135824 -0.010168349 4285426979
-0.00010928884 -0.0057679713 -0.0091897119 4285426979
0.00232682 -0.0078609139 -0.007537141 4285426724
0.0044417232 -0.0084742531 -0.0072384397 4285361189
0.0065620132 -0.0090870559 -0.0069407225 4285426724
0.0085136555 -0.008960478 -0.0073183342 4285426724
0.010642033 -0.0095725358 -0.0070220083 4285295654
0.012955176 -0.01092267 -0.0060532615 4285098538
-0.033155218 0.0025829077 -0.015283019 4285687588
-0.014953122 -0.0022709146 -0.013165376 4285229864
-0.012595858 -0.0043763295 -0.011503118 4285360933
-0.010222439 -0.0064805374 -0.0098439455 4285361188
-0.0082901046 -0.0063561425 -0.010218542 4285426979
-0.0063576922 -0.0062316582 -0.010593085 4285361188
-0.0047407597 -0.0046227649 -0.012319284 4285426978
-0.0023322105 -0.0067242831 -0.010666525 4285361189
9.2461705e-05 -0.0088245943 -0.009016823 4285426979
0.0025332756 -0.01092381 -0.0073701292 4285426724
0.0048217028 -0.012280345 -0.0064002909 4285361443
0.0067785382 -0.012153573 -0.0067790225 4285426979
0.008735396 -0.012026668 -0.0071576536 4285361188
0.010692278 -0.01189962 -0.0075361915 4285164328
0.013186844 -0.013994746 -0.0058994368 4284967469
-0.014642615 -0.0060616955 -0.012298498 4285229863
-0.012424853 -0.0074280873 -0.011319026 4285361188
-0.010046724 -0.0095385462 -0.009665709 4285426979
-0.0084136613 -0.0079244822 -0.011391943 4285426724
-0.0063264705 -0.0085445195 -0.011091648 4285426724
-0.0045490637 -0.0076754093 -0.012140896 4285426724
-0.0021358244 -0.0097831264 -0.010494033 4285361444
0.00029356033 -0.011889674 -0.0088501908 4285296163
0.0024077743 -0.012507461 -0.0085548088 4285361443
0.0046957135 -0.013868377 -0.0075882114 4285361188
