# .PCD v0.7 - Point Cloud Data file format
VERSION 0.7
FIELDS x y z rgba
SIZE 4 4 4 4
TYPE F F F U
COUNT 1 1 1 1
WIDTH 971
HEIGHT 1
VIEWPOINT 0 0 0 1 0 0 0
POINTS 971
DATA ascii
-0.0026041605 0.009313412 -4.5225024e-05 4288426289
-0.0011942796 0.011597365 -0.0025670119 4288753198
2.6039779e-05 0.01459419 -0.0057810694 4288818734
0.0015778616 0.016161989 -0.0075996201 4288949804
0.0029400885 0.018442728 -0.010110468 4289146154
0.004831478 0.018582232 -0.010535298 4289080874
0.0065385923 0.019435041 -0.011653564 4289669414
0.0089884959 0.017435618 -0.0099989353 4289800229
0.011264782 0.01615024 -0.0090400949 4289538598
0.013551764 0.014865793 -0.0080836248 4289538854
0.015264444 0.015719414 -0.0092028324 4289669413
0.016576491 0.017997198 -0.011701847 4289473319
0.018874273 0.01671382 -0.010747519 4289211689
0.02118272 0.015431397 -0.0097955409 4289996324
0.023707524 0.013438217 -0.0081571098 4290127139
0.025415014 0.014292002 -0.0092747454 4289145898
0.027750157 0.013011862 -0.0083285123 4289276968
0.030736931 0.0095995888 -0.0053237323 4289276968
0.034615636 0.0033461154 0.0004205592 4288949804
0.038980272 -0.004324913 0.0075257178 4288818733
-0.01440677 -0.0018723533 0.010217274 4287773998
-0.012605093 -0.0010116994 0.0090784226 4288427564
-0.010963425 0.00056626648 0.0072422959 4288034353
-0.0088597126 -8.5383654e-06 0.007502351 4288229683
-0.007070899 0.00085152686 0.0063665919 4288295730
-0.0051244348 0.00099433959 0.0059288219 4288099379
-0.0035088584 0.0025707483 0.0040989071 4288295730
-0.0019038208 0.004146494 0.0022714511 4288295474
-0.00065099448 0.0071543232 -0.00094339065 4288622639
0.0004071258 0.010876849 -0.004847683 4288426288
0.0017910376 0.013165601 -0.0073585436 4288622383
0.0029802248 0.016169053 -0.010558851 4288622638
0.0045111738 0.017739885 -0.012369252 4288884524
0.0062156804 0.018594693 -0.013485347 4289538599
0.0082885809 0.01801879 -0.01321748 4289669414
0.010366865 0.017443426 -0.012950794 4289211433
0.012258381 0.017583355 -0.013375339 4289734949
0.014344759 0.0170088 -0.013110309 4290061858
0.015844088 0.018577933 -0.014913131 4289342504
0.018133339 0.017289601 -0.013960239 4288818733
0.020433288 0.016002137 -0.013009612 4288687663
0.023360305 0.012574196 -0.0099999383 4289080108
0.025065187 0.013429988 -0.011115389 4289276713
0.027818734 0.01071842 -0.0087998509 4289211178
0.031020526 0.006582126 -0.0051182993 4288950059
0.03511877 -0.00040369481 0.001295099 4288884524
0.039270289 -0.0073854402 0.0076966416 4288295983
-0.012898907 -0.0018995553 0.0072025619 4288232743
-0.011105001 -0.0010371655 0.0060671326 4288166189
-0.009001594 -0.0016141832 0.0063255969 4288230449
-0.0070527233 -0.0014713258 0.0058871824 4288230449
-0.0051037259 -0.0013283491 0.0054488238 4288230193
-0.003319934 -0.00046628714 0.0043159872 4288230193
-0.0017093047 0.001114212 0.0024905615 4288230193
-0.00027986616 0.0034126267 -2.5745481e-05 4288426544
0.00096039847 0.0064282864 -0.0032310486 4288492080
0.0025313832 0.00800623 -0.0050473642 4288687918
0.0035559088 0.011737391 -0.0089357011 4288492078
0.0049164705 0.014031149 -0.011436217 4288818988
0.0064450912 0.015606254 -0.013242727 4288753964
0.0081497356 0.01646331 -0.014357084 4289080874
0.0098491199 0.01732013 -0.015470214 4289276968
0.011351284 0.018893592 -0.017270548 4289538599
0.013232067 0.019032821 -0.017692611 4289996579
0.015112888 0.019172162 -0.018114598 4289865509
0.017393623 0.017878845 -0.017163098 4289734694
0.019887652 0.015870202 -0.015527755 4289864998
0.022602966 0.01314687 -0.013210408 4290323234
0.025131661 0.011141017 -0.011582678 4289473319
0.027886957 0.0084208697 -0.0092741251 4289276968
0.031090081 0.0042716339 -0.0056028292 4289015593
0.034972955 -0.002020739 0.00011080876 4288492588
0.03868518 -0.007594429 0.0051312689 4288297003
-0.0091434233 -0.00321953 0.0051490534 4288103204
-0.0070348941 -0.0037982315 0.0054047257 4288297259
-0.0047584549 -0.0050977618 0.0063527245 4288230194
-0.0032968335 -0.0027907193 0.0038340073 4288098868
-0.0016833022 -0.0012056306 0.0020111669 4288296238
-0.00025073811 0.0010994971 -0.00050085783 4288165168
0.0013390332 0.0026830509 -0.0023181923 4288427054
0.0027425066 0.0049862489 -0.0048235171 4288165168
0.0039516352 0.0080085769 -0.0080151167 4288099378
0.0053206384 0.01030951 -0.010512564 4288361009
0.0068575107 0.011889555 -0.012317646 4288491824
0.0081973635 0.014188558 -0.014808381 4288753198
0.0095212869 0.016486473 -0.017295476 4288818989
0.0108293 0.018783279 -0.019778866 4289146153
0.012704626 0.018922105 -0.020199699 4289604134
0.014777064 0.018342253 -0.019934777 4289669413
0.016854871 0.017762907 -0.019670969 4289341994
0.019342847 0.015747279 -0.018039223 4290388514
0.02225698 0.012296587 -0.015043171 4289930533
0.02499003 0.0095659718 -0.012736319 4289669414
0.027954793 0.0061192513 -0.009751454 4289146408
0.030946199 0.0026746243 -0.0067724781 4289081128
0.034179963 -0.0014852881 -0.0031178575 4288231978
0.037227295 -0.0049255043 -0.00015123747 4288364069
0.041185468 -0.011231668 0.0055308379 4287775529
-0.0055501387 -0.0038153306 0.0024040807 4288362539
-0.0039338022 -0.0022258461 0.00058385544 4288427054
-0.0021603964 -0.0013601556 -0.00054324046 4288230704
-0.00022197142 -0.0012176782 -0.00097901002 4288230959
0.0013707317 0.00037043542 -0.0027937181 4288165169
0.0029528886 0.0019578487 -0.0046059117 4288165168
0.0041679926 0.004989326 -0.0077922577 4288230194
0.0055427663 0.007297188 -0.010286069 4288099123
0.0072687902 0.0081600547 -0.01140202 4288295474
0.0086170956 0.010466158 -0.013889674 4288491568
0.0097605735 0.01349277 -0.017059609 4288818478
0.011074357 0.015796587 -0.019539388 4288884013
0.012760658 0.01665695 -0.02064609 4288818478
0.014835432 0.016075097 -0.020383332 4288884014
0.016716026 0.016214512 -0.020805197 4289145899
0.019203283 0.014192291 -0.019178249 4289799718
0.02191142 0.011450991 -0.016872497 4289734693
0.024848416 0.0079912096 -0.013889747 4289342504
0.02760186 0.0052535087 -0.011593982 4289277479
0.030163735 0.0032373071 -0.0099834735 4288886308
0.032741599 0.0012223795 -0.0083764093 4288821538
0.035335422 -0.00079119951 -0.0067728767 4288167973
-0.002636686 -0.0015055835 -0.0030910578 4288233763
-0.00087376684 -0.00063838065 -0.0042140726 4288101164
0.0010566376 -0.00049640238 -0.0046479683 4288099889
0.0028117634 0.00037043542 -0.0057690721 4287968563
0.0043836124 0.0019615293 -0.0075755855 4288230194
0.0059448816 0.0035520196 -0.0093796784 4288295729
0.0073121935 0.0058659613 -0.01186679 4288099379
0.0086636133 0.0081788227 -0.014350194 4288295730
0.0099991001 0.010490648 -0.01682999 4288295219
0.011510029 0.012077801 -0.01862241 4288557104
0.013398405 0.012217581 -0.019046182 4288687918
0.015286818 0.012357473 -0.019469883 4288818734
0.016975906 0.013220474 -0.020575447 4288687918
0.019265752 0.011914827 -0.019635767 4289015593
0.021975631 0.0091649443 -0.017337013 4288688939
0.024706833 0.0064167529 -0.015042955 4288624168
0.027249331 0.0043924749 -0.013433133 4288298023
0.029382493 0.0038134009 -0.013184573 4288167718
0.00091550872 -0.0020856783 -0.0058125323 4288231213
0.0026706941 -0.0012166798 -0.0069320081 4288099889
0.0045984834 -0.0010746717 -0.007365155 4288099378
0.0061653443 0.00052052736 -0.0091671692 4288361519
0.0073552579 0.0035677627 -0.012334504 4288099378
0.0087097809 0.0058874115 -0.01481371 4288295473
0.010236889 0.0074799955 -0.016606551 4288164658
0.011944558 0.0083462223 -0.017714879 4288426544
0.01364696 0.0092121363 -0.018821899 4288557359
0.015540559 0.009352386 -0.019246776 4288426288
0.017434198 0.0094927847 -0.019671563 4288492078
0.019731507 0.0081833079 -0.018736873 4288623148
0.022243954 0.0061500445 -0.017125433 4288166189
0.024772417 0.0041180253 -0.015517458 4287578159
0.026687428 0.0042604655 -0.015946692 4287644458
0.0042796656 -0.0019325837 -0.0092113176 4288561183
0.0062047318 -0.0017906725 -0.0096437754 4288232233
0.007580936 0.00053696334 -0.012123003 4288100398
0.0089412332 0.0028635636 -0.014598564 4288100399
0.01028562 0.0051890612 -0.017070426 4288034353
0.01199602 0.0060576051 -0.018177684 4288230450
0.013894767 0.006198138 -0.018603794 4288230193
0.015793554 0.0063387901 -0.019029841 4288230194
0.017692383 0.0064795464 -0.019455802 4288361519
0.019994475 0.0051661357 -0.018525511 4288558124
0.022307243 0.0038536191 -0.017597537 4288428329
0.024216782 0.0039955229 -0.018025644 4288102949
0.0074403062 -0.0010408461 -0.013279018 4288428584
0.0089864992 0.00056174397 -0.015069637 4288035374
0.010522097 0.0021637008 -0.016857836 4287969073
0.012047108 0.0037649497 -0.018643521 4288164913
0.013754945 0.0046355873 -0.019748479 4288033843
0.015653599 0.0047762319 -0.020174481 4288230194
0.017751042 0.0041874498 -0.019923341 4288557614
0.019853838 0.0035991669 -0.019673316 4288427309
0.021757899 0.0037405491 -0.020100275 4288690214
0.023455223 0.004610993 -0.021202432 4287906599
0.010194093 0.0013274476 -0.018685013 4287315763
0.011907265 0.002200529 -0.019789612 4287706423
0.013615161 0.0030733645 -0.020892922 4287771959
0.015317753 0.0039459467 -0.021995017 4288099379
0.017213639 0.004086487 -0.022420323 4288295983
0.019109547 0.0042271465 -0.022845542 4288164914
0.020597696 0.005830586 -0.024619231 4288561184
0.011386685 0.0021054968 -0.022286823 4286987833
0.013475403 0.0015114099 -0.022037175 4287510329
0.01537377 0.0016520321 -0.022463113 4287837238
0.016875427 0.0032606423 -0.02423675 4288229683
0.018366471 0.0048685223 -0.026007883 4288100654
0.015038386 0.00082673132 -0.024279997 4287641654
0.016141284 0.0039117187 -0.027394325 4288164658
0.017423756 0.0062592924 -0.02983208 4287905834
-0.014912888 -0.036630884 -0.00054920465 4286593603
-0.01476372 -0.039772503 -0.00040021911 4286071108
-0.013370618 -0.036607534 -0.0035353415 4287052859
-0.014907397 -0.041407935 -0.0015990324 4286005828
-0.013216235 -0.039748564 -0.0033872835 4287118138
-0.011535563 -0.038089797 -0.0051731355 4287903284
-0.0098653957 -0.036431685 -0.0069564655 4288426543
-0.0083624311 -0.034017652 -0.0094057918 4287050819
-0.015196912 -0.04228352 -0.0034668092 4287117628
-0.013508163 -0.040619984 -0.0052512288 4287379513
-0.01167874 -0.039716199 -0.0063652592 4288099378
-0.010008328 -0.038053751 -0.0081453631 4288361008
-0.0083484538 -0.036391929 -0.0099230595 4287771704
-0.0066990629 -0.034730777 -0.011698253 4287313213
-0.015486009 -0.043154426 -0.0053311531 4286986048
-0.013799682 -0.041486681 -0.0071117887 4287444283
-0.01197286 -0.040580966 -0.008223542 4287641144
-0.010458551 -0.038153216 -0.010665667 4287902773
-0.0086474158 -0.037248388 -0.011773699 4287641654
-0.0065235384 -0.037865296 -0.011551269 4287575863
-0.0047174953 -0.036960587 -0.012657956 4287706933
-0.0029166713 -0.036056146 -0.01376339 4287837493
-0.01577466 -0.044020668 -0.0071920874 4287312449
-0.013942607 -0.043112457 -0.0083034979 4287312958
-0.01196494 -0.042968087 -0.0087488452 4287837748
-0.010447539 -0.040533632 -0.011186679 4287772215
-0.008477591 -0.040389568 -0.011630085 4287576118
-0.0066663139 -0.039482415 -0.01273647 4287576118
-0.0046987943 -0.039338276 -0.013179132 4288099633
-0.0028952695 -0.038431481 -0.014283545 4288361774
-0.0014304817 -0.036000274 -0.016709078 4287902774
0.00018785521 -0.034332201 -0.018470388 4287510074
-0.014085509 -0.044737928 -0.0094949873 4287573824
-0.012107991 -0.044593573 -0.0099403011 4287050818
-0.010436885 -0.042918101 -0.011710727 4287116864
-0.0084644333 -0.042773858 -0.012154714 4287313979
-0.0066504553 -0.04186438 -0.013260015 4287445049
-0.0048416816 -0.040955096 -0.014364083 4288164913
-0.0028742142 -0.040810853 -0.014806663 4288296238
-0.0014063418 -0.038372919 -0.017227955 4287969328
0.00038412213 -0.037464641 -0.018327575 4287969329
0.0019974634 -0.03579247 -0.020084381 4287641399
0.0037747957 -0.034884922 -0.021180872 4287706423
-0.0087630972 -0.043627232 -0.014003095 4286724673
-0.0069517381 -0.042715743 -0.015106206 4287379259
-0.004984539 -0.042571634 -0.015548815 4287706678
-0.0031809397 -0.041660517 -0.016649969 4287314743
-0.0013825521 -0.040749654 -0.017749839 4287707953
0.00057963282 -0.040605515 -0.018191017 4287772979
0.0025419146 -0.040461272 -0.01863214 4288230958
0.0041555688 -0.038784645 -0.020385589 4288492589
0.0061126798 -0.038640521 -0.020825353 4287641909
-0.0052882098 -0.043418601 -0.017390937 4286529853
-0.0033237077 -0.043274567 -0.017832842 4286922299
-0.0015252903 -0.042361528 -0.01893108 4287707699
0.00060556456 -0.042986125 -0.018716443 4288035119
0.002398856 -0.042073205 -0.019813333 4288362284
0.0043610483 -0.041928843 -0.020254344 4287707699
0.0065001324 -0.042552441 -0.020041257 4287511858
0.0090035498 -0.044711381 -0.018522425 4287053878
0.010794461 -0.043798104 -0.019618383 4286661434
-0.0018339828 -0.043202057 -0.020766916 4287445049
0.0002938658 -0.043829054 -0.020553255 4287771958
0.0020845309 -0.042914167 -0.021647917 4287445303
0.0040439069 -0.042770013 -0.022088295 4287511603
0.0063566007 -0.044166282 -0.021223763 4287314743
0.0088592693 -0.046331808 -0.019709704 4287053624
0.011014089 -0.046956144 -0.019501595 4286595899
-0.00035432726 -0.043121159 -0.023691893 4286332484
0.0014284067 -0.042204678 -0.024783116 4286790974
0.0035534129 -0.042833805 -0.024570268 4286921789
0.005860243 -0.044234902 -0.023707679 4286790974
0.0083568506 -0.046407312 -0.022197215 4286987323
-0.037929073 -0.0027639642 0.028995549 4283787073
-0.037608802 -0.0072433427 0.03065419 4282477903
-0.03633 -0.0028301105 0.025925746 4281567808
-0.034719765 -0.00055290014 0.02334266 4282548028
-0.033001572 0.0010121241 0.021475343 4284313394
-0.037636578 -0.0095983818 0.030163212 4282346834
-0.036354072 -0.0051718503 0.025443802 4281434953
-0.034619883 -0.0036014467 0.023576071 4281632324
-0.032896094 -0.0020316467 0.021710718 4282549304
-0.031056553 -0.001175642 0.020557737 4283725873
-0.037664644 -0.011957578 0.029669231 4282085714
-0.036260456 -0.0082335994 0.025668969 4281565259
-0.034400031 -0.0073740855 0.024512706 4281370693
-0.032791287 -0.0050839558 0.021939902 4281435208
-0.031198315 -0.0027948245 0.019370688 4281762119
-0.029363811 -0.0019369572 0.01822052 4282220609
-0.027534418 -0.0010793507 0.017071584 4282351679
-0.025576204 -0.0009367317 0.016630372 4284573749
-0.037923306 -0.012884319 0.02775397 4282151758
-0.036520943 -0.009149611 0.023762347 4281826888
-0.03454262 -0.0090060458 0.02331621 4281435974
-0.032810308 -0.0074270442 0.021455517 4281501254
-0.031339996 -0.0044137239 0.018183833 4281631813
-0.029505409 -0.0035537034 0.017035274 4281763138
-0.027807064 -0.0019768476 0.015182411 4281959234
-0.025851622 -0.0018344745 0.014741788 4282351169
-0.023895994 -0.0016919747 0.014301205 4283134783
-0.037836634 -0.015967764 0.02796465 4282348108
-0.036545724 -0.011501528 0.023272967 4281761863
-0.034685135 -0.01063773 0.022119908 4281567554
-0.032952555 -0.0090543702 0.020262433 4281436739
-0.031356022 -0.0067520067 0.017702242 4281501508
-0.029646955 -0.0051701814 0.015850214 4281435973
-0.027817413 -0.0043082833 0.014704494 4281305414
-0.025993019 -0.0034466386 0.013559951 4281435463
-0.02403751 -0.0033042058 0.013119357 4281566789
-0.022081807 -0.003161639 0.012678804 4281828419
-0.019984357 -0.0037375093 0.012939816 4282546753
-0.018169865 -0.0028761774 0.01179781 4283397434
-0.035983734 -0.017469697 0.026306944 4281565769
-0.034467362 -0.01443588 0.023037864 4281435973
-0.032972023 -0.011403479 0.019773616 4281436738
-0.031372346 -0.0090943724 0.017217657 4281370693
-0.029532306 -0.0082296804 0.016071109 4281435463
-0.027828097 -0.006643787 0.014223522 4281435208
-0.025867581 -0.0065011084 0.013781706 4281369928
-0.024042912 -0.0056372434 0.012638843 4281239623
-0.022362068 -0.0040527135 0.010796705 4281762883
-0.020550318 -0.0031895712 0.0096569192 4281892934
-0.018743739 -0.0023267269 0.008518355 4282742083
-0.016648941 -0.002904743 0.0087784007 4283983934
-0.032379054 -0.017377913 0.022794155 4281695818
-0.031013384 -0.013613023 0.018835692 4281632068
-0.029546224 -0.010573804 0.015584512 4281697348
-0.027839094 -0.0089833885 0.013739532 4281435209
-0.026009232 -0.0081170946 0.012597052 4281304649
-0.024184488 -0.0072510689 0.011455802 4281370184
-0.022503391 -0.0056622028 0.0096168835 4281566024
-0.02083274 -0.0040740296 0.0077804346 4281696838
-0.01902876 -0.0032091737 0.0066440459 4281893443
-0.017083421 -0.0030671209 0.0062060151 4282417213
-0.030030817 -0.021780171 0.023942402 4282869584
-0.029177442 -0.015100211 0.017193919 4281893189
-0.027980737 -0.010601223 0.012553481 4281370184
-0.0261508 -0.0097327828 0.011412604 4281239113
-0.024190336 -0.009590067 0.010970829 4281304649
-0.022506334 -0.0079966635 0.0091345254 4281304649
-0.02083277 -0.0064039379 0.0073007047 4281697094
-0.019313313 -0.0040869713 0.0047732126 4281828418
-0.01751706 -0.0032204688 0.0036403202 4282156858
0.040123913 -0.0033765361 -0.0049324892 4284181558
0.043212652 -0.0068242252 -0.0019831359 4282025278
0.047472246 -0.013862818 0.0043450911 4281829183
0.058961198 -0.036546052 0.025074972 4281242173
-0.028172724 -0.023285091 0.022280967 4282674509
-0.027601756 -0.015130967 0.01415748 4281630794
-0.02615951 -0.01207602 0.010925217 4281173324
-0.024331979 -0.011205494 0.0097865928 4281369164
-0.022509582 -0.010335252 0.0086492058 4281303883
-0.020692341 -0.0094652325 0.0075130109 4281697094
-0.01916711 -0.0071413815 0.0049891882 4281632068
-0.017365485 -0.0062722787 0.0038566757 4282351168
0.03471053 0.005686298 -0.015831243 4282744633
0.03640496 0.0065506771 -0.016937191 4281569084
0.038546 0.0059728026 -0.01669001 4280201010
0.041378282 0.0032330453 -0.014417916 4280590904
0.04677628 -0.0074314699 -0.0047283918 4280655418
0.059231654 -0.033063427 0.018638609 4278894388
0.064167231 -0.041548498 0.026252428 4279416118
-0.024473563 -0.012820631 0.0086025596 4281236309
-0.022651084 -0.011948228 0.0074667912 4281172048
-0.02083379 -0.011076055 0.0063322131 4281630794
-0.019164868 -0.0094749331 0.0045060646 4281500743
-0.017506428 -0.0078744069 0.0026823226 4282546753
0.031561252 0.0075835362 -0.019938357 4283070523
0.033024654 0.0091727674 -0.021715872 4281374009
0.034254245 0.011484712 -0.024165874 4281112889
0.035693604 0.013072409 -0.025937879 4281372478
0.038036097 0.01176744 -0.025012456 4281371714
0.042238113 0.0046811551 -0.018704277 4281045313
0.047428455 -0.0052913874 -0.0097177904 4279155254
0.05340264 -0.017425388 0.0012679566 4279155254
0.065622382 -0.04167264 0.023178978 4281696583
-0.022792548 -0.013560914 0.0062845796 4280515679
-0.021255963 -0.011223271 0.0037679374 4281106514
-0.019449048 -0.010349654 0.0026374497 4281763138
-0.017793022 -0.0087449774 0.00081752799 4282547519
0.029085681 0.0073265582 -0.02200982 4282025023
0.030331749 0.0096460655 -0.024458719 4281503294
0.031782083 0.011238709 -0.026230054 4281308218
0.032998823 0.013556205 -0.028672168 4279158058
0.034876324 0.013696514 -0.029092491 4280981053
0.03698203 0.013111763 -0.028840607 4281567298
0.040247597 0.008902669 -0.025232179 4281306690
0.044245817 0.0025217235 -0.019618001 4281111104
0.049000643 -0.0060292631 -0.012003424 4280654398
0.055491634 -0.019645952 0.00028511696 4280850238
0.063050009 -0.036151655 0.015227715 4280850238
0.068532705 -0.046132252 0.024126099 4281175363
-0.019589938 -0.011953339 0.0014618952 4281038173
-0.017788142 -0.011077784 0.00033423677 4282740553
-0.015843317 -0.010935806 -0.00010371022 4284442168
0.025985591 0.009265326 -0.026099335 4283592763
0.027656289 0.010134138 -0.02719526 4281502529
0.029321646 0.011002652 -0.028289914 4281241408
0.030981665 0.011870883 -0.029383283 4281372734
0.032413591 0.013466641 -0.031147098 4279352624
0.03428562 0.013606552 -0.031566191 4278765614
0.036385681 0.013019178 -0.031314634 4279937593
0.039413884 0.0095236823 -0.028384523 4280263993
0.043168791 0.0038494095 -0.023452323 4280524858
0.047674399 -0.0040019229 -0.016523311 4280980798
0.054386854 -0.018387809 -0.0035941098 4281307453
0.062171213 -0.035671055 0.011981545 4281438014
0.067642972 -0.045682937 0.020859292 4281241663
0.022075199 0.0074334145 -0.026390478 4284449564
0.02333286 0.0097664446 -0.028832294 4282548029
0.024998289 0.010636911 -0.029925488 4281307963
0.026658386 0.011507161 -0.031017426 4281307964
0.028313151 0.012377083 -0.032108042 4281242174
0.03018244 0.012516558 -0.032526694 4281307198
0.032051705 0.012656167 -0.032945238 4281176639
0.033920936 0.012795869 -0.0333637 4281045824
0.036017984 0.012206145 -0.033113159 4281110848
0.039042391 0.0086994916 -0.030190434 4280785214
0.043026105 0.0022783056 -0.024602678 4281438523
0.048236899 -0.0077839643 -0.015689919 4281503548
0.055430241 -0.023670629 -0.0014614686 4281764413
0.062740639 -0.039548367 0.01274089 4281764413
0.067485951 -0.047405228 0.019598411 4281827653
0.0081506744 -0.00037948042 -0.01940513 4283135038
0.009866517 0.00049586594 -0.020508766 4284573493
0.0211103 0.0088156685 -0.030214826 4282613564
0.022566762 0.01042138 -0.031977981 4281634618
0.024012582 0.012026384 -0.033738613 4280786744
0.025447741 0.013630748 -0.035496812 4281047354
0.027523279 0.01303675 -0.035243399 4279547698
0.030043442 0.010978624 -0.033652954 4279287599
0.032579571 0.0089217573 -0.032065965 4281176639
0.034456652 0.0090620667 -0.032486171 4280915263
0.036561348 0.0084707439 -0.032238975 4281306943
0.039592613 0.0049537346 -0.029326025 4280980543
0.044048358 -0.0029493123 -0.022422215 4280979778
0.049269535 -0.013041243 -0.013534835 4281501763
0.056471642 -0.028975055 0.00065535307 4281502019
0.062826946 -0.041977003 0.012162155 4281892679
0.067328937 -0.049127199 0.018337758 4281956429
0.0062898435 -0.0028232336 -0.019449167 4284645403
0.0078261383 -0.0012083575 -0.021227691 4282154053
0.0095393546 -0.0003310442 -0.022329101 4282219843
0.020353142 0.0094802827 -0.033355691 4281438014
0.021801885 0.011089727 -0.035113774 4280720953
0.023451446 0.011963442 -0.036200132 4281371968
0.02509569 0.012836799 -0.03728519 4281762628
0.026951402 0.012975164 -0.03770088 4280720189
0.029904461 0.0094409809 -0.034779005 4279416374
0.032661986 0.0066432208 -0.032529883 4280915008
0.035215989 0.0045812801 -0.030951746 4280980544
0.037558451 0.0032546446 -0.030042809 4280849729
0.041062146 -0.0017398223 -0.025810573 4280849219
0.045301396 -0.008931987 -0.019593069 4281370949
0.050300181 -0.018320084 -0.011395599 4281369163
0.056558646 -0.031368546 0.00010311976 4281434443
0.062672086 -0.043676734 0.010917751 4282020943
0.066928506 -0.050116107 0.016415233 4282281809
0.0063321479 -0.0051305592 -0.019923648 4284054568
0.0078713447 -0.0035111159 -0.021699535 4281566788
0.009399958 -0.0018923283 -0.023472946 4281370948
0.011297949 -0.001752004 -0.023899004 4281828418
0.013003331 -0.00087281317 -0.024996869 4282155074
0.014508117 0.00074455142 -0.02676468 4282547519
0.01560634 0.0038379058 -0.029871345 4284117043
0.016683288 0.0069297999 -0.032973163 4283597098
0.017738953 0.010020234 -0.036070116 4281569084
0.019597195 0.010158323 -0.036486719 4280982584
0.021038204 0.011771545 -0.03823977 4279938613
0.02289113 0.011909477 -0.038655002 4281306690
0.024530105 0.012784641 -0.039737217 4281566533
0.026596963 0.012185685 -0.039485198 4281045313
0.02932696 0.0093770623 -0.037236594 4280980033
0.032744028 0.0043605864 -0.032996811 4280458304
0.035973758 8.328259e-05 -0.029429927 4281046079
0.039462633 -0.0049275979 -0.025206054 4281111358
0.042758815 -0.0091996491 -0.021653907 4281043784
0.046784651 -0.015676379 -0.016120048 4280717383
0.050858341 -0.022149421 -0.010596822 4281173578
0.056645252 -0.033766061 -0.00045213476 4281173578
0.062276676 -0.044641018 0.0090124663 4281499214
0.066285253 -0.050365403 0.013835618 4282216019
0.0063741095 -0.0074419826 -0.020401074 4283726893
0.0077317357 -0.0050764829 -0.022846406 4281567554
0.0092605911 -0.0034533441 -0.02461659 4281370183
0.011348233 -0.0040540993 -0.024371764 4281501508
0.012863867 -0.0024316534 -0.026138838 4281762884
0.014173787 -6.9230795e-05 -0.028573051 4281893444
0.015269984 0.0030326769 -0.031672679 4281958724
0.016545352 0.0053928196 -0.034099001 4282156349
0.017601669 0.0084919855 -0.037189517 4281504059
0.018842474 0.010849759 -0.03960786 4281112888
0.020067301 0.013206501 -0.042022586 4280394044
0.022120528 0.012604132 -0.041769329 4279807288
0.023751574 0.013480883 -0.042848121 4280393789
0.026026519 0.012140028 -0.041931011 4280458558
0.028750256 0.009322226 -0.039687604 4279936828
0.03238222 0.003551282 -0.034794088 4280589118
0.036281146 -0.0029548928 -0.029246937 4280980033
0.040455006 -0.01019565 -0.023047911 4280914499
0.044222616 -0.015956119 -0.018184511 4280522564
0.047800366 -0.020975299 -0.013991847 4281172048
0.05188543 -0.027467042 -0.0084859803 4280844884
0.057206884 -0.037642658 0.00030987337 4281106514
0.062122047 -0.046337932 0.0077701416 4281498449
0.065885849 -0.051342711 0.011921605 4282149974
0.0065973178 -0.01050131 -0.020210499 4283202359
0.0077764355 -0.0073851943 -0.023322618 4281828418
0.0091212578 -0.0050140321 -0.025759997 4281631303
0.011208557 -0.0056170151 -0.025516763 4281370439
0.012916703 -0.0047333091 -0.026611911 4281304904
0.014229722 -0.0023640916 -0.02904192 4281371204
0.015526794 4.0531158e-06 -0.031468261 4281502019
0.017208431 0.00088615716 -0.032557186 4281241918
0.017870225 0.0054794252 -0.036976155 4281372478
0.018911224 0.0085862875 -0.040056542 4281567809
0.019722708 0.012433566 -0.043797135 4281240898
0.021351151 0.013312172 -0.044873789 4280914498
0.022974251 0.014190555 -0.045949191 4280588609
0.0254569 0.012103386 -0.044370148 4280718658
0.028612131 0.0077942386 -0.040806577 4280980289
0.032906994 -0.00021696836 -0.033939581 4280980543
0.037260372 -0.008223623 -0.027085634 4280914499
0.041445412 -0.015485302 -0.020905593 4281500999
0.045224596 -0.021262273 -0.016057931 4282086223
0.049278498 -0.027776025 -0.010560006 4282216274
0.053849936 -0.035765871 -0.0037544854 4282215509
0.058479883 -0.043751262 0.0030380767 4282215764
0.062447768 -0.049513534 0.0078438614 4282215509
0.0048984699 -0.013710812 -0.0195945 4284442168
0.0062755309 -0.011330955 -0.022034409 4282678079
0.0074526146 -0.0082063079 -0.025139494 4281173578
0.008981958 -0.006574437 -0.026903199 4281238603
0.010879513 -0.0064341426 -0.027329156 4281304903
0.012969173 -0.0070390031 -0.027088016 4281240133
0.014674749 -0.0061532035 -0.028180851 4281436484
0.015980251 -0.0037779137 -0.030604146 4281371459
0.017869968 -0.0036377236 -0.031027988 4281371714
0.018543441 0.00096946955 -0.035439678 4281241664
0.019595727 0.0040858462 -0.038516022 4280980798
0.020210654 0.0086889789 -0.042914446 4280915008
0.021425748 0.011058122 -0.045316964 4281240643
0.022838211 0.012682557 -0.047053598 4280848453
0.025320124 0.01058881 -0.045479335 4280783683
0.029130071 0.0040366426 -0.039942082 4280915520
0.034094617 -0.0062272996 -0.031113042 4280980545
0.03846164 -0.014256865 -0.024280278 4281435209
0.04243385 -0.020796537 -0.018779069 4281628243
0.04645393 -0.027332507 -0.013288479 4282150483
0.050985843 -0.035349399 -0.0064922832 4282346068
0.055341586 -0.042619623 -0.00036660768 4282411604
0.059275873 -0.048401982 0.0044334587 4282476118
0.0076808743 -0.011266813 -0.024951236 4280644963
0.0090292394 -0.0088823736 -0.027379546 4281041999
0.011118509 -0.0094895437 -0.027140038 4281173579
0.013021283 -0.009348765 -0.027567094 4281371459
0.014924094 -0.0092078522 -0.027994061 4281306179
0.016235363 -0.0068255961 -0.030413695 4281305923
0.017730545 -0.0051913187 -0.032165997 4281306434
0.018810075 -0.0020643324 -0.035241947 4281175618
0.0200735 0.00031473488 -0.037650578 4281110339
0.021113139 0.0034389347 -0.040717371 4281175363
0.022341974 0.0058156773 -0.043118067 4280913988
0.023767997 0.0074454769 -0.044854432 4281045314
0.0264783 0.0046004876 -0.04262786 4281174854
0.03030229 -0.0019702017 -0.037108578 4281108299
0.035501041 -0.013008907 -0.027646592 4281108299
0.039436743 -0.019570954 -0.022152176 4281629774
0.04342033 -0.02612935 -0.016668342 4282216018
0.047680907 -0.033428721 -0.010537975 4282280534
0.052226435 -0.041468456 -0.0037629865 4282280023
0.056596003 -0.048759371 0.0023431461 4282541654
0.0090761632 -0.011194378 -0.027858874 4280384863
0.010978736 -0.011053734 -0.028285971 4280649298
0.013073027 -0.011662602 -0.028049164 4281174853
0.014784023 -0.010772057 -0.029139927 4281175874
0.016292728 -0.0091325492 -0.03089205 4281175874
0.017790809 -0.0074936748 -0.032641754 4281110593
0.019278277 -0.0058554783 -0.034388915 4281240388
0.020755097 -0.0042179227 -0.036133654 4281370949
0.022013664 -0.0018326342 -0.038536143 4281305668
0.02346655 -0.00019660592 -0.04027532 4281109828
0.02512176 0.00069063902 -0.041352935 4280783684
0.028065378 -0.0029095784 -0.038478442 4281044804
0.031908736 -0.0094983652 -0.032978304 4281044549
0.036241855 -0.017578378 -0.026174249 4281696074
0.0404099 -0.024906673 -0.020039842 4282217293
0.044404849 -0.031483755 -0.014573354 4282542929
0.04890551 -0.039550856 -0.0078065181 4282476884
0.053001486 -0.046120122 -0.0023624469 4282410838
0.014643975 -0.012335964 -0.030285573 4280516188
0.016152926 -0.010692105 -0.032034472 4280976719
0.017651249 -0.0090488419 -0.033780918 4281108043
0.019138958 -0.0074063018 -0.035524853 4281043019
0.021025604 -0.0072660893 -0.035947815 4281174599
0.022289915 -0.0048738196 -0.038346693 4281305414
0.024168586 -0.0047339574 -0.038767688 4281175109
0.02604725 -0.0045939684 -0.039188582 4281174089
0.029433899 -0.0097042769 -0.035011284 4281304394
0.033075854 -0.015561476 -0.030186005 4281565259
0.037201867 -0.02291473 -0.024058789 4281629264
0.041381083 -0.030263916 -0.017943341 4282215254
0.046065599 -0.039107457 -0.010530782 4282410838
0.050356477 -0.04644797 -0.004440153 4282345048
0.016602956 -0.014512196 -0.031198356 4280908124
0.018109515 -0.012864038 -0.032943327 4281106259
0.019605439 -0.011216484 -0.034685846 4281238349
0.021090742 -0.0095696673 -0.03642587 4281369929
0.022565402 -0.0079234615 -0.038163453 4281306434
0.024029432 -0.0062779486 -0.039898496 4281305414
0.026120516 -0.0068904161 -0.039663509 4280978248
0.029508289 -0.012015834 -0.035497982 4281304394
0.03358696 -0.019394465 -0.029376712 4281630794
0.03793937 -0.027520806 -0.022613175 4281824849
0.042573515 -0.03639435 -0.015209146 4282281044
0.04749734 -0.046014413 -0.0071664164 4282215508
0.020675965 -0.017305829 -0.031886254 4281104729
0.021768691 -0.014142983 -0.03493873 4281369673
0.023254232 -0.012491606 -0.036675446 4281305414
0.024309721 -0.009331286 -0.039719395 4281240389
0.026405787 -0.0099456012 -0.039487123 4281566788
0.029797342 -0.015085883 -0.035333999 4281044039
0.034096904 -0.023240238 -0.028576788 4281303884
0.039116029 -0.033652171 -0.019875191 4281564749
0.043317571 -0.041043073 -0.013797675 4282150229
0.024975782 -0.020862997 -0.031930778 4281432404
0.025636828 -0.016178139 -0.03628014 4281631558
0.027326813 -0.015279606 -0.037358951 4281631558
0.030515302 -0.019677609 -0.033872034 4281174088
0.035040669 -0.028611638 -0.02648332 4281239624
0.039850019 -0.038296998 -0.018457949 4281694544
0.043837234 -0.044952914 -0.013049097 4282149719
0.029941704 -0.02670721 -0.030038092 4282414918
0.032519519 -0.02883935 -0.028519899 4281761864
0.036634367 -0.036280394 -0.022456065 4281304394
0.04102236 -0.044475794 -0.015754752 4281563473
-0.027224243 -0.019677967 0.015748834 4281818984
-0.026045486 -0.017507024 0.010635106 4279588498
-0.026055343 -0.019864723 0.010137094 4279653013
-0.02448675 -0.017518468 0.007617997 4279325594
-0.0227964 -0.015907332 0.005793415 4279391383
-0.021396913 -0.01282914 0.002590755 4279721099
-0.026197568 -0.021489859 0.0089456551 4279522198
-0.024628527 -0.019137084 0.0064313859 4279325338
-0.022937916 -0.01752162 0.0046100151 4279128989
-0.021257788 -0.015906744 0.0027910639 4279195289
-0.019588105 -0.014292568 0.00097459368 4279195798
-0.017638259 -0.014150351 0.00053542107 4281556078
-0.026339725 -0.023114726 0.0077544209 4279063199
-0.024635755 -0.021494016 0.0059332047 4279194269
-0.022805072 -0.020612419 0.0048020892 4279063198
-0.021119364 -0.018992871 0.0029851887 4279128734
-0.019301645 -0.018111989 0.0018571671 4279259804
-0.017489083 -0.01723133 0.0007303562 4279456663
-0.015681684 -0.016350992 -0.00039517879 4280046988
-0.02635017 -0.025480263 0.0072506256 4278735524
-0.024643295 -0.023855045 0.0054320768 4279259804
-0.0228099 -0.022971064 0.0043019392 4279128478
-0.020981662 -0.022087388 0.0031730831 4279063199
-0.019300856 -0.02046375 0.0013606604 4279259804
-0.017485566 -0.019580781 0.00023490377 4278998429
-0.015823074 -0.017958224 -0.0015732758 4279195034
-0.01387053 -0.017815627 -0.002012914 4279457174
-0.012223683 -0.016194016 -0.0038173515 4280702083
-0.026098035 -0.029336289 0.0081150997 4279849618
-0.024382927 -0.027706116 0.0062979255 4279259294
-0.022678278 -0.026076645 0.0044832323 4279062689
-0.020984091 -0.024447769 0.0026709475 4278931618
-0.019300386 -0.022819594 0.00086114742 4278997408
-0.01762715 -0.021192081 -0.00094622187 4279194268
-0.015816987 -0.020307183 -0.0020691492 4279128733
-0.014012001 -0.019422591 -0.0031907875 4278997153
-0.012364909 -0.017796628 -0.0049919952 4278538408
-0.010728344 -0.016171291 -0.0067907972 4278931619
-0.0089442134 -0.015287869 -0.007907467 4280177293
-0.025453195 -0.03544125 0.011022182 4282732904
-0.02385582 -0.033060409 0.0085212234 4281225854
-0.022547372 -0.029190615 0.0046582986 4279586713
-0.020986855 -0.02681227 0.0021658558 4279128479
-0.019300252 -0.025179505 0.00035864487 4279128478
-0.017624117 -0.023547456 -0.0014460925 4278866594
-0.015958458 -0.021916002 -0.0032484271 4278866594
-0.014303289 -0.020285226 -0.0050482489 4279062944
-0.012506083 -0.019398935 -0.0061664199 4278866338
-0.010869272 -0.017769232 -0.0079619838 4278538663
-0.0090851039 -0.016883664 -0.0090770433 4279390364
-0.0074666478 -0.015255131 -0.010868268 4280439178
-0.0056955516 -0.014370233 -0.011980245 4281422714
-0.022008002 -0.034554608 0.0068708062 4280373898
-0.020711869 -0.030674748 0.0030189585 4279718039
-0.019442156 -0.026796713 -0.00082686357 4279783828
-0.017765783 -0.025160313 -0.0026283767 4279063198
-0.01609987 -0.023524493 -0.0044274703 4278931874
-0.014444463 -0.021889381 -0.0062240744 4278866848
-0.012799568 -0.020254873 -0.0080182729 4278735269
-0.011165157 -0.018621065 -0.0098099699 4278866339
-0.0092259347 -0.018479146 -0.010246391 4278866338
-0.0074469112 -0.017591678 -0.011358558 4279063198
-0.0056730993 -0.01670447 -0.012469473 4279194268
-0.0040701404 -0.015072443 -0.014253782 4279718803
-0.0023094267 -0.01418595 -0.015361561 4280571014
-0.018734902 -0.032907546 0.0020583533 4281880183
-0.017330684 -0.02976802 -0.0010991711 4280439688
-0.015947573 -0.02662991 -0.0042518508 4279325594
-0.014137104 -0.025738455 -0.0053698253 4279128733
-0.012636147 -0.02335082 -0.0078385947 4278604708
-0.01084137 -0.022460274 -0.0089528514 4278800804
-0.0090517849 -0.021569945 -0.010065897 4278931874
-0.0072674006 -0.020679913 -0.011177636 4279194013
-0.0058138035 -0.018295325 -0.013635355 4278997409
-0.0040451512 -0.017406181 -0.014743423 4278866084
-0.0026179478 -0.015023261 -0.017195003 4279194268
-0.00086505339 -0.014135078 -0.018299304 4280047244
0.00088259578 -0.013247102 -0.019402372 4281553784
-0.0167531 -0.035143889 0.0010936223 4282536044
-0.015649356 -0.030494496 -0.0034068581 4281028229
-0.013980165 -0.028849721 -0.0052000117 4280111503
-0.012473457 -0.026455164 -0.0076651517 4278866338
-0.010827921 -0.024811871 -0.0094527947 4278669733
-0.0091929212 -0.023169182 -0.011238013 4278735523
-0.0072485432 -0.023026802 -0.011675526 4278735268
-0.0056292489 -0.021385074 -0.013456984 4278801059
-0.0038552321 -0.020493425 -0.014564584 4278931618
-0.0020864271 -0.019602016 -0.015670914 4278735268
-0.0004934445 -0.017961808 -0.017446226 4278931618
0.0010889992 -0.016322285 -0.019219032 4278735269
0.002660878 -0.014683396 -0.02098942 4279653269
0.0047578998 -0.015290543 -0.020751989 4280440453
-0.012159705 -0.03032057 -0.0068250671 4282270844
-0.010505959 -0.028672345 -0.008611273 4280175509
-0.0090198256 -0.02627255 -0.011066675 4279063199
-0.0072300322 -0.025377803 -0.012176353 4278997153
-0.0056078508 -0.023731492 -0.013955232 4279062944
-0.0036660582 -0.023589067 -0.014391989 4279128479
-0.0018918887 -0.022695102 -0.01549787 4278669733
-0.00029334053 -0.0210502 -0.01727112 4278866084
0.0011216141 -0.01865489 -0.019709947 4278669479
0.0025206879 -0.016260609 -0.022145106 4279062943
0.0044389814 -0.016119316 -0.022576118 4279063454
0.0059952885 -0.014477015 -0.024339492 4279129753
0.0077247098 -0.01358562 -0.025434777 4279328144
-0.0088474751 -0.0293843 -0.010901555 4280110994
-0.0072118677 -0.027732834 -0.012680214 4279717784
-0.0054245628 -0.026835985 -0.013787609 4279455389
-0.003807351 -0.02518557 -0.015561983 4278866593
-0.0018656179 -0.025043041 -0.015998639 4278801058
-0.00026416406 -0.023393586 -0.01776924 4278407594
0.0014995895 -0.022497997 -0.01887098 4278997153
0.0027315691 -0.019343585 -0.021968914 4278931874
0.0042986721 -0.017696247 -0.023731565 4279062944
0.005855225 -0.016049586 -0.025491698 4279128989
0.0079516768 -0.016660854 -0.025257299 4279195034
0.0094950423 -0.015014932 -0.027014293 4279656329
0.011216626 -0.014121652 -0.028106032 4279392148
-0.0052420236 -0.02994889 -0.013626214 4281747583
-0.0034545772 -0.029049762 -0.014731918 4280045458
-0.00200703 -0.026639283 -0.017168399 4278931619
-0.00040533766 -0.024985477 -0.018935781 4278865829
0.0011857897 -0.023332275 -0.020700727 4278997153
0.0027663708 -0.021679766 -0.022463154 4278931618
0.0043363906 -0.020027921 -0.024223138 4278931618
0.0060764626 -0.019131467 -0.025317656 4278866593
0.0079945922 -0.018989936 -0.025748454 4278801059
0.0095408596 -0.017339461 -0.027502803 4278866339
0.011265151 -0.016443856 -0.028593466 4278669989
0.012792889 -0.014794454 -0.030343499 4279392914
0.014697906 -0.014653385 -0.030770969 4279985024
-0.0019812584 -0.028993197 -0.017673548 4279652248
-0.00054648146 -0.026577055 -0.02010208 4279128224
0.0012173615 -0.025677122 -0.021200556 4278866084
0.0026257038 -0.023262657 -0.023623012 4279324574
0.0043737441 -0.022363618 -0.024717733 4279128223
0.0062969774 -0.022221833 -0.025149766 4278800804
0.0080371648 -0.021323144 -0.026242547 4278866594
0.009400554 -0.018911466 -0.028654516 4278669479
0.010936458 -0.017257273 -0.030403212 4278800804
0.012652855 -0.016359933 -0.031490345 4279129499
0.014751468 -0.016974896 -0.031259362 4279457173
0.017051853 -0.018345162 -0.03037161 4279392914
0.0010762997 -0.027266227 -0.022365008 4280896138
0.0030098706 -0.02712395 -0.022799566 4279914134
0.0047659203 -0.026222102 -0.023894481 4279455899
0.0063364767 -0.024561428 -0.025647912 4278669734
0.0075306296 -0.021383405 -0.028717343 4278669479
0.0090747103 -0.019724399 -0.030464627 4278866339
0.010796417 -0.018824607 -0.031551465 4278931874
0.012894653 -0.019441925 -0.031322081 4279063454
0.014804684 -0.019300491 -0.031750679 4279128223
0.017303377 -0.021432891 -0.030210495 4279194268
0.019818071 -0.023564033 -0.028673757 4280375173
0.02234875 -0.025693864 -0.027140517 4280768384
0.0032181591 -0.030236267 -0.022644956 4282729843
0.0048021823 -0.028570354 -0.0243982 4279652503
0.006375622 -0.026905075 -0.026149038 4278996899
0.0075730607 -0.023718134 -0.029212635 4278866084
0.0089346655 -0.021293618 -0.0316143 4278735014
0.010656413 -0.020391658 -0.032699507 4278735269
0.012754299 -0.021011174 -0.032471687 4278997664
0.014664173 -0.020869754 -0.032900255 4279259294
0.017554164 -0.024529129 -0.030055545 4279128734
0.020669453 -0.028946377 -0.026562668 4279915664
0.023816688 -0.033361137 -0.023076866 4280898178
0.026383879 -0.035494626 -0.021556634 4280899198
0.028140411 -0.034589216 -0.022648912 4281424243
0.0069539994 -0.031543471 -0.024683278 4282926448
0.0081627034 -0.028346993 -0.027742807 4280372624
0.0095353797 -0.025915161 -0.030142032 4279324063
0.011079963 -0.024247319 -0.031882826 4278800549
0.012613975 -0.022580117 -0.033621073 4278604963
0.014716849 -0.023201272 -0.03339598 4279128223
0.017608367 -0.026871391 -0.030559827 4279194269
0.021121949 -0.032825939 -0.025772225 4280046478
0.025080387 -0.040301129 -0.019690387 4280571015
0.028073043 -0.043963343 -0.016876627 4280898943
0.010689504 -0.032849915 -0.026720934 4281224069
0.011690013 -0.028880902 -0.030422308 4279063199
0.012854282 -0.02567865 -0.033465002 4278866848
0.014962129 -0.026301607 -0.033242669 4278670498
0.018053457 -0.030746862 -0.029764213 4279194524
0.021771576 -0.037482657 -0.024340332 4279980944
0.025537591 -0.04421477 -0.018927088 4280701829
0.014044393 -0.032621332 -0.030059922 4281619064
0.015977737 -0.032478184 -0.030493759 4279391129
0.018692821 -0.035401814 -0.028328184 4279456409
0.022419654 -0.042156473 -0.022921044 4280767109
0.025792882 -0.047374822 -0.018821837 4282340459
0.019525897 -0.040842958 -0.026256435 4281094529
0.022670422 -0.04531011 -0.022809578 4281619319
-0.00047321245 -0.044726878 -0.035159826 4282993769
-0.031261601 0.026288643 0.050423346 4285689628
-0.029278189 0.026433799 0.04997699 4285820188
-0.026514329 0.02256424 0.053983405 4285820188
-0.034776203 0.020998657 0.053829059 4285163818
-0.033632979 0.025848012 0.048183434 4285689884
-0.032277741 0.029351264 0.044029661 4285558048
-0.03056737 0.030838046 0.042105243 4285623583
-0.028088428 0.028296154 0.044626296 4285689628
-0.025057957 0.023071297 0.050102279 4285689629
-0.03808061 0.02594791 0.045649864 4285230119
-0.036111422 0.026091713 0.045206472 4285493279
-0.03450691 0.028257944 0.042540975 4285952279
-0.032918155 0.030423123 0.039879031 4285820953
-0.031091146 0.031239741 0.038699709 4285820698
-0.02862104 0.028688364 0.041216128 4285820698
-0.02612941 0.026138619 0.043727741 4285820953
-0.02334632 0.02224426 0.047709972 4285624350
-0.020806305 0.019698218 0.050210819 4285559069
-0.018385075 0.017826598 0.051970325 4285427744
-0.015804678 0.01528364 0.05446218 4285033259
-0.040873498 0.028237823 0.040454738 4285492513
-0.038920619 0.028380316 0.040014923 4285624094
-0.036611058 0.026493337 0.041794188 4285624349
-0.034892611 0.027989235 0.039874345 4285689629
-0.033184536 0.02948441 0.037956938 4285821209
-0.031486876 0.030978926 0.036041878 4285820953
-0.029152401 0.029094025 0.037815735 4285755674
-0.026669621 0.026534848 0.040322676 4285558558
-0.02416531 0.023977309 0.042824835 4285558814
-0.022189222 0.024122037 0.042380199 4285624603
-0.020353012 0.024941798 0.041200683 4285624604
-0.018521927 0.025761295 0.040022328 4285821208
-0.015532568 0.021183897 0.044714838 4285885978
-0.011617184 0.012563124 0.053797573 4285886234
-0.043631628 0.030556913 0.035271965 4285820443
-0.041695036 0.03069808 0.034835719 4285886234
-0.039526306 0.029481545 0.035876811 4285952023
-0.036990866 0.026229702 0.039129749 4285755419
-0.034913614 0.025693934 0.039426804 4285624094
-0.033078671 0.026515357 0.038248822 4285624094
-0.0311222 0.026658311 0.037808351 4285624093
-0.029165514 0.026801359 0.037367895 4285558814
-0.027076669 0.026266713 0.037662543 4285558558
-0.024982266 0.025732588 0.037955962 4285558813
-0.023294069 0.027231008 0.036046512 4285690138
-0.021476418 0.02805154 0.034872785 4285689883
-0.019663863 0.028871775 0.033700258 4285623838
-0.017275527 0.026984643 0.035457313 4285623583
-0.013983659 0.021039348 0.041599706 4285754909
-0.010342527 0.01374492 0.049193077 4285689374
-0.04711879 0.02526468 0.038668267 4285296163
-0.045600593 0.028133351 0.035273559 4285558558
-0.043992981 0.030319065 0.032621883 4285623583
-0.042061798 0.03045978 0.032186814 4285558048
-0.039898857 0.029238347 0.033225894 4285755419
-0.037251391 0.02529414 0.037208401 4285755419
-0.034934938 0.023394499 0.03897614 4285624348
-0.0330972 0.024218213 0.037799194 4285624349
-0.031264566 0.025041666 0.036623396 4285559069
-0.029437028 0.025864772 0.035448857 4285559068
-0.027614571 0.026687581 0.034275502 4285559069
-0.025662847 0.026830349 0.033836223 4285558814
-0.023847952 0.027652744 0.032664686 4285755929
-0.022038177 0.02847489 0.031494312 4285952789
-0.020233519 0.029296685 0.030325191 4285755164
-0.017998889 0.028081261 0.03134872 4285820954
-0.01545801 0.025509197 0.0338296 4286214929
-0.012444563 0.020903062 0.038493507 4285820698
-0.0095466524 0.016978145 0.042420372 4285558304
-0.0055267401 0.0083083436 0.05143664 4285492514
-0.04799442 0.028441779 0.032321908 4285493279
-0.046171427 0.029266138 0.031149579 4285821464
-0.044463716 0.030773878 0.029241802 4285689884
-0.042540595 0.030913945 0.028808495 4285623839
-0.040270552 0.029004205 0.030581528 4285755418
-0.03774786 0.025729466 0.033820689 4285821718
-0.035319187 0.023139659 0.036319613 4285624349
-0.033486672 0.02396512 0.035145454 4285624349
-0.031785451 0.025472801 0.033239447 4285624604
-0.030223534 0.027662158 0.030603344 4285624348
-0.028414287 0.028486136 0.029434586 4285624349
-0.026475959 0.028627876 0.028998287 4285624094
-0.024400577 0.028087955 0.029292637 4285624093
-0.022459179 0.028230075 0.028855762 4285821208
-0.020517565 0.028372269 0.028418886 4285886743
-0.018430941 0.027833402 0.028710885 4285952279
-0.016043775 0.025933053 0.030458251 4285754909
-0.013490275 0.023353189 0.032929696 4285624094
-0.010456778 0.018733278 0.037577532 4285492258
-0.0073858164 0.014116157 0.042217053 4287197954
-0.049962305 0.02601907 0.032323919 4285296164
-0.048238881 0.027532168 0.030415716 4285559069
-0.046525836 0.029044531 0.028509939 4285690648
-0.04482314 0.030556258 0.026606506 4285887254
-0.042905435 0.030695871 0.026174376 4285821719
-0.040872112 0.030150034 0.026476124 4285755928
-0.038479142 0.027548801 0.028976323 4285624349
-0.036064625 0.024949182 0.031471774 4285624349
-0.034121983 0.025090881 0.031034237 4285624348
-0.032557108 0.027286846 0.02840239 4285755419
-0.031008005 0.029481776 0.025774108 4285886998
-0.029080644 0.029622581 0.025340179 4285886999
-0.026885085 0.028395217 0.026365535 4285755673
-0.024678648 0.027168669 0.027388545 4285624093
-0.022740006 0.027310539 0.026952254 4285624349
-0.020659178 0.026768934 0.027243802 4285624348
-0.01871749 0.026911169 0.026806934 4285624348
-0.016333655 0.025003985 0.02855006 4285623838
-0.013933681 0.023098093 0.030289562 4285621798
-0.049694568 0.021666646 0.034093417 4285360933
-0.048169278 0.024561737 0.030716805 4285493534
-0.046557799 0.026767131 0.02807896 4285493534
-0.044852167 0.028283335 0.026178172 4285559069
-0.04293187 0.028423082 0.025745416 4285624348
-0.040896162 0.027875222 0.026044881 4285624349
-0.038619235 0.02595282 0.027806388 4285558558
-0.036567055 0.02540626 0.028102295 4285624349
-0.034755662 0.026234481 0.026936075 4285689883
-0.033075131 0.027749274 0.025041262 4285821209
-0.031533524 0.029950157 0.022419592 4285689374
-0.02961424 0.030090328 0.021987444 4285886744
-0.027293339 0.028171543 0.023739437 4285886998
-0.024956249 0.026254024 0.025487838 4285755419
-0.022881247 0.025709692 0.025778959 4285624349
-0.02080071 0.025165841 0.026068887 4285624860
-0.018714651 0.024622481 0.026357641 4285624349
-0.016181745 0.022023465 0.028820349 4285950238
-0.049123213 0.015224215 0.038051076 4285492004
-0.047682978 0.018820088 0.033943638 4285493024
-0.046269052 0.022414118 0.029842185 4285624604
-0.04466214 0.024625737 0.027210334 4285559324
-0.042733982 0.024765991 0.026775757 4285559069
-0.040920526 0.025596227 0.025610564 4285624859
-0.039112151 0.02642617 0.024446571 4285558813
-0.037188552 0.026566319 0.024013193 4285624349
-0.035141774 0.02601723 0.024308627 4285821464
-0.033591904 0.028225143 0.021689964 4285689374
-0.031929508 0.029743005 0.019802561 4285623583
-0.029884689 0.029194009 0.020098617 4285623583
-0.027700752 0.027956914 0.021119939 4285755163
-0.025505938 0.026720736 0.022138836 4285820699
-0.023439206 0.026173573 0.022430131 4285624349
-0.021366961 0.025626883 0.022720234 4285492258
-0.018856414 0.023017388 0.025181269 4285949984
-0.04709474 0.01235944 0.037882693 4285361188
-0.045661345 0.015965741 0.033785067 4285492513
-0.044035316 0.018185202 0.031153874 4285623839
-0.042312875 0.019711357 0.029255839 4285558559
-0.040600814 0.021236781 0.027360233 4285559069
-0.039134048 0.024145361 0.024010183 4285493533
-0.037688307 0.027052488 0.020664932 4285559068
-0.035895318 0.027883589 0.019506129 4285690649
