# .PCD v0.7 - Point Cloud Data file format
VERSION 0.7
FIELDS x y z rgba
SIZE 4 4 4 4
TYPE F F F U
COUNT 1 1 1 1
WIDTH 735
HEIGHT 1
VIEWPOINT 0 0 0 1 0 0 0
POINTS 735
DATA ascii
0.006760411 -0.0064216405 0.073757261 4288751414
0.0091737472 -0.007625185 0.074801281 4289405743
0.0023573488 0.0011473075 0.062684879 4289143349
0.0037791543 0.0039738379 0.059352845 4288818734
0.0058223829 0.0041081533 0.058943897 4289408295
0.0086825714 0.00087983906 0.062180743 4289342249
0.011735734 -0.0030190274 0.066140898 4289276458
0.014652401 -0.0062434748 0.069366544 4289537833
0.017424542 -0.0087940544 0.07185936 4289014829
0.019869991 -0.0099994242 0.072893895 4288687663
0.021265516 -0.0071740523 0.069567561 4288818478
0.02299857 -0.0056929886 0.067697451 4288949293
0.025449516 -0.0068977624 0.068731077 4289603369
0.029389864 -0.013470784 0.075561494 4289864999
0.00082651898 0.0055391677 0.054884948 4288359223
0.0022247918 0.008372888 0.051564224 4289277223
0.0039227568 0.0098554268 0.049703997 4289604389
0.0062628761 0.0086383857 0.050756045 4289800483
0.0087796897 0.0067475401 0.052533016 4289996834
0.011481233 0.0041834563 0.055033274 4289604389
0.013690557 0.0036435351 0.055351503 4289146409
0.016079232 0.0024300218 0.056394093 4289277224
0.01794887 0.0032388717 0.055260055 4289473574
0.020171758 0.0027000904 0.055575766 4289800483
0.022400061 0.0021617115 0.055890486 4289342504
0.025926307 -0.0030894727 0.061266832 4289342504
0.029870175 -0.0096841231 0.068080135 4289277224
-8.1192702e-05 0.0072609782 0.050024398 4289342504
0.0011466257 0.010779884 0.045985837 4290323998
0.0029890947 0.011588614 0.044858504 4290192928
0.0051523335 0.011043206 0.045184106 4290127649
0.007652428 0.009144675 0.046959464 4290323744
0.010000292 0.0079239272 0.048006777 4289669669
0.012187891 0.0073803701 0.048327688 4289146409
0.014380902 0.0068372525 0.048647583 4289342504
0.016402908 0.0069706328 0.048243228 4290062114
0.018424954 0.0071041025 0.047838934 4290389279
0.020810632 0.0058862232 0.048879042 4290192928
0.023944959 0.0019670427 0.052803531 4289473063
0.02786012 -0.0046513528 0.059606016 4289734949
0.033537492 -0.017342687 0.072882846 4289538600
-0.0020768568 0.0047945268 0.049939808 4287705149
-0.00083229318 0.008325357 0.045906056 4289342504
0.00054305792 0.01117504 0.042603098 4289604644
0.0023775548 0.011985414 0.041478992 4289342504
0.0046953186 0.010758076 0.042528931 4289342504
0.0073549449 0.0081736483 0.045024239 4289407783
0.0095314756 0.0076270401 0.04534569 4289277224
0.011542536 0.0077595301 0.044943396 4289342504
0.01338008 0.0085705556 0.043818947 4289211689
0.015388571 0.0087030418 0.043417294 4289342503
0.01757605 0.0081574954 0.043736812 4290127649
0.019768912 0.0076124296 0.044055268 4289865764
0.022888672 0.0036791451 0.047972765 4289930789
0.027162515 -0.0043172687 0.05620078 4289669158
0.033397354 -0.019083053 0.07160534 4289472554
-0.0025126524 0.0045023635 0.047274031 4288685879
-0.0012726784 0.0080438145 0.043249439 4289015083
0.00025520474 0.010220211 0.040677756 4290127394
0.002407074 0.0096695609 0.041002244 4289473319
0.004727073 0.00843798 0.042048421 4289800228
0.0072232112 0.0065260641 0.043814603 4289342504
0.0090633854 0.0073392354 0.042691186 4289342504
0.010898273 0.0081521645 0.041568913 4289669669
0.012901239 0.0082841814 0.041168287 4289277224
0.014904264 0.0084162913 0.040767718 4289211689
0.017264843 0.0071879402 0.041806124 4289734949
0.019636191 0.0059603415 0.042842481 4288884269
0.022754781 0.0020138547 0.046750315 4288949548
0.027213193 -0.006688714 0.05567681 4289014829
0.033825684 -0.022861905 0.072480008 4289079854
-0.0027959347 0.0035350025 0.045338105 4288228408
-0.0015578717 0.0070872493 0.041322131 4289276459
0.00012489408 0.0085861534 0.039477963 4290389023
0.0022764727 0.0080332793 0.039800849 4290389023
0.0045960136 0.006797269 0.0408438 4290388513
0.0067611746 0.0062454604 0.041164093 4289277224
0.0087639093 0.0063772723 0.040763371 4289538854
0.010596178 0.0071922019 0.039643254 4289538854
0.01276958 0.0066411868 0.039962094 4289604134
0.014596593 0.0074559301 0.038843151 4289734948
0.017132606 0.0055405162 0.040596731 4289996579
0.019684758 0.0036262013 0.042347185 4290061604
0.02280486 -0.00033330917 0.046244811 4289864998
0.027636804 -0.010428235 0.056582324 4289864998
-0.0039884113 0.0066910163 0.039075926 4289407530
-0.0023055002 0.0081941597 0.037234996 4289145388
-0.00047625601 0.0090106539 0.036116745 4289211178
0.0018266402 0.0077690631 0.037159655 4289341994
0.0039780289 0.0072140545 0.037480969 4289865508
0.0061348602 0.0066594966 0.037801269 4290062114
0.0082971379 0.0061053373 0.038120586 4289604134
0.010294467 0.0062368773 0.037721004 4289342504
0.0124649 0.0056834742 0.038038779 4289538854
0.014289305 0.0065002292 0.036922012 4289931299
0.016643599 0.0052626953 0.037955064 4290454558
0.019370832 0.0026569292 0.040417466 4290389023
0.022854619 -0.0026846603 0.045736317 4290584864
0.027872918 -0.013496511 0.056763671 4290650399
-0.0048755258 0.0085007548 0.034276541 4289276459
-0.0032057799 0.010007381 0.032441527 4290257443
-0.0010763109 0.0094485506 0.032765437 4290061604
0.001218088 0.0082020499 0.033806689 4289799974
0.0031990036 0.0083322264 0.03341018 4290454559
0.0055096559 0.0070869364 0.034448352 4289996835
0.0076635927 0.0065300763 0.034767639 4289146153
0.0098229498 0.0059736632 0.035085905 4289538854
0.01181487 0.0061049201 0.034687463 4289669669
0.013455749 0.0076103844 0.032858785 4289800484
0.015977075 0.0056808405 0.03460538 4289211689
0.018514544 0.0037524439 0.036348876 4289080618
0.022353258 -0.0029805005 0.043084059 4289473319
0.027922077 -0.015886962 0.056225762 4289211434
-0.006982334 0.0067489259 0.033481512 4288032314
-0.0057608485 0.010332726 0.029493473 4289734948
-0.0041042753 0.011842895 0.027664345 4290127138
-0.001675263 0.0098999366 0.029423952 4289865763
0.00045133382 0.0093388073 0.029746842 4290127393
0.0025833957 0.0087780729 0.030068744 4290062114
0.0048855357 0.0075278841 0.031105276 4289342504
0.007031139 0.0069682673 0.031424567 4289146153
0.0093521923 0.0057194643 0.032457493 4289669669
0.011338629 0.0058503486 0.032060139 4289669413
0.013149746 0.0066706277 0.030949268 4290454559
0.015311658 0.0061124153 0.03126562 4290258209
0.01765969 0.0048658028 0.032293387 4290126883
0.021669216 -0.0025785714 0.039726526 4289930789
0.027784808 -0.017592996 0.054973431 4289734694
-0.0074080452 0.0065133907 0.03085592 4288293433
-0.0058890134 0.0087217279 0.028310537 4289473063
-0.0043859519 0.010929119 0.025768425 4289407528
-0.0019602552 0.0089793764 0.027523737 4289211689
0.00016336888 0.0084158331 0.027845558 4289015338
0.0024542548 0.0071603805 0.028881002 4289473318
0.004262507 0.0079822727 0.027772065 4289473318
0.0062326267 0.0081118941 0.027377833 4289538598
0.0085424893 0.0068579614 0.028409693 4289407528
0.0106906 0.0062964968 0.028726958 4289473063
0.012668941 0.0064269342 0.028331291 4289472808
0.014825188 0.005866196 0.028647076 4289669159
0.017347962 0.0039236955 0.030383606 4289472808
0.021352742 -0.0035450459 0.037799552 4289734438
0.027647564 -0.019298762 0.053721294 4289734183
-0.0076847821 0.005591549 0.02895261 4288817713
-0.0063189268 0.0085015073 0.025697473 4289341229
-0.0045136511 0.0093249492 0.024590518 4290258209
-0.0022448525 0.0080634616 0.025626939 4289931043
3.4742057e-05 0.0068028197 0.026661213 4290323488
0.0020019189 0.0069320463 0.026267421 4289342249
0.0038048699 0.0077557117 0.025161218 4289603878
0.0057695135 0.0078849532 0.024768069 4289407528
0.0080735385 0.0066262968 0.025797743 4289342248
0.010043666 0.0067560971 0.025403645 4289276714
0.012363885 0.005498644 0.026430264 4289407529
0.014517166 0.0049355365 0.026744999 4289015084
0.017216988 0.0022929385 0.029186472 4288818733
0.021219708 -0.0051999688 0.036584701 4289145899
0.027510343 -0.021004252 0.05246935 4289407274
-0.0084052682 0.0067671798 0.024910528 4288687919
-0.006748084 0.008290302 0.023091093 4289537833
-0.0049481057 0.0091155618 0.021986838 4290323233
-0.0025290661 0.0071522705 0.023733523 4290389023
-0.00025261194 0.0058869869 0.02476516 4290454559
0.0018732101 0.005319275 0.025083285 4289734693
0.0038403496 0.0054485872 0.024689566 4289800229
0.0056407452 0.0062743463 0.023585577 4289603878
0.0076053441 0.0064036734 0.023192506 4289669414
0.0095699877 0.0065330975 0.022799492 4289341993
0.011884369 0.0052709393 0.023823936 4290192418
0.014564566 0.0026182011 0.026262663 4290257698
0.017446449 -0.00072849542 0.0294048 4290126883
0.021635359 -0.0089405924 0.037491366 4290388769
0.027744284 -0.024099752 0.052630782 4290192164
-0.0091242865 0.0079606026 0.020881578 4289013808
-0.0074775964 0.0094874278 0.019067477 4289210923
-0.0053818338 0.008915253 0.019389741 4288884268
-0.0031246915 0.0076442249 0.020421874 4289211178
-0.00085674599 0.0063740499 0.021451872 4289669413
0.0014220104 0.0051046275 0.022479814 4289734438
0.0035476089 0.0045348033 0.022796396 4289473319
0.005512014 0.0046640076 0.022403281 4289538598
0.0071378648 0.0061901398 0.020593863 4289407528
0.0090970322 0.0063191876 0.020201935 4289604134
0.011405595 0.0050522201 0.021224286 4290258209
0.01425695 0.0016924813 0.024364207 4289799974
0.017495213 -0.0030608103 0.028910905 4289931043
0.022049978 -0.012694128 0.038388561 4290323233
0.028162919 -0.027901068 0.053490855 4290322979
-0.011198655 0.0062364861 0.020099344 4287116609
-0.0096941739 0.0084699132 0.017576514 4289472553
-0.0080552921 0.010000531 0.015767304 4290257698
-0.0061209053 0.010127261 0.015379814 4289865764
-0.0041864216 0.010254096 0.014992381 4289800228
-0.001776617 0.0082771443 0.016731065 4290323488
0.00064935535 0.0063013025 0.018466631 4289669413
0.0029277168 0.0050276257 0.019491384 4289211433
0.0050504133 0.004455518 0.019806974 4289407783
0.0065020137 0.0066862144 0.017295362 4289342504
0.0082812123 0.0075151287 0.016199054 4290258209
0.010578565 0.0062430948 0.017220307 4289211689
0.013595365 0.0021715686 0.021059256 4289407784
0.01700408 -0.0032975078 0.026300702 4289473319
0.022281021 -0.015760809 0.038572375 4289538598
0.028580528 -0.031715304 0.054341525 4289538598
-0.011759818 0.0067532398 0.016797712 4288818479
-0.010262977 0.0089926943 0.014281338 4289473319
-0.0086319 0.010527138 0.012476964 4289931043
-0.0067056678 0.010653321 0.012091095 4289473319
-0.0046237819 0.010075931 0.012412893 4289800228
-0.0023782104 0.0087954663 0.013440797 4290192673
-0.00028275698 0.0082191639 0.013760021 4289603878
0.0021453202 0.0062370524 0.015490254 4289211434
0.0039244518 0.00706793 0.01439544 4289211433
0.005698286 0.0078985803 0.013301779 4289538598
0.007638447 0.0080263577 0.012913639 4290650653
0.0099272877 0.0067493729 0.013933284 4290323488
0.012757879 0.0033663996 0.01706087 4289734949
0.016334008 -0.0028230473 0.022994369 4289734694
0.021964327 -0.016730279 0.0366432 4289799973
0.028997103 -0.035542414 0.05518274 4289799973
-0.012175202 0.0065768175 0.01421413 4288949803
-0.010830671 0.0095288642 0.010996057 4289343014
-0.0092074051 0.011067197 0.0091964863 4289276714
-0.0071366355 0.010486789 0.0095187798 4289342248
-0.0049050152 0.0092009194 0.010546096 4289146153
-0.0026626065 0.0079159029 0.011571279 4289341994
-0.00073086843 0.0080427192 0.011184519 4289342504
0.0013643727 0.007464271 0.011502253 4289342504
0.0032989383 0.0075914711 0.011115074 4289146154
0.0050647743 0.008423809 0.010024603 4289604134
0.0071682408 0.0078461915 0.010340916 4289800228
0.0092771128 0.0072690733 0.01065618 4289407528
0.012098655 0.0038745776 0.01377734 4289407783
0.015844531 -0.0030394718 0.020399123 4289669159
0.021830183 -0.018399164 0.035418101 4289734438
0.028673189 -0.036566645 0.053213991 4289734438
-0.012734357 0.0071182586 0.010930618 4289210923
-0.011250112 0.0093699582 0.008426616 4289800484
-0.0094821155 0.010203853 0.0073368605 4290454559
-0.0072617903 0.0089128166 0.0083630122 4289734438
-0.0050306506 0.0076225325 0.0093871187 4289865764
-0.0029465966 0.0070409887 0.0097052362 4289341993
-0.0010176636 0.0071675926 0.0093190167 4289211433
0.00091134757 0.0072943121 0.0089328624 4289407783
0.0028404221 0.0074211508 0.0085467789 4289342504
0.0047695637 0.0075480863 0.0081607569 4289276714
0.0068700425 0.0069681294 0.0084759779 4289407783
0.0093238652 0.0049749389 0.010191504 4288949548
0.012147084 0.0015696213 0.013304083 4289080363
0.01607307 -0.0060726777 0.020608809 4289014829
0.021878067 -0.020774044 0.034892242 4289210923
0.028534355 -0.038292319 0.051947236 4289210923
-0.013148092 0.006962195 0.0083618946 4288884013
-0.01166879 0.0092200562 0.0058638547 4289995813
-0.0097564347 0.0093451738 0.0054806508 4289473064
-0.0075392649 0.0080495328 0.0065041222 4290192419
-0.0053112768 0.0067546591 0.0075255502 4290454303
-0.0032301955 0.0061707199 0.0078426078 4289276968
-0.0013040677 0.0062971413 0.007456949 4289146153
0.00062213466 0.0064236596 0.0070713479 4289407784
0.0027141571 0.0058407485 0.0073864441 4289276714
0.0043063164 0.0073864199 0.0056002531 4289341738
0.0065722391 0.0060946867 0.0066145007 4290257443
0.0090227276 0.0040947273 0.0083257537 4290061094
0.012195192 -0.00073944032 0.01282781 4289930279
0.016300939 -0.0091144368 0.020812295 4289995814
0.022289285 -0.024570033 0.035758261 4289995814
0.028580057 -0.040726058 0.051377613 4289734184
-0.01490989 0.0038367882 0.0089991614 4286919748
-0.013561077 0.0068151541 0.0057998672 4289275693
-0.011939913 0.0083662495 0.0040105265 4289080363
-0.01017987 0.0092039928 0.0029255785 4289146154
-0.0081207007 0.0086161681 0.0032452522 4289277223
-0.0059012286 0.0073164105 0.0042650448 4289538853
-0.0036709495 0.006017454 0.0052827429 4289604133
-0.001750309 0.0061434954 0.0048981663 4289473319
0.0003333129 0.0055576973 0.0052132662 4289342504
0.0020911917 0.0063959137 0.0041292161 4289472553
0.0040120445 0.006522283 0.0037448369 4289407274
0.0062748194 0.0052259341 0.0047564674 4290192164
0.0090691894 0.0017967671 0.0078582671 4289799719
0.012066681 -0.002341561 0.011651658 4290192164
0.016707102 -0.01287552 0.021705899 4290192164
0.022699466 -0.028378859 0.036614791 4290191909
0.02899407 -0.044584818 0.052195519 4290191909
-0.015741225 0.0058370009 0.004329484 4288360499
-0.014117293 0.0073925629 0.0025427481 4289733929
-0.012650594 0.0096626431 5.7072379e-05 4289996579
-0.011050541 0.011216857 -0.0017247265 4289407783
-0.008853063 0.0099111199 -0.00070387684 4289473318
-0.006490089 0.0078915954 0.0010144021 4290192928
-0.0041109584 0.0058731884 0.0027295593 4289538854
-0.0020357631 0.0052845776 0.0030445615 4289669669
-0.00028057024 0.0061246492 0.0019626589 4289669669
0.0016347282 0.0062505379 0.0015793033 4289865508
0.003382016 0.0070903003 0.00049914513 4290192674
0.0054655075 0.006502647 0.00081279874 4289146154
0.0082481541 0.0030617788 0.0039087031 4289211178
0.011585977 -0.0025169328 0.0090851765 4289211689
0.01639705 -0.013797186 0.019811038 4289276968
0.02292715 -0.031487703 0.036767729 4289080619
0.029222917 -0.047743797 0.052310355 4289080619
-0.016570784 0.0078594238 -0.00032387301 4288492333
-0.015103817 0.010135993 -0.002804799 4289604644
-0.013359848 0.010976873 -0.003883291 4290324254
-0.011621114 0.011817522 -0.0049606478 4289735459
-0.0094321519 0.010506887 -0.0039414363 4289800994
-0.0070778616 0.0084801838 -0.0022263285 4290127648
-0.0048646182 0.0071713477 -0.0012118313 4289342503
-0.0029603019 0.0072963051 -0.0015931455 4289343014
-0.00089336932 0.0067050532 -0.0012780689 4289473574
0.0008485429 0.0075465329 -0.0023555951 4289669669
0.0025851615 0.0083877593 -0.0034319884 4290258208
0.0046576299 0.0077971853 -0.0031177807 4290323743
0.0072552934 0.0050602369 -0.00072195567 4290062114
0.010754123 -0.0012523457 0.0051379967 4290062114
0.016087379 -0.014714219 0.017919647 4290127393
0.022972848 -0.033889905 0.03622181 4290258209
0.029267099 -0.05019629 0.0517269 4290258209
-0.019006766 0.0083409995 -0.0031838459 4286529853
-0.017821409 0.012063824 -0.0070580123 4287709229
-0.016231831 0.013625786 -0.0088312784 4287839788
-0.014506552 0.014467645 -0.0099044312 4287054644
-0.012339581 0.013151053 -0.0088841505 4287840045
-0.009858489 0.010396861 -0.006472216 4289867804
-0.0076645464 0.0090822801 -0.0054572239 4290194714
-0.0056168251 0.0084873736 -0.0051401085 4289146663
-0.0038830489 0.009330254 -0.0062145437 4289473829
-0.0021545514 0.010172918 -0.0072878236 4289670434
-0.00043134391 0.011015333 -0.0083599715 4289735459
0.0012865588 0.011857558 -0.0094310148 4289669669
0.0036807917 0.009827558 -0.0077283708 4289604389
0.0064373054 0.0063631423 -0.0046437024 4290127648
0.010099463 -0.00068753213 0.0018959548 4290062369
0.015956536 -0.016343988 0.016723223 4290062369
0.023199346 -0.037013441 0.036363885 4290063388
0.029127151 -0.051935762 0.050450008 4289801249
0.034510665 -0.055954948 0.053737417 4288229429
0.01529092 -0.01581452 0.01345727 4288952353
0.022701398 -0.03726761 0.033742286 4288952353
0.02880362 -0.052955627 0.04848453 4288952353
0.032042876 -0.057129905 0.05219043 4289671454
0.033802457 -0.055550493 0.050387878 4288426034
-0.022613943 0.010843121 -0.013167548 4284704309
-0.023813501 0.015150156 -0.01983704 4284704563
-0.024257265 -0.017338194 -0.03017878 4284704818
0.042345576 -0.058463484 0.037117533 4282666859
0.016226608 -0.061392374 -0.0071004853 4282797419
0.019928571 -0.061994679 -0.0097563043 4282338419
-0.019957677 0.011126652 -0.0085084438 4285098028
-0.018646874 0.014137257 -0.011673928 4285623074
-0.017213933 0.016424675 -0.014138177 4285819423
-0.015504658 0.0172676 -0.015206456 4285884958
-0.01320542 0.015223976 -0.013490365 4285884959
-0.010738548 0.012460113 -0.011082175 4285753634
-0.008558467 0.011140246 -0.010067712 4286147609
-0.0066812858 0.011263277 -0.010443701 4286934284
-0.021044403 0.014663398 -0.014509896 4285230119
-0.019611165 0.016957197 -0.016969327 4285689628
-0.018050611 0.018525999 -0.01873026 4285820443
-0.016208731 0.018646289 -0.019099504 4285951258
-0.013920851 0.016595356 -0.017386081 4285951513
-0.011616819 0.014545631 -0.015675865 4285689118
-0.009450607 0.013220441 -0.014661874 4285623838
-0.0075869374 0.013342574 -0.01503517 4285558558
-0.0057231933 0.013464823 -0.015408396 4285558048
-0.0043454356 0.015755888 -0.017856114 4285623839
-0.003313072 0.019491419 -0.021682492 4285688608
-0.0011357889 0.018167477 -0.020670325 4285819679
0.0013923496 0.015399687 -0.018280471 4285819423
0.0048056431 0.009022437 -0.012447934 4285688099
-0.021715395 0.016051102 -0.018404398 4285624348
-0.020292476 0.018350769 -0.020856829 4285558303
-0.018742405 0.019923218 -0.022612389 4285557794
-0.01676558 0.019316606 -0.022286318 4285558049
-0.014634848 0.017984558 -0.021268718 4285755419
-0.012342162 0.015927486 -0.019561131 4285689883
-0.010340966 0.015322834 -0.019239746 4285624349
-0.0083343275 0.014718637 -0.018919375 4285558814
-0.0064814202 0.014840163 -0.01929044 4285558813
-0.0051139854 0.017137073 -0.021731172 4285624348
-0.0039270557 0.020157915 -0.024857927 4285821464
-0.0020927042 0.020278532 -0.025225043 4285755418
0.00042121112 0.017501075 -0.022838928 4285820954
0.0038194023 0.011103198 -0.017018177 4285951768
0.0074410662 0.0039843991 -0.01051978 4285820698
0.01342921 -0.012543127 0.0048949718 4285689119
0.020985316 -0.034853213 0.025774434 4285820698
0.027607871 -0.052810192 0.042507071 4285689119
0.030273469 -0.054841176 0.044141132 4285492258
-0.022384949 0.017456595 -0.022285767 4285624093
-0.020972356 0.01976214 -0.02473126 4285821463
-0.019146912 0.019881219 -0.025097316 4285821209
-0.017175741 0.019272089 -0.024771808 4285755164
-0.014754273 0.016478948 -0.022374358 4285821463
-0.012613215 0.015143298 -0.021362051 4285821463
-0.010614984 0.014536209 -0.021041688 4285624349
-0.0089239664 0.01538492 -0.022101127 4285558814
-0.0069202259 0.014778413 -0.021781698 4285558813
-0.0057194196 0.017808795 -0.024904797 4285821719
-0.0045399703 0.020837884 -0.028023537 4285558049
-0.0025467537 0.020231046 -0.027701812 4285557794
-3.9018691e-05 0.017444409 -0.025320996 4285623584
0.0031797215 0.011753004 -0.020199776 4285689374
0.0069665127 0.0038853586 -0.013030233 4285623838
0.01330059 -0.014145352 0.0037187608 4285623838
0.021031506 -0.037249453 0.025232896 4285623838
0.027285995 -0.053809308 0.040556759 4285623583
0.02994824 -0.055847108 0.042186595 4285492769
-0.024336584 0.015836392 -0.023020282 4284901424
-0.022778288 0.01741787 -0.024771091 4285559069
-0.021090485 0.018267836 -0.025828699 4285690649
-0.019693442 0.020579003 -0.028266076 4285755673
-0.017730601 0.019967139 -0.027940547 4285821209
-0.015466094 0.017895017 -0.026237275 4285755929
-0.013185438 0.01582405 -0.024537165 4285624349
-0.011195559 0.015214257 -0.024216827 4285624348
-0.0096686557 0.016794387 -0.025960736 4285559068
-0.0078347586 0.016914643 -0.026328009 4285558813
-0.0064852796 0.019223433 -0.028755298 4285887509
-0.00482345 0.020072673 -0.02980697 4285887254
-0.003000062 0.020192564 -0.030171895 4285755419
-0.00066805258 0.018125772 -0.028481536 4285755418
0.0023689121 0.013145048 -0.024056092 4285821719
0.0064926967 0.0037953779 -0.01553404 4285755928
0.013527133 -0.017204158 0.0039097145 4285756183
0.021437863 -0.041106246 0.026054274 4285756183
0.027513256 -0.056987941 0.040657159 4285755928
0.029623395 -0.056848302 0.040235516 4285427488
-0.024858594 0.016536102 -0.026193712 4285427998
-0.023308098 0.01812141 -0.027939681 4285493789
-0.02162829 0.018973026 -0.028994054 4285624094
-0.019953705 0.019824408 -0.030047296 4285558303
-0.01799386 0.019210149 -0.029722825 4285624094
-0.015732676 0.017131254 -0.028023832 4285624094
-0.01345535 0.015053522 -0.026327994 4285624349
-0.011775039 0.015905753 -0.027382098 4285559069
-0.010255951 0.017489705 -0.02912117 4285559068
-0.0084302202 0.01760941 -0.029486824 4285558558
-0.0067657344 0.018460892 -0.030537467 4285624349
-0.0052705482 0.02004366 -0.032271545 4285755673
-0.0034526587 0.020163178 -0.032635383 4285755673
-0.0009572953 0.017358277 -0.030265247 4285755928
0.0017315522 0.013823956 -0.027216403 4285690138
0.0063690245 0.0022529066 -0.016666416 4285559068
0.013575599 -0.019540772 0.0034125801 4285559068
0.021843191 -0.044975899 0.026866216 4285559068
0.027191626 -0.057984255 0.038708977 4285493278
0.029298922 -0.05784481 0.038287897 4285361953
-0.02497638 0.015042424 -0.027290761 4285427998
-0.023562722 0.01736749 -0.0297218 4285559579
-0.021885537 0.018221106 -0.030774007 4285689884
-0.020213597 0.019074485 -0.031825088 4285689628
-0.018111646 0.017722938 -0.030815 4285624094
-0.015998878 0.01637217 -0.029806955 4285624093
-0.013875321 0.015022259 -0.028801035 4285624349
-0.012200318 0.015876263 -0.029852401 4285559068
-0.010530584 0.016730037 -0.03090263 4285559068
-0.0088661388 0.017583612 -0.031951763 4285558814
-0.0070458241 0.017703082 -0.032316245 4285624093
-0.0053892657 0.018556312 -0.033363592 4285558303
-0.0037380047 0.019409318 -0.034409784 4285558559
-0.0015845224 0.018062122 -0.03340929 4285558559
0.0014390051 0.01304999 -0.02900417 4285559068
0.0062453784 0.00071074069 -0.017798571 4285559068
0.013800967 -0.022614278 0.0035927407 4285559068
0.022247482 -0.048858277 0.027668729 4285558813
0.026870357 -0.058975808 0.036764212 4285559068
0.02878958 -0.058104292 0.03566505 4285361699
-0.025362529 0.015024625 -0.029762095 4285493533
-0.024090715 0.018093467 -0.032873854 4285690394
-0.022421531 0.01894876 -0.033922873 4285952534
-0.020473093 0.018329222 -0.033599466 4285952789
-0.018084466 0.015498932 -0.031221902 4285952788
-0.015674334 0.012670126 -0.028848518 4285755419
-0.013843764 0.012789801 -0.029215403 4285624093
-0.012166038 0.013646144 -0.030265683 4285690139
-0.010649208 0.015238639 -0.031997748 4285624603
-0.0089847222 0.016094401 -0.033045247 4285624349
-0.0073255152 0.01694987 -0.034091569 4285624093
-0.0058352388 0.018540964 -0.035818063 4285624093
-0.0038566515 0.017924421 -0.035499997 4285624093
-0.0017036535 0.016572848 -0.034502678 4285624094
0.0014901869 0.010810021 -0.029429104 4285624348
0.0064704716 -0.0023014396 -0.017572165 4285559324
0.01420268 -0.026431181 0.0044452911 4285559324
0.022291329 -0.051283963 0.027105656 4285624348
0.026184704 -0.05849345 0.033467811 4285559324
0.028280981 -0.058354735 0.033048928 4285296163
-0.02574794 0.015015844 -0.032226745 4285559068
-0.024480939 0.018093094 -0.035331026 4285690139
-0.022817045 0.018950164 -0.036377318 4285623583
-0.020732202 0.017588668 -0.035370462 4285623838
-0.018202342 0.014010109 -0.032315269 4285886744
-0.01594045 0.011911608 -0.030631237 4285755419
-0.014112696 0.01203109 -0.030997565 4285689884
-0.012437608 0.012889434 -0.032045677 4285624348
-0.010767799 0.013747547 -0.033092655 4285624603
-0.0091032758 0.014605477 -0.034138523 4285689883
-0.0077656209 0.016939562 -0.036543705 4285821464
-0.0061170198 0.01779661 -0.037586186 4285952789
-0.0041414127 0.017177686 -0.037269175 4286018324
-0.0016539171 0.014346112 -0.034917198 4285952789
0.0015410446 0.0085659847 -0.029857025 4285690139
0.0065207109 -0.0045847297 -0.01802953 4285624604
0.014426515 -0.029523775 0.0046114316 4285690139
0.022155315 -0.05297666 0.025863063 4285690139
0.025682341 -0.058734372 0.030857213 4285558814
0.027588217 -0.057859398 0.029764008 4285230374
-0.026534244 0.017242603 -0.036736809 4285953043
-0.025143504 0.019585736 -0.039148495 4285624093
-0.023351058 0.019702464 -0.039508082 4285492514
-0.021132834 0.017594352 -0.037820399 4285623583
-0.018609315 0.014004484 -0.03477215 4285755163
-0.016353428 0.01189905 -0.033091843 4285820953
-0.014381234 0.011277057 -0.032776296 4285689629
-0.012861405 0.012878366 -0.034502544 4285624349
-0.011196904 0.013738304 -0.035546813 4285689883
-0.0095376819 0.014598012 -0.036589943 4285755674
-0.0082050078 0.016938321 -0.038989261 4285689884
-0.0063984208 0.017056968 -0.039350927 4285558048
-0.0044257939 0.016435623 -0.039034918 4285689374
-0.0016045123 0.012115333 -0.035334758 4285886489
0.0015916005 0.0063178167 -0.030287905 4285755164
0.0070926473 -0.009090744 -0.016461987 4285558558
0.014826356 -0.033364132 0.0054467637 4285755164
0.022019327 -0.054669015 0.024620719 4285755164
0.025180718 -0.058966257 0.028253336 4285493023
0.027081253 -0.058089465 0.027162831 4285230118
0.028976435 -0.057212844 0.02607346 4285098028
-0.028581403 0.016397271 -0.03814023 4285427744
-0.02718506 0.018747184 -0.040548205 4285624603
-0.025668263 0.020351943 -0.042271014 4285887764
-0.023744941 0.019724127 -0.041947655 4285887253
-0.021816157 0.019096777 -0.041625299 4285821718
-0.019304343 0.015495248 -0.038582928 4285887253
-0.017353959 0.014869507 -0.038264759 4285689883
-0.015248384 0.013500925 -0.037268348 4285624349
-0.013589278 0.014362555 -0.038309999 4285624349
-0.011625268 0.01373804 -0.037994303 4285558558
-0.010129143 0.015342385 -0.039712347 4285821719
-0.008804094 0.017688695 -0.042105153 4285623838
-0.0071688145 0.018549252 -0.043141741 4285492258
-0.0050414093 0.017182756 -0.042149208 4285557793
-0.0020608678 0.01210672 -0.037781633 4285623839
0.0018129721 0.0033237003 -0.030046945 4285624093
0.0076632127 -0.013613962 -0.014907062 4285624093
0.015401684 -0.037958883 0.0069465395 4285624093
0.022062548 -0.057102419 0.024051894 4285624093
0.024861684 -0.059930257 0.026328858 4285624348
0.02639048 -0.057569392 0.023896072 4285230118
-0.028958812 0.016420379 -0.040582895 4285427488
-0.027700938 0.019523028 -0.043665748 4285427999
-0.025919579 0.019638892 -0.044023212 4285427488
-0.0241381 0.019754883 -0.04438062 4285493278
-0.022214964 0.019124918 -0.044058751 4285558813
-0.019997954 0.017003801 -0.04238065 4285493023
-0.017911673 0.01562947 -0.041383754 4285493023
-0.01596418 0.01500148 -0.041066557 4285558814
-0.014163502 0.015119266 -0.041427396 4285558814
-0.012362752 0.01523716 -0.041788183 4285493023
-0.010877118 0.01684517 -0.043500829 4285690393
-0.0095623955 0.019197322 -0.045886662 4285887508
-0.0079377666 0.020059302 -0.046919435 4285821718
-0.005821567 0.018687755 -0.045927998 4285821719
-0.0028530844 0.013595633 -0.041569456 4285756183
0.0016917102 0.001809299 -0.031158755 4285756184
0.0084060542 -0.018898286 -0.012692031 4285756184
0.015975632 -0.042570837 0.008433694 4285756183
0.021747436 -0.058052756 0.022136752 4285756184
0.023997974 -0.058659375 0.022394389 4285427488
0.025700789 -0.057035841 0.020639203 4285164074
-0.029074132 0.014954686 -0.041659459 4285295909
-0.027549013 0.016568556 -0.043377478 4285296163
-0.025898449 0.017433301 -0.044414639 4285427999
-0.024114415 0.01754944 -0.044772562 4285427999
-0.022330306 0.017665684 -0.045130435 4285493534
-0.020257987 0.016286004 -0.044134166 4285493789
-0.01846832 0.016402852 -0.044492967 4285559324
-0.016529169 0.015772127 -0.044175755 4285493533
-0.014736649 0.015889376 -0.044534963 4285493533
-0.012944061 0.016006742 -0.044894103 4285559068
-0.011623666 0.01836567 -0.04727624 4285493533
-0.010319274 0.020723708 -0.049655128 4285558814
-0.0087053068 0.021587171 -0.050684124 4285624349
-0.0064348467 0.0194639 -0.049020987 4285558559
-0.0036438815 0.015102383 -0.045344263 4285493278
0.0010580644 0.0025340393 -0.034285434 4285493278
0.0082797706 -0.020473674 -0.01384858 4285493278
0.016195886 -0.045708098 0.0085669812 4285493278
0.021253865 -0.05825261 0.019554943 4285493278
0.023317203 -0.058116212 0.019142546 4285427744
0.025196381 -0.057234295 0.018061243 4284966703
-0.028797902 0.011235964 -0.040701464 4285492769
-0.02726455 0.012854759 -0.042417891 4285493023
-0.025334224 0.01222067 -0.042100929 4285493023
-0.023675494 0.01308826 -0.043138061 4285427234
-0.021739602 0.012454767 -0.042822044 4285493279
-0.01994215 0.01257199 -0.043182511 4285558814
-0.018144585 0.012689333 -0.043542907 4285493024
-0.016346946 0.012806792 -0.043903235 4285295399
-0.014701121 0.013674106 -0.044937365 4285295399
-0.013060566 0.014541149 -0.045970295 4285229608
-0.011582538 0.016157292 -0.047674838 4285163564
-0.010275085 0.01852205 -0.05004942 4285229864
-0.0086584091 0.01938786 -0.051077321 4285230118
-0.0065512136 0.018006999 -0.050090656 4285230118
-0.003929399 0.01438101 -0.047094204 4285230119
0.00059613958 0.0025237128 -0.036732137 4285230119
0.0081535131 -0.022048756 -0.015004911 4285230119
0.0162395 -0.048105709 0.0080251228 4285230119
0.020939689 -0.059191376 0.017648298 4285230119
0.023000188 -0.059055157 0.017236467 4285295909
-0.028392337 0.0067511313 -0.03907638 4285360679
-0.02671507 0.0076218359 -0.040115725 4285426469
-0.024907358 0.0077393763 -0.040478509 4285426214
-0.023099542 0.0078570433 -0.040841226 4285426469
-0.021291628 0.0079748221 -0.041203879 4285492514
-0.019483604 0.008092735 -0.041566469 4285492514
-0.017675482 0.0082107522 -0.041928988 4285492514
-0.015867285 0.0083288848 -0.042291448 4285493024
-0.014210731 0.0091990642 -0.043326091 4285558814
-0.01255944 0.010068979 -0.044359539 4285558814
-0.011070501 0.011690166 -0.046062998 4285558559
-0.0095922127 0.013310835 -0.047764275 4285426978
-0.0079621263 0.014179699 -0.048793219 4285492769
-0.0060071386 0.013546325 -0.048481952 4285426978
-0.0037111938 0.011411738 -0.046833642 4285426978
0.00064628944 0.00027047098 -0.037166819 4285361188
0.0078541599 -0.022873074 -0.01682895 4285361188
0.016106976 -0.049757056 0.00681285 4285426978
0.020625889 -0.060125418 0.015745111 4285361188
0.022683553 -0.059989385 0.015333857 4285295143
-0.027988106 0.0022490844 -0.037463963 4285295144
-0.026300125 0.0031226911 -0.038503867 4285360678
-0.024346352 0.0024857521 -0.03819491 4285426213
-0.022663489 0.003359247 -0.039233617 4285492259
-0.020985857 0.0042324811 -0.040271148 4285426723
-0.01931347 0.0051054843 -0.041307535 4285492258
-0.017353952 0.004469417 -0.040999435 4285492514
-0.015537865 0.0045880601 -0.041363478 4285492768
-0.013721693 0.0047068261 -0.041727453 4285558303
-0.011905443 0.0048257187 -0.042091347 4285558559
-0.010246027 0.005698435 -0.043124709 4285558559
-0.0084323175 0.0058173984 -0.043487918 4285558559
-0.0067807958 0.0066898316 -0.044519529 4285558558
-0.004969649 0.0068088472 -0.044882055 4285493024
-0.0026556514 0.0046689548 -0.043242324 4285492514
0.0017178059 -0.0065039173 -0.033603251 4285492514
0.0085929036 -0.028208658 -0.014651549 4285492514
0.015798841 -0.050655551 0.0049349796 4285492514
0.019777549 -0.058797814 0.011849571 4285427234
0.021824351 -0.058662497 0.011440489 4285295143
-0.027975187 2.8014183e-06 -0.037884101 4285163564
-0.026151828 0.00012123585 -0.038250118 4285229863
-0.024328344 0.00023978204 -0.038616084 4285360933
-0.022504769 0.00035843998 -0.038981982 4285361189
-0.020681083 0.00047724694 -0.039347805 4285426469
-0.019000642 0.0013529286 -0.040384185 4285426724
-0.017325468 0.0022284314 -0.041419461 4285492258
-0.01550686 0.0023472309 -0.041784018 4285426723
-0.013688151 0.0024661496 -0.042148504 4285558304
-0.011715308 0.0018290952 -0.041844402 4285558304
-0.0097370557 0.0011925399 -0.041541353 4285623838
-0.0079127885 0.0013121739 -0.041906685 4285558303
-0.006412629 0.0029430762 -0.0436057 4285492768
-0.0045935996 0.0030626133 -0.043969803 4285492514
-0.0021048076 0.00016143918 -0.041670643 4285492513
0.0022765733 -0.011043549 -0.032057777 4285492514
0.008984372 -0.03205616 -0.013819442 4285492514
0.015666548 -0.052304082 0.0037247734 4285492514
0.019286897 -0.058961362 0.0092944168 4285361189
0.021328185 -0.058826417 0.0088864341 4284901678
-0.027962573 -0.0022475645 -0.038307242 4285163818
-0.02600418 -0.0028886348 -0.038002625 4285229863
-0.024445824 -0.0012508109 -0.039710879 4285295398
-0.022484541 -0.0018914565 -0.039406668 4285361188
-0.020517811 -0.0025316402 -0.039103478 4285426469
-0.018831998 -0.0016534403 -0.040139299 4285426724
-0.017151453 -0.00077548623 -0.041173995 4285492259
-0.015476145 0.00010228157 -0.042207517 4285492514
-0.013503708 -0.0005370751 -0.04190512 4285558049
-0.011679724 -0.0004177019 -0.04227059 4285558304
-0.0096991174 -0.0010562763 -0.041969642 4285623839
-0.0081907734 0.00057935715 -0.043667063 4285558304
-0.0063692704 0.00069891661 -0.044031765 4285492513
-0.0043831356 6.1064959e-05 -0.04373166 4285492258
-0.0018898398 -0.0028485209 -0.041439962 4285426723
0.0024941117 -0.014085911 -0.031852238 4285426724
0.0088570006 -0.033645339 -0.014986126 4285426724
0.015008453 -0.051681727 0.00052706245 4285426724
0.018796988 -0.059115894 0.0067459494 4285360934
0.020832758 -0.058981329 0.0063390508 4284901678
-0.027431682 -0.0075501129 -0.036053017 4285164329
-0.025592566 -0.0074306801 -0.036422219 4285164838
-0.024023302 -0.0057877898 -0.038129374 4285164583
-0.022189297 -0.0056684762 -0.038497388 4285164329
-0.020214856 -0.0063103214 -0.038197376 4285164074
-0.01837799 -0.006190598 -0.038565785 4285295398
-0.016686708 -0.0053097457 -0.03960098 4285426978
-0.015149057 -0.0036683157 -0.041301407 4285426978
-0.013168901 -0.0043093786 -0.041002154 4285492514
-0.011337042 -0.0041894913 -0.0413692 4285492769
-0.009661492 -0.003309153 -0.042400923 4285492513
-0.0083093308 -0.00090890378 -0.04475984 4285492513
-0.00681144 0.00073052943 -0.046451848 4285492514
-0.0048309714 9.0114772e-05 -0.046152256 4285492514
-0.0021767803 -0.0035881773 -0.043203253 4285426724
0.0018622093 -0.013339713 -0.034963168 4285492259
0.0078675151 -0.031438075 -0.019460145 4285492259
0.014351431 -0.051045887 -0.0026608175 4285492259
0.018307813 -0.059261344 0.0042041466 4285361188
0.020698968 -0.060644515 0.0051181503 4284966958
-0.022658408 -0.015688986 -0.031888645 4284967469
-0.02093263 -0.014804102 -0.032929398 4284901934
-0.019071937 -0.014682934 -0.03330268 4284967469
-0.017496832 -0.013034932 -0.035007518 4285295143
-0.015786801 -0.012150712 -0.036044843 4285426214
-0.014230218 -0.010503739 -0.037745751 4285360678
-0.012382533 -0.010382935 -0.03811606 4285295653
-0.010841846 -0.0087366998 -0.039813638 4285492768
-0.0091555677 -0.0078535303 -0.040845823 4285427234
-0.0077923276 -0.005446054 -0.043202046 4285361189
-0.0061219856 -0.0045636743 -0.044230927 4285361188
-0.0041284561 -0.0052054301 -0.04393553 4285426979
-0.0017957427 -0.0073702037 -0.042319246 4285493025
0.0019097067 -0.015626512 -0.035422422 4285492513
0.0077410713 -0.033015721 -0.02061836 4285492513
0.013695501 -0.050396688 -0.0058388142 4285492514
0.017641747 -0.058636688 0.0010100901 4285426723
-0.0029355101 -0.012814835 -0.039754964 4285097774
-0.00091552734 -0.013456888 -0.039466482 4285098285
0.0028038956 -0.02173619 -0.03259049 4285098285
0.0081308857 -0.036883794 -0.019801436 4285098284
0.013914391 -0.053551078 -0.0057181148 4285098284
