# .PCD v0.7 - Point Cloud Data file format
VERSION 0.7
FIELDS x y z rgba
SIZE 4 4 4 4
TYPE F F F U
COUNT 1 1 1 1
WIDTH 976
HEIGHT 1
VIEWPOINT 0 0 0 1 0 0 0
POINTS 976
DATA ascii
0.051985748 -0.011091411 0.051346183 4289014318
-0.002216097 0.012480259 0.029820176 4286920513
-0.00093441829 0.01534548 0.02651499 4288621363
0.00050933659 0.017528433 0.023932761 4289210413
0.0021231845 0.019029606 0.022071799 4289080108
0.0037263669 0.020530161 0.020213136 4289473319
0.0057017356 0.020669397 0.019790055 4290258464
0.0078712143 0.020128604 0.02008306 4289996578
0.010439582 0.018228382 0.021805929 4290323488
0.013223428 0.015649624 0.024240298 4290258209
0.01542237 0.015111174 0.02452719 4289276714
0.017217126 0.01593193 0.023385542 4289145899
0.019006524 0.016752388 0.022245103 4289341994
0.021000687 0.016893569 0.021818465 4289407529
0.02320762 0.016356044 0.022103915 4289472553
0.025419872 0.015818976 0.022388296 4289603623
0.027419299 0.015960801 0.021960737 4289145899
0.028977066 0.017459169 0.020112643 4289407529
0.03097105 0.017600786 0.019686377 4289799974
0.033191137 0.017064627 0.019969346 4289799973
0.036789473 0.012462948 0.024502842 4289407529
0.040888175 0.0065090209 0.030444494 4289669159
0.045034893 0.00055861473 0.036375962 4289080108
0.048282236 -0.0026798993 0.039469689 4288622638
0.052753814 -0.009300977 0.046089411 4287968564
-0.0052367784 0.01410557 0.025451595 4287705659
-0.0037793592 0.016295847 0.022871232 4289864489
-0.0019768253 0.017118525 0.02172895 4290060839
-0.00017958507 0.017940972 0.020587834 4290388513
0.0014265031 0.019445967 0.018731816 4290127394
0.003399048 0.019584909 0.018309271 4289734948
0.0053716265 0.019723944 0.017886782 4289407783
0.00773203 0.018498424 0.018893184 4289277224
0.01029972 0.016591575 0.020611251 4289342248
0.012883473 0.01468594 0.022325935 4289538599
0.014675628 0.015508607 0.021186417 4289276714
0.016462423 0.016331028 0.020048076 4289472553
0.018036634 0.017834503 0.018199431 4289930534
0.020439852 0.016612541 0.019197071 4290257443
0.022853747 0.015391391 0.020192543 4290257443
0.025278307 0.014171127 0.021185758 4290322979
0.027059678 0.014993582 0.020048963 4289603368
0.029056283 0.015135299 0.019622078 4289407529
0.031052833 0.015277114 0.019195275 4289211178
0.033727236 0.013378803 0.020891247 4289080363
0.037103523 0.0094421357 0.024704823 4289015084
0.040974438 0.0041484609 0.029924506 4289276714
0.044888012 -0.0011420548 0.03513509 4288687919
0.046951011 -0.00099506229 0.034694426 4287510584
0.049492575 -0.0022062287 0.035663292 4286726204
-0.0080562048 0.015069153 0.021810969 4288425268
-0.0067760721 0.017951585 0.018519146 4289080109
-0.004806567 0.018089935 0.018096967 4289210924
-0.0026566423 0.017542917 0.018390512 4289669159
-0.00050130859 0.016996376 0.018682966 4289930789
0.0014737397 0.017135393 0.01825981 4289996580
0.003448844 0.01727451 0.01783671 4289473318
0.0056150183 0.016729001 0.018127048 4289734948
0.0073991716 0.01755302 0.016990686 4289604133
0.0097671412 0.016323693 0.017992279 4289407528
0.01194676 0.01577941 0.018279945 4289603878
0.013728302 0.016603515 0.017144347 4289669414
0.015300091 0.018111158 0.015299415 4290126883
0.0174824 0.017567325 0.015586702 4289734438
0.020089533 0.015657157 0.017291723 4289341993
0.022287849 0.015114654 0.017575735 4289734438
0.024706583 0.01388957 0.018566953 4290061093
0.026700445 0.014031012 0.018140594 4289276714
0.029135127 0.012807276 0.019128485 4289145899
0.031803563 0.010901913 0.020820742 4289145643
0.034487963 0.0089978129 0.022509607 4289145643
0.037873704 0.005048655 0.026311332 4288688174
0.041753665 -0.0002618283 0.031515867 4288360753
0.045442522 -0.0048875436 0.036007158 4287314488
0.046804018 -0.0026954412 0.0334538 4286856509
0.047671109 0.00085820258 0.029497771 4286333759
-0.01165399 0.011093937 0.023619676 4286790209
-0.010344014 0.013987008 0.02032789 4289341228
-0.0088831745 0.016190406 0.017756561 4289276459
-0.0076130964 0.019080866 0.014473474 4290389024
-0.0056543872 0.019218456 0.014053607 4290127394
-0.0035154559 0.018668462 0.014347846 4289604134
-0.0010054484 0.016743943 0.016068025 4290323234
0.0013351329 0.015507974 0.01707186 4290323488
0.0033101253 0.015647072 0.016648775 4289538599
0.0052851513 0.015786264 0.01622575 4289342248
0.0068731979 0.017299015 0.014380394 4289211434
0.0094315037 0.01537839 0.016090522 4289276969
0.011210438 0.016204413 0.014957065 4289342248
0.013185568 0.016343985 0.0145343 4289342249
0.014752291 0.0178556 0.012693787 4290126883
0.016722074 0.017994981 0.012272308 4290519839
0.019110948 0.016763251 0.013266427 4290192673
0.021510508 0.015532348 0.01425839 4289473319
0.024135616 0.01361711 0.01595472 4289603623
0.02655917 0.01238808 0.01694168 4289799973
0.029654093 0.0091053918 0.02004288 4289015084
0.032775693 0.0058247 0.023138458 4288818478
0.035698373 0.0032304525 0.025524063 4288949293
0.038870621 -4.645437e-05 0.028608954 4288033588
0.042300455 -0.0040054396 0.032391414 4287379514
0.045528661 -0.0072781667 0.035464503 4286529343
0.046184473 -0.0030281767 0.030809252 4286660159
-0.014763921 0.013462726 0.018554745 4289079088
-0.012958933 0.014291637 0.017416501 4289406508
-0.011159189 0.015120268 0.016279453 4289276459
-0.0095366538 0.016639102 0.014429377 4289472808
-0.0082739592 0.01953778 0.011154449 4289996579
-0.0063233823 0.019674782 0.010736311 4289996579
-0.0041927658 0.019122005 0.011030676 4289799974
-0.0013261698 0.015810885 0.014171572 4290061604
0.0010112561 0.014570314 0.015172785 4289473319
0.0029834546 0.014709201 0.014750289 4289211433
0.0049557015 0.014848188 0.014327856 4289407783
0.006734658 0.015676212 0.013195904 4289146153
0.0089002922 0.015126456 0.013483187 4289931043
0.010475278 0.01664285 0.01164406 4289538344
0.012442276 0.016781848 0.011223039 4289341993
0.014205247 0.017609153 0.010094734 4289538344
0.016169574 0.017748151 0.009674428 4290257698
0.018552626 0.0165116 0.010666551 4290323488
0.020946335 0.015275951 0.011656431 4289996578
0.023994841 0.011978846 0.014759185 4290192674
0.027070034 0.0086837336 0.017856309 4289473319
0.030171916 0.0053906143 0.020947797 4288818478
0.033523202 0.0014126003 0.024737006 4288491569
0.036455702 -0.0011896864 0.027113942 4287968309
0.039637573 -0.0044768453 0.030188544 4287183419
0.042615358 -0.0070757121 0.032555938 4286856253
0.045147598 -0.0083007514 0.03351678 4286594623
0.046037845 -0.0047236159 0.029572247 4286725438
-0.017517015 0.014473833 0.014932161 4290060329
-0.015720084 0.015304256 0.013797211 4289995048
-0.013761967 0.015441384 0.013377154 4290257443
-0.01180375 0.015578624 0.01295715 4290192928
-0.010017198 0.016408589 0.011824628 4289276968
-0.0085847825 0.018623229 0.0092692804 4289342504
-0.0066369884 0.018760014 0.0088517275 4289276968
-0.0045093484 0.018204831 0.0091450792 4289015084
-0.0018289424 0.015574414 0.011568205 4289472808
0.00031752512 0.015020747 0.011857664 4289473319
0.002281595 0.015159044 0.0114369 4289604134
0.0042457096 0.015297469 0.011016214 4289341993
0.0062098578 0.015435971 0.010595581 4290257698
0.0083698556 0.014883596 0.01088248 4290257954
0.010138225 0.015713286 0.0097545255 4290257698
0.011901282 0.016542651 0.0086278338 4289930789
0.013658993 0.017371725 0.0075023454 4289799974
0.01561786 0.017510343 0.0070832092 4289603623
0.018204242 0.015579026 0.0087778587 4289080363
0.020806633 0.013648953 0.010469092 4289145643
0.024283122 0.0089615732 0.014970711 4289341993
0.02757979 0.0049663931 0.018761532 4288818733
0.031128356 0.00028432161 0.023247885 4288360753
0.03449174 -0.0037059039 0.027024599 4287575863
0.0372115 -0.0056271553 0.028691104 4287117883
0.040175118 -0.0082358643 0.031054882 4286856254
0.042468391 -0.0087775141 0.031314231 4286660158
0.044766914 -0.0093186647 0.031572483 4286398018
0.045891218 -0.0064187944 0.028335435 4286332738
-0.021107648 0.010496452 0.016737403 4288425779
-0.019930407 0.014112901 0.01274577 4288752688
-0.018618882 0.017032001 0.009473158 4289930534
-0.01667434 0.017168064 0.0090559293 4289407528
-0.014563464 0.016609032 0.0093508605 4290062369
-0.012447141 0.016050462 0.0096446928 4289800483
-0.010496963 0.016187202 0.0092264656 4289211433
-0.0087209418 0.017018702 0.0080979075 4289146153
-0.0069501847 0.017849941 0.0069705639 4289407784
-0.0046459325 0.016598053 0.0079721268 4289080618
-0.0023309067 0.015346996 0.0089715067 4289473319
-0.00037502125 0.015484631 0.0085524302 4289276968
0.0015809163 0.015622359 0.0081334095 4289734949
0.0035368875 0.015760183 0.0077144485 4289669159
0.0054928996 0.015898112 0.0072955582 4289342249
0.0076445639 0.015342996 0.0075825397 4289015083
0.009801589 0.014788363 0.0078684557 4289799974
0.011562038 0.015619729 0.0067439619 4289734438
0.013317153 0.016450819 0.0056206807 4289341993
0.015479539 0.015896846 0.0059056617 4289472808
0.018483207 0.012574513 0.0090014096 4289407529
0.021513579 0.0092541799 0.012091516 4289080108
0.024999317 0.0045521334 0.01657963 4288818478
0.028522417 -0.00014711916 0.021059794 4287968309
0.032082904 -0.0048436522 0.025532095 4287379513
0.035013691 -0.0074636042 0.027896104 4287248699
0.037740786 -0.009390898 0.029556176 4286921789
0.040256165 -0.010626107 0.030513948 4286790974
0.042321425 -0.01047904 0.030072739 4286660159
0.04438661 -0.010331884 0.02963162 4286463808
0.045980282 -0.0088039935 0.027796077 4286071874
-0.023975983 0.012229156 0.012408951 4288359988
-0.02233199 0.013761982 0.010563677 4289276459
-0.020698532 0.015294131 0.0087207835 4289996323
-0.019236345 0.017523464 0.0061685406 4289211689
-0.017463312 0.018356543 0.0050419755 4289211688
-0.015363429 0.01779452 0.0053375922 4289342759
-0.013089366 0.016535714 0.0063420925 4290192928
-0.010975923 0.015974846 0.0066349562 4289408038
-0.0093792528 0.017505031 0.004800342 4289342759
-0.0072629675 0.016944509 0.0050927885 4289342759
-0.0049618743 0.015688028 0.0060917325 4289407783
-0.0030141808 0.01582497 0.0056743212 4289473319
-0.0010664351 0.015962016 0.0052569732 4289146409
0.00088136643 0.016099166 0.0048396923 4289538598
0.0026391223 0.016932137 0.0037171282 4290519839
0.0045843273 0.017069299 0.0033005457 4289931043
0.0069204234 0.015815873 0.0042924359 4289538599
0.0094653517 0.013868097 0.0059857778 4289277224
0.011423979 0.014006499 0.005566543 4289996578
0.013382606 0.014145005 0.0051473901 4289342503
0.01595962 0.0121998 0.0068340916 4289407783
0.01897024 0.0088670328 0.0099201184 4289276969
0.02221903 0.004842028 0.013701277 4288818478
0.025713999 0.00012538582 0.018175861 4287313978
0.029029544 -0.0038947314 0.021942938 4287117884
0.032377098 -0.0079124048 0.025703216 4287052604
0.035090208 -0.0098473579 0.027361261 4286790718
0.03736962 -0.010394514 0.027620098 4286594879
0.039426818 -0.010248095 0.027180551 4286595389
0.041483946 -0.010101601 0.026741093 4286464574
-0.023553666 0.017058544 0.004412666 4290392848
-0.021780804 0.017893579 0.0032876153 4289866274
-0.020173684 0.019428376 0.0014536791 4290193439
-0.018250749 0.019562896 0.0010410622 4290258718
-0.015830122 0.017598633 0.0027552061 4290454558
-0.013393376 0.015635651 0.004465932 4290127393
-0.011454117 0.01577159 0.0040500201 4289211689
-0.0096886419 0.016606685 0.0029269904 4289080874
-0.0077518933 0.016742665 0.0025117807 4289146409
-0.0054566264 0.015481349 0.0035087224 4289146409
-0.0036962926 0.016316425 0.002386976 4289015338
-0.0017566867 0.016452886 0.0019713622 4289538598
-4.2505562e-06 0.017287567 0.00085150637 4289407783
0.0019327812 0.017424043 0.00043659285 4289996578
0.0040624253 0.016862903 0.00072492287 4290454559
0.0065879449 0.014907096 0.0024174042 4290454559
0.0091295131 0.012952518 0.0041065216 4290062114
0.011687119 0.010999218 0.0057922378 4290127393
0.014057513 0.0097441003 0.0067737717 4289211689
0.016850453 0.0070962533 0.0091536958 4288950059
0.020081973 0.0030568168 0.012928607 4288230448
0.023134261 -0.00028384477 0.015997564 4287445304
0.026427193 -0.004318729 0.019759493 4287052604
0.02931891 -0.0069591701 0.022118596 4286987069
0.032012671 -0.0089021474 0.023775777 4286790209
0.034278467 -0.0094525367 0.024035817 4286594114
0.036324918 -0.0093069822 0.023598498 4286660669
0.038825918 -0.01055187 0.024552753 4286465084
-0.024462707 0.018981073 -0.00029649399 4288823068
-0.022545472 0.019114975 -0.00070805848 4289867549
-0.020628095 0.019248981 -0.0011195745 4289277989
-0.018547628 0.018681083 -0.00082318485 4289342504
-0.016130347 0.016710017 0.00088673271 4289734948
-0.013865296 0.015441831 0.0018865019 4289800484
-0.011931501 0.015577387 0.0014717598 4289931299
-0.010171305 0.016414288 0.00035149977 4289408039
-0.0080636665 0.015848804 0.00064244494 4289931299
-0.0059506074 0.015283782 0.00093228742 4290389279
-0.0040138401 0.015419945 0.00051720813 4290585374
-0.0020770207 0.015556209 0.00010219216 4289669669
-0.00032719597 0.016392868 -0.0010154732 4289604134
0.0016070455 0.016529154 -0.001429785 4289930789
0.0035413206 0.016665541 -0.001844028 4289669159
0.0062558725 0.014002997 0.00054578856 4289341993
0.0089918114 0.011342067 0.002931105 4289473319
0.012149945 0.007284008 0.0067116041 4289342504
0.015137065 0.0039275065 0.0097860526 4288819244
0.017945163 0.0012719855 0.012156157 4288165169
0.02098304 -0.0020807162 0.015219899 4287511094
0.023836531 -0.00473281 0.017580455 4287118394
0.026925128 -0.0080817193 0.020633506 4287052604
0.028958239 -0.0079374164 0.020198809 4286660158
0.030991308 -0.0077930093 0.019764198 4286594623
0.032802552 -0.0069506466 0.018634407 4286530363
-0.021402039 0.02048745 -0.0050999131 4290460424
-0.019006919 0.018508192 -0.0033903196 4289344288
-0.016595654 0.016530123 -0.0016840622 4289735969
-0.014336422 0.015257102 -0.00068630278 4289996579
-0.0124081 0.015392248 -0.0010998882 4290062114
-0.010653194 0.016230997 -0.0022174213 4289669669
-0.0087273717 0.01636618 -0.0026303139 4290389279
-0.0068014823 0.016501449 -0.0030431561 4289866020
-0.0046939999 0.015933912 -0.0027536377 4290585374
-0.0027653165 0.016069587 -0.0031669214 4290061858
-0.00083658472 0.01620537 -0.0035801381 4289538344
0.0012817197 0.015638936 -0.0032927562 4289669159
0.0034053922 0.015072975 -0.0030064583 4289865253
0.0063139386 0.011699691 7.635355e-05 4289668648
0.0094467551 0.0076266155 0.0038523171 4289210668
0.012811877 0.00285431 0.0083197784 4288884014
0.01580862 -0.00051242858 0.011383949 4288295218
0.018626519 -0.0031760111 0.013745366 4287706678
0.021257542 -0.0051369146 0.015405742 4286987579
0.02390459 -0.0070966259 0.0170628 4286857019
0.026354076 -0.0083544701 0.01802115 4286857018
0.028381711 -0.0082105473 0.017587623 4286595133
0.029971469 -0.0066659972 0.015765669 4286529854
-0.017556079 0.018477947 -0.0063604563 4289279519
-0.015142731 0.016493544 -0.0046595242 4289604899
-0.013054561 0.015922084 -0.0043678731 4289800739
-0.011480924 0.017468087 -0.0061844289 4290127393
-0.0097418949 0.018307939 -0.0072968081 4289342504
-0.0076508299 0.017736994 -0.0070055462 4289211689
-0.0053730123 0.016461395 -0.0060146935 4289342503
-0.0029004626 0.014481768 -0.0043259915 4289277224
-0.00059851632 0.013208102 -0.0033401996 4289341993
0.0015248097 0.012639835 -0.0030555502 4289341994
0.0038455427 0.011367667 -0.0020735785 4289407529
0.0069557168 0.0072797909 0.001697287 4289210924
0.010295317 0.0024903119 0.0061585717 4288491314
0.0132723 -0.00088891387 0.0092186984 4288295219
0.016275987 -0.0042660981 0.01227315 4287706424
0.018484902 -0.0048277006 0.012539955 4287248698
0.021115229 -0.0067952126 0.014195537 4286987068
0.02334016 -0.0073555112 0.014459116 4286856508
0.025783781 -0.0086180791 0.015415395 4286857274
0.027805947 -0.0084745362 0.014983049 4286726459
-0.013699871 0.016465366 -0.0076260455 4289215258
-0.012307104 0.018723004 -0.010138357 4290259228
-0.010578711 0.019564331 -0.011246862 4290323744
-0.008498624 0.018990368 -0.01095486 4289669669
-0.0058697313 0.016295083 -0.008566875 4289669413
-0.0032194033 0.013601348 -0.0061833728 4290323488
-0.00073413551 0.011616148 -0.0045022629 4289472808
0.0019563474 0.0089254603 -0.0021272004 4289341738
0.0046682395 0.0062363818 0.00024336018 4288818478
0.0077905133 0.0021362379 0.0040017627 4288229939
0.010944858 -0.0019615442 0.0077533741 4288033589
0.013731603 -0.0046450123 0.010108156 4287183163
0.016337216 -0.0066210851 0.011763973 4287117884
0.018343303 -0.0064791143 0.011334741 4286790719
0.020765085 -0.007747829 0.012292227 4286921278
0.022776488 -0.0076052547 0.01186203 4286725694
-0.012439996 0.017155603 -0.011282655 4289212708
-0.01071154 0.01799912 -0.01238953 4289865763
-0.0086317696 0.017422937 -0.012099114 4289342248
-0.0058227852 0.014009297 -0.0090200678 4289799463
-0.0029870346 0.010597661 -0.0059466697 4289865253
-0.00012453273 0.0071880072 -0.0028789286 4289145644
0.0023867786 0.0051982179 -0.0012083016 4288491313
0.0052974522 0.0017921403 0.0018493291 4288033333
0.0082348436 -0.0016119257 0.0049012695 4287575864
0.011198975 -0.00501398 0.0079475772 4287379258
0.013590861 -0.0062895194 0.008907916 4287117883
0.015993457 -0.0075642094 0.0098661017 4286921789
0.017586745 -0.0060068145 0.0080528762 4286790463
0.020000014 -0.007280536 0.0090089384 4286790974
0.022423936 -0.0085533485 0.009962773 4286661433
-0.008408688 0.014432035 -0.011850383 4289800739
-0.005414661 0.010296099 -0.0080846548 4289538599
-0.002571959 0.0068740025 -0.0050209761 4288883503
0.00048360974 0.0027425662 -0.0012682267 4288360243
0.0030049086 0.00074692816 0.00039532408 4287902518
0.0059251785 -0.0026693717 0.0034426246 4287641144
0.0086780675 -0.005372934 0.0057913195 4287248954
0.011255555 -0.0073643401 0.0074431282 4287052604
0.013450142 -0.0079336986 0.0077079069 4286921789
0.015447952 -0.0077924281 0.0072803702 4286725438
0.017445758 -0.007651031 0.0068529155 4286660923
-0.0046464466 0.0051421896 -0.0057701804 4288753963
-0.001791466 0.0017100349 -0.0027173609 4288099379
0.0010902807 -0.0017201677 0.00032984465 4287510073
0.0034329817 -0.0030083433 0.0012938231 4287379513
0.0063601881 -0.0064350888 0.0043314043 4287510328
0.0085383989 -0.007008031 0.0045978799 4287052604
0.010918584 -0.0082932711 0.0055541191 4286856253
0.012711629 -0.0074399337 0.0044374466 4286790973
0.014701292 -0.007299237 0.0040116515 4286660923
-0.0013789311 -0.0020438284 -0.001813652 4287445558
0.0013240129 -0.0047687292 0.00053233095 4287249209
0.003483139 -0.0053454265 0.00080107339 4287052859
0.0060297996 -0.0073523372 0.0024494398 4286856764
0.0083987564 -0.0086428151 0.0034046657 4286987578
0.010189172 -0.0077875778 0.0022901241 4286987578
-0.0011503547 -0.0050924942 -0.0016097929 4286792248
0.0015570335 -0.0078257769 0.00072861463 4286856509
0.0033447407 -0.006968908 -0.00038396753 4286856253
0.0055089146 -0.0075473338 -0.00011787377 4286921788
0.0076784752 -0.0081252977 0.00014721043 4286988344
-0.0012878776 -0.0067090318 -0.0027898457 4286922553
0.0010478981 -0.0080109388 -0.0018343553 4286725694
0.0030183457 -0.0078721568 -0.0022564624 4286790973
0.0051795207 -0.0084529892 -0.0019913744 4286726459
-0.0016078912 -0.0076027736 -0.0046569612 4286922808
0.0007247217 -0.0089093 -0.0037040319 4286660924
-0.0022921003 -0.0070424825 -0.007891858 4286792248
0.033076003 -0.051652603 0.013069877 4285940548
0.026230648 -0.044808395 0.0046928097 4286136388
0.029137332 -0.047613524 0.0069239568 4286071364
0.023615928 -0.045161597 0.0025659557 4286201923
0.021012966 -0.045504868 0.00044352002 4286136644
0.023471212 -0.046845004 0.001337504 4286071108
0.015786242 -0.043746524 -0.0032353941 4287117628
0.018421762 -0.045838133 -0.0016745385 4286594368
0.013417132 -0.044809796 -0.0046824571 4286986813
0.015842307 -0.046161376 -0.0037882645 4287510329
0.018278167 -0.047512092 -0.0028961804 4286463808
0.013666797 -0.047974356 -0.0045715552 4286659648
0.015699275 -0.047830619 -0.0050065052 4287182398
0.0051723644 -0.041042253 -0.012441707 4286921024
0.015556265 -0.049499519 -0.0062245112 4286789698
0.00284715 -0.042070441 -0.013874163 4287313213
0.0050322749 -0.04268454 -0.013640449 4286921789
0.0074131191 -0.04405269 -0.012746871 4286332738
-0.001645986 -0.04247614 -0.015538481 4287836218
0.00071022287 -0.043850787 -0.014643204 4288230703
0.0025225878 -0.042952992 -0.015731577 4288231723
0.0048922151 -0.044326492 -0.014838946 4286725438
-0.0016056411 -0.044870935 -0.016072039 4286594879
0.00020671263 -0.043971099 -0.017158866 4288165678
0.0023830906 -0.044590257 -0.016926698 4289016868
0.0045648441 -0.045208909 -0.016695585 4286464064
0.0018746741 -0.044704087 -0.019436166 4287246658
0.058522195 -0.015485629 0.048851468 4282611523
0.04947862 0.0016855374 0.02835766 4282221119
0.053969979 -0.0049776435 0.03494034 4281046334
0.060244739 -0.016402125 0.046421453 4281305924
0.048607677 0.0020486489 0.025024166 4281438269
0.052356139 -0.0025877282 0.029491505 4281175109
0.058858469 -0.014733709 0.041648552 4281175109
0.048703603 -0.000316903 0.024497842 4281763904
0.053185578 -0.007024467 0.031049615 4281436994
0.059448265 -0.01852411 0.042477302 4281437249
0.050005309 -0.0061251819 0.027457016 4282806088
0.054501295 -0.012853608 0.033989355 4282022474
0.060283482 -0.023014836 0.043993242 4281890384
0.048278309 -0.0093471259 0.028052961 4283459399
0.051063683 -0.011269689 0.02970103 4282544459
0.055327281 -0.01732941 0.035518974 4282152013
0.060870782 -0.026833333 0.044801593 4282020688
0.046304494 -0.011885852 0.027949387 4283132234
0.049083922 -0.013815433 0.029593689 4282281808
0.051879283 -0.0157438 0.031234713 4282020433
0.055908203 -0.021130607 0.036342062 4281955409
0.043627121 -0.012344241 0.025760112 4282935629
0.046392608 -0.014281489 0.027402429 4282413389
0.049174011 -0.01621747 0.029041385 4281955408
0.052452687 -0.019540906 0.032062873 4281824594
0.056731295 -0.025638834 0.037847988 4281628244
0.040731572 -0.012095399 0.022881648 4282478668
0.043480415 -0.014040485 0.024522519 4282282574
0.046715468 -0.017378122 0.027544914 4282087243
0.049977131 -0.020713761 0.030561699 4282087244
0.054227311 -0.026833519 0.036338046 4281955919
0.058768597 -0.033646077 0.04279495 4281824849
0.034912873 -0.0091778859 0.017673792 4284180538
0.038080301 -0.012531586 0.020702181 4283002438
0.041044775 -0.015183784 0.023032995 4282413643
0.044030536 -0.017834365 0.025359338 4282151503
0.047507465 -0.021881528 0.02906285 4282152013
0.051491581 -0.027324162 0.034140155 4282021453
0.055998892 -0.034161091 0.04058779 4281955664
0.034992527 -0.011553638 0.01714406 4283787839
0.038161546 -0.014918134 0.020163892 4282545224
0.041127801 -0.017578945 0.022487754 4282086733
0.044811599 -0.022342637 0.026876537 4281890384
0.049002197 -0.02850616 0.032635868 4282020688
0.053715613 -0.036068365 0.039762318 4282020688
0.035071809 -0.013933502 0.016611328 4283265599
0.038242422 -0.017308801 0.019622615 4282152778
0.041668907 -0.021386005 0.02331706 4282021199
0.046054915 -0.028275579 0.029757475 4281889618
0.050728813 -0.035864741 0.036874197 4281889874
0.032447208 -0.014342688 0.014445057 4284507704
0.035150729 -0.016317494 0.016075676 4283003969
0.038096562 -0.018997274 0.018390639 4282086733
0.0417508 -0.023793742 0.022762647 4281955153
0.046600852 -0.032116935 0.030559679 4281954898
0.051514905 -0.040435389 0.038343109 4281692759
0.032082126 -0.015306659 0.012537202 4284442169
0.034782261 -0.017288186 0.014163574 4282807109
0.03772454 -0.019976981 0.016472777 4281955153
0.041374646 -0.024789043 0.020834161 4281429599
0.031717435 -0.016265906 0.010632781 4284115004
0.035084136 -0.020386837 0.014310231 4282479179
0.037804864 -0.022373326 0.015927365 4281167714
0.0050410479 -0.01007586 -0.0031759385 4284049724
0.0072072633 -0.010658391 -0.0029134843 4284639029
0.0050929263 -0.012422524 -0.0036763493 4283331134
0.0076474808 -0.014454968 -0.0020493213 4284508979
-0.0024287775 -0.0086493343 -0.0090648383 4283394373
0.00026438013 -0.011418603 -0.006749643 4282609229
0.0027914606 -0.01345972 -0.0051218737 4282347599
0.0051444694 -0.014773339 -0.0041797273 4282544203
0.007700976 -0.016812138 -0.0025580768 4284508469
-0.0022015385 -0.011714004 -0.0088727474 4283132744
0.00049606711 -0.0144917 -0.0065650772 4282347599
0.0026532225 -0.015081659 -0.0063057896 4282085968
0.0048157498 -0.015671127 -0.0060475711 4283200574
0.0071762651 -0.016988464 -0.0051102322 4284574004
-0.007138487 -0.0099417046 -0.012618603 4283200829
-0.0042974837 -0.013462313 -0.0096286256 4282480709
-0.0017932467 -0.015518434 -0.0080059655 4282153034
0.00091147795 -0.018304348 -0.0057063866 4282086733
0.002327919 -0.015972398 -0.0081691686 4282217549
0.0046772026 -0.017294958 -0.0072328337 4282479689
-0.0090460069 -0.012411542 -0.012688108 4284117808
-0.0065692775 -0.014476359 -0.011064647 4282546754
-0.0040764734 -0.016539939 -0.0094445441 4282284614
-0.0015676208 -0.018602215 -0.0078278277 4282218568
0.00077307224 -0.019930042 -0.0068930928 4282217804
0.0025637373 -0.019057661 -0.0079948641 4282152524
0.0047282763 -0.019651406 -0.0077403206 4282413898
-0.013581406 -0.012075938 -0.015062964 4284639794
-0.011129543 -0.014149241 -0.013439322 4283659829
-0.0090083554 -0.014748909 -0.013177728 4282353208
-0.0067057125 -0.016084127 -0.012238385 4282154309
-0.00421362 -0.018154316 -0.010623063 4282153543
-0.0017054714 -0.020223193 -0.0090111271 4282218313
0.00081875175 -0.022290856 -0.0074025001 4282152523
0.0026121326 -0.021416165 -0.0085031893 4282020689
0.0047789924 -0.022011891 -0.0082508307 4281889108
-0.015655752 -0.013805918 -0.015810814 4284443954
-0.013212681 -0.015886508 -0.014190309 4283201594
-0.010924034 -0.017227314 -0.01325143 4282153289
-0.0087978467 -0.017828815 -0.012992556 4281761098
-0.0066662505 -0.018429808 -0.012734744 4281762883
-0.0045292638 -0.019030303 -0.012477993 4281957448
-0.0020244792 -0.021106005 -0.010870221 4281891659
0.00031248108 -0.02244278 -0.0099412939 4281495898
-0.018379029 -0.012569986 -0.019272143 4283986739
-0.015955422 -0.014658622 -0.017652491 4282677569
-0.013515715 -0.016746067 -0.01603616 4282284103
-0.011059918 -0.018832251 -0.014423183 4282087498
-0.008934062 -0.019435935 -0.014165866 4281891404
-0.006802801 -0.020039149 -0.013909633 4281566279
-0.0048444904 -0.019901641 -0.014329459 4281695053
-0.0023430847 -0.021984123 -0.012725885 4281628499
-0.02299666 -0.011448398 -0.022313293 4284639539
-0.0207601 -0.012802012 -0.021370221 4282349894
-0.018512759 -0.014154822 -0.020429337 4281956939
-0.015925027 -0.016993426 -0.018138159 4281890893
-0.013483364 -0.019087233 -0.016527224 4281956428
-0.011195753 -0.020436838 -0.01559469 4281890893
-0.0090702362 -0.021042764 -0.01533896 4281825103
-0.006939318 -0.021648176 -0.015084299 4281432659
-0.005159311 -0.02076827 -0.016177479 4280971363
-0.024584778 -0.015396655 -0.021021271 4284575024
-0.022972696 -0.0137702 -0.022787541 4283331898
-0.021052577 -0.013636231 -0.023199819 4281957194
-0.018646453 -0.015739337 -0.021586308 4281760588
-0.016224246 -0.017841153 -0.019976201 4281825614
-0.013618648 -0.020687126 -0.017695334 4281956429
-0.011501543 -0.021295942 -0.017439548 4281825359
-0.009551663 -0.021159284 -0.017857756 4281759569
-0.024410248 -0.018475547 -0.0208258 4284051254
-0.022636149 -0.017592698 -0.021915188 4282349383
-0.020867288 -0.016710088 -0.023003357 4282088008
-0.018456545 -0.018819377 -0.021395812 4282023494
-0.015865251 -0.021675177 -0.019118529 4281891148
-0.013419654 -0.023781829 -0.01751823 4281759058
-0.011637125 -0.022897743 -0.018609013 4281561434
-0.025870152 -0.023199432 -0.018872038 4283198023
-0.024543598 -0.020061582 -0.021984002 4282675529
-0.022613212 -0.019927032 -0.022398593 4282153033
-0.020682715 -0.019792356 -0.02281311 4281957705
-0.01826733 -0.021907918 -0.021211449 4281762884
-0.01583587 -0.024022184 -0.019613184 4281826124
-0.01355524 -0.025385492 -0.018689103 4281628499
-0.023909848 -0.025411613 -0.019781213 4282739533
-0.022278417 -0.023770817 -0.021541785 4282022729
-0.020181343 -0.024388097 -0.021287013 4282023494
-0.017594583 -0.027261786 -0.019021973 4281892679
-0.015314575 -0.028629601 -0.018101197 4281367634
-0.018730037 -0.03352911 -0.015757039 4282217293
-0.016601201 -0.034146227 -0.015510626 4282281298
0.046451118 -0.033846863 0.02929754 4280770679
0.05112857 -0.041483805 0.036377355 4280178823
0.04145617 -0.027200565 0.020277003 4280705144
0.046301387 -0.035576485 0.028035631 4280637314
0.050742619 -0.042527497 0.034415051 4280767619
0.034939006 -0.022067808 0.013083709 4281030524
0.03765903 -0.024060898 0.014696071 4280505734
0.041080415 -0.028190851 0.018352186 4280373899
0.045920528 -0.036593273 0.026092155 4280636039
0.05082465 -0.044991061 0.033818595 4280963203
0.035239749 -0.025178984 0.01322115 4280570759
0.038190015 -0.027893372 0.015508948 4280373643
0.041389842 -0.031321019 0.01847302 4279849618
0.045770999 -0.03832005 0.024832333 4280177039
0.050672695 -0.046744205 0.032539569 4280963459
0.030346463 -0.02500169 0.010822779 4281291899
0.03282642 -0.026291862 0.011748565 4280636548
0.035094265 -0.026863731 0.01199189 4280046478
0.038043629 -0.029586904 0.014273318 4279718548
0.041698538 -0.03445968 0.018587714 4279128733
0.046313733 -0.042197183 0.025608463 4279194268
0.05075416 -0.0492137 0.031938791 4279588243
0.027303958 -0.023943618 0.0073128846 4281095293
0.03020185 -0.026679523 0.0095984805 4280440199
0.032681283 -0.027974114 0.010521086 4280308618
0.035839003 -0.03142678 0.013477562 4280308618
0.039023362 -0.034877427 0.016428439 4280177549
0.042918034 -0.040483899 0.021406321 4280112269
0.046855338 -0.046087191 0.026375202 4280243594
0.050602034 -0.050968394 0.030658657 4281882224
0.024919646 -0.025033869 0.0058495738 4281817709
0.027588962 -0.027057178 0.007452732 4280964734
0.030491292 -0.029801495 0.0097308252 4280374154
0.03297554 -0.031100094 0.01064912 4280374153
0.036137521 -0.034563385 0.013596525 4280373898
0.039776184 -0.039467938 0.017891278 4280570759
0.04390756 -0.045812652 0.023530042 4280571014
0.047395792 -0.049989983 0.027132547 4282013548
0.019693207 -0.023361608 0.0021057017 4281685364
0.022332503 -0.025393881 0.0037102252 4280702339
0.025199289 -0.028149687 0.0059891529 4280701829
0.027659066 -0.029454604 0.0069092382 4280505224
0.030346332 -0.031483106 0.0085037779 4280308874
0.033488568 -0.034958802 0.011447048 4280440199
0.037101801 -0.039880574 0.015735703 4280440199
0.040977173 -0.04552339 0.020691311 4281423224
0.019757099 -0.025743939 0.0015753098 4281292153
0.02239834 -0.027782582 0.0031744353 4280570503
0.025266889 -0.030546986 0.0054464266 4280504968
0.027942797 -0.032582946 0.0070383865 4280504969
0.031067967 -0.036070876 0.009977011 4280505479
0.034877732 -0.041736074 0.014933383 4280505478
0.038286179 -0.045945629 0.01853296 4281423224
0.011789281 -0.02125746 -0.0044369567 4281751154
0.014181346 -0.022576503 -0.0035094135 4280571269
0.016787205 -0.024624489 -0.0019077919 4280505988
0.01940906 -0.026671134 -0.00030950829 4280440200
0.02246383 -0.03017538 0.0026357286 4280570249
0.025334135 -0.032948337 0.0049007423 4280766854
0.028439561 -0.036448665 0.0078353081 4280897924
0.032004561 -0.041404672 0.012111085 4281225343
0.035826005 -0.047086485 0.017051825 4282404463
0.011846777 -0.023626499 -0.0049557164 4280243849
0.014040731 -0.024217628 -0.0047071427 4279719313
0.016442958 -0.02554024 -0.0037849247 4280112523
0.019267019 -0.028325431 -0.0015167668 4280309128
0.022320697 -0.031840652 0.0014205016 4280832389
0.025611961 -0.036085181 0.005025059 4281028994
0.029148817 -0.041058511 0.0092952382 4281487228
0.032939281 -0.04676009 0.014229389 4282992238
0.0071432702 -0.023341991 -0.0073241889 4282341223
0.0097129829 -0.025405966 -0.0057249367 4281095804
0.012101319 -0.026734121 -0.0048032515 4279391129
0.014300287 -0.02732712 -0.0045573525 4279522198
0.016504578 -0.027919561 -0.0043125264 4279915663
0.019535817 -0.031447358 -0.0013788007 4280112013
0.022801794 -0.035706878 0.0022212304 4281748603
0.0046401657 -0.023639165 -0.0094386106 4280375683
0.0070039183 -0.024973668 -0.0085151419 4280374153
0.0097674541 -0.027781121 -0.0062474869 4280374154
0.012355145 -0.029850252 -0.0046569221 4279914899
0.014958847 -0.031918064 -0.0030697249 4279718549
0.017376028 -0.033248328 -0.0021572635 4280308108
0.020214304 -0.036050014 9.4763935e-05 4280766344
0.023073912 -0.038850032 0.0023423322 4281944698
-0.00019298866 -0.022585638 -0.012473407 4280836978
0.0021488294 -0.023926303 -0.011548708 4280637823
0.0041233301 -0.023787141 -0.011971611 4280571524
0.0066729151 -0.025865756 -0.010377998 4280308363
0.0094328783 -0.02868218 -0.0081161447 4280373898
0.012411222 -0.032235883 -0.0051877908 4279521943
0.01521657 -0.03504885 -0.0029354654 4279521434
0.018043272 -0.037860192 -0.00068761781 4280897414
0.020891309 -0.040669873 0.0015557744 4282402424
-0.0028421171 -0.022115283 -0.01525098 4280639098
-0.0003307052 -0.024203487 -0.013654391 4280243083
0.0020105876 -0.025548555 -0.012732859 4280373643
0.0041737743 -0.026151113 -0.012484594 4280308108
0.0067252964 -0.028236054 -0.010896347 4280504969
0.0094870254 -0.031061091 -0.0086414441 4280701318
0.012663782 -0.035366662 -0.0050522238 4280635529
0.015673066 -0.038928986 -0.002138555 4281093253
-0.0052957572 -0.022374824 -0.017350301 4279852168
-0.0029790886 -0.023726217 -0.016426958 4280309129
-0.0004683882 -0.025821023 -0.014835148 4280242574
0.0020583607 -0.027914561 -0.013246667 4280243084
0.0044124983 -0.029262945 -0.012331076 4280242573
0.0069686584 -0.031354167 -0.010748707 4280766343
0.0097348206 -0.034187593 -0.0085013099 4281225343
0.012915626 -0.038505949 -0.0049227998 4281879674
-0.007737603 -0.022624321 -0.019445289 4280178059
-0.0052543916 -0.024727851 -0.017852698 4279587734
-0.0027551167 -0.0268301 -0.016263437 4279653014
-0.00023980439 -0.028931074 -0.014677569 4279849619
0.0021057799 -0.030284598 -0.013763487 4280177038
0.004650522 -0.032383271 -0.012183681 4280373899
0.0077846572 -0.036718257 -0.0086052157 4281028483
-0.0096508265 -0.025112011 -0.019526638 4279326358
-0.0076985173 -0.024975069 -0.019945286 4280308619
-0.0052133538 -0.027084947 -0.01835807 4280046734
-0.0028923936 -0.028444804 -0.017442171 4279194524
-0.00019485503 -0.031301014 -0.015193582 4279653014
0.0023384504 -0.033407122 -0.013616391 4280373644
0.0050760806 -0.03626024 -0.011376191 4281028993
0.0080260038 -0.039859779 -0.0084747449 4282926194
-0.011569358 -0.027603924 -0.019609824 4279260569
-0.0096145943 -0.02746693 -0.020029087 4279456409
-0.0074850321 -0.028081186 -0.01978071 4280242573
-0.004817836 -0.030948482 -0.017532367 4280112013
-0.0023093224 -0.033063181 -0.015954938 4280242829
0.00021522865 -0.035176568 -0.014380887 4280044948
-0.015122507 -0.031745665 -0.017938312 4280770424
-0.013493184 -0.030100115 -0.019694816 4279458194
-0.01187443 -0.028455243 -0.021448933 4278538409
-0.0099224932 -0.028318465 -0.021867603 4279259549
-0.0076213814 -0.029688664 -0.020954262 4279980689
-0.0049550794 -0.032564737 -0.018712275 4280569994
-0.0020874999 -0.036192372 -0.015809964 4281028739
0.00080679357 -0.039817996 -0.01291328 4281551233
-0.013462655 -0.032463551 -0.020202152 4280767619
-0.01201006 -0.030058019 -0.022619128 4279062944
-0.010230001 -0.029165275 -0.023702737 4279849108
-0.0077576935 -0.031295843 -0.022127587 4280046479
-0.0047382154 -0.035691805 -0.018564373 4281356414
-0.0015069731 -0.040840797 -0.014344678 4282009979
-0.011807952 -0.033177048 -0.022461239 4281290623
-0.010022514 -0.032281823 -0.023544341 4280570759
-0.0075455904 -0.03441859 -0.021975089 4281094273
-0.0045220517 -0.038827337 -0.018422589 4281878144
-0.009301737 -0.037687741 -0.021406878 4281877123
-0.0066381991 -0.040590294 -0.01918409 4282796398
0.0050559528 -0.047784045 -0.02516439 4282797929
0.0092718154 -0.05067008 -0.025903655 4281814648
-0.030375205 0.021561075 0.00066581555 4285294378
-0.035180077 0.023941129 -0.0039376915 4285098028
-0.033717833 0.026182964 -0.0064805374 4285820189
-0.031536527 0.024908133 -0.005463317 4285819933
-0.029045098 0.022228274 -0.0030269083 4285819934
-0.026532162 0.019550052 -0.00059508905 4285687590
-0.037483633 0.023659877 -0.0060935356 4285295908
-0.036301337 0.027319744 -0.010053843 4285689374
-0.034713209 0.028861299 -0.011877544 4285689629
-0.032401592 0.026875596 -0.010150407 4285689628
-0.030073844 0.02489116 -0.0084266979 4285886744
-0.027425647 0.021498017 -0.0052892659 4285689373
-0.025369857 0.020925865 -0.0049894098 4285623584
-0.023308605 0.020354234 -0.0046906974 4286738953
-0.039503418 0.02197209 -0.0068242121 4285361953
-0.038307153 0.025643729 -0.010779396 4285755418
-0.036996119 0.028605685 -0.014019536 4285820954
-0.035418406 0.030150894 -0.015837774 4285623583
-0.033118151 0.028157819 -0.014113151 4285623838
-0.030801751 0.026165999 -0.01239197 4285755163
-0.028165273 0.022761084 -0.0092602624 4285820954
-0.026275106 0.022892952 -0.0096661216 4285623839
-0.024227496 0.022318125 -0.0093660932 4285558303
-0.042055085 0.023127303 -0.01039208 4285493023
-0.040448263 0.024678603 -0.012213514 4285559069
-0.038990349 0.0269395 -0.014740784 4285624603
-0.037689373 0.029909518 -0.017972242 4285886999
-0.036122091 0.031458352 -0.019784966 4285820953
-0.03397961 0.030167606 -0.018769346 4285821464
-0.031528115 0.02745866 -0.016344164 4285886998
-0.028751597 0.023332629 -0.012512843 4285689883
-0.026869539 0.023463912 -0.012916974 4285624349
-0.024987374 0.0235953 -0.013321055 4285558813
-0.023424637 0.025144406 -0.015132359 4285623838
-0.02106024 0.023149803 -0.013426026 4285492003
-0.0185146 0.020448022 -0.011020605 4286540308
-0.046450719 0.024172727 -0.013549893 4285688863
-0.044583507 0.024302077 -0.013951513 4285754653
-0.042583197 0.023718711 -0.013645341 4285755164
-0.040848538 0.02456113 -0.01475463 4285624093
-0.039119042 0.025403269 -0.015862741 4285558558
-0.037958376 0.029094364 -0.019793842 4285624348
-0.036106348 0.029223144 -0.02019183 4285690138
-0.034107931 0.028640073 -0.019884862 4285689883
-0.031806216 0.026634067 -0.018170431 4285624348
-0.029185168 0.023206167 -0.015051897 4285558558
-0.027617082 0.024759743 -0.016861189 4285558558
-0.026059564 0.026312687 -0.018668141 4285624348
-0.024353012 0.027154058 -0.019770773 4285886489
-0.022002641 0.025151897 -0.01806638 4285885723
-0.019306283 0.02172976 -0.01496364 4285884958
-0.016750731 0.019020014 -0.012566859 4285687334
0.029978016 -0.013073541 0.013500569 4285032238
-0.048820168 0.024652313 -0.01639526 4285689373
-0.047216013 0.026211783 -0.018209755 4285754909
-0.045232184 0.025624961 -0.017901788 4285885979
-0.042977422 0.023608498 -0.016182609 4285952533
-0.041112646 0.023737833 -0.016583584 4285690139
-0.039385758 0.02458201 -0.017689545 4285624349
-0.037804767 0.026140351 -0.019498704 4285558814
-0.035947531 0.026269462 -0.019897837 4285559069
-0.033944078 0.025684565 -0.019593658 4285558813
-0.031786427 0.024386186 -0.018587841 4285624349
-0.029617965 0.023088716 -0.017584305 4285624349
-0.028209038 0.025359876 -0.020090828 4285690139
-0.026502531 0.026203271 -0.021191852 4285821208
-0.024801254 0.027046386 -0.022291692 4285886234
-0.022456896 0.025037244 -0.020590944 4285820444
-0.020096436 0.023029357 -0.018893633 4286017048
-0.017552435 0.020310052 -0.016500965 4285819678
-0.015157074 0.018304773 -0.014810943 4285622819
-0.012918368 0.017013021 -0.013821876 4286736148
0.025354456 -0.013611011 0.011771841 4285163053
0.027807204 -0.014885984 0.012716426 4285032238
0.030052435 -0.015450977 0.012970967 4284900913
-0.052307256 0.020709783 -0.014591449 4285427489
-0.050684549 0.022274736 -0.016406853 4285690139
-0.049321413 0.025274616 -0.019632449 4285558814
-0.047852211 0.027555484 -0.0221477 4285558304
-0.045879342 0.026965681 -0.021839045 4285623583
-0.043503374 0.024224624 -0.019417847 4285755164
-0.041241117 0.022202197 -0.017705157 4285755418
-0.039376289 0.02233161 -0.018106092 4285624349
-0.037792392 0.02389453 -0.019912653 4285558814
-0.0357894 0.023307297 -0.019610113 4285493788
-0.03378091 0.022720516 -0.01930863 4285559324
-0.031915508 0.022850368 -0.019709388 4285559068
-0.030201182 0.0236963 -0.020810666 4285559069
-0.028645948 0.025257684 -0.022610649 4285755928
-0.027101278 0.026818469 -0.024408337 4285689628
-0.025407944 0.027663201 -0.025504835 4285557794
-0.023234162 0.026362069 -0.024505397 4285557794
-0.020720493 0.023631778 -0.022112893 4285755164
-0.018352613 0.021617949 -0.020422036 4285624094
-0.015968613 0.019605301 -0.018734522 4285624093
-0.013568517 0.017593957 -0.017050408 4285689374
-0.010977082 0.014869519 -0.014674277 4286476559
0.022349887 -0.012570903 0.0082382951 4285097519
0.025424005 -0.015986353 0.011245126 4285032239
0.027448306 -0.015842617 0.010812355 4284900913
0.029908517 -0.017121293 0.011752157 4284900914
-0.054533973 0.02048476 -0.016725507 4285033003
-0.053149261 0.023494653 -0.01994933 4285427999
-0.051542304 0.025062803 -0.021758039 4285690393
-0.049945831 0.026630312 -0.023564434 4285821719
-0.048359849 0.028197229 -0.025368541 4285821209
-0.046395287 0.027604654 -0.025059758 4285821208
-0.04416053 0.025573649 -0.023346178 4285952788
-0.041774586 0.022824593 -0.020933663 4285689883
-0.039917886 0.022953432 -0.021332862 4285558558
-0.038201392 0.02380123 -0.022433238 4285558813
-0.036347061 0.023930084 -0.022831788 4285624860
-0.034346886 0.023340553 -0.022530226 4285624860
-0.032489613 0.023469824 -0.022929251 4285558813
-0.030632198 0.023599196 -0.023328232 4285493278
-0.029082067 0.025164608 -0.025123892 4285690138
-0.027542479 0.026729345 -0.026917173 4285952788
-0.026013456 0.028293453 -0.0287081 4285755163
-0.024009902 0.027704757 -0.028406812 4285754909
-0.021507777 0.024964906 -0.026018418 4285820953
-0.018984199 0.022226665 -0.023634546 4285821463
-0.016608909 0.020206898 -0.021950139 4285558813
-0.013872746 0.01675503 -0.018880412 4285624349
-0.010759685 0.011872217 -0.014428766 4285557794
-0.0074314587 0.0062758699 -0.009291891 4285491239
0.019989766 -0.013653867 0.0067740064 4284966448
0.022837035 -0.016367547 0.0090898629 4284966448
0.025493208 -0.018365793 0.010715483 4285032239
-0.054312795 0.016783908 -0.015730754 4285163308
-0.053157151 0.021248188 -0.020358277 4285427489
-0.051668778 0.023543265 -0.022868028 4285493534
-0.050320402 0.026559539 -0.026077339 4285624858
-0.048612654 0.02740841 -0.027174573 4285755928
-0.046780571 0.027535211 -0.027568718 4285690138
-0.044551812 0.025497206 -0.025858808 4285755674
-0.042172067 0.022739008 -0.023451596 4285624093
-0.040320821 0.022867441 -0.023849638 4285624093
-0.038749762 0.024438106 -0.025646865 4285624093
-0.036903568 0.024566367 -0.026043685 4285755163
-0.035057224 0.024694756 -0.026440453 4285689628
-0.032914393 0.023382224 -0.025441403 4285689629
-0.031364121 0.024951849 -0.027233856 4285624094
-0.029670902 0.025800683 -0.028327234 4285558558
-0.028295264 0.028089233 -0.030811775 4285690138
-0.026617829 0.028937183 -0.031901598 4285821719
-0.024461068 0.027626134 -0.030905157 4285821719
-0.021800973 0.024157699 -0.02782757 4285690393
-0.01911407 0.020691209 -0.024755608 4285558813
-0.016400401 0.01722673 -0.021689357 4285558814
-0.013315558 0.012326591 -0.017243294 4285493279
-0.009843532 0.005991824 -0.011420846 4285426723
0.014420826 -0.01057294 0.0016224179 4285163054
0.017227158 -0.013298444 0.0039402414 4285097519
0.020054858 -0.016022347 0.0062536336 4285032239
0.025137529 -0.01931724 0.0088144597 4284966449
-0.053628713 0.010170452 -0.011932775 4285163563
-0.052809373 0.016823377 -0.018662469 4285427233
-0.051673874 0.021299463 -0.023275791 4285493278
-0.050322212 0.024324652 -0.026479268 4285493279
-0.048611738 0.025175869 -0.027575465 4285559068
-0.046647787 0.024578813 -0.027269885 4285558558
-0.044678338 0.02398219 -0.026965378 4285558814
-0.042568751 0.022662461 -0.025962863 4285624349
-0.04086028 0.023513932 -0.027058333 4285689883
-0.039296985 0.025088437 -0.028850669 4285820953
-0.037458904 0.025216125 -0.029245753 4285886998
-0.035330042 0.023898076 -0.028247047 4285952789
-0.03319037 0.022580929 -0.027250625 4285952788
-0.031491876 0.02343221 -0.028343575 4285689883
-0.030105256 0.025727943 -0.030825639 4285558558
-0.028422534 0.02657833 -0.031915046 4285558558
-0.026903704 0.028150417 -0.033697244 4285558813
-0.024588786 0.026112981 -0.032010008 4285558814
-0.021765724 0.021911912 -0.028247533 4285493278
-0.01841053 0.015548985 -0.022415055 4285493278
-0.01517655 0.0099107921 -0.017284567 4285559069
-0.012071781 0.0049966946 -0.012854259 4285558558
-0.0089295767 8.5376203e-05 -0.0084319394 4285360423
0.012092672 -0.011630833 0.00016838498 4285294634
0.014482014 -0.012928292 0.0011129789 4285228844
0.017290134 -0.015662454 0.0034238826 4285097774
0.020119593 -0.018394925 0.0057302788 4285097774
0.022970412 -0.021125808 0.0080322418 4285031984
-0.051989108 0.0094735324 -0.014175342 4285361189
-0.051073581 0.015417695 -0.020184418 4285426978
-0.049829125 0.019179329 -0.024084808 4285559324
-0.048358195 0.021486394 -0.026580801 4285493534
-0.046773948 0.023066308 -0.028374664 4285559324
-0.044804804 0.022467449 -0.028071759 4285559579
-0.042830177 0.021869119 -0.027769992 4285559069
-0.040987179 0.021996927 -0.028166302 4285690139
-0.039563447 0.024301253 -0.030651819 4285689884
-0.037728161 0.024428718 -0.031046323 4285623584
-0.035747603 0.023831196 -0.030745536 4285623583
-0.033465944 0.021784313 -0.029056441 4285755163
-0.031770058 0.022637572 -0.030147202 4285755419
-0.030232541 0.024215158 -0.031930331 4285559069
-0.028549768 0.025067706 -0.033018123 4285559324
-0.026555259 0.024471674 -0.03271994 4285559324
-0.024071854 0.021704178 -0.030347355 4285493788
-0.020747915 0.015319288 -0.024523053 4285493534
-0.017375838 0.0089378804 -0.018708998 4285427234
-0.014124781 0.0032833591 -0.013595286 4285295143
-0.011346422 -0.00019831955 -0.010559273 4285294633
-0.0085412934 -0.0036780164 -0.0075289253 4285228843
0.0099664107 -0.013405077 -0.00059891865 4284966704
0.012349885 -0.014707454 0.00034354441 4285294889
0.014744036 -0.016008906 0.0012837704 4285294634
0.017148878 -0.017309539 0.0022218395 4285097519
0.019770909 -0.019330025 0.0038397666 4284900914
-0.051408283 0.0035470799 -0.011112402 4285360679
-0.050233513 0.0080520064 -0.015714508 4285361188
-0.049090549 0.012554783 -0.020309662 4285426469
-0.04785312 0.016326874 -0.024200235 4285361188
-0.046642154 0.020097252 -0.028085019 4285493278
-0.045194462 0.022409469 -0.030571003 4285559068
-0.043359749 0.022536561 -0.030965636 4285559068
-0.041661829 0.023391612 -0.032055587 4285755929
-0.040108718 0.024974063 -0.033839151 4285821208
-0.038423851 0.025828443 -0.034926195 4285623583
-0.036164358 0.023773357 -0.033237357 4285623584
-0.033888713 0.021719474 -0.03155192 4285689628
-0.031897545 0.021120705 -0.03125491 4285755929
-0.029900894 0.020522423 -0.030958995 4285558813
-0.027898803 0.019924611 -0.030664176 4285559324
-0.025574677 0.017874543 -0.028988831 4285493789
-0.02275154 0.013647206 -0.025246225 4285493788
-0.01956901 0.007970199 -0.020131128 4285427233
-0.016509995 0.0030221343 -0.015714236 4285295143
-0.013751462 -0.00047201663 -0.012682238 4285229098
-0.011309445 -0.0025132447 -0.011031815 4285294379
-0.0088513307 -0.0045532808 -0.0093847262 4285228844
0.010022413 -0.015762426 -0.0011084042 4284901168
0.012408026 -0.017068975 -0.00016972609 4285360424
0.014603324 -0.017651267 8.5143372e-05 4285294633
-0.050947689 -0.0016740561 -0.0087663252 4285229353
-0.049396306 0.00065144151 -0.011270017 4285360679
-0.048231043 0.0051688328 -0.015860131 4285360679
-0.047097601 0.0096841455 -0.020443378 4285426469
-0.046253487 0.015658513 -0.026410626 4285624604
-0.045320444 0.02089968 -0.031673782 4285559068
-0.043888167 0.023217399 -0.034151424 4285559068
-0.042334974 0.024804134 -0.035931855 4285690138
-0.040792286 0.026390206 -0.037709907 4285953299
-0.039118029 0.027246017 -0.038793039 4285821208
-0.036869876 0.025183551 -0.037106723 4285821719
-0.03445816 0.022393037 -0.034732305 4285887509
-0.032175079 0.020333234 -0.033053316 4285559323
-0.029875875 0.01827468 -0.03137777 4285493534
-0.027405091 0.015488591 -0.029015806 4285427744
-0.02459665 0.011247016 -0.025279993 4285361698
-0.021756072 0.007007733 -0.021550966 4285361443
-0.018719934 0.0020426661 -0.017140759 4285295144
-0.0163108 -7.7039003e-06 -0.015488352 4285228844
-0.013885569 -0.0020568147 -0.013839305 4285163309
-0.011615705 -0.0033770353 -0.012879993 4285228844
