# .PCD v0.7 - Point Cloud Data file format
VERSION 0.7
FIELDS x y z rgba
SIZE 4 4 4 4
TYPE F F F U
COUNT 1 1 1 1
WIDTH 958
HEIGHT 1
VIEWPOINT 0 0 0 1 0 0 0
POINTS 958
DATA ascii
-0.01578157 0.016123559 0.016107211 4289407783
-0.013845902 0.016251549 0.015714305 4289604134
-0.011910092 0.016379651 0.015321448 4289996578
-0.0095161311 0.014404371 0.017060021 4289931299
-0.0071059801 0.012430217 0.018795423 4289408039
-0.0051537938 0.012559693 0.018399464 4289277224
-0.0033622421 0.0133899 0.017294729 4289407783
-0.001412563 0.013519395 0.016899416 4289342503
0.00053719804 0.013649013 0.016504174 4289669669
0.0021495186 0.01517896 0.014694547 4289342503
0.0040940605 0.015308421 0.014300505 4290192929
0.0062127784 0.014738198 0.01461268 4290192673
0.008690469 0.012769368 0.016334945 4290127394
0.01064587 0.012899838 0.015938921 4289538344
0.01241916 0.013729628 0.014838489 4289276459
0.014371943 0.013860133 0.014443152 4289080108
0.016137242 0.014689583 0.013344483 4289145644
0.0178972 0.015518773 0.012246972 4289407529
0.020037524 0.014950741 0.012555256 4290323488
0.022574291 0.012986552 0.014266077 4290454558
0.025127124 0.011023503 0.01597378 4290389534
0.026892412 0.011853445 0.014875485 4290520093
0.027634427 0.01617201 0.010277567 4289278754
-0.033683527 0.015504498 0.016334644 4289014828
-0.031880435 0.016336296 0.015228193 4289604134
-0.030082513 0.01716784 0.014122859 4290519839
-0.027904514 0.015884306 0.01515987 4290519839
-0.025846746 0.015306342 0.015481547 4290519839
-0.023917239 0.015433427 0.015089517 4289996578
-0.021987583 0.015560623 0.014697535 4289342504
-0.019779522 0.014279384 0.015728757 4289407783
-0.017702427 0.013703067 0.016046785 4289800229
-0.015908789 0.014534999 0.014942825 4289603878
-0.01426756 0.016070429 0.01313002 4290258209
-0.012337219 0.016198147 0.012738256 4290454558
-0.0099492557 0.014215846 0.014473127 4290389023
-0.0075451098 0.012234714 0.016204797 4290650653
-0.0055984035 0.01236381 0.015809933 4289865763
-0.0036516041 0.012493007 0.015415125 4289408039
-0.0020311698 0.014027651 0.013606982 4289342503
-8.9563429e-05 0.01415671 0.013213379 4289800484
0.0015149526 0.015690438 0.011408649 4289996835
0.0037938505 0.014415126 0.012426352 4290650653
0.0059095733 0.013842557 0.01273744 4290585118
0.0082073286 0.012568641 0.013751509 4290585118
0.0099779628 0.013400335 0.012653178 4290454049
0.011925239 0.013530374 0.012258885 4289276714
0.013872541 0.013660502 0.011864651 4288884014
0.015632533 0.014491823 0.010768658 4289145899
0.01757719 0.014621977 0.010375112 4289800228
0.019714545 0.014051519 0.010682395 4290323488
0.021857247 0.013481561 0.010988632 4290062114
0.024401378 0.011511412 0.012693103 4290193439
0.026158687 0.012343027 0.01159809 4290782234
0.02730041 0.015274309 0.0084085632 4289213219
-0.035147253 0.010257497 0.019138489 4287053878
-0.034049552 0.015338477 0.013747748 4289015593
-0.032251742 0.01617213 0.012643946 4289277223
-0.030459125 0.017005485 0.011541316 4289277223
-0.028415199 0.016424287 0.011864055 4289473318
-0.02649666 0.016550537 0.011474168 4289669668
-0.02444436 0.015970048 0.0117954 4289538599
-0.022522848 0.01609667 0.011405043 4289669413
-0.020323295 0.014810521 0.012434641 4289604134
-0.018254522 0.014231447 0.012752702 4289669669
-0.016324569 0.014358927 0.012360852 4290258208
-0.014541462 0.015192416 0.011260726 4289996835
-0.012613937 0.015319917 0.010869512 4289669669
-0.010381628 0.014036376 0.01189287 4289538598
-0.0084485337 0.014164452 0.011500681 4289865764
-0.00635764 0.013587426 0.011814693 4289669413
-0.0042613149 0.013010878 0.012127681 4289473319
-0.0026486814 0.014549304 0.010324439 4289603878
-0.0005495064 0.013973143 0.01063701 4289603878
0.00088148192 0.016215436 0.0081325825 4290062114
0.0031518713 0.014935125 0.0091487486 4289277224
0.0050855055 0.01506393 0.0087569784 4289146153
0.0071956292 0.014488894 0.0090676229 4289604134
0.0091320351 0.014618099 0.0086754467 4289669413
0.011068471 0.0147474 0.008283332 4289145644
0.013189405 0.0141734 0.0085920226 4289210923
0.015128568 0.014303081 0.0081995036 4289472553
0.017067745 0.014432877 0.0078070741 4290323488
0.019006927 0.014562778 0.007414721 4289538599
0.021141291 0.013990074 0.0077209976 4288884523
0.023281001 0.013417836 0.0080262758 4289080874
0.025426064 0.012846008 0.008330578 4289408293
0.026560351 0.015785545 0.0051491559 4289016614
-0.034534846 0.015891448 0.010455294 4289342504
-0.032745015 0.016726669 0.0093547739 4289800483
-0.031085756 0.018271215 0.0075442754 4289342759
-0.02892473 0.016977713 0.0085781496 4288688428
-0.026752863 0.015685044 0.0096098389 4289081129
-0.024703551 0.015102182 0.0099299587 4289996579
-0.022920933 0.01593741 0.0088312663 4289473319
-0.021004748 0.01606375 0.0084420424 4289473063
-0.018946968 0.015481744 0.0087606721 4289538599
-0.017171975 0.01631676 0.0076637436 4290454304
-0.015255395 0.016443428 0.0072746668 4290519583
-0.013338696 0.016570199 0.0068856385 4289865508
-0.01111757 0.015281528 0.0079079606 4289342504
-0.0090404712 0.014701299 0.0082230438 4289865764
-0.0069579221 0.014121525 0.0085370857 4289865763
-0.0050301142 0.014249429 0.0081461053 4289669669
-0.0032650866 0.015084479 0.0070517287 4289800229
-0.0015053451 0.015919283 0.0059584938 4289865508
-8.7335706e-05 0.018167254 0.0034616347 4290585374
0.0019982718 0.017588187 0.0037754402 4289734948
0.0040892959 0.017009586 0.0040882323 4289342504
0.0065382384 0.015019104 0.0058015231 4289669413
0.008645419 0.014441781 0.0061111916 4290192419
0.010576375 0.014570713 0.0057201888 4289210923
0.012323067 0.015405364 0.004630141 4289341738
0.014064431 0.016239766 0.0035412572 4289472808
0.015990086 0.016368657 0.0031515621 4290258209
0.018300407 0.0150875 0.0041569211 4290389023
0.020231426 0.015216954 0.0037662927 4289538598
0.022360127 0.014641747 0.0040721875 4289473318
0.02449416 0.014067046 0.004377041 4290127903
0.025821365 0.01631029 0.001899573 4289212199
-0.035258781 0.017881975 0.0057515986 4289276713
-0.033604812 0.01943041 0.0039453655 4290323488
-0.031710926 0.019554783 0.0035603028 4289865763
-0.02968898 0.018967669 0.0038842112 4289866019
-0.027530942 0.017669708 0.0049154069 4290258208
-0.025628556 0.017794918 0.0045288224 4289931043
-0.023861941 0.018631242 0.0034349989 4289669159
-0.021823335 0.01804566 0.0037557799 4289472808
-0.019779231 0.01746054 0.0040755216 4289472553
-0.01801756 0.018296845 0.0029829331 4289799719
-0.016114488 0.018422592 0.0025965767 4289995558
-0.014061987 0.017838325 0.0029148404 4289799464
-0.011852052 0.016544536 0.003936125 4290192164
-0.0099406242 0.016671129 0.0035482999 4290192164
-0.0078717619 0.01608824 0.0038634632 4289407529
-0.0059574656 0.016215239 0.0034752134 4289341993
-0.0040430874 0.016342334 0.0030870195 4289669159
-0.0024593659 0.017887671 0.0012962855 4289734438
-0.00071825832 0.018723547 0.0002085017 4289538344
0.0011882968 0.018850446 -0.00017786678 4289930789
0.0034417063 0.01756034 0.00083521195 4289865510
0.005881954 0.015562765 0.002545286 4289865510
0.0081595629 0.014274482 0.0035536233 4289734438
0.0099035986 0.015111037 0.0024656793 4289210923
0.011458188 0.016655192 0.00068135094 4289080108
0.013188886 0.017491058 -0.00040373672 4289276459
0.015293173 0.016911775 -9.4815157e-05 4289538089
0.017594982 0.015625633 0.00090901274 4289276714
0.019712668 0.015047442 0.001215375 4288949548
0.021638196 0.015176635 0.00082593691 4289472808
0.02396407 0.013892472 0.0018250942 4289538344
0.0254892 0.015435334 4.7315843e-05 4289145899
0.02618143 0.019803118 -0.0045009432 4288625444
-0.035621833 0.017751947 0.0031909812 4289669668
-0.033850599 0.018590268 0.0020974958 4289407783
-0.032084551 0.019428328 0.0010051271 4288949803
-0.029940534 0.018124945 0.0020357799 4288884523
-0.028046433 0.018249497 0.0016507916 4289145898
-0.02615219 0.018374141 0.0012658387 4289145644
-0.024257798 0.018498901 0.00088093523 4289407274
-0.022086415 0.017197669 0.001906367 4289276204
-0.020186391 0.017322995 0.0015204689 4289276204
-0.018430013 0.018161099 0.00043057278 4289537579
-0.016532417 0.018286459 4.5312569e-05 4289079598
-0.01463471 0.018411934 -0.00033989269 4289014318
-0.012433283 0.017113227 0.00067977235 4288948783
-0.01037553 0.016527303 0.0009954581 4288818478
-0.0083123073 0.015941806 0.0013101576 4288556848
-0.006243661 0.015356809 0.0016237814 4288753454
-0.0044945963 0.016195141 0.00053590909 4288556848
-0.0029160157 0.017744541 -0.0012505399 4288818478
-0.0011802018 0.018582195 -0.0023355745 4288818734
0.00089142099 0.017997816 -0.0020222338 4288687663
0.0031416677 0.016703125 -0.0010118047 4288884014
0.0055785738 0.014698759 0.00069400389 4288818733
0.007495854 0.014826674 0.00030568894 4288753454
0.0094131678 0.014954686 -8.2560815e-05 4288687663
0.011146571 0.015792817 -0.0011666315 4288753198
0.01306125 0.015920863 -0.0015541846 4288622384
0.015165232 0.01533936 -0.0012468575 4288753199
0.017082613 0.015467808 -0.0016347924 4288622383
0.01899999 0.015596353 -0.0020226547 4288557103
0.021114679 0.0150159 -0.0017172499 4288426288
0.023434721 0.013726931 -0.00072015449 4288622128
0.025360085 0.013856329 -0.0011093952 4288556849
0.026258621 0.017528713 -0.0049564084 4288624424
-0.035864588 0.016914487 0.0013443595 4288558634
-0.033973787 0.017038494 0.0009597959 4288623403
-0.031957943 0.016446501 0.0012815064 4288688429
-0.030191664 0.017286845 0.00019079167 4288492078
-0.028300371 0.017411172 -0.00019365083 4288557359
-0.026408914 0.017535612 -0.00057805609 4288426288
-0.024381753 0.016944751 -0.0002583554 4288360754
-0.021934357 0.014208641 0.0021708952 4288556848
-0.019888166 0.013619211 0.0024869312 4288295219
-0.018267319 0.015174925 0.00069455802 4288294964
-0.016657043 0.016730011 -0.0010955418 4288621874
-0.01461051 0.01614093 -0.00077939685 4288817968
-0.012406878 0.014837988 0.00023652148 4288752689
-0.010501061 0.014964174 -0.00015019812 4288622128
-0.0085951351 0.015090484 -0.00053684786 4288556848
-0.0066891275 0.015216898 -0.00092344265 4288884013
-0.0046206936 0.014629748 -0.00061130896 4288884013
-0.0025468357 0.014043123 -0.00030022766 4288818734
-0.0006352514 0.014170215 -0.00068772119 4288818734
0.0012764037 0.014297426 -0.0010751402 4288884013
0.0033611543 0.013711829 -0.00076603703 4288753709
0.0054513067 0.013126694 -0.00045794621 4288949803
0.0073684528 0.01325459 -0.00084624067 4288949803
0.0091045611 0.014094971 -0.0019292962 4288753709
0.011019096 0.014222901 -0.0023169005 4288818989
0.013120074 0.01363891 -0.00201069 4288688174
0.015226429 0.013055407 -0.0017054733 4288818734
0.016954567 0.013895676 -0.0027865954 4288622383
0.018677348 0.014735702 -0.0038665505 4288818734
0.020789053 0.014152855 -0.0035621841 4288818733
0.023505572 0.011437058 -0.0011856686 4288426289
0.025433484 0.011566646 -0.0015754104 4288361009
0.026540646 0.014539421 -0.0047249394 4288887328
-0.03562953 0.013207048 0.0023240428 4288559144
-0.033608805 0.01261308 0.0026430245 4288689194
-0.031831946 0.013456151 0.0015517008 4288819499
-0.029805545 0.012862742 0.0018696645 4288884524
-0.028033715 0.013705693 0.00077951327 4288884524
-0.026001636 0.013112843 0.0010964721 4288557103
-0.023964059 0.012520481 0.0014124094 4288622383
-0.021782923 0.011211097 0.0024292376 4288818733
-0.019872446 0.011337072 0.0020411769 4288687663
-0.018248707 0.012897324 0.00025149155 4288622129
-0.016343325 0.013023157 -0.00013537798 4288818478
-0.014586613 0.013865821 -0.0012219232 4288884014
-0.012229331 0.011842065 0.00048947986 4288818478
-0.010318283 0.011968583 0.00010169391 4288753198
-0.0082503296 0.011379037 0.00041206833 4288949803
-0.0063364208 0.011505954 2.3856759e-05 4288884524
-0.0042602718 0.010917176 0.0003327392 4288818733
-0.0020138472 0.0096131563 0.0013371054 4288622383
-9.1675669e-05 0.0097409636 0.00094746985 4288688173
0.0018305518 0.0098688602 0.00055789389 4288753709
0.0039257035 0.0092817545 0.00086324103 4288688173
0.00585071 0.0094100684 0.00047326647 4288688428
0.0077757686 0.0095384866 8.337386e-05 4288950314
0.0093390346 0.011096194 -0.001692947 4288426543
0.011442378 0.010510042 -0.0013888869 4288426798
0.01373734 0.0092101768 -0.00039374083 4288557358
0.015854094 0.0086251572 -9.2286617e-05 4288622639
0.017401382 0.010182202 -0.0018649939 4288491824
0.019132242 0.011024952 -0.0029449333 4288361009
0.021054704 0.011153951 -0.0033337399 4288426288
0.023376439 0.0098564178 -0.0023436062 4288361263
0.025506537 0.0092728436 -0.0020444375 4288164913
0.027026974 0.010828629 -0.0038112979 4288496159
-0.03539547 0.0094867349 0.0032942779 4288820009
-0.033367012 0.0088910684 0.0036100242 4288885289
-0.031457555 0.0090163276 0.0032216907 4288885035
-0.029420745 0.0084213987 0.0035358854 4288623148
-0.027638156 0.0092671886 0.0024451604 4288688684
-0.025728237 0.0093927905 0.00205696 4288949803
-0.023682948 0.0087987185 0.002369659 4288884524
-0.021770056 0.0089247227 0.0019810172 4288884524
-0.019716468 0.0083314031 0.0022921776 4288950060
-0.017943878 0.0091770664 0.0012038816 4288622639
-0.015884686 0.0085843205 0.0015140614 4288557103
-0.01396862 0.0087109506 0.0011250861 4288687918
-0.011901177 0.0081189647 0.0014337562 4288818988
-0.01013618 0.0089645386 0.0003473144 4288753709
-0.0080631822 0.0083731338 0.00065501221 4288950060
-0.0059847347 0.0077821612 0.00096173584 4288688173
-0.0035768934 0.0057556331 0.0026581977 4288753709
-0.0013175718 0.0044481084 0.0036566611 4288753709
0.00095251948 0.0031414405 0.0046529733 4288557359
0.0027233437 0.0039880723 0.0035658497 4288622894
0.0046615563 0.0041171387 0.003173111 4288753709
0.0062490776 0.0056805685 0.0013950486 4288688173
0.0081820302 0.0058095083 0.0010035466 4288557358
0.0099342838 0.0066553652 -7.9536811e-05 4288688173
0.011681214 0.0075009465 -0.0011614189 4288361263
0.013794966 0.0069134459 -0.00086107664 4288557614
0.015914094 0.0063263699 -0.00056169927 4288557614
0.017847143 0.0064558685 -0.00095280446 4288426544
0.019974303 0.0058695823 -0.00065493211 4288295984
0.021713234 0.0067151859 -0.0017347764 4288295984
0.023845717 0.0061294883 -0.001437813 4288230703
0.025579259 0.0069749355 -0.0025164038 4288165679
-0.035043385 0.0050305501 0.004957512 4288101419
-0.033126201 0.0051561967 0.0045675151 4288558124
-0.031208854 0.0052819401 0.0041775536 4288623150
-0.029037293 0.0039627701 0.0051894225 4288492078
-0.027373675 0.0055337995 0.0033977758 4288622893
-0.025588218 0.006382063 0.0023081806 4288492078
-0.023537878 0.005786106 0.0026181852 4288557614
-0.021619763 0.0059124455 0.0022284715 4288687918
-0.019561108 0.0053171962 0.0025369814 4288557103
-0.01778315 0.0061654076 0.0014491733 4288622639
-0.015573144 0.0048494861 0.0024537761 4288557614
-0.013649188 0.0049766153 0.0020631831 4288622639
-0.011725113 0.0051038638 0.0016726498 4288753965
-0.0098009519 0.0052312165 0.0012821741 4288622893
-0.007720232 0.0046381205 0.0015866496 4288557614
-0.0056340769 0.0040454939 0.0018901005 4288492078
-0.0033806637 0.0027330965 0.0028863931 4288753708
-0.0012809746 0.00214158 0.0031872559 4288426799
0.00082415342 0.0015505552 0.0034871269 4288557869
0.0027648509 0.0016796589 0.0030937884 4288426799
0.0047056042 0.0018088892 0.0027005346 4288557614
0.0064712167 0.0026575699 0.0016162666 4288623150
0.0084093846 0.0027868375 0.0012236955 4288688429
0.010347586 0.0029162243 0.00083120447 4288623150
0.012102596 0.0037645251 -0.00025066175 4288492333
0.014038168 0.0038939714 -0.00064244866 4288557869
0.016350903 0.0025866702 0.00034260843 4288557614
0.018483099 0.0019984394 0.00063773524 4288295729
0.020620659 0.0014106333 0.00093189906 4288230194
0.022370331 0.0022591799 -0.0001485059 4288165169
0.02431393 0.0023897216 -0.00054149609 4288034353
0.025853585 0.0039554164 -0.0023057517 4288296748
-0.035167944 0.0034580156 0.0038045291 4288101674
-0.033250887 0.003583625 0.003414534 4288361774
-0.03120948 0.0029844269 0.0037244279 4288622893
-0.029162575 0.002385743 0.0040332396 4288295729
-0.027369197 0.003236562 0.0029435698 4288230193
-0.025581036 0.0040871948 0.0018549999 4288557614
-0.023393441 0.0027649775 0.0028605321 4288623150
-0.021332573 0.0021676198 0.0031668115 4288688429
-0.019406419 0.0022945553 0.0027755192 4288557103
-0.017623059 0.0031452477 0.0016882876 4288687918
-0.015408199 0.0018252954 0.002688556 4288818733
-0.01318251 0.00050612539 0.003686754 4288753454
-0.01124787 0.00063405931 0.0032940637 4288687918
-0.0094667412 0.0014850348 0.0022076061 4288622639
-0.0075345784 0.0016130209 0.0018155826 4288491824
-0.0052844286 0.00029595196 0.0028091008 4288426288
-0.0031851158 -0.00029788911 0.0031083189 4288753708
-0.0010803789 -0.00089125335 0.0034065228 4288623150
0.00086279958 -0.00076209009 0.0030126031 4288295728
0.0026363805 8.9049339e-05 0.0019281777 4288622893
0.004576996 0.00021826476 0.0015349435 4288557614
0.0065176673 0.00034759939 0.0011417875 4288426799
0.0084583685 0.00047703832 0.00074870605 4288492078
0.010218747 0.0013277531 -0.00033270475 4288492078
0.012156833 0.0014572516 -0.00072508771 4288492589
0.013909228 0.0023076683 -0.0018046992 4288558125
0.016033072 0.001716584 -0.0015096115 4288230448
0.017971203 0.0018464327 -0.0019017411 4288165168
0.020490594 -0.00018446892 -0.00023669098 4288165168
0.022436749 -5.3867698e-05 -0.00063027721 4288165168
0.024382889 7.6852739e-05 -0.0010237759 4288100144
0.025723655 0.0023668855 -0.0034694327 4288165678
-0.035173785 0.0011583045 0.0033510644 4288101674
-0.033375513 0.0020113364 0.0022617495 4288230958
-0.031334411 0.0014099032 0.002570034 4288557868
-0.029287804 0.00080899894 0.0028772494 4288427053
-0.02749439 0.0016619712 0.0017891945 4288296238
-0.025706176 0.0025147647 0.00070224423 4288295729
-0.023788471 0.0026409104 0.00031248573 4288492078
-0.021321122 -0.00013764948 0.0027047237 4288427053
-0.019392435 -1.0564923e-05 0.0023128996 4288558125
-0.017463621 0.00011664629 0.0019211369 4288688429
-0.015534695 0.00024394691 0.0015294226 4288687918
-0.013457574 -0.00035414845 0.0018311134 4288753454
-0.01152575 -0.00022641569 0.0014389893 4288491824
-0.0095938221 -9.8578632e-05 0.00104691 4288426289
-0.0076617971 2.9377639e-05 0.00065490697 4288426289
-0.0055709109 -0.00056732446 0.00095409621 4288361008
-0.0036360435 -0.00043894351 0.00056168158 4288361263
-0.0015369765 -0.0010348856 0.00085937325 4288754220
0.00040071458 -0.00090609491 0.00046656746 4288754475
0.0021689832 -5.313009e-05 -0.00061513763 4288623404
0.0039319471 0.00079958886 -0.0016956879 4288296238
0.0062141158 -0.0005190447 -0.00071144756 4288427309
0.0081520081 -0.00038979203 -0.0011039628 4288493099
0.01008993 -0.00026042759 -0.0014963998 4288492588
0.012027882 -0.00013094395 -0.0018887585 4288230959
0.013965856 -1.3411045e-06 -0.0022810316 4288492844
0.015715625 0.00085118413 -0.0033583874 4288035630
0.017460044 0.0017034709 -0.0044345809 4288232234
0.019779824 0.000388138 -0.003457359 4288034353
0.022110309 -0.00092636794 -0.002482214 4288099889
0.02385471 -7.3730946e-05 -0.0035581319 4288100143
0.02539213 0.0015005618 -0.0053153471 4287577138
-0.035890799 0.0032322779 -0.0012915311 4287839023
-0.033863533 0.0026276708 -0.00098220911 4288035374
-0.031954583 0.0027527958 -0.0013705222 4287904559
-0.030045483 0.0028780326 -0.0017587831 4288099889
-0.028136212 0.0030033886 -0.0021469975 4288296239
-0.026094954 0.0024001226 -0.0018402068 4287904049
-0.024182726 0.0025258809 -0.0022288663 4288034863
-0.021858763 0.00046655536 -0.00053582992 4288166699
-0.019938234 0.00059308857 -0.00092600938 4288100909
-0.017732501 -0.00073633343 6.9429167e-05 4288885544
-0.015806369 -0.00060923398 -0.0003217319 4289016104
-0.013880141 -0.00048200041 -0.00071282219 4288230959
-0.012104377 0.0003728494 -0.0017950004 4288820264
-0.010027368 -0.00022719055 -0.0014948202 4288820263
-0.0079449043 -0.00082676113 -0.0011956571 4288820773
-0.0060156137 -0.00069887936 -0.0015870361 4289017123
-0.00408623 -0.00057087839 -0.0019783368 4288755238
-0.0021567829 -0.0004427731 -0.0023695836 4289016614
-6.0625374e-05 -0.00104101 -0.0020728102 4288689703
0.0017023124 -0.00018619746 -0.0031518554 4289017124
0.0036319494 -5.7719648e-05 -0.0035428694 4288951589
0.0057362989 -0.00065508485 -0.0032474985 4288558888
0.0078460276 -0.001251936 -0.0029531857 4288428329
0.0097811408 -0.0011227429 -0.0033450471 4288166699
0.011898957 -0.001718834 -0.0030522076 4287904559
0.013466064 -0.00013886392 -0.0048126495 4287578158
0.015210509 0.00071553141 -0.0058873324 4287250993
0.016949613 0.0015696511 -0.0069607967 4287185458
0.019070156 0.00097421557 -0.0066681472 4287185969
0.021196052 0.0003792122 -0.0063764574 4287120178
-0.022121187 -0.032248184 -0.0097846705 4286920514
-0.020033468 -0.032880954 -0.0095118564 4287181634
-0.018080227 -0.032752395 -0.0099087711 4287181888
-0.016126864 -0.032623686 -0.010305608 4287051328
-0.014173396 -0.032494858 -0.010702381 4287378749
-0.012219846 -0.032365896 -0.011099076 4288229683
-0.010266192 -0.032236822 -0.011495708 4288164404
-0.0083124563 -0.032107592 -0.01189225 4288163638
-0.0062026605 -0.032738104 -0.011623217 4287640379
-0.0039288215 -0.034127697 -0.010690315 4287902264
-0.0016442128 -0.035516515 -0.0097594839 4287837494
0.00032318011 -0.035385877 -0.010158414 4287902774
0.0024572909 -0.036014214 -0.009893978 4287771959
0.0045967922 -0.03664206 -0.0096305367 4287836983
0.0070856996 -0.038786948 -0.0080436412 4287836728
-0.021710459 -0.036897711 -0.0082818177 4288230193
-0.019749459 -0.036768779 -0.0086804088 4288164403
-0.017648604 -0.037402764 -0.0084118266 4287968309
-0.015827134 -0.036510482 -0.0094773676 4288230449
-0.013865814 -0.036381155 -0.0098757502 4288164914
-0.011756625 -0.037014216 -0.0096085761 4288492079
-0.0097924359 -0.036884442 -0.01000735 4288688429
-0.0078281574 -0.036754519 -0.010406023 4288949548
-0.0060195886 -0.035862468 -0.011468479 4288295473
-0.0035824403 -0.038017958 -0.0098764915 4288164913
-0.00096806139 -0.040933937 -0.007624934 4288557103
0.0011763386 -0.041563921 -0.007364335 4287968309
0.0031596757 -0.041432075 -0.007766387 4288164403
0.0051430501 -0.041300125 -0.0081683714 4288164658
0.0074701272 -0.04268989 -0.0072490601 4288098868
0.010331433 -0.046361148 -0.0043516262 4288164149
-0.021435339 -0.040798828 -0.0074581527 4287902519
-0.019740295 -0.039138511 -0.009190483 4288556849
-0.017916247 -0.038244031 -0.010255018 4288164914
-0.01595518 -0.038114838 -0.010653442 4288361519
-0.013704155 -0.039515346 -0.0097229164 4288295983
-0.011589948 -0.040150255 -0.0094583984 4288688939
-0.0096205734 -0.040020123 -0.0098582152 4289277734
-0.0076511092 -0.039889872 -0.010257965 4289015848
-0.0055259615 -0.040523686 -0.0099953813 4288361518
-0.0032371059 -0.04192102 -0.0090721091 4288361518
-0.0010984316 -0.042553708 -0.008812028 4288492079
0.00088201463 -0.04242219 -0.0092135994 4288099633
0.0030288063 -0.043054044 -0.0089550158 4288230449
0.0051810071 -0.043685421 -0.0086974381 4287902773
0.0078535378 -0.046605676 -0.0064638099 4288098868
0.010373179 -0.04876145 -0.0048928848 4287967799
-0.021429341 -0.04317718 -0.0079739047 4287771448
-0.019594695 -0.042279944 -0.0090390546 4288622384
-0.01776528 -0.041382954 -0.010103053 4288230449
-0.015799027 -0.041253433 -0.010502531 4288361519
-0.013398431 -0.043425038 -0.0089135123 4288230704
-0.01142396 -0.043294713 -0.0093144728 4288230704
-0.0094493926 -0.043164253 -0.0097153438 4288426798
-0.0076274984 -0.042267106 -0.010777331 4288296239
-0.0056554489 -0.042136572 -0.011177517 4288296239
-0.0033670999 -0.043538287 -0.010257411 4287968819
-0.0012287684 -0.044173166 -0.0099989017 4287772213
0.00091496482 -0.044807546 -0.0097414469 4287968564
0.0028979816 -0.044675723 -0.010143436 4287706678
0.0052186288 -0.046074778 -0.0092294877 4287902774
0.0075500272 -0.047473013 -0.0083175711 4287575354
0.010240447 -0.050400652 -0.0060940194 4287379004
-0.021557551 -0.044789612 -0.0091560287 4287575100
-0.019586328 -0.044660032 -0.0095567172 4287641144
-0.017614979 -0.044530295 -0.0099573238 4287968309
-0.015643541 -0.044400446 -0.010357871 4287903028
-0.013527423 -0.045039713 -0.010097119 4288099379
-0.011553116 -0.044909403 -0.010498046 4288033843
-0.0095787123 -0.044778973 -0.010898906 4288099379
-0.007604219 -0.044648409 -0.01129968 4288099379
-0.0054743923 -0.045286253 -0.011041335 4287640633
-0.0034970753 -0.045155227 -0.011442482 4287836984
-0.0015196875 -0.045024067 -0.011843546 4287705913
0.00062104687 -0.045660853 -0.011587071 4287640123
0.0024352632 -0.04476136 -0.012645422 4287640124
0.0047500692 -0.046165176 -0.011733509 4287509054
0.0070755966 -0.047568113 -0.010823726 4287379003
0.0097597949 -0.050504863 -0.008605469 4286658628
-0.019987416 -0.04472822 -0.012061066 4287640124
-0.018021572 -0.044598877 -0.01246057 4287639868
-0.015913915 -0.045240998 -0.012199841 4287770684
-0.013800796 -0.04588265 -0.011940124 4287770684
-0.01197638 -0.044981256 -0.01299956 4287574334
-0.0098577403 -0.045622304 -0.012740775 4287639870
-0.0078860708 -0.045491919 -0.013140987 4287574333
-0.0059143417 -0.045361407 -0.013541105 4287378239
-0.0039425232 -0.045230746 -0.013941134 4287574334
-0.0018102154 -0.045870379 -0.013684741 4287443263
0.00032749772 -0.04650946 -0.013429324 4287377984
0.0023048446 -0.046378031 -0.013830177 4287443263
0.0044506863 -0.047016397 -0.013576179 4287704639
0.0064307973 -0.046884552 -0.013977407 4287965504
-0.041513201 0.00053836405 0.030030683 4281108043
-0.036282208 0.0051741302 0.024536934 4282874429
-0.050203297 0.0033830628 0.025429647 4281110848
-0.048743088 0.0070668533 0.021449242 4281111103
-0.047410708 0.011460084 0.016758334 4280524093
-0.045486171 0.011585783 0.016366513 4280655928
-0.043348063 0.01029003 0.017404487 4280788019
-0.040871028 0.0068633854 0.020583302 4281634619
-0.038591068 0.0048594177 0.022329081 4281829439
-0.037327144 0.0092486292 0.017652445 4282288439
-0.051383544 0.0096286461 0.016383119 4280916029
-0.049755026 0.011894498 0.013846513 4281241919
-0.048142303 0.014159363 0.011313235 4281762883
-0.046130087 0.013570841 0.011638474 4281828419
-0.044005815 0.012269836 0.012675906 4281242684
-0.041761454 0.010256827 0.014423948 4281439544
-0.039500851 0.0082449615 0.016168749 4282026044
-0.051699188 0.0094802007 0.013796719 4281110083
-0.049977284 0.011036575 0.011979304 4279807288
-0.048366826 0.013307814 0.009451393 4280329784
-0.046461221 0.013432182 0.0090633612 4278704414
-0.044555407 0.013556644 0.0086753462 4278702374
-0.042322371 0.011536345 0.010420687 4281438778
-0.040073108 0.009517163 0.012162834 4281765689
-0.038608033 0.012501474 0.0089315269 4283921714
-0.053184543 0.003470622 0.017308831 4281695053
-0.052109521 0.01005885 0.010504669 4280783938
-0.050395403 0.011619017 0.0086921453 4280914498
-0.048590939 0.012460954 0.0075929072 4281176128
-0.046791594 0.013302606 0.0064948164 4280718659
-0.044785079 0.012709357 0.0068179388 4281307198
-0.042555351 0.010682207 0.0085590333 4281306943
-0.040532406 0.010090202 0.0088789351 4281699389
-0.03896061 0.012365878 0.0063641388 4283331388
-0.053401958 0.0026027113 0.015432874 4281824594
-0.052423451 0.0099307001 0.007933123 4281046079
-0.050714444 0.011494897 0.0061248485 4281112124
-0.048915263 0.012338586 0.0050283391 4281241409
-0.047121193 0.01318204 0.0039329529 4281306688
-0.045120325 0.012586184 0.0042555332 4281437249
-0.042896587 0.010552056 0.0059928838 4281502529
-0.040545288 0.0077999607 0.0084343068 4281438778
-0.038742412 0.0086443573 0.0073373988 4283005753
-0.053526495 0.0010168925 0.014269872 4282216529
-0.052641507 0.009089224 0.0060771592 4280851004
-0.050934937 0.010657541 0.0042726807 4280460854
-0.049138363 0.011503201 0.003178319 4278635309
-0.047346924 0.012348671 0.0020850338 4279287088
-0.045243185 0.011028647 0.0031134151 4280394808
-0.043237064 0.010431025 0.0034333356 4281371968
-0.040780749 0.0069483519 0.0065751895 4281175873
-0.03875285 0.0063523278 0.0068908129 4283006518
-0.053743239 0.00015613437 0.012399131 4282281299
-0.052859154 0.0082523525 0.0042246319 4280784959
-0.051155005 0.0098248422 0.002423916 4280460599
-0.049561631 0.012121044 -8.094497e-05 4280590394
-0.047675174 0.012244008 -0.00046519376 4281176894
-0.045577262 0.010919251 0.00056101568 4280330293
-0.043576766 0.010319002 0.00088045374 4281177149
-0.041015815 0.0061013997 0.0047194734 4281243194
-0.038763557 0.0040561631 0.0064412486 4282613308
-0.054328006 0.0022080094 0.007706387 4282280789
-0.053360689 0.0096006095 0.00025812909 4280719933
-0.051667009 0.011176735 -0.0015372001 4281046079
-0.049883682 0.012025833 -0.0026256312 4281306178
-0.048105489 0.012874722 -0.0037129931 4281306943
-0.045910578 0.010818861 -0.0019847173 4281307198
-0.043915715 0.010216072 -0.0016658437 4280266034
-0.041582886 0.0074364319 0.0007595811 4281046333
-0.039341968 0.005383864 0.002478702 4282416704
-0.054910954 0.0042820573 0.003029963 4282149973
-0.053766187 0.010237627 -0.0029911082 4280719933
-0.052080292 0.011817612 -0.0047816411 4279938103
-0.050304923 0.012668338 -0.0058668307 4280719933
-0.048534688 0.01351881 -0.0069509144 4281046844
-0.046348441 0.01145586 -0.0052258689 4280330294
-0.044361878 0.010850269 -0.0049069282 4280655928
-0.041816603 0.0066054016 -0.0010844767 4281177659
-0.039465684 0.0038182735 0.0013307333 4282418234
-0.055308606 0.0049155354 -0.0002239272 4282281808
-0.05398174 0.0094257593 -0.0048254039 4280980033
-0.05239537 0.011740889 -0.0073141637 4280654398
-0.050525513 0.011862565 -0.0076951846 4280850494
-0.048655447 0.011984367 -0.0080761686 4280850494
-0.046574946 0.010645293 -0.0070563406 4280915773
-0.044699151 0.010767631 -0.0074383635 4281046078
-0.042712692 0.010159969 -0.007121034 4281177914
-0.040494438 0.0080927759 -0.0054071993 4282223923
-0.053914074 0.0064183325 -0.0045533255 4281176129
-0.05222505 0.0080071837 -0.0063379742 4281241154
-0.050347302 0.0081293434 -0.0067206305 4281306433
-0.04836705 0.0075187236 -0.0064038765 4281306433
-0.046591174 0.0083739981 -0.0074858479 4281437504
-0.044820439 0.0092289969 -0.008566644 4281241409
-0.042834271 0.0086190924 -0.0082509294 4281372990
-0.040842582 0.0080096126 -0.0079362113 4281634619
-0.038498472 0.0052046776 -0.0055327681 4284442933
0.011587553 -0.0025788546 -0.0048984634 4283463734
0.013337381 -0.0017220825 -0.0059726434 4282220098
0.015081864 -0.0008654967 -0.0070456835 4281763138
0.016821008 -9.2089176e-06 -0.0081175258 4281959489
0.018748011 0.0001200065 -0.0085073179 4281958468
0.020870902 -0.00047733635 -0.0082166987 4281958469
0.022601996 0.00037876517 -0.0092866449 4281959744
0.024730202 -0.00021798164 -0.0089969235 4281828929
0.026659817 -8.8140368e-05 -0.0093868999 4282090304
0.028589398 4.1820109e-05 -0.0097767832 4282025533
0.030309662 0.0008976534 -0.010844196 4281763904
0.032448422 0.00030207634 -0.010556259 4281567809
0.034592494 -0.00029307604 -0.010269272 4281502784
0.036959145 -0.001612924 -0.0093072979 4281763648
0.04043632 -0.0065572038 -0.0049700509 4281828419
0.046400078 -0.019472405 0.006784007 4281828163
-0.053658877 0.0019312873 -0.002888768 4281174344
-0.051958937 0.0035251677 -0.0046723858 4281044549
-0.049971182 0.0029127747 -0.0043589445 4281045824
-0.047977876 0.002300784 -0.0040465342 4280981054
-0.046083812 0.0024241805 -0.0044323811 4281046078
-0.044404443 0.0040170997 -0.0062115216 4281111869
-0.042625438 0.0048748925 -0.0072923028 4281306944
-0.040851627 0.0057324469 -0.0083719604 4281371968
-0.038736571 0.0043872297 -0.007365488 4281763904
-0.036610652 0.0030428022 -0.0063610994 4281828929
-0.034353089 0.00096538663 -0.0046649808 4281567554
-0.032573219 0.0018237457 -0.0057455604 4281435208
-0.030798536 0.0026818737 -0.0068249949 4281502019
-0.028771412 0.0020731539 -0.0065187425 4281305668
-0.026738789 0.0014649183 -0.0062135109 4281436738
-0.02470066 0.00085709989 -0.0059092869 4281895484
0.011823516 -0.0056234673 -0.0046970202 4282679354
0.013208721 -0.0033049956 -0.0071324101 4281763138
0.014953241 -0.0024462268 -0.0082038147 4281305668
0.016692419 -0.001587756 -0.0092740236 4281435973
0.018812321 -0.0021875799 -0.0089845182 4281567298
0.020546142 -0.0013292208 -0.010053459 4281436483
0.022671372 -0.0019284785 -0.0097648716 4281371203
0.024801947 -0.0025272891 -0.009477227 4281436738
0.026937835 -0.0031255782 -0.0091906069 4281307199
0.028872628 -0.0029952526 -0.0095815351 4281372989
0.030807376 -0.0028648227 -0.0099723665 4281372479
0.032742079 -0.0027342811 -0.010363108 4281306944
0.034676727 -0.0026036203 -0.010753746 4281437248
0.036828436 -0.0032002777 -0.010469894 4281501508
0.041183397 -0.011068858 -0.0034483708 4281500999
-0.053404968 -0.002572991 -0.0012368644 4281240134
-0.051694136 -0.00097407401 -0.0030194474 4281175364
-0.04969598 -0.0015880018 -0.0027097864 4281241919
-0.047794234 -0.0014642477 -0.0030973116 4281242173
-0.045892265 -0.0013403893 -0.0034847995 4281242429
-0.043990117 -0.0012163967 -0.0038722521 4281176894
-0.042087775 -0.0010922998 -0.0042596599 4281176894
-0.040185254 -0.00096808374 -0.0046470342 4281176128
-0.038167249 -0.0015801638 -0.004340929 4281306179
-0.036261696 -0.0014555603 -0.0047287727 4281567043
-0.03423534 -0.0020668358 -0.0044242451 4281436738
-0.032326784 -0.0019418076 -0.0048125247 4281305923
-0.030544054 -0.0010810047 -0.0058919834 4281110084
-0.028637853 -0.00095590949 -0.0062796241 4281306689
-0.026600186 -0.0015660375 -0.0059770895 4280848964
-0.024557035 -0.0021756738 -0.0056755757 4281176893
0.011330191 -0.0057487339 -0.0072210426 4282286653
0.01308009 -0.0048876107 -0.008291956 4281632324
0.014824644 -0.0040266514 -0.0093617244 4281371204
0.016563859 -0.0031659827 -0.010430287 4281371203
0.018683437 -0.0037680343 -0.010142376 4281436994
0.020808369 -0.0043696165 -0.0098553961 4281436994
0.022938631 -0.0049706921 -0.009569454 4281241918
0.025074221 -0.0055713058 -0.0092845103 4281241409
0.02680802 -0.0047104135 -0.01035153 4281175874
0.028742671 -0.0045801029 -0.010742432 4281111103
0.030259442 -0.0029893368 -0.012482091 4281306433
0.03240025 -0.0035891533 -0.012197795 4281175618
0.034546345 -0.0041884631 -0.011914528 4281305668
0.037131611 -0.0062465072 -0.010286655 4281370439
0.041489806 -0.014138892 -0.0032838061 4281370183
-0.053246137 -0.0063545406 -0.00029380526 4281695054
-0.051430646 -0.0054905713 -0.0013791667 4281502273
-0.049422119 -0.0061060488 -0.001073298 4281371203
-0.047611553 -0.0052421987 -0.0021574991 4281241409
-0.045701694 -0.0051178411 -0.0025466168 4281241664
-0.043684561 -0.0057324544 -0.0022422737 4280980544
-0.041771654 -0.0056076944 -0.0026318552 4281111104
-0.039746132 -0.0062215477 -0.0023290673 4281110594
-0.037945304 -0.0053578317 -0.0034109009 4281305924
-0.035914082 -0.0059711039 -0.0031091152 4281240389
-0.0339978 -0.0058457106 -0.0034990748 4281305924
-0.031958211 -0.0064582601 -0.0031987755 4281174598
-0.030164752 -0.0055945441 -0.0042788303 4281174598
-0.028248001 -0.0054687932 -0.0046686428 4281175619
-0.026331101 -0.0053429082 -0.0050583812 4281240133
-0.024280224 -0.0059542954 -0.0047600633 4281372989
0.011383526 -0.008067362 -0.0077037881 4281959233
0.012951482 -0.0064699054 -0.0094512738 4281305159
0.015070733 -0.007074371 -0.0091651008 4281305668
0.016815331 -0.0062111765 -0.010233119 4281371203
0.018939938 -0.0068150461 -0.0099478513 4281371713
0.021069888 -0.0074184388 -0.0096635856 4281241409
0.023007147 -0.0072882921 -0.010055266 4281307199
0.025145095 -0.0078909174 -0.0097724274 4281111613
0.026881602 -0.0070276707 -0.010838367 4281046334
0.028818782 -0.0068971738 -0.011229761 4281111103
0.03054719 -0.0060342178 -0.012293863 4281176384
0.032693017 -0.0066358298 -0.012012261 4281436738
0.03463006 -0.0065050051 -0.012403387 4281371204
0.037217326 -0.0085694715 -0.010780774 4281436229
0.041795492 -0.017217353 -0.0031254739 4281370949
-0.053275418 -0.0086646602 -0.00074926391 4281564238
-0.051360969 -0.0085403323 -0.0011395644 4281109828
-0.04954521 -0.0076740906 -0.0022232737 4281240644
-0.047734592 -0.0068081021 -0.0033058738 4281045569
-0.045824867 -0.0066837817 -0.0036949841 4280980289
-0.043594178 -0.0087831989 -0.0020085741 4280914754
-0.041676063 -0.008658126 -0.0023992378 4281045313
-0.039757762 -0.0085329413 -0.0027898662 4281045313
-0.03795423 -0.0076668337 -0.0038706642 4281240644
-0.036038239 -0.007541582 -0.0042606536 4281370949
-0.034122091 -0.0074162185 -0.0046506021 4281240644
-0.032205794 -0.0072907358 -0.0050405017 4281305668
-0.030163672 -0.007905215 -0.0047422964 4281174853
-0.028116088 -0.008519195 -0.0044451766 4281175109
-0.025932025 -0.0098723844 -0.0034621563 4281109063
-0.024138067 -0.0090061873 -0.0045403931 4281830204
-0.022213016 -0.0088795722 -0.0049316525 4284181813
0.011254732 -0.0096537322 -0.0088661276 4281370948
0.013191849 -0.0095241964 -0.0092582293 4281043784
0.01512897 -0.0093945414 -0.0096502528 4281173833
0.016876284 -0.0085289776 -0.010717168 4281304648
0.018810742 -0.0083992481 -0.011108451 4281370438
0.021135539 -0.0097402781 -0.010151859 4281370949
0.023075331 -0.0096099749 -0.010544058 4281110848
0.025416162 -0.010949716 -0.0095904656 4281045569
0.027158044 -0.010083862 -0.010655869 4281175618
0.028894555 -0.0092183053 -0.011720065 4281438268
0.030625675 -0.0083529875 -0.012783077 4281437504
0.032773852 -0.0089566112 -0.012503579 4281502273
0.035141241 -0.010293983 -0.011554915 4281501763
0.037735835 -0.012364455 -0.0099387616 4281568573
0.042100474 -0.020304307 -0.002973293 4281437504
-0.053304974 -0.010978915 -0.001207687 4281499979
-0.051387969 -0.010854453 -0.0015985277 4281305924
-0.049470756 -0.010729887 -0.001989346 4281240644
-0.047553342 -0.010605194 -0.0023801196 4281240133
-0.045635734 -0.010480374 -0.0027708523 4281109829
-0.04361118 -0.011098914 -0.0024713427 4281175109
-0.041690532 -0.010973714 -0.0028625522 4281306689
-0.039769683 -0.010848373 -0.0032537077 4281240899
-0.037963431 -0.0099800006 -0.0043334085 4281305924
-0.036044907 -0.0098545998 -0.004723927 4281305414
-0.034126218 -0.0097290874 -0.0051144077 4281305668
-0.032207374 -0.0096034631 -0.0055048405 4281305668
-0.03041384 -0.0087354407 -0.0065816655 4281305924
-0.028369207 -0.0093518347 -0.0062855422 4281371459
-0.02631912 -0.0099677145 -0.0059904922 4281763649
-0.024397004 -0.0098414421 -0.006381264 4282222648
-0.022610914 -0.0089735016 -0.0074561904 4284378929
0.011125967 -0.011239797 -0.010028239 4281305924
0.013247229 -0.011848606 -0.0097458474 4280977229
0.015186884 -0.01171878 -0.010138378 4280912459
0.017126545 -0.011588842 -0.010530822 4281173578
0.019258521 -0.012196571 -0.010250326 4280977994
0.021395862 -0.012803867 -0.0099707842 4281304903
0.023736198 -0.014148079 -0.0090205036 4281175874
0.026287567 -0.016228765 -0.0074010459 4281305924
0.028651934 -0.017571121 -0.006455448 4281305668
0.030821275 -0.018175736 -0.0061820527 4281370948
0.03278755 -0.018043153 -0.0065792357 4281503294
0.034753785 -0.017910443 -0.0069763106 4281502529
0.036933698 -0.018514015 -0.0067047221 4281371203
0.039551679 -0.020589434 -0.0050982097 4281437504
0.043938264 -0.028551757 0.001844788 4281567808
-0.052961897 -0.016283341 0.0010961741 4281697094
-0.051127564 -0.015411705 1.1835247e-05 4281305924
-0.04910123 -0.016032629 0.00030909479 4281305668
-0.047170591 -0.015907101 -8.4396452e-05 4281305414
-0.045135844 -0.016527288 0.0002112966 4281109574
-0.043202151 -0.016401343 -0.00018265657 4281174343
-0.041486774 -0.014784351 -0.001952691 4281240644
-0.039781895 -0.013167903 -0.0037205629 4281305924
-0.037972938 -0.012297191 -0.0047991835 4281173833
-0.036286417 -0.010681696 -0.0065631364 4281108554
-0.034610402 -0.009066835 -0.0083248261 4280978249
-0.032699715 -0.0089417696 -0.0087136179 4281043274
-0.030788872 -0.0088165849 -0.0091023594 4281043019
-0.028749917 -0.0094355196 -0.0088067912 4281173323
-0.026705477 -0.01005397 -0.0085122399 4281631813
-0.02465554 -0.010672003 -0.0082186908 4282221119
-0.022872094 -0.0098020136 -0.0092914887 4284312118
0.0069475807 -0.012343138 -0.011080246 4284639284
0.009060435 -0.012954928 -0.010797985 4284313138
0.010997232 -0.012825549 -0.011190124 4280911439
0.013302278 -0.014177091 -0.010236446 4280649044
0.014870875 -0.012566403 -0.011974134 4280648533
0.016807713 -0.012436636 -0.012365997 4280649044
0.018552408 -0.011566773 -0.013429012 4280649044
0.021265842 -0.014396235 -0.011137325 4280713814
0.024395645 -0.018703416 -0.0075095785 4280779094
0.027957883 -0.024487272 -0.00254896 4281040979
0.03136003 -0.029528782 0.0017340127 4281367634
0.033566494 -0.030133076 0.0019982699 4281629519
0.035570074 -0.02999796 0.0015935656 4282022984
0.037784487 -0.030601501 0.0018564556 4281958723
-0.052155185 -0.02535291 0.0068328381 4282869329
-0.050198395 -0.025225922 0.0064338371 4282089284
-0.048044581 -0.026595518 0.0074121505 4281958469
-0.046082024 -0.026467949 0.0070121232 4281695308
-0.044119272 -0.026340261 0.0066121537 4281434189
-0.042369153 -0.024716765 0.0048382189 4281761863
-0.040847678 -0.021598503 0.0016935514 4281696329
-0.039570894 -0.016986527 -0.0028185453 4281172303
-0.038097162 -0.013871141 -0.0059533231 4280647258
-0.036527518 -0.011504181 -0.0083988886 4280516699
-0.034734201 -0.010632098 -0.0094725266 4280516698
-0.032946076 -0.0097602755 -0.010545047 4279590538
-0.031163167 -0.0088886768 -0.011616422 4279525003
-0.029002074 -0.010256603 -0.010638699 4279263118
-0.026960623 -0.010877445 -0.010345196 4279458704
-0.024780553 -0.012243964 -0.0093711354 4279720843
-0.023268674 -0.0098799914 -0.011804346 4281029758
-0.02121881 -0.010499954 -0.011512311 4281226619
-0.019163471 -0.011119433 -0.011221291 4281226619
-0.016815022 -0.013229258 -0.0095724836 4281423224
-0.014743421 -0.013847426 -0.0092845876 4281095294
-0.012666367 -0.014465161 -0.0089976657 4281029759
-0.010583874 -0.015082374 -0.0087118037 4281095804
-0.0088049807 -0.014209762 -0.0097813979 4281226364
-0.0070313588 -0.013337329 -0.010849871 4280963713
-0.0052629896 -0.012465157 -0.011917133 4280833154
-0.0033373721 -0.012337372 -0.012307651 4280112779
-0.0014116839 -0.01220946 -0.012698095 4279654289
0.00084985048 -0.013569042 -0.011739403 4279326358
0.0029515661 -0.014184147 -0.01145681 4279392148
0.0048854351 -0.014055327 -0.011848632 4279457938
0.0068193451 -0.013926372 -0.012240369 4279260569
0.0089318715 -0.014540367 -0.011959679 4279391639
0.01123105 -0.015896782 -0.011008184 4278999193
0.013540946 -0.017252415 -0.010058738 4278933913
0.014928482 -0.014894396 -0.012465008 4279130009
0.016678549 -0.014022119 -0.013527572 4278933404
0.018807203 -0.014634438 -0.013249684 4278998684
0.02133048 -0.016730301 -0.011634558 4279261078
0.025053687 -0.023275957 -0.0060112523 4279130519
0.029624986 -0.032784872 0.0022744928 4280309638
-0.039360885 -0.020817935 -0.0019259779 4281751918
-0.038221326 -0.015444815 -0.0071072639 4279064474
-0.036768224 -0.012321986 -0.010231217 4278671264
-0.034857962 -0.012197085 -0.01062003 4278867359
-0.032825273 -0.012821048 -0.010326661 4279064218
-0.03091203 -0.01269573 -0.010715906 4278998174
-0.028871033 -0.013318911 -0.010424055 4278801058
-0.026694257 -0.014690123 -0.0094526969 4278866593
-0.024772566 -0.014563911 -0.0098434053 4278867103
-0.022986371 -0.013689488 -0.010913476 4279128988
-0.021205414 -0.01281523 -0.01198243 4279260059
-0.01900674 -0.014184527 -0.011015166 4278932638
-0.016940914 -0.014805399 -0.010727845 4278998684
-0.014723308 -0.016173229 -0.0097642615 4279064218
-0.012643907 -0.016792946 -0.0094795004 4278998684
-0.010710735 -0.016665153 -0.0098719224 4278802589
-0.0087774694 -0.016537227 -0.01026427 4278999193
-0.0070011355 -0.015662491 -0.011331618 4278671008
-0.0052300803 -0.014787942 -0.012397848 4278997919
-0.0034642965 -0.013913661 -0.013462871 4278932129
-0.0013737194 -0.014531918 -0.013179839 4279128733
0.00088999048 -0.015895724 -0.012224875 4278735523
0.002823662 -0.01576703 -0.012616746 4278866593
0.0049304403 -0.016383857 -0.012336735 4278736033
0.0066911429 -0.0155093 -0.013400257 4278801058
0.0089817494 -0.016870782 -0.012450423 4278473894
0.01110201 -0.017486311 -0.012172841 4278605219
0.013411403 -0.018846318 -0.011226566 4278670498
0.015172195 -0.017971262 -0.012289741 4278604963
0.01692763 -0.017096385 -0.013351776 4278669988
0.018677734 -0.016221784 -0.014412593 4278866593
0.021394789 -0.019068442 -0.012134773 4278867103
0.025513172 -0.027121663 -0.0051925234 4278998683
0.030689446 -0.038890034 0.0050700475 4278998683
-0.039263267 -0.023910373 -0.0017255126 4282079084
-0.038117301 -0.018521562 -0.0068966714 4279195034
-0.036424804 -0.016892724 -0.0086520053 4278670243
-0.034384567 -0.017518505 -0.008361917 4278604708
-0.032460924 -0.017392643 -0.0087533835 4278867614
-0.0306619 -0.016515657 -0.0098247714 4278735523
-0.028740618 -0.01638972 -0.01021558 4278800804
-0.026558992 -0.017764933 -0.0092485398 4278538408
-0.024499316 -0.018388912 -0.0089619271 4278669988
-0.022840533 -0.016761452 -0.010709852 4278735523
-0.020916056 -0.016634837 -0.011100966 4278997408
-0.018991478 -0.016508102 -0.011492014 4279062689
-0.016779818 -0.017880805 -0.010530598 4278473384
-0.014703516 -0.018503055 -0.010246959 4278735523
-0.012621772 -0.019124806 -0.0099643366 4278801058
-0.010837551 -0.018247619 -0.011031818 4278538918
-0.008904431 -0.018119715 -0.011424143 4278735523
-0.0068144016 -0.018740557 -0.011142933 4278801058
-0.0048784502 -0.018612228 -0.011535645 4278997663
-0.0029424317 -0.018483751 -0.01192828 4278276779
-0.0010063425 -0.018355176 -0.012320844 4278801058
0.00092979893 -0.018226467 -0.012713329 4278735523
0.0030362085 -0.01884561 -0.012434957 4278408104
0.0048022382 -0.017968647 -0.013498031 4278342569
0.0070896372 -0.019334815 -0.012550906 4278669988
0.0090313032 -0.01920522 -0.012944114 4278735523
0.010972995 -0.01907552 -0.013337259 4278408359
0.012914706 -0.018945687 -0.013730307 4278538918
0.015228953 -0.020309597 -0.012788192 4278735523
0.016987108 -0.019432418 -0.013849103 4278408359
0.018931516 -0.019302025 -0.014242408 4278669988
0.021653038 -0.022157028 -0.011972086 4278539684
0.025971614 -0.0309802 -0.0043831263 4278605219
-0.039388765 -0.025503121 -0.0028934823 4281028738
-0.037900005 -0.022360682 -0.00601169 4279128478
-0.036315855 -0.019973248 -0.0084454976 4278867104
-0.034151342 -0.021354452 -0.0074785659 4278669988
-0.030412745 -0.02034843 -0.0089430576 4278604709
-0.028610874 -0.019468956 -0.010013365 4278539174
-0.026554313 -0.020095423 -0.0097278403 4278604709
-0.02449229 -0.020721383 -0.0094433995 4278538918
-0.022560064 -0.020594403 -0.0098361904 4278801058
-0.020903628 -0.018962651 -0.011580289 4278866594
-0.018976513 -0.018835738 -0.011971843 4278669988
-0.016905986 -0.019460723 -0.011688733 4278342314
-0.014684033 -0.020836949 -0.010732648 4278669989
-0.012748573 -0.020709135 -0.011125636 4278669989
-0.010661706 -0.021332636 -0.010845606 4278407849
-0.0088773854 -0.020453148 -0.011911404 4278670244
-0.0066283308 -0.021827087 -0.010960438 4278538918
-0.0048465207 -0.020947538 -0.01202554 4278670499
-0.0027459711 -0.021569625 -0.011747916 4278408359
-0.00096936896 -0.020690158 -0.01281177 4278538918
0.0011366531 -0.021311641 -0.012535074 4278473384
0.0030780397 -0.021182448 -0.01292852 4278604453
0.0050194822 -0.021053135 -0.013321881 4278669988
0.0073117353 -0.022423372 -0.01237898 4278604453
0.0092585906 -0.022293441 -0.012773254 4278669988
0.011024751 -0.021413937 -0.013834433 4278408359
0.01296898 -0.021283932 -0.014227984 4278604964
0.014913227 -0.021153785 -0.014621434 4278670499
0.017046232 -0.021772474 -0.01434945 4278604964
0.018801734 -0.020893157 -0.015408085 4278736034
0.021910604 -0.025254115 -0.011815541 4278408614
0.026232231 -0.0341032 -0.0042468738 4278538918
-0.039514218 -0.027095556 -0.0040612398 4281749624
-0.038024899 -0.023944423 -0.0071730306 4278866593
-0.03609116 -0.02381815 -0.0075667435 4278539429
-0.034038197 -0.024447501 -0.0072825486 4278604453
-0.032223221 -0.023565248 -0.0083540129 4278539174
-0.030413438 -0.022683248 -0.0094243372 4278604709
-0.028481763 -0.022556655 -0.0098172883 4278670244
-0.026420187 -0.023184948 -0.0095344903 4278670499
-0.02435315 -0.023812793 -0.0092527242 4278407848
-0.022550825 -0.022930801 -0.010321178 4278801058
-0.020615954 -0.02280353 -0.010714424 4278735523
-0.018821415 -0.021921821 -0.011781116 4278604454
-0.016888987 -0.021794461 -0.012173676 4278473128
-0.014810648 -0.022420935 -0.011893743 4278407593
