# .PCD v0.7 - Point Cloud Data file format
VERSION 0.7
FIELDS x y z rgba
SIZE 4 4 4 4
TYPE F F F U
COUNT 1 1 1 1
WIDTH 956
HEIGHT 1
VIEWPOINT 0 0 0 1 0 0 0
POINTS 956
DATA ascii
0.0063032284 0.012681745 0.043882079 4291702274
0.010056026 0.0055682808 0.051681608 4291569163
0.00092504919 0.016029466 0.037507467 4289609233
0.0036928765 0.012848433 0.040844098 4290193949
0.0064876787 0.0096691027 0.044175699 4290454558
0.0097766966 0.0045114532 0.049729548 4290192673
-0.018442422 0.019251473 0.033032451 4288102949
-0.016325884 0.01870583 0.033402536 4289279519
-0.014203817 0.0181606 0.033771642 4290847514
-0.012207642 0.018279452 0.033394333 4290257698
-0.0099431276 0.017071314 0.034506921 4290323234
-0.0078045204 0.01652731 0.034873072 4290324254
-0.0055209324 0.015320517 0.035982136 4289474339
-0.0033686385 0.014777489 0.036345817 4289539619
-0.0012108497 0.01423483 0.03670856 4289408294
0.0006573461 0.015018098 0.035585497 4290193183
0.0031211525 0.013150837 0.03743105 4290062114
0.0056011751 0.011284623 0.039273594 4289538598
0.0085641854 0.0074327514 0.043335691 4289407783
0.013142351 -0.0030378923 0.054795302 4289538598
-0.017697871 0.012933228 0.037084881 4288821029
-0.016192172 0.015717629 0.033725474 4289211944
-0.014322117 0.016502578 0.032603268 4288884268
-0.012457274 0.017287303 0.031482108 4289407019
-0.010195877 0.016074546 0.03259201 4289799719
-0.0079235882 0.014862474 0.033699967 4289734948
-0.0056404173 0.013651181 0.034805883 4289735459
-0.0037723817 0.014436439 0.033684365 4289800994
-0.0019096024 0.015221454 0.032563888 4289735203
9.528175e-05 0.015341301 0.032185279 4290127904
0.0024003759 0.014131647 0.03328729 4290585374
0.0047163144 0.012922693 0.034387369 4290389279
0.0075093843 0.0097210817 0.037703305 4290127393
0.011436261 0.0018709973 0.046185665 4290127394
-0.017570637 0.0099270903 0.037396464 4288753198
-0.016436182 0.014726106 0.031812403 4289603623
-0.014568746 0.015513089 0.030692268 4289734183
-0.012968723 0.017636176 0.028088588 4289669159
-0.010715798 0.016418401 0.029196922 4290127394
-0.0084519908 0.015201397 0.03030321 4290454558
-0.0061773136 0.01398509 0.03140755 4289604134
-0.0043172836 0.014772099 0.030289073 4289342503
-0.0024625063 0.015558831 0.029171702 4289342504
-0.00046578795 0.015678156 0.028794609 4289734948
0.001680918 0.015130568 0.029156286 4289734948
0.0039856806 0.013916485 0.030255258 4289604134
0.0066118203 0.011369739 0.03282766 4289931299
0.0098913759 0.0061582252 0.038344849 4289734949
0.015302455 -0.0077136382 0.053431183 4289800228
-0.017689712 0.0082540289 0.036217429 4287510073
-0.016805358 0.01441 0.029160924 4289864998
-0.0150715 0.015869427 0.02730212 4290192419
-0.013348222 0.017328274 0.02544542 4290127138
-0.011368327 0.017446149 0.025071185 4290258209
-0.0091156922 0.016224008 0.026176363 4290192673
-0.0067131966 0.014332663 0.028018765 4289342504
-0.0048611648 0.015121356 0.026903436 4289538854
-0.0028700344 0.015240248 0.026527327 4289408039
-0.0007317476 0.014689814 0.026888914 4289604133
0.0014120042 0.014139801 0.027249537 4289407783
0.0037136488 0.012921061 0.028345872 4289342503
0.0060261264 0.011703115 0.029440191 4289277224
0.009296231 0.006473206 0.034946382 4289407784
0.013893306 -0.0041029081 0.046325535 4289276968
-0.016672254 0.01141138 0.029476494 4288556848
-0.015188981 0.01422108 0.026140533 4289799974
-0.013596267 0.016356949 0.023547847 4289407529
-0.011619151 0.01647462 0.023174111 4289407528
-0.009505786 0.015920106 0.023538534 4289407783
-0.0071092434 0.014021769 0.025377199 4289276968
-0.0049795024 0.013468366 0.025738705 4289146153
-0.0029884763 0.013587218 0.025362592 4289342504
-0.00099734589 0.013706177 0.024986535 4289146409
0.0012930259 0.012482259 0.026081674 4289277224
0.003289707 0.012601722 0.025704693 4289473318
0.0055963807 0.011378929 0.02679693 4290192928
0.0082291439 0.0088149086 0.029355261 4290258208
0.012486763 -0.0004562214 0.039245214 4290323233
-0.016414478 0.0077289119 0.03052457 4288164404
-0.015178483 0.011897985 0.025717184 4289865253
-0.013713315 0.0147155 0.022391144 4289669159
-0.012002919 0.016182534 0.020543266 4290388513
-0.0098951869 0.015625428 0.020907126 4289865253
-0.0076432675 0.014394358 0.022006106 4290454049
-0.005239144 0.012489874 0.023838576 4290585118
-0.0031068735 0.011934463 0.024198044 4289407783
-0.00096913055 0.011379514 0.024556499 4289407783
0.00087525696 0.012172412 0.023445979 4289277224
0.0028664507 0.012291532 0.023070019 4290062114
0.0050125197 0.011737354 0.023427099 4289931043
0.0074790008 0.0098370947 0.025248233 4289865764
0.011082839 0.003226392 0.032190271 4289407528
0.016531881 -0.010783054 0.047168493 4289603368
-0.016032524 0.0033559203 0.03230039 4286464063
-0.01516822 0.0095706657 0.025290921 4288687918
-0.013830312 0.013074316 0.021234613 4289342248
-0.012385979 0.01589958 0.017918915 4289800228
-0.010555532 0.016693424 0.016812235 4289800228
-0.0081762858 0.014780637 0.018644568 4290192929
-0.0056396127 0.012192484 0.021207854 4290585118
-0.0033691116 0.01095828 0.02230018 4289538854
-0.0013808981 0.011077005 0.02192463 4289669669
0.00030890107 0.012547728 0.020084266 4289931299
0.0022919253 0.012666341 0.019709837 4290454558
0.0044296607 0.012109432 0.020066883 4290323488
0.0067301691 0.010877442 0.021153927 4289734438
0.0098415166 0.0062697083 0.025891032 4289669158
0.014292089 -0.0037368611 0.036460374 4289996068
-0.015668675 0.0099570341 0.021921892 4288753198
-0.014338136 0.013471317 0.017874964 4289407528
-0.012768362 0.015625849 0.015300985 4289276968
-0.011078894 0.017100506 0.013463538 4289473319
-0.0087083094 0.015180554 0.015292637 4289407783
-0.0061804466 0.012582965 0.017851163 4289604134
-0.0039184242 0.011343747 0.01894192 4289996835
-0.0019383878 0.011461969 0.018567905 4289538598
-0.00025644526 0.012936685 0.016732164 4289473318
0.0020219758 0.011698734 0.017820027 4289473318
0.0040022768 0.011817262 0.017446171 4289996580
0.0061398074 0.0112582 0.017801706 4290323488
0.0087623224 0.0086669326 0.020342838 4290061858
0.01238158 0.0020128116 0.027249984 4290126883
0.018037288 -0.012764573 0.042881057 4289996068
-0.015785776 0.0083119422 0.02076257 4288361009
-0.014844958 0.013881955 0.014524922 4289342249
-0.013282865 0.016042612 0.011957213 4290192673
-0.011465762 0.016840059 0.01085623 4290258209
-0.0091011263 0.01491303 0.012681674 4290127394
-0.0065793842 0.01230618 0.015234943 4290519583
-0.0044667497 0.011742909 0.01559322 4290192674
-0.0026411265 0.012541194 0.014490936 4289603878
-0.00067185611 0.012658846 0.014119003 4289734693
0.0016007498 0.011416133 0.015204713 4289473318
0.0037298836 0.010854196 0.015560199 4289538598
0.0057074502 0.010972638 0.015186913 4289080874
0.0078447722 0.010411423 0.01554095 4289407783
0.011124134 0.0050933808 0.020981424 4289341994
0.016097123 -0.0070163831 0.033676408 4289341738
-0.01590281 0.0066671371 0.019603442 4287575609
-0.014960837 0.012254957 0.013378367 4289079854
-0.013398387 0.014422264 0.010815371 4289538344
-0.011581246 0.015221905 0.0097159594 4289734693
-0.0093552247 0.013971429 0.010806944 4289603623
-0.0069776513 0.012038622 0.01262515 4289603623
-0.0050140582 0.012155738 0.012254152 4289799974
-0.0027581826 0.010907318 0.013339695 4289407528
-0.00078903139 0.011024952 0.012967777 4289800229
0.0014831387 0.0097777434 0.014050346 4289734948
0.0034578331 0.009895917 0.01367753 4289407783
0.0052757598 0.010696318 0.012578554 4289669413
0.0074074306 0.010132544 0.012932055 4289931043
0.010193374 0.0068418533 0.016185392 4290323234
0.014325431 -0.0019005463 0.025231242 4290061604
0.020706004 -0.019498304 0.043678373 4290061604
-0.014946852 0.0099422298 0.012961689 4288687409
-0.013513856 0.012802172 0.0096737035 4289407529
-0.011561468 0.012918312 0.0093045942 4289276969
-0.0096089616 0.013034541 0.008935526 4289145643
-0.0075157806 0.012465544 0.0092941932 4289407529
-0.005273886 0.011211772 0.010379042 4289865508
-0.0030211285 0.0099587254 0.011461973 4289473063
-0.0010547787 0.010076184 0.011090577 4289473063
0.00091165677 0.010193732 0.010719229 4289473318
0.0028781705 0.010311384 0.010347936 4289473318
0.0050014332 0.0097447746 0.01070134 4289734948
0.0069707707 0.0098627992 0.010329664 4289996578
0.0097504184 0.0065606162 0.013576176 4290519839
0.013051197 0.0012084246 0.018987056 4290257698
0.018404104 -0.012345947 0.033061221 4290127139
-0.014673818 0.0062488765 0.013998371 4287445049
-0.013629273 0.011182357 0.0085322224 4289538089
-0.011812042 0.011986382 0.0074359458 4289407784
-0.01013777 0.013477881 0.0056141671 4290454049
-0.0080529265 0.012906145 0.0059727859 4290519328
-0.0058195144 0.011647381 0.0070560817 4290389023
-0.0035752617 0.010389414 0.0081373602 4290454559
-0.0014686361 0.0098192655 0.0084920749 4289604134
0.00049230084 0.0099364631 0.0081217512 4289408039
0.0024533272 0.010053787 0.0077514928 4289473319
0.0044144243 0.010171216 0.0073812958 4289931299
0.0063755736 0.010288741 0.0070111547 4289865763
0.0086605698 0.0090337545 0.0080852099 4289276968
0.011614665 0.0050350428 0.012043465 4289146153
0.016106414 -0.0051353723 0.022485092 4289276713
0.02237832 -0.022158928 0.040116996 4289276713
-0.014531165 0.0032328665 0.014299259 4286136898
-0.013744645 0.0095628276 0.0073909331 4289276203
-0.012197111 0.011749286 0.0048451368 4289342504
-0.010528006 0.01324489 0.0030275192 4289734694
-0.0087293014 0.014050201 0.0019364711 4289211689
-0.0063641481 0.012096684 0.0037426949 4289407783
-0.0041283928 0.010833744 0.0048223604 4290389023
-0.0020301007 0.010260824 0.0051770825 4289734948
-0.00022832677 0.011066727 0.0040857475 4289342504
0.0018755011 0.010494351 0.0044395756 4289538854
0.0038284101 0.010611255 0.0040708985 4289931299
0.0059404299 0.010039616 0.0044232868 4290585118
0.0080578662 0.0094683953 0.0047747158 4290389023
0.010673985 0.0068325102 0.007285146 4290061858
0.014147148 0.00075703859 0.013388954 4290061858
0.019706173 -0.013571821 0.028111305 4290061858
0.026067981 -0.030645341 0.045686319 4290061349
-0.014124025 0.0093286186 0.0048008058 4288622129
-0.012850922 0.012906093 0.00081278197 4289864998
-0.011192359 0.014405478 -0.00099966675 4289668904
-0.0092642754 0.014520291 -0.0013640951 4289472808
-0.0069077834 0.012559626 0.0004389137 4289865764
-0.0046805218 0.011291679 0.0015170109 4289865764
-0.0027387068 0.011407617 0.0011502132 4289734949
-0.00094763935 0.012215037 6.2532723e-05 4289865763
0.0009916462 0.012331031 -0.0003036391 4289473318
0.0030871928 0.011756059 5.0162897e-05 4289276969
0.0051881783 0.01118153 0.00040302239 4290192674
0.0072945878 0.01060741 0.00075492077 4289538344
0.0097349435 0.0086525306 0.0025427248 4289996068
0.012692265 0.0046274886 0.0064812396 4290192419
0.017208528 -0.0056078956 0.016870316 4289930789
0.023183927 -0.021359153 0.032979414 4289407274
-0.014370847 0.0084088258 0.0029401183 4288556594
-0.013368864 0.013386428 -0.0024844185 4289472553
-0.011718173 0.014889769 -0.0042921845 4290323234
-0.0097982585 0.015004076 -0.0046550818 4290257698
-0.0074504092 0.013036184 -0.0028552134 4290454304
-0.0050863698 0.011069387 -0.0010583755 4290454304
-0.0030020624 0.010491166 -0.00070423074 4289603878
-0.0013643205 0.01199428 -0.0025092382 4289342504
0.00041611865 0.012803372 -0.0035932492 4289146153
0.0026593618 0.011532389 -0.0025211219 4289669414
0.0049134195 0.010262121 -0.0014509168 4289603878
0.0070168562 0.009685602 -0.001100054 4289473063
0.009125717 0.0091095194 -0.00075014122 4289080874
0.011740334 0.0064558908 0.0017478429 4289080363
0.015393279 -0.00035126507 0.0085368082 4289145644
0.02030506 -0.012001418 0.020322978 4289080108
0.02688176 -0.029875465 0.038525354 4289080108
-0.014353875 0.0060998648 0.0025254618 4286463808
-0.01361702 0.012486778 -0.0043302756 4289537834
-0.012105882 0.014691014 -0.0068547279 4289930278
-0.010331236 0.015501499 -0.0079364646 4289668648
-0.0081344992 0.014222726 -0.006859092 4289538089
-0.0057817996 0.012248591 -0.005064927 4289472553
-0.0037085265 0.011667475 -0.0047103148 4289145899
-0.0017803162 0.011782669 -0.0050744954 4289407783
-0.00015841052 0.01328937 -0.0068732388 4289669669
0.0020763353 0.012013391 -0.0058026705 4289538854
0.0043218769 0.010738205 -0.0047341008 4289277224
0.0065782294 0.00946372 -0.0036674682 4289734948
0.0085174963 0.0095801093 -0.0040333513 4289538599
0.011123274 0.0069171116 -0.0015401486 4290192673
0.014427815 0.0014766157 0.0038061682 4289669158
0.018635325 -0.0074339807 0.012713209 4290061349
0.023960762 -0.02050662 0.025886621 4289930534
0.03080721 -0.039126843 0.044742823 4289930534
-0.013942529 0.0016891509 0.004267253 4285875268
-0.013596337 0.010193817 -0.0047342535 4289210413
-0.012082171 0.01240487 -0.0072544906 4289472554
-0.010444406 0.013916403 -0.0090534268 4289603369
-0.0085326992 0.014030293 -0.0094147231 4289669159
-0.0064759105 0.013445862 -0.0090586748 4289864998
-0.0041183569 0.011465453 -0.0072701592 4290192419
-0.0020452961 0.010882236 -0.0069170836 4289800228
-0.00027284771 0.011695273 -0.0079963962 4289277224
0.0018057264 0.011112601 -0.0076442119 4289407783
0.003889747 0.010530315 -0.0072929356 4289538598
0.0061402582 0.0092510879 -0.0062284395 4289604133
0.0082378015 0.008669883 -0.005879594 4289800483
0.010507219 0.0073919669 -0.0048184656 4290258209
0.013463985 0.0033270568 -0.00090857223 4290192929
0.016968513 -0.0028261617 0.0051318929 4289996324
0.021917548 -0.014549337 0.016856752 4290192164
0.028198337 -0.031142108 0.033542655 4290322979
-0.013173696 0.0057929158 -0.0029880051 4288164149
-0.012058724 0.010114551 -0.0076572094 4289407018
-0.010557529 0.012331609 -0.010170183 4289211178
-0.009072341 0.014547773 -0.012680024 4290388513
-0.007023897 0.013960652 -0.012324054 4290192419
-0.0046749935 0.01197302 -0.010538664 4290389023
-0.002309911 0.0099864975 -0.0087562967 4290716188
-0.00054011866 0.010801576 -0.009833524 4289342503
0.001379922 0.010916464 -0.010196028 4289866274
0.0031417906 0.011731278 -0.011271604 4289539108
0.0053811185 0.010446936 -0.010208204 4289604133
0.0073040128 0.010562323 -0.010571012 4290127649
0.0093932375 0.009978503 -0.010222128 4289146154
0.011994831 0.0072975755 -0.0077408087 4289015593
0.015132951 0.0025210157 -0.0031315964 4288819244
0.019877892 -0.0085427463 0.0078615416 4288557613
0.026302179 -0.025889434 0.025225051 4288557613
0.033220213 -0.044624947 0.043981507 4288557613
-0.013154022 0.0034848899 -0.003402533 4286332738
-0.012172166 0.0085233822 -0.0087784864 4289407019
-0.010809898 0.011450253 -0.012001868 4289276713
-0.0093270503 0.013672948 -0.014506526 4289538598
-0.0074262396 0.013786249 -0.014865716 4289734948
-0.0053780004 0.013196938 -0.014511207 4289996578
-0.0031742826 0.011905603 -0.013444585 4290585374
-0.0012651794 0.012019724 -0.013805111 4289539108
0.00064399466 0.012133956 -0.014165568 4289604644
0.0025532283 0.012248293 -0.014525966 4289539108
0.0046232827 0.011660874 -0.014175226 4289473318
0.0065353028 0.011775602 -0.014535989 4290258209
0.0082812309 0.012592003 -0.015606722 4289996579
0.010190636 0.012706779 -0.015966842 4289211944
0.013129119 0.0086142793 -0.012072604 4289473319
0.017841818 -0.0024869293 -0.0010989066 4289799973
0.024409264 -0.020591952 0.016939022 4289799973
0.031655073 -0.04079067 0.037073266 4290061603
-0.013268381 0.0018784851 -0.0045345929 4286528834
-0.012694877 0.0090491772 -0.01204179 4289014829
-0.011479292 0.012689814 -0.015970923 4289603879
-0.0098650232 0.014213257 -0.017755747 4289866020
-0.0081168897 0.015031122 -0.018825933 4289277224
-0.0059325024 0.01373408 -0.017758952 4289342503
-0.0038871579 0.013142511 -0.017405473 4289669669
-0.0019889213 0.013255972 -0.017763952 4289604388
-9.0621412e-05 0.013369545 -0.018122362 4289408293
0.001649823 0.014187492 -0.01919071 4289604134
0.0037061572 0.013597026 -0.018838981 4289538854
0.005278036 0.0151188 -0.020615179 4289800228
0.0071711652 0.0152325 -0.020972302 4289473063
0.0090643317 0.0153463 -0.021329354 4289735204
0.01215696 0.010536019 -0.016733989 4289080874
0.015983341 0.0029148757 -0.0093176868 4289015594
0.022342877 -0.014546469 0.0079780668 4288884268
0.029913137 -0.036217473 0.02948441 4289015594
0.035646878 -0.05014734 0.04319942 4288884268
-0.013382711 0.00027236342 -0.0056664515 4286463299
-0.01308031 0.0088808015 -0.014582954 4288164404
-0.01228635 0.014655069 -0.020639228 4290323488
-0.010543659 0.015474688 -0.021706885 4290323488
-0.0088062361 0.016294114 -0.022773465 4289996578
-0.0066330321 0.014991947 -0.021707583 4289931043
-0.0048981309 0.015811447 -0.022773523 4290062114
-0.0028637461 0.015217118 -0.022419499 4289473318
-0.00082391873 0.014623232 -0.022066411 4289342503
0.0010635667 0.01473625 -0.022422716 4289407783
0.0031115599 0.014143024 -0.022070972 4289669669
0.0046755672 0.015668795 -0.02384253 4289342248
0.0065605082 0.015781984 -0.024198117 4288884524
0.008613985 0.015189454 -0.023847222 4288622893
0.011357613 0.011774622 -0.020673592 4288557614
0.014997477 0.0048338547 -0.013977883 4288557359
0.020986307 -0.011273205 0.0018714741 4288557359
0.028532606 -0.03301429 0.023332752 4288557359
0.034608036 -0.048399903 0.038427781 4288622639
0.037663173 -0.051795356 0.041543126 4288426034
0.039995942 -0.05237022 0.041841991 4288490803
-0.01360121 0.0094316415 -0.017828612 4287313978
-0.012952968 0.015933033 -0.024581229 4289669159
-0.01107949 0.016044546 -0.024935367 4289538599
-0.0092059113 0.016156189 -0.025289435 4289080618
-0.0070385188 0.014849197 -0.024225611 4289407784
-0.005009871 0.01425219 -0.023872182 4289342504
-0.0031280071 0.014364652 -0.024227582 4288950058
-0.0012460798 0.014477227 -0.024582915 4288688685
0.00063591078 0.014589902 -0.024938192 4288688428
0.0026782341 0.013994157 -0.024587026 4288688428
0.0045630075 0.014107235 -0.024942659 4288950058
0.0067791305 0.012803931 -0.023887476 4288950058
0.0091743618 0.010793358 -0.022129452 4288622893
0.011756763 0.0080759376 -0.01967 4288819244
0.015055509 0.0025289208 -0.014399162 4288361264
0.020690382 -0.012213968 6.9718808e-06 4288361264
0.028049778 -0.033316784 0.020717446 4288361264
0.033752598 -0.047337122 0.034374371 4288492079
0.037164941 -0.052158594 0.03888759 4288295729
0.03967917 -0.053442925 0.039887235 4288359988
-0.0137132 0.0078594498 -0.018936545 4286136643
-0.013063662 0.014380828 -0.025675043 4288557104
-0.011190318 0.014492322 -0.026029168 4288622638
-0.0093168728 0.014603943 -0.026383221 4288753964
-0.007296633 0.014004048 -0.026029851 4288819243
-0.0052709579 0.013404641 -0.025677461 4288492333
-0.0033919178 0.01351691 -0.026032342 4288819498
-0.0012032948 0.012207143 -0.024975525 4288688683
0.00068124756 0.01231996 -0.025331287 4288950313
0.0028860904 0.011011317 -0.024277342 4289146664
0.0049389079 0.010414097 -0.023929674 4289212199
0.0073281191 0.0083964095 -0.022175387 4289212198
0.009397123 0.0078003332 -0.021830574 4289211943
0.011984117 0.0050743297 -0.019378373 4289015849
0.015460353 -0.0012001246 -0.013418791 4288688428
0.021099759 -0.015989244 0.00095295534 4288426544
0.028104376 -0.035739012 0.020212378 4288426544
0.033624895 -0.049094185 0.033136755 4288230193
0.036851667 -0.053221919 0.036938794 4287706424
0.039175756 -0.053801708 0.037236113 4287640123
-0.013553526 0.0048586354 -0.018628648 4285875268
-0.012897331 0.01140032 -0.025354041 4288753454
-0.011018746 0.011512116 -0.025709162 4289146409
-0.0091400631 0.011624031 -0.026064221 4289539108
-0.0071147643 0.011022259 -0.025713451 4289081128
-0.0050840117 0.010420941 -0.025363622 4289015849
-0.0031997375 0.010533519 -0.025719499 4288950569
-0.001160793 0.0099329017 -0.025371064 4288950824
0.00072629005 0.01004586 -0.025727315 4288885543
0.0029333718 0.0087329336 -0.024676977 4289016358
0.0051512197 0.0074207932 -0.023628639 4289212198
0.0077105239 0.004684031 -0.021177784 4289474084
0.0097872764 0.004086256 -0.020836066 4289277734
0.012381539 0.001351811 -0.018391645 4289016104
0.015690856 -0.0042299852 -0.013148342 4288753963
0.021332111 -0.019065529 0.001189556 4288426288
0.028158672 -0.038165323 0.019704424 4288426288
0.03331577 -0.050139211 0.031200204 4288230194
0.036354601 -0.053568862 0.034294669 4287902520
-0.012593266 0.0076947585 -0.024333429 4288950059
-0.010988798 0.0092396885 -0.026100481 4289669923
-0.0091075711 0.0093517378 -0.026456032 4289671198
-0.0072262622 0.0094639137 -0.026811508 4289475104
-0.0053448752 0.009576194 -0.027166925 4289278754
-0.0031599104 0.0082571954 -0.026115919 4288689449
-0.0012730211 0.0083700381 -0.026472207 4288885798
0.00061392784 0.0084830001 -0.026828427 4288885544
0.0028205477 0.0071655959 -0.025781211 4288820009
0.005037941 0.0058490038 -0.024735982 4289081638
0.007431291 0.0038182288 -0.022992019 4289081638
0.0096729137 0.0025033131 -0.021951202 4289212453
0.012436938 -0.00095458329 -0.01881337 4289343524
0.015747514 -0.0065540299 -0.013583085 4288885288
0.021387924 -0.02143611 0.0007214509 4288753709
0.027855471 -0.039167613 0.017797302 4288753709
0.033006988 -0.051179454 0.029267013 4288557614
0.035858206 -0.053906634 0.031657066 4287902263
-0.012428273 0.0046948269 -0.024026126 4288296239
-0.01095913 0.0069631115 -0.026494725 4289735714
-0.0092189014 0.0077936947 -0.027553909 4289475103
-0.0071915016 0.0071876049 -0.027206743 4289344288
-0.0054564774 0.0080181062 -0.028264776 4288886054
-0.0034235604 0.0074125752 -0.027918488 4288689703
-0.0015394911 0.0075252429 -0.028274251 4288951333
0.00034463033 0.0076380149 -0.028629951 4288754728
0.0025481097 0.0063159913 -0.027585337 4288951079
0.0046000294 0.0057120621 -0.027242303 4289409058
0.0071524046 0.0029571727 -0.024802908 4289605408
0.0093908794 0.0016376376 -0.023764696 4289605408
0.012151275 -0.0018315539 -0.020634167 4289081893
0.015630804 -0.0081655756 -0.014718306 4289016360
0.021443438 -0.023810811 0.00025044009 4289016360
0.02755262 -0.040165119 0.015893556 4288557614
0.032517426 -0.051498726 0.026641097 4288491569
0.035362471 -0.054235123 0.029025938 4287837238
-0.012539927 0.0031282455 -0.025130089 4288427308
-0.011211138 0.0061239526 -0.028296059 4288950824
-0.0096169598 0.0076772086 -0.030054716 4289540384
-0.0075952262 0.0070685595 -0.029708086 4289213219
-0.0057167932 0.0071806461 -0.030062962 4288820518
-0.0036868602 0.0065727085 -0.02971771 4288559144
-0.0018056184 0.0066851974 -0.03007295 4288624678
0.00023249164 0.0060779899 -0.029729074 4288428073
0.0021165237 0.0061908513 -0.030084686 4288821029
0.0041627847 0.0055843666 -0.029742178 4289081639
0.0065441467 0.0035395771 -0.02800554 4289343779
0.0087741166 0.0022151172 -0.026968906 4288820518
0.011355288 -0.000546664 -0.024541168 4288951843
0.014822491 -0.0069013536 -0.018637355 4288429349
0.020620694 -0.022596143 -0.0037009977 4288168229
0.026893556 -0.039720736 0.01260316 4288168229
0.031847581 -0.051090457 0.023327228 4288037414
0.035051055 -0.055272624 0.027095329 4287841064
-0.01292726 0.0030083433 -0.027635928 4289082148
-0.011603341 0.006012544 -0.030794565 4289278754
-0.0097278915 0.0061242133 -0.031149045 4289606429
-0.0077064596 0.0055133104 -0.030803973 4289672474
-0.005828172 0.0056253895 -0.031158818 4288624679
-0.0039498098 0.0057375729 -0.031513609 4288362538
-0.0020713881 0.0058498904 -0.031868309 4288297514
-3.6269426e-05 0.005240269 -0.031525481 4288037158
0.0018449463 0.0053529888 -0.03188055 4288299043
0.0037261993 0.0054657906 -0.032235559 4288822814
0.0061015896 0.0034140348 -0.03050256 4288037158
0.0081583411 0.0028061718 -0.03016348 4287906854
-0.013176221 0.0021721795 -0.029435808 4289082913
-0.011854496 0.0051851347 -0.0325877 4289279774
-0.010267999 0.006746769 -0.034338534 4289410844
-0.0082549155 0.0061331391 -0.033993483 4289410589
-0.0063848123 0.0062447265 -0.034346785 4288036649
-0.0045146458 0.0063564181 -0.034700029 4287579179
-0.016930193 -0.050818697 0.014764231 4286854979
-0.016420051 -0.043426126 -0.02267809 4286594368
-0.0125264 -0.039939426 0.047935396 4283000653
-0.012527429 -0.042395093 0.047419108 4282934864
0.013669997 -0.0041768849 -0.023932524 4284311354
0.030997923 -0.049947873 0.019330047 4283591233
0.034556497 -0.055584952 0.02447566 4283395138
0.0032902956 0.0053564459 -0.03472244 4284051509
0.0053306147 0.0047452673 -0.034381941 4283331134
0.0070419014 0.0055817813 -0.035430126 4282874174
0.0090876445 0.0049711764 -0.035090473 4282221884
0.012001701 0.00074447691 -0.031287365 4281893953
0.017051201 -0.012157924 -0.019181725 4280460598
0.023620933 -0.030838251 -0.0015592594 4280460598
0.029607665 -0.046618685 0.013271522 4280786233
0.033879284 -0.055165336 0.021171618 4281762884
0.036169253 -0.055760458 0.021465793 4281891404
-0.010521304 0.0059283078 -0.036124635 4282748458
-0.0088023879 0.0067665875 -0.037173398 4282874939
-0.0069404766 0.0068776757 -0.037525162 4282482749
-0.0050785057 0.0069888532 -0.037876874 4282090814
-0.0032164566 0.0071001723 -0.038228504 4281372734
-0.0013543628 0.0072116107 -0.03858006 4281502784
0.00066680089 0.0065967962 -0.038237657 4281633088
0.0025316738 0.0067086294 -0.038589574 4281569594
0.0047253259 0.005368568 -0.037555762 4281439543
0.0060944594 0.0076585524 -0.039985511 4279223593
0.007956747 0.0077705793 -0.040336691 4279808308
0.010508746 0.0049806163 -0.037922502 4280136239
0.015183521 -0.0065123588 -0.027222563 4280136239
0.021722071 -0.025252022 -0.0096357288 4280136239
0.028219696 -0.043258145 0.0072351638 4280136239
0.032836746 -0.053282328 0.016498618 4280916793
0.035484664 -0.055329919 0.018171396 4282086479
-0.014742378 -0.0039773881 -0.02848943 4282347343
-0.014497399 0.0048931241 -0.037203591 4282416958
-0.012916002 0.0064631701 -0.03894718 4282222139
-0.011202503 0.0073031634 -0.039993383 4282091834
-0.0096397325 0.0088723488 -0.041733339 4280201774
-0.0079394914 0.0097117946 -0.042776853 4280527408
-0.0057921484 0.0083639249 -0.041737862 4280395830
-0.0039409846 0.008474566 -0.042087451 4281241664
-0.0019336008 0.0078566447 -0.041744173 4281045313
7.9199672e-05 0.0072391629 -0.041401841 4281372479
0.0019358881 0.0073504969 -0.041752212 4281242938
0.0039568134 0.0067337379 -0.04141124 4281112634
0.0053155571 0.0090296641 -0.043834217 4281502783
0.0071669705 0.0091410466 -0.044183336 4281503039
0.0097074397 0.006341584 -0.041773401 4280851259
0.01401886 -0.0037323684 -0.032474946 4280590139
0.02000409 -0.020348512 -0.016991913 4280590139
0.026473381 -0.038411632 -0.00015555508 4280590139
0.031429846 -0.049922526 0.010466039 4281502528
0.034801058 -0.0548857 0.01488658 4281566789
-0.014988404 -0.0048124716 -0.03028921 4280978758
-0.01488157 0.0048165768 -0.039678827 4281633854
-0.013585191 0.0078545138 -0.042806812 4281437758
-0.011739809 0.0079643577 -0.04315564 4281047098
-0.010184906 0.0095374435 -0.044890888 4281111359
-0.0081967823 0.0089157969 -0.044545837 4280785468
-0.0042042546 0.0076738223 -0.043858543 4281176129
-0.0023558587 0.0077844299 -0.044207521 4281241409
-0.00034871697 0.0071643293 -0.043865681 4281176384
0.0015024543 0.0072753429 -0.044215001 4281045823
0.0033536665 0.0073864684 -0.044564255 4278830638
0.004871428 0.0089583211 -0.046291858 4280654908
0.006886743 0.0083392598 -0.045951247 4281436738
0.0094237551 0.0055306926 -0.043547001 4281175874
0.012856171 -0.00092548132 -0.037708309 4280915264
0.017934103 -0.013945438 -0.025694057 4280654398
0.024369691 -0.032065853 -0.0088912155 4280654398
0.030208074 -0.047260687 0.0051417612 4280719423
0.034489483 -0.055886179 0.012982722 4280979269
0.037517853 -0.059404641 0.016015556 4281565514
-0.014427748 -0.010049403 -0.027923377 4282216273
-0.014716811 0.0018121153 -0.039374806 4281566534
-0.013694074 0.0063274503 -0.043882914 4280981308
-0.012133699 0.0079051666 -0.045616098 4280785214
-0.010583986 0.0094824135 -0.047347214 4281306178
-0.008749336 0.0095918141 -0.047693871 4281371714
-0.0067641214 0.0089678541 -0.047349732 4281176129
-0.0046203248 0.0076110587 -0.04631643 4280915263
-0.0026215948 0.0069881827 -0.045974717 4281241665
-0.00061745197 0.0063657463 -0.045633942 4281241153
0.0012308918 0.0064765662 -0.045982748 4281175873
0.0029153861 0.0073202029 -0.047019593 4280850494
0.0044279657 0.0088961087 -0.048742991 4280133688
0.006268356 0.0090068281 -0.049090028 4280459324
0.0086245798 0.0069211274 -0.047377147 4280394554
0.01169543 0.0019083396 -0.042922698 4280784703
0.015867682 -0.0074932128 -0.034361579 4280914498
0.021729589 -0.023475744 -0.019647602 4281175363
0.028440241 -0.042377226 -0.0022173207 4281175363
0.033622175 -0.054687724 0.0090299286 4281109574
0.037014917 -0.059680358 0.013424158 4281370184
0.039300874 -0.060284302 0.013712972 4282215254
-0.013734404 -0.016044877 -0.02488084 4282214488
-0.014278818 -0.0026739389 -0.037693534 4282087243
-0.01380292 0.0048006773 -0.044958815 4280848963
-0.012669202 0.0085913688 -0.048760749 4279611449
-0.011127353 0.010172501 -0.050487161 4280328763
-0.0093008839 0.010281418 -0.050832264 4280589629
-0.0071737058 0.0089191012 -0.049799092 4280003129
-0.0048827343 0.0068219528 -0.048079245 4280654654
-0.0028869919 0.0061966702 -0.047738578 4281045313
-0.0008858256 0.0055718571 -0.047398828 4281045313
0.00079864636 0.0064175576 -0.048434183 4280980289
0.0026415139 0.0065281689 -0.048781872 4280980544
0.0041515864 0.00810837 -0.050501585 4281176129
0.006327346 0.0067497715 -0.049476996 4281306434
0.0086856335 0.0046575144 -0.047769241 4281306433
0.011234485 0.0018321648 -0.045379922 4281371203
0.014513399 -0.0039281771 -0.040258333 4281175364
0.019813351 -0.017758921 -0.027625784 4281109829
0.02667533 -0.037453473 -0.0095480252 4281109829
0.032570995 -0.052737549 0.0044073649 4281175109
0.035949029 -0.057746574 0.0087932087 4281305669
0.038221233 -0.058353513 0.0090829693 4282476119
-0.012774769 -0.023544431 -0.020475648 4282279768
-0.01384205 -0.0071774423 -0.036024563 4282282318
-0.013911743 0.0032741874 -0.046034522 4280979778
-0.013203733 0.009291146 -0.051895823 4280393279
-0.011669744 0.010876238 -0.053617559 4280980289
-0.0097039901 0.010246582 -0.053273089 4281045313
-0.0074324645 0.0081415512 -0.051554427 4280980034
-0.0049919523 0.0052998364 -0.049151707 4281110083
-0.002996508 0.0046723187 -0.048812576 4281110084
-0.001153864 0.0047826916 -0.049160391 4281111358
0.00068882853 0.0048931688 -0.049508132 4281307453
0.0026951283 0.0042666718 -0.049170785 4280914499
0.0045405664 0.0043775737 -0.049518868 4281240898
0.0067239068 0.0030149743 -0.048498847 4281306179
0.0089179985 0.0016532093 -0.047480792 4281175618
0.011297129 -0.00044430047 -0.045781665 4281307199
0.014223315 -0.0047496036 -0.042038053 4281241409
0.018978365 -0.016414233 -0.03148061 4281044293
0.025642751 -0.035433412 -0.014124477 4281044293
0.031336408 -0.050029054 -0.00088034943 4281109574
0.034884773 -0.05579026 0.0041781142 4281043783
-0.012085464 -0.029596955 -0.017473323 4282345304
-0.013543118 -0.010957479 -0.035056397 4282673233
-0.013881251 0.0010072589 -0.046422005 4281371714
-0.013027471 0.0063014403 -0.051583759 4280652613
-0.011343308 0.0071508288 -0.052616373 4281109828
-0.0092224889 0.0057791397 -0.051588483 4281175108
-0.0072408728 0.0051483586 -0.051248506 4281305923
-0.0046430938 0.001558125 -0.048167557 4281306433
-0.0027952716 0.0016686767 -0.048516445 4281305923
-0.00078935176 0.0010396391 -0.048180759 4281239624
0.0009004958 0.0018901303 -0.049213976 4281174853
0.0030752756 0.00052236766 -0.04819569 4281436483
0.0050947107 -0.00010544062 -0.047862336 4281370694
0.0074570887 -0.0022108331 -0.046165012 4281240644
0.009664122 -0.003576234 -0.045152579 4281240389
0.011881892 -0.0049409196 -0.044142053 4281240389
0.014640873 -0.0085203946 -0.041090734 4281566534
0.019401234 -0.020220049 -0.030559782 4281369928
0.025887132 -0.0385582 -0.013925647 4281369928
0.031028148 -0.050983816 -0.0027520061 4281369928
0.034384824 -0.056025043 0.0016156137 4281301589
-0.012972217 -0.016236812 -0.032723516 4281758549
-0.01343368 -0.0034928322 -0.044753075 4282218568
-0.012568209 0.0018175021 -0.049905892 4281175108
-0.010728836 0.0019270703 -0.050253525 4281109574
-0.0084479079 -0.00019076467 -0.048546351 4280979014
-0.0064504966 -0.00082287192 -0.048210911 4280913478
-0.004295148 -0.0021966696 -0.047192551 4280848198
-0.0024394318 -0.002085641 -0.047542922 4280978759
-0.0002678968 -0.0034582317 -0.046527445 4281238859
0.0015932731 -0.0033466369 -0.046878673 4281174344
0.0037809946 -0.0047180504 -0.045866027 4281174344
0.0058135279 -0.0053472817 -0.045536734 4281305413
0.0080200695 -0.0067173094 -0.044527456 4281370694
0.010237355 -0.00808651 -0.043520153 4281370694
0.012291405 -0.0087140724 -0.043194652 4281304903
0.015057471 -0.01230415 -0.040152621 4281435719
0.019464463 -0.022557676 -0.031005848 4281500490
0.025766827 -0.040210739 -0.015089596 4281500490
0.030720226 -0.051933788 -0.0046202913 4281500490
0.03407291 -0.056990698 -0.00026312843 4281236308
-0.012539152 -0.020792663 -0.031091448 4282149208
-0.012848392 -0.0087555572 -0.042411558 4282412368
-0.011685275 -0.0049189925 -0.046187215 4281304138
-0.0098272748 -0.0048083439 -0.046538383 4281109063
-0.0075281896 -0.006931752 -0.044839367 4280848199
-0.005811695 -0.0060758069 -0.045874756 4280848198
-0.0039481372 -0.005964458 -0.04622671 4281109063
-0.0022395812 -0.0051086843 -0.047260452 4281239368
-6.313622e-05 -0.0064854398 -0.046249043 4281239623
0.0016428381 -0.0056296289 -0.047282089 4281370439
0.0039958544 -0.007749036 -0.04559277 4281239369
0.0060334429 -0.0083802119 -0.04526598 4281239114
0.0082448795 -0.0097543076 -0.044260837 4281370183
0.010295916 -0.010384381 -0.043936461 4281370183
0.012352332 -0.011014007 -0.043612987 4281434953
0.015120128 -0.014614992 -0.04057923 4281369418
0.019706583 -0.025642268 -0.030777495 4281303883
0.025464665 -0.041120276 -0.016930135 4281369164
0.030412652 -0.052879021 -0.0064852498 4281564239
0.03376136 -0.057951614 -0.0021384619 4282216019
-0.012403447 -0.013292737 -0.040768769 4282215509
-0.011370447 -0.0086972192 -0.045221429 4281630029
-0.0096487142 -0.0078390017 -0.046256393 4281434188
-0.0074917413 -0.0092217848 -0.045244887 4281173833
-0.0057725571 -0.008363463 -0.046279185 4281239369
-0.0039064698 -0.0082519725 -0.046631627 4281435464
-0.002195213 -0.0073938966 -0.047664259 4281435464
-0.00017413497 -0.0080285892 -0.047336258 4281435208
0.0016920976 -0.0079167038 -0.047688447 4281305159
0.004047174 -0.010042652 -0.046004243 4281239114
0.0062527396 -0.011421666 -0.045001291 4281304394
0.0084690675 -0.012799881 -0.044000261 4281304394
0.01035418 -0.012686372 -0.044355661 4281304394
0.012412969 -0.013318099 -0.044034194 4281434444
0.015358824 -0.017675199 -0.040332496 4281369164
0.019769046 -0.027990356 -0.031230919 4281303628
0.025162866 -0.042025089 -0.018767258 4281303118
0.029736638 -0.052330092 -0.0096963001 4281564239
0.032888941 -0.056674168 -0.0060331002 4282214488
-0.012237031 -0.016348116 -0.040501788 4281953623
-0.011056542 -0.01248844 -0.044264808 4281891914
-0.0093267709 -0.01162751 -0.045299746 4281499724
-0.0073088966 -0.012265146 -0.044973053 4281238348
-0.005584348 -0.011404268 -0.046006825 4281369674
-0.0035609938 -0.012041345 -0.045680992 4281369418
-0.0019964166 -0.010431856 -0.047392301 4281435209
0.00018712506 -0.011817031 -0.046388604 4281173833
0.0019011572 -0.010956258 -0.047420021 4281369929
0.004260961 -0.013088576 -0.045741506 4281304139
0.0064714216 -0.014471702 -0.044742651 4281303884
0.0090289079 -0.017349817 -0.042393327 4281238348
0.011095412 -0.01798337 -0.042075038 4281369164
0.01334079 -0.019364059 -0.041082449 4281369674
0.016301617 -0.023733512 -0.037393142 4281435209
0.020546656 -0.033331506 -0.028990583 4281369164
0.025224481 -0.044419274 -0.019253753 4281368398
0.029245853 -0.052514486 -0.012224581 4281694288
-0.012209702 -0.018660128 -0.040921055 4281757273
-0.011167061 -0.014037572 -0.045356445 4281630540
-0.0091495812 -0.014677525 -0.045031399 4281499468
-0.0072731934 -0.014565676 -0.045385972 4281303628
-0.0055459477 -0.013702482 -0.046418622 4281303883
-0.0036721118 -0.013590507 -0.046772517 4281238348
-0.0017982312 -0.013478421 -0.047126338 4281370183
0.00070470199 -0.016369142 -0.044773512 4281434188
0.0029092692 -0.017757326 -0.04377687 4281499979
0.0056124292 -0.021395974 -0.040755279 4281237328
0.0081771426 -0.024282627 -0.038413778 4281432914
0.010763325 -0.027167857 -0.03607624 4281367378
0.013200313 -0.029301718 -0.034416813 4281563474
0.015653413 -0.031434491 -0.032760277 4281041234
0.018650655 -0.035814986 -0.029087374 4281693779
0.022216171 -0.042441748 -0.023402596 4282019669
0.026192714 -0.050564066 -0.016382586 4282345048
-0.012044337 -0.021730378 -0.040664624 4281692248
-0.010713521 -0.018602021 -0.043735392 4281759568
-0.0086856224 -0.01924362 -0.043413877 4281564748
-0.0066522956 -0.01988472 -0.043093339 4281303374
-0.0047625937 -0.019771956 -0.043450333 4281369164
-0.0025693662 -0.021165587 -0.042455062 4281237839
-0.00036536902 -0.022558473 -0.041461684 4281238348
0.002163589 -0.025456503 -0.039120093 4281565514
0.004714027 -0.028353043 -0.036782492 4281826378
0.0074484162 -0.032000884 -0.033774696 4281890384
0.010209635 -0.035646945 -0.030771924 4281889363
0.012997683 -0.039291263 -0.027774112 4282150229
-0.0099795051 -0.024696231 -0.040773429 4281890639
-0.0076487809 -0.026850984 -0.039104432 4282021454
-0.0053018965 -0.029004678 -0.037438337 4282479434
-0.0029388666 -0.031157278 -0.035775207 4282608719
-0.014403485 -0.043924503 0.049260348 4280833154
-0.014648631 -0.044980325 0.047301151 4280112014
-0.014893413 -0.046031378 0.045345321 4281881714
-0.015257992 -0.046368934 0.042677298 4282274413
-0.013269268 -0.045535438 0.041562513 4282339948
-0.015501864 -0.047408171 0.040729716 4282339949
-0.013638519 -0.045861907 0.038903568 4282143344
-0.014007084 -0.046179183 0.036251109 4281946993
-0.012284763 -0.043916442 0.033719789 4282209388
-0.014374979 -0.04648716 0.033605114 4281946994
-0.012532599 -0.04493323 0.03178937 4281946994
-0.014864415 -0.046068512 0.030256823 4281946993
-0.012905002 -0.045227908 0.029154018 4282341224
-0.015108697 -0.047075562 0.028332599 4282536553
-0.013151951 -0.046232946 0.027231876 4282143599
0.041915886 -0.054565169 0.028522361 4282668134
-0.015352622 -0.048077859 0.026411738 4282929254
-0.013647757 -0.045789666 0.023902822 4282143088
-0.012213431 -0.042059176 0.019987751 4282537064
-0.014018126 -0.046056762 0.021286961 4282012019
-0.012461387 -0.043039277 0.018083815 4281094273
-0.014387809 -0.046314582 0.018677566 4282012019
-0.01283595 -0.043288618 0.015481748 4281225853
-0.014756821 -0.046563253 0.016074669 4282010744
-0.013083041 -0.044256948 0.013586037 4281553784
-0.013709724 -0.043029167 0.0095986538 4281553528
-0.012709022 -0.037066124 0.0036305767 4282145638
-0.027749009 -0.047755256 0.013210267 4282863974
-0.025706701 -0.047635198 0.012823123 4282601579
-0.013955623 -0.043981299 0.0077143442 4281946739
-0.012698114 -0.03946577 0.0031519178 4281685108
-0.014201157 -0.044928722 0.0058334265 4282404974
-0.012816511 -0.04113479 0.0019756388 4281684598
-0.014446333 -0.045871392 0.0039558578 4282601324
-0.012806006 -0.043540463 0.0014927257 4281815669
-0.012497138 -0.033842251 -0.0078938622 4281360493
-0.012924485 -0.045211092 0.00031531043 4281617279
-0.012219556 -0.03770116 -0.0069776308 4281225854
-0.013171479 -0.046139978 -0.0015518982 4281553018
-0.011811629 -0.042314306 -0.0053810384 4281553528
-0.013546512 -0.046320513 -0.0041042436 4282338928
-0.011929244 -0.043970987 -0.0065486003 4281814903
-0.011531767 -0.034932517 -0.015177006 4281685108
-0.014049113 -0.045745969 -0.0073370542 4282927214
-0.01230865 -0.044136018 -0.0090887463 4281749113
-0.011647608 -0.036562309 -0.016325587 4280898434
-0.013341218 -0.040552288 -0.015046658 4281618808
-0.012430619 -0.034453049 -0.02089561 4281291388
-0.013849121 -0.039937735 -0.018249376 4281880693
-0.012945458 -0.0338213 -0.02408425 4281029249
-0.014486495 -0.038557231 -0.022124207 4282993769
-0.013326202 -0.033928052 -0.026582127 4280832643
-0.013012804 -0.024788544 -0.035118088 4281030778
-0.013706274 -0.034025684 -0.029073508 4280766598
-0.013125211 -0.026368394 -0.036231432 4280309639
-0.013952874 -0.034870759 -0.030880352 4280832134
-0.012966599 -0.02946078 -0.035989415 4280243338
-0.011465054 -0.027078077 -0.038383 4281426284
-0.013801176 -0.03798753 -0.030654317 4281553274
-0.012267251 -0.035596415 -0.03304936 4280439434
-0.010473285 -0.034723163 -0.034090221 4281685874
-0.0020717978 0.016789246 0.072624192 4285032493
-0.00054831803 0.019459844 0.069178656 4285623328
0.0016741604 0.018948045 0.069548577 4285820443
0.0050763041 0.013347983 0.076011732 4285885978
-0.015951261 0.020701818 0.066119678 4285688609
-0.01389011 0.020824764 0.065730251 4285688864
-0.011445418 0.019029438 0.067632124 4285688609
-0.0092453808 0.018513728 0.068004429 4285296164
-0.0073061436 0.019276649 0.066850282 4285296928
-0.005779691 0.021956202 0.063410439 4285427743
-0.0042746067 0.024634536 0.059974685 4285558303
-0.0025084317 0.026034359 0.058065467 4285754908
-0.00017720833 0.024879728 0.059201106 4285688863
0.0027513057 0.021172546 0.063375555 4285754654
0.0067572854 0.013000261 0.072861828 4285754909
-0.020779811 0.021953955 0.061869875 4285361444
-0.019330382 0.025286682 0.057664424 4285558559
-0.017663129 0.027333908 0.054990441 4285754654
-0.015512034 0.026812851 0.055370316 4285820444
-0.013227776 0.025650561 0.05651132 4285820699
-0.010802291 0.023847431 0.058412015 4285493533
-0.0087595284 0.023969427 0.058026165 4285493534
-0.0069880113 0.025373895 0.056118988 4285558813
-0.0052270964 0.026777759 0.054213911 4285821463
-0.0033357441 0.027540185 0.053070523 4285755418
-0.0011621267 0.027020946 0.053446412 4285689373
0.0016027689 0.0239399 0.056855835 4285754909
0.0051403493 0.017658584 0.064050809 4285820699
-0.023062378 0.020774428 0.060294054 4285295654
-0.021951839 0.026052509 0.053806484 4285690393
-0.020287052 0.028106108 0.051137753 4285689884
-0.018394001 0.028870419 0.049995251 4285558048
-0.016131803 0.02770222 0.051137187 4285624093
-0.013731245 0.025890868 0.053037651 4285755418
-0.011444516 0.024724253 0.054175042 4285690139
-0.0094125941 0.024845559 0.05379121 4285624349
-0.0075160488 0.025610358 0.052648321 4285624349
-0.0057629794 0.027018204 0.050747856 4285755674
-0.0038795918 0.027782355 0.049607567 4285886998
-0.0017142817 0.027260367 0.049983397 4285886998
0.00089538097 0.024810407 0.052629419 4285886998
0.0039735958 0.020433906 0.057541057 4285624603
0.0083028525 0.01092007 0.06849391 4285558813
-0.023297481 0.019721434 0.058334574 4285230374
-0.022421554 0.026310727 0.050337985 4285493534
-0.020645171 0.027723923 0.048435979 4285755673
-0.018635482 0.027843602 0.048056133 4285821719
-0.016501006 0.027317058 0.04843583 4285821718
-0.014106348 0.025498599 0.050332621 4285690138
-0.011825424 0.024327192 0.051467821 4285624349
-0.0097989477 0.024448138 0.051084995 4285624349
-0.0077723302 0.024569158 0.050702192 4285624349
-0.0060216933 0.02598124 0.048805423 4285558814
-0.0041409284 0.026747406 0.047667183 4285558303
-0.0019785501 0.026223004 0.048041955 4285558303
0.0001893267 0.025698978 0.048415728 4285558559
0.0026603118 0.023885623 0.05029849 4285624349
0.0062080547 0.017560434 0.057459459 4285493533
-0.022308208 0.023337509 0.050676458 4285427999
-0.020764403 0.026053131 0.047258608 4285493533
-0.018633015 0.025524072 0.047637217 4285624094
-0.016869478 0.026941005 0.045740947 4285558303
-0.014607918 0.025763884 0.046876527 4285558303
-0.012335457 0.024587441 0.048010133 4285624094
-0.01005207 0.023411766 0.049141683 4285624094
-0.008028239 0.023532584 0.048759378 4285624349
-0.0061421469 0.024301205 0.047621675 4285624349
-0.004120715 0.02442202 0.047239929 4285689884
-0.0022424497 0.025190309 0.046103798 4285689884
-0.00051540509 0.02660564 0.04421477 4285886743
0.001646962 0.026079077 0.044588059 4285886998
0.0048741847 0.021024432 0.050230525 4285951769
0.010300968 0.0069176108 0.066398323 4285886234
-0.021962956 0.019053016 0.052524619 4285362464
-0.020526774 0.022429254 0.04835362 4285493789
-0.018630803 0.02320024 0.047215328 4285624349
-0.01698865 0.025272556 0.04456526 4285755674
-0.015108466 0.026042737 0.043430045 4285887254
-0.012585096 0.023560416 0.046072759 4285821463
-0.010304824 0.022380069 0.047201663 4285755674
-0.0081487074 0.021850564 0.047574207 4285689883
-0.0062625408 0.022621382 0.046438068 4285624349
-0.0045220628 0.024041761 0.044549637 4285689883
-0.0027922094 0.025461614 0.042663217 4285820953
-0.0012187995 0.027530346 0.040026598 4285755164
0.00093255937 0.027000904 0.040400282 4285689118
0.0038452968 0.023226038 0.044529587 4285952024
0.0083290935 0.012963131 0.056160904 4285952024
-0.020765111 0.021405503 0.046415985 4285493789
-0.01923614 0.024138022 0.043013759 4285624348
-0.017604329 0.026216354 0.040370435 4285820954
-0.01560799 0.026335243 0.039993115 4285689118
-0.013093427 0.023843471 0.042631045 4285820698
-0.010689408 0.022005573 0.044511639 4285820954
-0.0086737946 0.022125829 0.044130839 4285689628
-0.0067956336 0.022898398 0.042997748 4285689373
-0.0049227104 0.023670688 0.041865744 4285755164
-0.0033409558 0.025746498 0.03923228 4286018068
-0.0017752238 0.027821455 0.036601845 4285754653
0.00051614642 0.026637714 0.037725728 4285623329
0.0034224689 0.022849057 0.04184664 4285820189
0.0071296729 0.01580625 0.049707629 4285886234
0.012303699 0.002907373 0.064296037 4285820699
-0.021240294 0.021697558 0.042973079 4285296418
-0.019840121 0.02509388 0.03882492 4285886998
-0.018342666 0.027833439 0.035435088 4285689118
-0.016359843 0.027951498 0.035060305 4285557539
-0.013859436 0.02544995 0.037694465 4285623329
-0.01120533 0.022295006 0.041076295 4285952279
-0.0091978833 0.022414748 0.040697008 4285689629
-0.0073277056 0.023188997 0.039567053 4285624093
-0.005462788 0.023963008 0.038438153 4285624093
-0.0038887002 0.026045032 0.035810877 4285755163
-0.0021851659 0.027472224 0.033935856 4286083603
0.0001004301 0.026283629 0.035057653 4286017303
0.0028494522 0.023134887 0.03842194 4286083094
0.0060860924 0.018027402 0.044024184 4285820699
0.010615725 0.0076961145 0.055595562 4285623328
-0.02147755 0.02068764 0.041045159 4285295909
-0.020442776 0.026067827 0.03464881 4285755928
-0.019079335 0.029473096 0.03051563 4285951769
-0.016983531 0.028932996 0.030894525 4286082583
-0.01449459 0.026421841 0.033524416 4286279444
-0.011852138 0.023255061 0.036900412 4285886234
-0.0098555237 0.023374114 0.036523148 4285623838
-0.0079960376 0.024149917 0.035396792 4285624348
-0.0060018376 0.024268974 0.035020094 4285624349
-0.0041501634 0.025044464 0.033895325 4285624094
-0.0023037642 0.02581976 0.032771565 4285623584
-1.8581748e-05 0.024626669 0.033890214 4285490984
-0.021714404 0.019682415 0.039120547 4285296163
-0.021044083 0.027059842 0.030485429 4285558813
-0.01944337 0.029156204 0.027862318 4285755674
-0.017226823 0.027953934 0.028990265 4285754908
-0.014741309 0.025433645 0.031614371 4285622818
-0.012234144 0.022914719 0.034234431 4285557284
-0.010242999 0.023033418 0.03385818 4285557793
-0.0082517266 0.023152199 0.033481956 4285557794
-0.0062603131 0.023271065 0.033105765 4285557794
-0.0041263103 0.022731442 0.033476144 4285492258
-0.001986824 0.022192236 0.033845548 4285688608
0.00030600652 0.02099514 0.034959536 4286212633
-0.020798311 0.023435254 0.031578042 4285361953
-0.019189134 0.025538757 0.028958112 4285557794
-0.016838759 0.023670692 0.0308294 4285557539
-0.014600996 0.02246533 0.031950124 4287391754
-0.012385737 0.0058173239 -0.035772212 4286344978
