# .PCD v0.7 - Point Cloud Data file format
VERSION 0.7
FIELDS x y z rgba
SIZE 4 4 4 4
TYPE F F F U
COUNT 1 1 1 1
WIDTH 971
HEIGHT 1
VIEWPOINT 0 0 0 1 0 0 0
POINTS 971
DATA ascii
-0.022380054 -0.0062539205 0.046669077 4286855743
-0.021599263 0.0001052022 0.039707039 4286921789
-0.020866275 0.0064610392 0.032755602 4287444793
-0.020036213 0.012123439 0.026537269 4288621873
-0.018658452 0.015023079 0.023216061 4289210924
-0.017151661 0.017231535 0.020620909 4290192419
-0.015507832 0.018749367 0.018750109 4289931043
-0.013563421 0.018887769 0.018321984 4290257953
-0.011302449 0.017647903 0.019333031 4290454304
-0.0088697672 0.015719861 0.021060787 4290323234
-0.0069116056 0.015859533 0.020629853 4289865253
-0.0047871135 0.015310667 0.020916753 4289603624
-0.0024882741 0.014073823 0.021919779 4289603878
-0.00017865375 0.012837891 0.022920471 4289473063
0.0021417439 0.011602771 0.023918897 4289603878
0.0042960197 0.011056408 0.024199527 4289407528
0.0057374761 0.013261225 0.02161951 4289604134
0.0077096894 0.01340254 0.021185964 4289865763
0.010236673 0.011482075 0.0228936 4289734948
0.014092699 0.0047532022 0.029589597 4289538598
0.01933381 -0.0067800879 0.041261677 4289407529
-0.022386938 -0.0086321756 0.046169858 4286855998
-0.02104447 -0.0050239712 0.042109977 4286856253
-0.020296559 0.0013526082 0.035169981 4287313978
-0.019741155 0.0084182248 0.027519684 4287968054
-0.018796839 0.01340371 0.022042122 4288294963
-0.017589629 0.017002679 0.018012315 4289407274
-0.015950866 0.018524487 0.016145878 4289996068
-0.013856553 0.017970901 0.016437493 4289996068
-0.011598721 0.016726401 0.017445929 4290127138
-0.0093300939 0.015482713 0.018452104 4289930789
-0.007540755 0.016313013 0.017305508 4289603623
-0.0054245442 0.015761312 0.017592624 4289407529
-0.0031342134 0.014519498 0.018594187 4289342248
-0.00049036741 0.011897616 0.021023542 4289211434
0.0016528368 0.011348158 0.021304883 4289277224
0.0036247633 0.01148925 0.020871241 4289211689
0.0050586835 0.013700042 0.01829784 4289473319
0.0066586882 0.015220147 0.016440652 4290585374
0.008802224 0.014671091 0.016722202 4289996578
0.011888042 0.010675967 0.020560272 4289669669
0.015956162 0.0032377392 0.027946007 4289603878
0.021432042 -0.0090186447 0.040291343 4289734693
-0.020769835 -0.0087850541 0.043056089 4286921789
-0.019586839 -0.0044723451 0.038288448 4287117884
-0.019013673 0.0026164278 0.030650627 4287313978
-0.018493637 0.0097015053 0.023024566 4287706679
-0.017727122 0.015394587 0.016846567 4288884014
-0.016240589 0.017614793 0.014265746 4289603368
-0.01399406 0.016364932 0.015273344 4289603624
-0.011894565 0.015809584 0.015562221 4289538344
-0.0096291006 0.014561303 0.016565748 4289996068
-0.0080055185 0.016086761 0.014706191 4289799974
-0.0058949664 0.015532479 0.014992844 4289931043
-0.0037789643 0.014978673 0.015278369 4290519839
-0.001315169 0.013040025 0.016989678 4290323488
0.00081704929 0.012487561 0.017271772 4289866020
0.0027781911 0.012627859 0.016840491 4289473318
0.0043810606 0.0141524 0.014985912 4289408039
0.0059733316 0.015676335 0.013133701 4290454558
0.0079240352 0.01581616 0.012704924 4290323744
0.010436364 0.013881568 0.014405992 4290258464
0.013724174 0.0091829449 0.018940952 4290258464
0.01762696 0.0024137348 0.025593977 4290257953
0.022754302 -0.0084971189 0.03648432 4289865508
-0.020774193 -0.011164866 0.042555083 4286725694
-0.019304238 -0.008232668 0.039233033 4286790463
-0.018432677 -0.0025148243 0.033044845 4287183418
-0.017750576 0.0038966462 0.026148953 4287380024
-0.016966663 0.009608455 0.019980211 4287837493
-0.015920624 0.01392493 0.015252836 4288884014
-0.013976555 0.014063228 0.014824726 4289538344
-0.012189977 0.01489744 0.013681892 4289538344
-0.010248311 0.015035748 0.013254441 4289407529
-0.0086324625 0.016565058 0.011399809 4289734438
-0.0065302104 0.016007919 0.011686675 4290126883
-0.0044225231 0.015451316 0.011972375 4289145643
-0.0021384098 0.014200322 0.012968771 4290585118
-0.00019082427 0.01433954 0.012540385 4289996578
0.0019331761 0.013784386 0.012822714 4289604133
0.0037046224 0.014618274 0.01168377 4289538854
0.0056524649 0.014757801 0.011255547 4289473318
0.0076003857 0.014897425 0.010827374 4289146153
0.0099223629 0.013649691 0.011815935 4289342504
0.012634389 0.01101581 0.014217664 4289669669
0.015367802 0.0083836019 0.016614728 4289342503
0.018902622 0.0029804111 0.021833468 4289277224
0.02386385 -0.0072702169 0.031984732 4289146153
-0.017709382 -0.0083668083 0.036139373 4287053114
-0.016862907 -0.0026331916 0.029969919 4287314488
-0.016058937 0.0030975342 0.023809854 4287314488
-0.015297465 0.0088253543 0.017659228 4287641654
-0.014114138 0.012455594 0.013659354 4288622894
-0.012642432 0.014688022 0.011091728 4289669414
-0.010866329 0.015523743 0.0099528804 4289669159
-0.0092582218 0.017056804 0.0081032459 4289604134
-0.0073297434 0.017194346 0.0076788347 4289145643
-0.005233027 0.016634744 0.0079652946 4288818733
-0.0029600896 0.015378561 0.008960858 4289341993
-0.00084981695 0.01482008 0.0092445258 4289734438
0.0012658685 0.014262114 0.009527022 4289473319
0.0032081828 0.014401119 0.0090999231 4289473319
0.005150564 0.014540244 0.0086728912 4289146153
0.0074612945 0.013287265 0.0096605197 4289146153
0.0095959567 0.01273106 0.0099391472 4289211689
0.01173602 0.012175296 0.010216698 4289473318
0.014073603 0.01092454 0.011198651 4289342504
0.016616713 0.0089792684 0.012883306 4289407783
0.020360736 0.0028643534 0.018790808 4289996578
0.025954129 -0.0095016807 0.031021964 4290389023
-0.017420076 -0.012141466 0.037071396 4286987578
-0.01612442 -0.0084926039 0.033054736 4287183673
-0.015303079 -0.0027431548 0.026903927 4287053113
-0.014828093 0.0044045895 0.019337073 4287183673
-0.01394248 0.0094474182 0.013918482 4288164658
-0.012779523 0.013087243 0.0099313427 4289015084
-0.01148314 0.016025208 0.0066611432 4289734438
-0.010045394 0.018261965 0.0041060448 4290061858
-0.0082929693 0.019098349 0.0029741731 4290388513
-0.0062099062 0.018535551 0.0032619741 4290126628
-0.0036095791 0.015875414 0.0056746062 4290257443
-0.0015076399 0.015314166 0.0059584025 4290061604
0.00059973076 0.014753409 0.0062410831 4289407529
0.0027125217 0.014193129 0.0065226387 4289276968
0.0046494566 0.014331847 0.0060967971 4289473319
0.0071382895 0.012375686 0.0077881534 4289473319
0.0090833679 0.012515191 0.0073606763 4289538854
0.011217766 0.011956867 0.0076377857 4289538854
0.012973666 0.012794491 0.0065058861 4289734948
0.015113499 0.012236767 0.0067819599 4289866020
0.018047851 0.0088900849 0.0098680649 4289996834
0.022408601 0.00066522509 0.017863758 4289146409
-0.015680954 -0.012971863 0.034695905 4287054899
-0.014698476 -0.007907033 0.029267278 4287118649
-0.01405666 -0.0014391392 0.02242462 4287052348
-0.013462674 0.0050254613 0.015592579 4287641398
-0.012602374 0.010081865 0.010191143 4288164658
-0.011619546 0.014433485 0.0055073481 4288949804
-0.010506175 0.018080942 0.0015394073 4289669414
-0.0087590292 0.018919121 0.00041032024 4289276714
-0.0065138489 0.017652009 0.0014053751 4289799974
-0.0039170645 0.014982838 0.0038122181 4289799719
-0.0018181019 0.014419161 0.0040950123 4289669159
-6.5211207e-05 0.015258156 0.0029649641 4289734438
0.0020392612 0.014695074 0.0032467004 4289473063
0.0041491613 0.014132503 0.0035273302 4289146154
0.0064481981 0.01286988 0.004510941 4289408039
0.0083851404 0.013008785 0.0040852334 4289211689
0.010322142 0.013147797 0.0036595911 4289800484
0.011875674 0.014686782 0.001829315 4290389023
0.013807431 0.014825631 0.0014049802 4289996578
0.016133402 0.013565451 0.0023830552 4289342504
0.019668663 0.0081099048 0.0075624902 4288950059
0.024258785 -0.00083839148 0.016232669 4288950058
-0.014393486 -0.011682265 0.030194581 4287249719
-0.013438988 -0.0066040233 0.024783645 4287183674
-0.012830112 -0.0001186803 0.017963048 4287183163
-0.012269072 0.0063633546 0.011153068 4287445303
-0.011436783 0.011433177 0.0057693254 4288426288
-0.010317251 0.015091959 0.001808254 4289669414
-0.008564692 0.015932698 0.00067960285 4289276713
-0.0066497996 0.0160693 0.00025820546 4289734439
-0.0042241365 0.014094993 0.0019531827 4289799974
-0.0024739355 0.01493587 0.00082528032 4289472553
-0.00055342168 0.015073176 0.00040286966 4289996068
0.0013671815 0.015210584 -1.9490719e-05 4290454049
0.0034687482 0.014645193 0.00026130676 4290519839
0.0057592951 0.01337754 0.0012435522 4290454558
0.0076881126 0.013515849 0.00081962161 4289342504
0.0096169785 0.013654273 0.00039576367 4289538598
0.010971196 0.015899271 -0.0021303296 4289865763
0.012892149 0.016037323 -0.0025522988 4290585374
0.01481314 0.016175479 -0.0029742029 4290127904
0.017931581 0.012104291 0.00079795904 4289997088
0.021284312 0.0073341057 0.0052616168 4290324254
0.024674397 0.0025667548 0.009717105 4290062114
0.028309423 -0.0028988197 0.014861755 4289146409
-0.014386989 -0.01405561 0.029695369 4287447344
-0.012974516 -0.011083454 0.026418936 4287120178
-0.012045309 -0.0059916303 0.021025147 4287053114
-0.011466715 0.0005113408 0.014226034 4287248954
-0.010776598 0.0063043833 0.0081437305 4287380024
-0.0099669844 0.011387996 0.0027765092 4288230448
-0.0087004714 0.014350291 -0.00046739168 4288818989
-0.0067857057 0.014486868 -0.00088877417 4289800229
-0.004700806 0.013917677 -0.00060626306 4289342248
-0.0029558726 0.014760341 -0.0017313883 4289930789
-0.0013915673 0.01630827 -0.0035579968 4289865510
0.00069627538 0.015739597 -0.0032759011 4289799974
0.0027895346 0.015171368 -0.0029948782 4290192673
0.0047048219 0.015308596 -0.0034159143 4290519839
0.0066201724 0.01544594 -0.0038368888 4289800484
0.0085355751 0.015583366 -0.0042578075 4289473318
0.010451026 0.015720922 -0.0046786498 4289604133
0.012172464 0.016562771 -0.0057980372 4289800484
0.014282051 0.015996341 -0.0055201314 4289015338
0.01679574 0.014022898 -0.0038485788 4289211943
0.018921379 0.01345782 -0.0035740491 4289473829
0.0204382 0.015003495 -0.005389357 4289868823
-0.011724275 -0.0097629651 0.021950912 4286987324
-0.01066656 -0.0053667501 0.017280009 4287052348
-0.0097998902 -0.00026387721 0.011911597 4287248953
-0.009132266 0.0055451468 0.0058474075 4287510839
-0.0083426721 0.010642789 0.00049608015 4288099633
-0.0070887618 0.01361303 -0.0027384311 4289080108
-0.0051766858 0.013749488 -0.0031591672 4289538344
-0.0037820451 0.016009744 -0.0056848144 4289668904
-0.0020529665 0.016853552 -0.0068047512 4289407529
-0.00050698966 0.01840464 -0.0086239828 4289145899
0.0017504655 0.017125737 -0.0076411115 4289342504
0.0040186495 0.015847728 -0.006660576 4289407783
0.0061117187 0.015277535 -0.0063810479 4289931299
0.008210171 0.01470783 -0.0061026243 4289473319
0.0099316463 0.015551731 -0.0072204117 4289734948
0.011453975 0.017101709 -0.0090339286 4289669924
0.013358708 0.017238691 -0.0094522638 4289277478
0.015462652 0.016669802 -0.0091747353 4289866783
-0.011557978 -0.012835875 0.022163145 4287118649
-0.010181278 -0.0098485574 0.018907834 4286921278
-0.0091437623 -0.0054405704 0.014251266 4287118139
-0.0084614232 0.00038700551 0.0081969332 4287445303
-0.0078216195 0.0062116459 0.002152035 4287968563
-0.0070573799 0.011322856 -0.0031821299 4288622128
-0.0056517497 0.013590373 -0.0057054311 4289472553
-0.0042620078 0.015856862 -0.0082251485 4289864998
-0.002888184 0.018122278 -0.010741251 4290258208
-0.0013526194 0.019676983 -0.012554924 4289931299
0.00089365989 0.018392887 -0.01157288 4289997088
0.0031506605 0.017109692 -0.010593171 4290193693
0.0050470829 0.017245643 -0.011010005 4289800994
0.0067552365 0.018090658 -0.012123315 4289670179
0.0084580965 0.018935397 -0.013235385 4289736734
-0.0086482652 -0.0099257603 0.015873767 4286921789
-0.0076309517 -0.0055059418 0.011231497 4287314999
-0.006809637 -0.00037547201 0.0058961418 4287445303
-0.0063591413 0.0061778501 -0.00083026476 4287772213
-0.0056176111 0.011302896 -0.0061479434 4288033844
-0.0047411658 0.015713036 -0.010758847 4289538089
-0.0035470352 0.0186968 -0.013966898 4289669413
-0.00184175 0.019543376 -0.015078255 4289604134
0.00039867312 0.018254496 -0.014098261 4289800994
0.0024670362 0.017678037 -0.013816668 4289540129
0.0039843917 0.019236073 -0.015622794 4289737753
-0.0087886788 -0.011566408 0.014684457 4286922808
-0.0071252473 -0.0099944919 0.01284869 4286987578
-0.0062920675 -0.0048478767 0.0075221732 4287118139
-0.0058293492 0.001726009 0.00080780499 4287510839
-0.0054145157 0.0082965717 -0.0058959518 4287903028
-0.0047036856 0.013434835 -0.011195342 4288884268
-0.0038554855 0.017856192 -0.015790131 4289342248
-0.0019755363 0.017990619 -0.016203605 4289342504
-9.5501542e-05 0.018125176 -0.016617004 4289474849
0.0016019903 0.018973574 -0.017724866 4289541149
-0.0071042776 -0.012347929 0.012360413 4286988088
-0.0057759918 -0.0093375519 0.009135602 4287183418
-0.0051346123 -0.0034602508 0.0031297579 4287379514
-0.004704874 0.0031310543 -0.0035625529 4287510838
-0.0044947863 0.010435753 -0.010939516 4287969329
-0.0041635148 0.017020244 -0.017609997 4288754728
-0.0060792044 -0.010247178 0.0072592907 4287118393
-0.0049404129 -0.0065103397 0.003351368 4287183163
-0.00399708 -0.002056174 -0.0012448952 4287248954
-0.0037718974 0.005271472 -0.0086088106 4287380534
-0.0039484315 0.014032885 -0.017347161 4288234274
-0.0045808814 -0.010290436 0.0042601079 4286922044
-0.0034598336 -0.00654383 0.0003643427 4286921789
-0.0033936277 0.0015277043 -0.007678072 4287510329
-0.0032611117 -0.0096017495 0.00057884678 4286922299
-0.0026740655 -0.0036756024 -0.0053756684 4287445049
-0.0024772808 0.0036938488 -0.012700536 4287511348
-0.0024693459 -0.0067241192 -0.00515569 4287184948
-0.0015708134 -0.0022335872 -0.0097124847 4287382318
-0.019984879 -0.042289563 0.015212782 4286398019
-0.019846067 -0.045447446 0.015368856 4286332739
-0.01824376 -0.043075435 0.012870051 4287379513
-0.018385626 -0.044744886 0.011659577 4286790974
-0.017089777 -0.0408777 0.0078062452 4286332994
-0.018670082 -0.045666844 0.0097689182 4286397763
-0.017230801 -0.042535864 0.0066039991 4286398273
-0.014244355 -0.041811518 -6.3428655e-05 4286528324
-0.014534716 -0.04270459 -0.0019309428 4286397763
-0.012999028 -0.040304147 -0.0043902639 4286790720
-0.014974549 -0.042837597 -0.0044673067 4286332738
-0.013138644 -0.041941412 -0.0055772532 4286267458
-0.011447478 -0.042680189 -0.0078710793 4286463553
-0.0097796731 -0.041025229 -0.009645897 4287706424
-0.008122392 -0.039370954 -0.011418271 4286397508
-0.011586983 -0.044314638 -0.009056001 4286528578
-0.0096039064 -0.044173799 -0.0094928658 4287837494
-0.0077809244 -0.043273747 -0.010596479 4287903793
-0.011881135 -0.045187153 -0.010907098 4286397508
-0.010058198 -0.044285096 -0.012009109 4288164659
-0.0079205036 -0.044905744 -0.011779538 4288297004
-0.0062653497 -0.043242775 -0.013544819 4287707443
-0.010511711 -0.04438737 -0.014518729 4287508798
-0.008379668 -0.045010604 -0.014289542 4287445048
-0.028027713 -0.0079270154 0.064861357 4282870603
-0.027511895 0.00038287789 0.055595811 4280462384
-0.032484777 0.0024997592 0.050868329 4281696584
-0.029697545 -0.0014526695 0.054819923 4281698368
-0.027655922 -0.0013080463 0.054369863 4281960509
-0.035138294 0.0034201145 0.047168348 4281761099
-0.03362035 0.0063027442 0.043796081 4281634364
-0.030475304 0.00028096139 0.049937051 4281179189
-0.027540967 -0.0043679997 0.054605756 4281309749
-0.026022337 -0.0014851168 0.051233564 4283201339
-0.035037443 0.00037710369 0.047420774 4281956683
-0.033637434 0.0039561167 0.043323312 4281502018
-0.030871302 -2.425909e-05 0.047259841 4281111869
-0.02781447 -0.0053759739 0.052647728 4281308728
-0.025506303 -0.0066045448 0.053654399 4283462458
-0.034089692 -0.0075019449 0.052772794 4282281298
-0.032912366 -0.0025313795 0.04722042 4282022984
-0.030634448 -0.0037666634 0.048230264 4281304393
-0.027829364 -0.0077573806 0.052148338 4281633088
-0.025387287 -0.0096791089 0.053878237 4283853629
-0.033266135 -0.014728606 0.057368409 4282282064
-0.031942733 -0.010432802 0.052549716 4282087753
-0.030146196 -0.0089049861 0.050644558 4281826378
-0.027844556 -0.010142982 0.051645961 4281958214
-0.032566175 -0.021296248 0.061212409 4282217038
-0.031223118 -0.016985908 0.056399148 4282218059
-0.029659741 -0.014065102 0.053043019 4281957194
-0.027731344 -0.013226151 0.051864948 4281826634
-0.025808051 -0.012387477 0.050688062 4283002184
-0.032471344 -0.024413183 0.061411161 4282151505
-0.030998759 -0.020785391 0.057330351 4282153034
-0.029426746 -0.017855249 0.053978857 4281957194
-0.027747311 -0.015622191 0.051354896 4281957194
-0.026083641 -0.013390198 0.048734542 4282021709
-0.024168074 -0.012549788 0.047560986 4282218059
-0.031021439 -0.023201272 0.056807291 4281955153
-0.029446125 -0.020262182 0.053461593 4282218824
-0.028020211 -0.016626582 0.049399372 4282022473
-0.026489764 -0.013690487 0.046063703 4281890893
-0.024579443 -0.012848347 0.044892963 4282478923
-0.029465787 -0.022673234 0.052941304 4281955153
-0.028036401 -0.019026488 0.048886497 4281891149
-0.026371837 -0.016781375 0.046275716 4281891659
-0.024589591 -0.015236937 0.044386897 4281825359
-0.022681668 -0.014392726 0.043218356 4282021963
-0.029485747 -0.025088429 0.052418094 4281953623
-0.028052866 -0.021430537 0.048370671 4281889874
-0.026385203 -0.019178614 0.04576404 4282022218
-0.024733327 -0.016927734 0.043160971 4281826124
-0.02309721 -0.014677912 0.040561482 4282087498
-0.021338299 -0.013130598 0.038681198 4283069249
-0.02768638 -0.025952168 0.050001096 4282019158
-0.02639889 -0.021580011 0.045249362 4282216783
-0.024876982 -0.018618256 0.041935232 4282086478
-0.023647696 -0.014250018 0.037196476 4282021198
-0.021758094 -0.0134027 0.036035277 4282416194
-0.019732565 -0.013259187 0.03558879 4283265854
-0.026412852 -0.023985505 0.044731688 4282411603
-0.025020555 -0.020308465 0.040709697 4282282064
-0.023790278 -0.015927047 0.035980538 4282086734
-0.022177085 -0.013665646 0.033395912 4282416449
-0.020297892 -0.012816802 0.032238688 4283331389
-0.02642712 -0.026395157 0.044211064 4282083419
-0.025164075 -0.021998391 0.039484363 4282282063
-0.023797408 -0.018312141 0.035476252 4282087244
-0.022181094 -0.016044021 0.032895882 4282350404
-0.02058062 -0.013776869 0.030319031 4283331644
-0.023669645 -0.02141194 0.035678905 4281824338
-0.022323295 -0.01771611 0.031683531 4282219333
-0.020722359 -0.015442386 0.029111471 4283723579
-0.023947597 -0.022381924 0.033750441 4281233504
-0.022327758 -0.020100482 0.031179074 4282350658
-0.020864062 -0.017107643 0.027904104 4284181558
-0.022607476 -0.021059424 0.029259425 4282151504
-0.020865552 -0.019487143 0.027402472 4284114749
-0.006823305 -0.013673909 0.002341425 4284247858
-0.0050247461 -0.012808092 0.0012189653 4283068739
-0.00712502 -0.014566928 0.00047713146 4284051763
-0.0054945648 -0.012970991 -0.0013316423 4282480198
-0.003874667 -0.011375733 -0.0031379536 4282742084
-0.0072636753 -0.016185693 -0.00069628656 4284053038
-0.0057982802 -0.013855107 -0.0031887256 4282155074
-0.004348781 -0.011525519 -0.0056775752 4282545989
-0.009043768 -0.019409433 -6.4762309e-05 4284704563
-0.0074022859 -0.017804153 -0.0018694792 4283725108
-0.0061015785 -0.014734499 -0.0050423983 4281764158
-0.0046543144 -0.012398548 -0.0075258743 4281892168
-0.0028820783 -0.011527851 -0.0086374804 4282087754
-0.0075408593 -0.0194223 -0.0030424558 4283399473
-0.0060746297 -0.017078571 -0.005525291 4281764413
-0.0044567063 -0.015470333 -0.0073214322 4281958214
-0.0026790872 -0.014597073 -0.0084326006 4282022729
-0.00090672076 -0.013724089 -0.0095425416 4282219333
0.00033367798 -0.010649525 -0.01269529 4284377653
-0.0076793879 -0.021040149 -0.0042152144 4281563474
-0.0060480013 -0.019426718 -0.0060111517 4281826888
-0.0044271797 -0.017813958 -0.0078046257 4281826633
-0.0026468709 -0.016938306 -0.0089148143 4281891913
-0.0010445155 -0.015326634 -0.010704055 4282023239
0.0003718771 -0.012979418 -0.013170656 4282416704
0.001772359 -0.01063329 -0.015633641 4284574004
-0.0060217269 -0.021778964 -0.0064999806 4281629263
-0.0042307973 -0.02090051 -0.0076109068 4281760589
-0.0027848519 -0.018544905 -0.010079314 4281891913
-0.0011822656 -0.016928867 -0.011865349 4281957194
5.93476e-05 -0.013836779 -0.015005313 4282022984
0.0016354471 -0.012222357 -0.016785312 4283659828
0.0030204207 -0.0098706409 -0.019239949 4284705329
-0.0047031865 -0.021031223 -0.010136646 4281562199
-0.0030924715 -0.019410312 -0.011921332 4281759823
-0.0016646571 -0.01704938 -0.014380716 4281826380
-0.00025276095 -0.014689401 -0.016836537 4281891148
0.0013209023 -0.013070814 -0.018612754 4282218824
0.0028839633 -0.011452824 -0.020386595 4282742848
-0.0032301843 -0.021014102 -0.013083798 4281694288
-0.0018019527 -0.01864659 -0.015538372 4281760334
-0.00038964301 -0.016280062 -0.017989404 4281695309
0.0011842512 -0.014657103 -0.019762412 4281957449
0.0029276833 -0.013777055 -0.020859234 4282089539
0.0043002404 -0.01141303 -0.023301193 4284380459
-0.0017672479 -0.020988598 -0.016021844 4281496663
-0.00017722696 -0.0193602 -0.017795272 4281630539
0.0012249239 -0.016987763 -0.020239029 4281305159
0.0029710755 -0.016105406 -0.021334782 4281500233
0.0045293197 -0.014478914 -0.02310095 4281891404
0.0060769804 -0.012853108 -0.024864653 4282676038
-0.0017328896 -0.023334689 -0.016508281 4281036643
-0.00013997033 -0.021701783 -0.01827905 4281303373
0.0014423579 -0.020069458 -0.02004743 4281891913
0.0028343424 -0.017691083 -0.022483975 4281695563
0.0042103864 -0.015313692 -0.024916954 4281760079
0.0059407018 -0.014430039 -0.026007405 4281826378
0.0076657198 -0.013546579 -0.027096644 4284314159
-0.00010306388 -0.024047405 -0.018765828 4281498194
0.0011283383 -0.020912282 -0.021870799 4281760589
0.0023384839 -0.017778561 -0.024971012 4281695563
0.0037096217 -0.015394978 -0.027398024 4281629264
0.0056195483 -0.015258066 -0.027817834 4281498703
0.0077170916 -0.015869401 -0.027570235 4282154053
0.0090590641 -0.013487525 -0.029990554 4283199808
0.00099144131 -0.022501722 -0.023022756 4281824339
0.0020228066 -0.018608138 -0.026784014 4281760079
0.003391698 -0.016218163 -0.029205633 4281761098
0.0052988082 -0.016081445 -0.029624818 4281695818
0.007768102 -0.01819627 -0.028046846 4281957193
0.0093031973 -0.016557984 -0.029797845 4282349894
0.0018867403 -0.02018632 -0.027927767 4281694035
0.0030741878 -0.017036647 -0.031009838 4282022474
0.005162999 -0.017653078 -0.030763742 4281891913
0.0078187659 -0.020527221 -0.02852641 4281957448
0.0099263079 -0.021142073 -0.028284248 4282088263
0.010306582 -0.014985152 -0.034009464 4283069758
0.0033020973 -0.020116381 -0.03081964 4281890639
0.0059489124 -0.023000039 -0.02858698 4281891914
0.0093650669 -0.028901801 -0.023708871 4282022728
0.012254894 -0.032536104 -0.020825824 4282284359
0.013248123 -0.028622806 -0.024561906 4282609739
0.0049811676 -0.029264778 -0.025338827 4281952349
0.0076536797 -0.032155283 -0.023118393 4282150993
0.011094794 -0.038072683 -0.018258812 4282152523
0.014010135 -0.041716076 -0.01538955 4282543439
-0.026441693 -0.028808869 0.043687414 4280833918
-0.025042452 -0.025109522 0.039680209 4281032054
-0.026845604 -0.029087305 0.041032333 4280767873
-0.025318548 -0.026090279 0.03774317 4280440198
-0.027248681 -0.029356644 0.038383897 4280767364
-0.025726341 -0.026351258 0.035102289 4280308618
-0.024225101 -0.023347244 0.031825416 4280309638
-0.027521655 -0.030334413 0.036448333 4280570758
-0.026133306 -0.026603103 0.032468013 4279850385
-0.024367511 -0.025025003 0.030608889 4279981964
-0.027535945 -0.032746911 0.035925489 4280636038
-0.026275903 -0.028284922 0.031248499 4279915408
-0.024509877 -0.026702464 0.029392567 4280046478
-0.022891402 -0.024401516 0.026836168 4280309129
-0.021009207 -0.023539484 0.025687914 4281619573
-0.027292669 -0.036607422 0.036805868 4280898179
-0.026023671 -0.032131642 0.032136656 4280177293
-0.024383649 -0.029822752 0.029580306 4280177549
-0.023033276 -0.0260721 0.025624856 4280111758
-0.021290608 -0.024486721 0.023777496 4280635783
-0.027050436 -0.04048077 0.037676834 4281750133
-0.025903873 -0.035267383 0.032314587 4280636294
-0.024660334 -0.030780196 0.027660869 4280177295
-0.023175076 -0.027742386 0.024413742 4280307854
-0.021571562 -0.025429279 0.021870453 4280242318
-0.01955767 -0.025286779 0.021426391 4281029759
-0.025653556 -0.039137684 0.033185624 4282274923
-0.024534896 -0.033910871 0.027841046 4280766854
-0.023180276 -0.030138113 0.023900982 4280242318
-0.021712877 -0.027092673 0.02066436 4280177039
-0.019840993 -0.026224829 0.019523364 4280701829
-0.018263362 -0.023906797 0.016990829 4281095548
-0.024142779 -0.038506359 0.029409282 4281094784
-0.023049414 -0.033265911 0.024081752 4280177039
-0.021715119 -0.029483557 0.020154413 4280373644
-0.020123914 -0.027158141 0.017623696 4280504458
-0.018692851 -0.024106376 0.014401827 4280439433
-0.022919253 -0.03640224 0.024256408 4281684598
-0.021856509 -0.03114856 0.018947151 4280177549
-0.020264864 -0.028816566 0.01642124 4280111758
-0.018833205 -0.025756054 0.013205756 4279587224
-0.017129049 -0.024155676 0.011380143 4279718804
-0.021859176 -0.033545397 0.018432863 4280439689
-0.020405769 -0.030474685 0.015218992 4279849874
-0.0189735 -0.027405389 0.012009908 4279063454
-0.01726912 -0.02580066 0.010187495 4279653268
-0.015575245 -0.024196617 0.0083675273 4280898944
-0.020264365 -0.033600904 0.015398134 4280569739
-0.018682376 -0.03125643 0.012884203 4279259294
-0.017262675 -0.028179146 0.0096844584 4279718803
-0.01571501 -0.025836922 0.0071782935 4280112013
-0.014183197 -0.023495652 0.0046756808 4280243594
-0.020264596 -0.035999157 0.014882118 4281879164
-0.018679529 -0.033647947 0.012372389 4280044694
-0.01740282 -0.02982571 0.0084906481 4280046479
-0.015854739 -0.027476914 0.0059892982 4279849874
-0.014322501 -0.025129072 0.003491478 4280112014
-0.012651853 -0.023517735 0.0016833227 4281357433
-0.01739683 -0.032210208 0.0079833027 4280700809
-0.015994422 -0.029116608 0.0048004966 4280111504
-0.014613166 -0.026024379 0.0016224477 4279980433
-0.012944955 -0.02440881 -0.00018194877 4279980944
-0.011287272 -0.022793911 -0.0019839052 4280308874
-0.0094807185 -0.021916911 -0.0031001829 4282146150
-0.017245278 -0.035339162 0.0081575606 4281486719
-0.015985489 -0.03149619 0.0042959526 4280700809
-0.01444976 -0.029135041 0.0018071476 4279980433
-0.01277598 -0.027514763 4.8168004e-06 4279784338
-0.011269294 -0.025155433 -0.0024774112 4279784083
-0.0096192397 -0.023536615 -0.0042743385 4279326868
-0.015976891 -0.033879861 0.0037884433 4283058284
-0.014589109 -0.030769721 0.00062201358 4280373899
-0.012915097 -0.029145084 -0.0011771172 4280111758
-0.011564359 -0.026037343 -0.0043352135 4279259293
-0.0099167451 -0.024414353 -0.0061283493 4279521943
-0.0081179999 -0.023533382 -0.0072396053 4280046989
-0.014577564 -0.033148579 0.00011737458 4281159554
-0.013054185 -0.030775107 -0.0023588352 4279980179
-0.011702828 -0.027658597 -0.0055105407 4279193759
-0.0098961703 -0.026775084 -0.0066219727 4279915153
-0.0082562156 -0.025148101 -0.008410112 4280112014
-0.0064626411 -0.024265252 -0.0095184678 4280376194
-0.014566354 -0.035531454 -0.00039025582 4282402678
-0.013039906 -0.033151232 -0.0028622504 4280110739
-0.011685282 -0.030025773 -0.0060081575 4279849109
-0.0098759159 -0.029139891 -0.0071185548 4279718803
-0.0083943866 -0.026762493 -0.0095803859 4279849618
-0.0067647472 -0.025131814 -0.011362863 4280177294
-0.0053123087 -0.022756234 -0.013818094 4280243594
-0.011668075 -0.032397039 -0.0065087359 4280896648
-0.0098559931 -0.031508796 -0.0076181199 4280111503
-0.0083713755 -0.02912467 -0.010075686 4279915153
-0.0067388639 -0.027489386 -0.011855571 4279980944
-0.0051169023 -0.025854789 -0.013633022 4280242573
-0.0035055019 -0.024220765 -0.015408074 4280507774
-0.011339966 -0.036273696 -0.0056636427 4282402678
-0.0098364167 -0.033881769 -0.0081206281 4280307854
-0.008348722 -0.031490892 -0.010573981 4280177038
-0.0068769082 -0.029100999 -0.013023796 4279980944
-0.005753506 -0.025212362 -0.016813936 4279980945
-0.0039809421 -0.024324253 -0.01791261 4280178060
-0.0022136271 -0.02343639 -0.019010035 4280246653
-0.0099752508 -0.035506196 -0.0092982259 4282010234
-0.0084871463 -0.033108756 -0.011746785 4280766344
-0.0068515204 -0.031464539 -0.013520842 4279914899
-0.0055585876 -0.028316833 -0.016633218 4279325339
-0.0042868666 -0.025170557 -0.019740796 4279586969
-0.0025221854 -0.02428066 -0.020836053 4279588243
-0.00058868527 -0.024142563 -0.021261422 4280771443
-0.0084649771 -0.035480969 -0.012249427 4281944698
-0.0071529076 -0.032323308 -0.015359594 4279390364
-0.0061938018 -0.027658485 -0.019802528 4279521178
-0.0045923851 -0.026012108 -0.021565618 4279914643
-0.0026591197 -0.02587416 -0.021991035 4279128989
-0.00037802011 -0.027243502 -0.021082299 4279720588
-0.0069647655 -0.035447292 -0.015191561 4281355393
-0.0059993789 -0.030768931 -0.019626154 4280242319
-0.0047291256 -0.027605265 -0.022720391 4279784083
-0.0027960055 -0.027467333 -0.023145778 4278867104
-0.00051543862 -0.028841063 -0.02224019 4279456918
0.0012467988 -0.027946807 -0.023331435 4279850129
-0.0061366931 -0.032370567 -0.020787114 4281290368
-0.0048658326 -0.029198147 -0.023874966 4279915153
-0.0029328726 -0.029060222 -0.024300324 4279128989
4.1142106e-05 -0.033470713 -0.020742493 4279849619
0.002166383 -0.034089282 -0.020507952 4279915409
0.0035817251 -0.031676516 -0.022925219 4280574328
-0.0041625984 -0.034593992 -0.021712171 4281290623
-0.0020458326 -0.035215653 -0.02147756 4279980434
0.00059625506 -0.03811761 -0.019257298 4280766854
0.003083732 -0.040257789 -0.017703341 4282405228
0.0050513595 -0.040117003 -0.018136026 4282928744
-0.0013314746 -0.040634409 -0.019334951 4282142833
0.0014961213 -0.044306673 -0.016463291 4282798183
-0.018565811 -0.013634101 0.029874921 4285228588
-0.018994078 -0.013879672 0.027251091 4285229609
-0.016984552 -0.013737202 0.026808206 4285360423
0.019113105 0.024136361 -0.01737133 4285885213
0.022043189 0.020746067 -0.014316696 4285951004
0.027337741 0.009602569 -0.0036461744 4285820189
-0.019278504 -0.014828362 0.025340408 4285164073
-0.01756312 -0.013262153 0.023486245 4285295144
-0.015413217 -0.013831966 0.023750518 4285228589
0.01393288 0.020051658 -0.015175768 4285492004
0.015014876 0.023019634 -0.018364888 4285689629
0.016075533 0.025986232 -0.021549277 4285689118
0.017735859 0.026828542 -0.022651533 4285623584
0.020229505 0.024840929 -0.020985104 4285623839
0.024225503 0.017903965 -0.014483104 4285820699
0.029564867 0.0067287385 -0.0038484987 4285886488
-0.019134074 -0.017915547 0.02554794 4284966703
-0.017704055 -0.014916152 0.022287086 4285032748
-0.015850775 -0.014060207 0.021142263 4285229353
-0.01400267 -0.013204478 0.019998629 4285228589
0.0086662024 0.023195568 -0.020332936 4285556774
0.010339864 0.024040598 -0.021436805 4285558049
0.012405824 0.023464594 -0.021154212 4285558814
0.013872728 0.025019661 -0.02294877 4285689628
0.015124824 0.027284086 -0.025432393 4285952279
0.01656772 0.028837666 -0.027221575 4285689373
0.018837873 0.02755205 -0.026247196 4285623838
0.022179382 0.022720203 -0.021826684 4285624093
0.025987852 0.016472656 -0.016036065 4285755163
0.031584144 0.0045563281 -0.0047477316 4285755419
-0.019132957 -0.020294577 0.025045943 4284900913
-0.017844945 -0.016569845 0.021088149 4285032238
-0.016139574 -0.014995493 0.01924273 4285229098
0.0036655106 0.025663108 -0.024790425 4285884703
0.0055191033 0.02579619 -0.025197696 4285884959
0.007759288 0.02450344 -0.024220534 4285819933
0.009618286 0.024637118 -0.024628842 4285624093
0.011477314 0.024770916 -0.025037065 4285623838
0.013135076 0.025617201 -0.026135644 4285558559
0.014583562 0.027175456 -0.027922854 4285690138
0.015814787 0.029445022 -0.030396853 4285821464
0.018076405 0.028154451 -0.029423924 4285821464
0.021196509 0.024018191 -0.025700836 4285821463
0.024777822 0.018461518 -0.020609738 4285821463
0.027967237 0.014330473 -0.016901698 4285624349
0.032508329 0.005935587 -0.009082621 4285624349
-0.017695569 -0.019660436 0.021291696 4284966958
-0.016280152 -0.016644515 0.018047199 4285163819
-0.014585026 -0.015066475 0.016207431 4285097773
-0.01274731 -0.014207087 0.015069447 4285097773
0.00055606663 0.021003004 -0.022313058 4285492258
0.0014946386 0.02471542 -0.026184592 4285689374
0.0027821213 0.02699485 -0.028666593 4285886489
0.0048153438 0.02641179 -0.028380325 4285820954
0.0072401129 0.024398826 -0.026713952 4286018069
0.0092894062 0.023817126 -0.026431059 4285887254
0.011145633 0.023950722 -0.02683867 4285624093
0.012800787 0.024799012 -0.027935039 4285624349
0.014246862 0.026361488 -0.029718433 4285558814
0.015269428 0.029351693 -0.032874741 4285689883
0.017316125 0.028770301 -0.032590836 4285624093
0.020215178 0.025334109 -0.029562062 4285624094
0.023569729 0.020472683 -0.025167253 4285558303
0.026093245 0.018467806 -0.023521828 4285558813
0.028632717 0.016464252 -0.021879856 4285624603
0.033190012 0.0080443472 -0.014083851 4285558813
0.055771418 -0.043548614 0.034469485 4285558559
-0.016125515 -0.019734502 0.018249843 4285098283
-0.014575068 -0.017431252 0.015713684 4285163818
-0.013040457 -0.015129052 0.013181146 4285163308
-0.0034812689 0.019915722 -0.023301305 4285359659
-0.0021588616 0.022203885 -0.025786323 4285557794
-0.00048792362 0.023054786 -0.02688513 4285624349
0.00062304735 0.026059207 -0.030054899 4285755418
0.0019003004 0.028344501 -0.032529786 4285558048
0.004112754 0.027040891 -0.031553172 4285557794
0.0065288246 0.025020741 -0.0298898 4285689629
0.0087653548 0.023719069 -0.028918315 4285755419
0.01061612 0.023852263 -0.029324729 4285624349
0.012266003 0.024702363 -0.030418303 4285558813
0.01411413 0.024835583 -0.03082398 4285624348
0.015549805 0.026401736 -0.032601699 4285558814
0.017601509 0.02581856 -0.03232057 4285558813
0.020081675 0.023803782 -0.030670702 4285558814
0.022792058 0.021074444 -0.028339949 4285558813
0.024439244 0.021925028 -0.029432494 4285689884
0.026300648 0.022059865 -0.02984059 4285821208
0.029050954 0.019333735 -0.027518351 4285886233
0.034746259 0.0073133335 -0.016334975 4285820443
0.051704079 -0.033145092 0.021631025 4285820443
0.057732537 -0.045140952 0.03274167 4285886234
-0.014715489 -0.019077517 0.014520176 4284901423
-0.013180438 -0.016768746 0.01199244 4285098284
-0.011816651 -0.013738714 0.0087726228 4285229099
-0.01015795 -0.012154169 0.0069476031 4285163308
-0.0036136024 0.018379245 -0.024414873 4285426214
-0.0028288849 0.022835623 -0.028966099 4285427490
-0.0017120168 0.025849164 -0.032130733 4285625114
-6.2290579e-05 0.026700772 -0.033223134 4285887764
0.0013947859 0.028272074 -0.035002854 4285755928
0.0036013909 0.02696367 -0.034028228 4285755929
0.0060114264 0.024936523 -0.03236844 4285755928
0.0086328574 0.02219129 -0.030025329 4285821463
0.010483481 0.022324465 -0.030431718 4285558813
0.012334138 0.022457764 -0.030838028 4285559068
0.013981421 0.023309968 -0.031929314 4285559068
0.015829429 0.023443289 -0.032334883 4285559068
0.017886138 0.022858284 -0.032056488 4285559068
0.020159557 0.021555509 -0.031095844 4285624348
0.022015542 0.021689743 -0.03150291 4285624348
0.023438085 0.023259804 -0.033274192 4285689884
0.024849948 0.024829157 -0.035043005 4285820953
0.027361313 0.022810519 -0.033404559 4285755418
0.031461585 0.015772253 -0.027006872 4285886488
0.037888877 0.0015671998 -0.013822793 4285952024
0.053390317 -0.0339863 0.019261893 4286017558
0.059222545 -0.045299828 0.029658161 4285886233
-0.01332039 -0.018408127 0.010803953 4285032493
-0.011800773 -0.016093761 0.0082845427 4285163563
-0.010454893 -0.013056152 0.0050752945 4285098028
-0.0027809925 0.020589914 -0.029381122 4285360934
-0.0020245351 0.025057495 -0.033916239 4285493278
-0.0009309724 0.028078187 -0.037069142 4285558814
0.00089004636 0.0282088 -0.037469357 4285690393
0.0032806769 0.026173588 -0.035810299 4285690138
0.0056873262 0.024139665 -0.034154736 4285755929
0.0081100203 0.022106972 -0.032502554 4285624349
0.0097573325 0.022961136 -0.033592381 4285558814
0.01139934 0.023815047 -0.034680951 4285624349
0.013442378 0.023226652 -0.034401357 4285559068
0.015490767 0.022638775 -0.034122847 4285624859
0.017961523 0.02061009 -0.03248081 4285624348
0.01981472 0.020744003 -0.032887354 4285558814
0.021240197 0.022318549 -0.034656085 4285624348
0.022221969 0.025332514 -0.037783455 4285887254
0.02383993 0.026185445 -0.038866177 4285623584
0.02589622 0.02559879 -0.038588911 4285623838
0.029304896 0.020695742 -0.03423997 4285623838
0.033886746 0.012199182 -0.026508121 4285623838
0.039451934 0.00083096325 -0.016079683 4285623838
0.055541612 -0.036260419 0.018250447 4285558559
0.061653696 -0.048324287 0.029287338 4285558559
-0.013307936 -0.020774029 0.010308675 4284966703
-0.011940233 -0.01772625 0.0071010739 4285164074
-0.010593735 -0.014679886 0.0038982071 4285032494
-0.0087874196 -0.013813742 0.0027738698 4284900914
-0.0018384494 0.014715321 -0.02636339 4285360168
-0.0017916486 0.022096284 -0.033638705 4285295399
-0.00087646022 0.025850706 -0.037472337 4285493533
0.00076010451 0.02670585 -0.038558491 4285559068
0.0031500272 0.024664011 -0.036904197 4285559068
0.0055559725 0.022623483 -0.035253379 4285559068
0.0077829659 0.021307949 -0.034289587 4285624349
0.0092300028 0.022887759 -0.03606027 4285689884
0.010666408 0.024466868 -0.037828498 4285689883
0.012295153 0.025322109 -0.038912438 4285821209
0.014741186 0.023285016 -0.037270017 4285755674
0.016994918 0.021971971 -0.036311671 4285624093
0.0190483 0.021382473 -0.036035731 4285558303
0.020252377 0.023683276 -0.038479008 4285558558
0.02144045 0.025982976 -0.040918656 4285953299
0.022612488 0.028281685 -0.043354742 4285886999
0.025098437 0.026248094 -0.041720532 4285755929
0.028048985 0.022772439 -0.038735371 4285821718
0.031480115 0.017855886 -0.03440275 4285755929
0.035178185 0.012220837 -0.029402152 4285624603
0.041706666 -0.0020640939 -0.016305517 4285559068
0.059598707 -0.044303775 0.022629268 4285559068
0.064334661 -0.052076824 0.029581908 4285493278
-0.012234472 -0.018629603 0.0052270032 4285098539
-0.010732546 -0.016303308 0.0027213506 4285033003
-0.0089261718 -0.015434995 0.0015986226 4284901168
-0.00018293038 0.0059060976 -0.02062241 4285228589
-0.00010769814 0.013310913 -0.027887575 4285294888
-8.5737556e-05 0.020712059 -0.035141006 4285558813
0.0013774112 0.022296902 -0.036912248 4285493533
0.0030194074 0.023154724 -0.037997883 4285624604
0.0054246448 0.021107588 -0.036351822 4285624859
0.0070667155 0.021965638 -0.037437309 4285624603
0.0083085448 0.024275001 -0.039884422 4285755674
0.0097345188 0.025857773 -0.041647129 4285886999
0.011555452 0.025989037 -0.04204683 4285886743
0.013992794 0.023944706 -0.040407367 4285952788
0.016237991 0.02262672 -0.039450463 4285755673
0.018283052 0.022034451 -0.039174326 4285624349
0.019693047 0.023616571 -0.04093308 4285558558
0.020876216 0.025922537 -0.043366775 4285624349
0.022262173 0.027503151 -0.045120079 4285690139
0.024301814 0.026910923 -0.044842429 4285690138
0.027243264 0.023423694 -0.041863438 4285690138
0.029984538 0.020662174 -0.039565213 4285559068
0.033206001 0.01645536 -0.03592271 4285427999
0.039244913 0.0035714284 -0.02420092 4285427998
0.058021754 -0.041693546 0.017342344 4285427999
0.063940033 -0.053105496 0.027641442 4285427999
-0.012373656 -0.020259313 0.0040455479 4284901679
-0.010871299 -0.017926417 0.001544714 4285098539
0.00093298405 -0.00075877458 -0.016964983 4285097774
0.001209911 0.0059402063 -0.023534929 4285294634
0.0012549683 0.013364822 -0.030777026 4285360424
0.0018066168 0.01859941 -0.035960741 4285360933
0.0028888211 0.021645747 -0.039091349 4285493534
0.0045255795 0.022505485 -0.040174119 4285559323
0.0061570257 0.023364998 -0.041255683 4285690138
0.0075859055 0.024952207 -0.043015793 4285690139
0.009004131 0.026538782 -0.044773534 4285557793
0.010816932 0.026669461 -0.045171451 4285557793
0.013450835 0.02389054 -0.042856883 4285689629
0.015898133 0.021840475 -0.041224431 4285689883
0.017940195 0.021245807 -0.04094927 4285558558
0.019134503 0.023558985 -0.04338054 4285559069
0.020528723 0.025144506 -0.045132507 4285559069
0.022130862 0.02600288 -0.046206832 4285559323
0.024391446 0.02468219 -0.04525616 4285559068
0.027110528 0.021910209 -0.042959694 4285493533
0.030077495 0.018414024 -0.039994381 4285493279
0.033300348 0.014194153 -0.036361955 4285427488
0.039106362 0.0019963607 -0.025341671 4285493278
0.057396173 -0.041956984 0.014759101 4285427488
0.063305885 -0.053404532 0.025033977 4285426978
-0.0011150837 -0.010657415 -0.009747861 4285100068
0.0016894303 -0.0059910938 -0.01469437 4285097773
0.0027056187 -0.0021967813 -0.018525766 4285294634
0.0027764291 0.0052515343 -0.025757175 4285360679
0.0029803962 0.011965185 -0.032296196 4285360423
0.0031364374 0.018675499 -0.03882461 4285492769
0.0042033121 0.021729589 -0.041945226 4285493534
0.0054433197 0.024051826 -0.044382218 4285624603
0.006864436 0.025642876 -0.046137407 4285887509
0.0080751739 0.02796324 -0.048567791 4285755164
0.010484416 0.025903698 -0.046932101 4285623839
0.012909677 0.023845389 -0.045299791 4285755418
0.015558675 0.021058924 -0.042994998 4285821719
0.017387334 0.021191087 -0.043396145 4285558558
0.019215984 0.021323361 -0.043797202 4285493278
0.020828871 0.022184577 -0.044872336 4285559068
0.022654809 0.022316866 -0.045272637 4285493788
0.025143942 0.020263899 -0.043653876 4285559068
0.028320262 0.016027372 -0.040021263 4285559323
0.031075714 0.01324942 -0.03773921 4285624603
0.034310598 0.009017311 -0.034119226 4285624094
0.039894775 -0.0024892092 -0.023799554 4285492514
0.057245534 -0.043665938 0.013521478 4285492514
0.063151985 -0.055148669 0.023770913 4285426468
0.0017310753 -0.0083101466 -0.01516249 4285098029
0.0029316358 -0.0052382201 -0.018306317 4285229098
0.0039273612 -0.0014343485 -0.022124974 4285360679
0.0039653219 0.0060336217 -0.029332755 4285294889
0.0037611276 0.014230791 -0.037207149 4285426469
0.0040730312 0.020225566 -0.043035075 4285493534
0.0049250051 0.024019588 -0.046821784 4285558814
0.0059472509 0.027079426 -0.049925901 4285821973
0.0073473193 0.028673399 -0.051673066 4285887509
0.0097478665 0.026606642 -0.050040331 4285887764
0.012369297 0.023809385 -0.047736146 4285821974
0.015012063 0.021013744 -0.045436513 4285690393
0.017255705 0.019682597 -0.044488959 4285624860
0.019297099 0.019083615 -0.044216841 4285493279
0.021559358 0.017754097 -0.043273233 4285427488
0.023832269 0.016425416 -0.04233183 4285493023
0.026557574 0.013636317 -0.040049873 4285624349
0.029527709 0.010118403 -0.037101686 4285426213
0.032298245 0.0073328093 -0.034829475 4285426469
0.035318926 0.0038187876 -0.031892203 4285361188
0.04068166 -0.0069920644 -0.022269953 4285295398
0.057094898 -0.045374542 0.012284111 4285295398
0.06227947 -0.05470451 0.020506132 4285229609
0.003337618 -0.0090238601 -0.017414493 4285032748
0.0047089159 -0.0066795573 -0.019870864 4285294633
0.0053200871 -0.0013947934 -0.025033377 4285294633
0.0051391646 0.0068280846 -0.032894894 4285360679
0.0047082715 0.015781879 -0.04141973 4285492258
0.0047955625 0.022526838 -0.047903426 4285493278
0.0056217313 0.026330039 -0.051676206 4285559068
0.0072187446 0.027193818 -0.052745089 4285624858
0.0096185841 0.025120448 -0.0511171 4285690649
0.012239113 0.022314381 -0.048819266 4285624859
0.01488097 0.019509934 -0.046525978 4285493533
0.017544145 0.016707126 -0.044237286 4285493278
0.020228636 0.013905998 -0.041953169 4285493024
0.0225037 0.012573041 -0.04101564 4285492768
0.025225459 0.0097748116 -0.03873954 4285492513
0.027747825 0.0077111274 -0.037137814 4285426469
0.030286139 0.0056486949 -0.035539508 4285360678
0.032840386 0.0035875887 -0.033944644 4285361188
0.035867959 6.3188374e-05 -0.031017017 4285295398
0.040772945 -0.0093159303 -0.022755325 4285229863
0.056707598 -0.046351157 0.010380667 4285229863
0.0045726597 -0.0082576945 -0.021014538 4285229099
0.0057425797 -0.0051702484 -0.024138365 4285294633
0.0063256659 0.00012791902 -0.029283173 4285360679
0.0059155747 0.0091093779 -0.037792921 4285360934
0.0054415502 0.018086419 -0.046288576 4285690649
0.0058861673 0.023374941 -0.051402658 4285493534
0.0074885525 0.024241332 -0.052471127 4285493788
0.0096911713 0.022898149 -0.051521353 4285493788
0.012517978 0.019347217 -0.048558686 4285493533
0.015371431 0.015798327 -0.045601778 4285493789
0.018461369 0.011515658 -0.041980069 4285493534
0.020945773 0.0094423071 -0.040375195 4285493024
0.023661319 0.0066347942 -0.038104348 4285492513
0.026180312 0.004564248 -0.036506906 4285492513
0.028715279 0.0024949089 -0.034912851 4285360678
0.030596703 0.002631478 -0.035325121 4285294889
0.033155575 0.00056412071 -0.033736128 4285360678
0.036187366 -0.0029708967 -0.030817602 4285163563
0.04132618 -0.013112471 -0.021911845 4285163563
0.0044364333 -0.0098355189 -0.022157976 4284901678
0.0059782863 -0.0082188025 -0.023926975 4285360168
0.0069445521 -0.0043840408 -0.027714446 4285360678
0.0073112249 0.0016670749 -0.033515193 4285294634
0.0068606697 0.010671951 -0.041996352 4285360679
0.0069351494 0.017455392 -0.048447743 4285360934
0.0083545931 0.019063912 -0.050189398 4285361954
0.010973316 0.016240094 -0.047904275 4285493534
0.013613362 0.013417918 -0.045623757 4285493279
0.016067745 0.011335604 -0.044017382 4285426723
0.018538104 0.0092546344 -0.042414442 4285426723
0.021236762 0.0064370409 -0.040146515 4285492513
0.024171701 0.0028834864 -0.037215374 4285426724
0.026697982 0.00080687553 -0.035624392 4285426724
0.029019905 -0.00053118914 -0.034703493 4285295398
0.031352468 -0.0018683895 -0.033784777 4285294889
0.034372538 -0.0054152906 -0.030871943 4285229098
0.03787582 -0.010433532 -0.026635077 4285163819
0.043264057 -0.021340802 -0.017091949 4285228844
0.0060278028 -0.010533877 -0.024394341 4284966958
0.0071856789 -0.0074297711 -0.027502341 4285294634
0.0085130706 -0.0050685778 -0.029934146 4285228588
0.008470241 0.0024812445 -0.037058517 4285294888
0.0085702725 0.0092861727 -0.043500818 4285360679
0.0096163452 0.012382794 -0.046583928 4285361189
0.01184988 0.01103314 -0.045647524 4285361188
0.014502347 0.0082031414 -0.04337626 4285360934
0.016555751 0.0075960755 -0.04311347 4285360934
0.018614491 0.0069894567 -0.042851739 4285426978
0.021314904 0.0041632578 -0.040590737 4285361188
0.024251401 0.00059890747 -0.037668101 4285361189
0.026997058 -0.0022237152 -0.035416879 4285360934
0.029984139 -0.005784221 -0.032505121 4285360933
0.032997817 -0.0093426108 -0.029599136 4285229353
0.03671442 -0.01511614 -0.024707306 4285229354
0.041157939 -0.023103148 -0.017834805 4285229354
0.008759208 -0.0081157908 -0.029724596 4285163563
0.0089167356 -0.0012871847 -0.036164895 4285163053
0.0092222802 0.0047946498 -0.041925855 4285294633
0.010279629 0.0079007894 -0.045004927 4285229098
0.012724567 0.0058045313 -0.043406472 4285294889
0.014981579 0.0044522807 -0.04247836 4285229354
0.017042637 0.0038435906 -0.042218886 4285294889
0.019109027 0.0032353997 -0.041960493 4285295143
0.02181652 0.0004010126 -0.039707564 4285295398
0.024974493 -0.0039158016 -0.036130011 4285360678
0.028381683 -0.0089720488 -0.031895302 4285360934
0.032046061 -0.014767118 -0.027005237 4285295143
0.036198199 -0.022041887 -0.020798709 4285294888
0.0090046227 -0.011171512 -0.029521136 4284901424
0.0091690384 -0.0043227822 -0.035948262 4285228589
0.009481281 0.0017770231 -0.041697685 4285294634
0.010544576 0.0048923418 -0.044771504 4285294888
0.012591969 0.0042802468 -0.044510849 4285229098
0.015052192 0.002178587 -0.042920537 4285294888
0.017528407 7.8238547e-05 -0.041333623 4285228844
0.020020582 -0.0020208135 -0.039750177 4285228844
0.023375697 -0.0070963502 -0.035515666 4285294888
0.026982494 -0.012913294 -0.030626228 4285360424
0.031500138 -0.021703169 -0.023096312 4285360424
0.0090348162 -0.0058709085 -0.037070028 4284901169
0.0093484335 0.00024648011 -0.042806666 4285229098
0.010610566 0.0026229843 -0.045209169 4285295399
0.013062067 0.00051405281 -0.04362192 4285295399
0.015733112 -0.002340816 -0.041374341 4285295653
0.018837899 -0.0066880062 -0.037804984 4285230119
0.022183543 -0.011779614 -0.033579908 4285098283
0.026201094 -0.019108281 -0.027376913 4285032748
0.030700337 -0.027925842 -0.019862598 4285031983
0.0094109811 -0.0020337477 -0.043251529 4285098028
0.010874245 -0.00040028244 -0.044986427 4285164329
0.013531048 -0.0032650307 -0.042742342 4285164584
0.017022604 -0.0091256723 -0.037854157 4285229353
