# .PCD v0.7 - Point Cloud Data file format
VERSION 0.7
FIELDS x y z rgba
SIZE 4 4 4 4
TYPE F F F U
COUNT 1 1 1 1
WIDTH 967
HEIGHT 1
VIEWPOINT 0 0 0 1 0 0 0
POINTS 967
DATA ascii
0.0087273978 0.014412247 0.039187387 4288884524
0.0096557532 0.01782041 0.035015017 4291044628
0.011438442 0.018628351 0.033784941 4291437583
0.0071886275 0.01059657 0.040701166 4286987324
0.0079244152 0.01466969 0.035797663 4288883758
0.0092804413 0.016784392 0.033101127 4290127649
0.011280583 0.016942516 0.032605693 4289866018
0.013280777 0.017100733 0.032110304 4290455578
0.015055709 0.01791038 0.030883916 4289474338
0.01705331 0.018068541 0.03038929 4288430624
0.005970085 0.012164194 0.035844088 4289014318
0.0071227197 0.014940776 0.032417469 4290061349
0.0084713325 0.017061498 0.029727664 4289800483
0.010683209 0.016564962 0.029965013 4289538853
0.013122858 0.015415106 0.030931227 4289604389
0.015573174 0.01426613 0.0318949 4290193439
0.017350907 0.01507831 0.030669507 4289277478
0.019123329 0.015890181 0.029445428 4289344799
0.020890478 0.01670168 0.028222762 4289869334
0.022652322 0.017512847 0.027001474 4290722563
0.0033834539 0.011625472 0.033693291 4288294963
0.0049652904 0.013097536 0.031734005 4289210923
0.0061080661 0.015882157 0.028316334 4290258208
0.0076635033 0.017352302 0.026363701 4290454558
0.0098671075 0.016852871 0.026601467 4290389279
0.012520529 0.015041817 0.028295167 4290323998
0.014965003 0.013887975 0.029257011 4289669923
0.017192608 0.013390664 0.02948907 4289670179
0.019195342 0.013549305 0.028993223 4289539618
0.021198088 0.013708036 0.028497435 4289735459
0.022965336 0.014521882 0.027276374 4290323744
0.025203586 0.014025744 0.027506042 4290062114
0.02672472 0.015493914 0.025562443 4290390554
0.028478686 0.016306911 0.024344891 4291110418
0.00080857426 0.011096954 0.031546272 4287444793
0.00218191 0.013232652 0.028859824 4288818479
0.0039622188 0.014048956 0.02763664 4289145898
0.0057372767 0.014864963 0.026414759 4289277223
0.0072903931 0.016339306 0.024465971 4289211689
0.0094910376 0.015837412 0.024702854 4289277224
0.011919061 0.014677703 0.025665525 4289146409
0.014357716 0.01351897 0.026625577 4288884523
0.016579688 0.013019025 0.026857369 4289407783
0.018806985 0.012519587 0.027087897 4289538598
0.020341732 0.013992976 0.025144026 4290062368
0.022571702 0.013493918 0.025374014 4289931810
0.025282843 0.011681292 0.027048945 4289277479
0.027528711 0.01118366 0.027275126 4289343014
0.030023115 0.010029893 0.028221861 4289081128
0.032528087 0.0088770986 0.029165994 4288950568
0.037031971 0.0024757236 0.035871223 4288886054
0.043598413 -0.0091691837 0.048321798 4289541659
-0.00037810206 0.012721088 0.026720606 4289275949
0.0013995841 0.013539292 0.025499608 4290192164
0.0033832379 0.013695817 0.025008045 4289996324
0.0051531121 0.014513586 0.023789112 4289408038
0.0069177393 0.015331011 0.02257153 4289211688
0.0091154203 0.014826659 0.022807527 4289015594
0.011540255 0.013662308 0.02376771 4289146409
0.013751293 0.013159141 0.02400057 4289081129
0.015967648 0.012656529 0.02423213 4289211689
0.017959565 0.012814309 0.023738958 4289604133
0.019719085 0.013631862 0.022523027 4290454558
0.02147329 0.014449112 0.021308422 4290454558
0.024173088 0.012628928 0.022981316 4290389279
0.027850293 0.0081738643 0.027533777 4289866018
0.03132157 0.0043807104 0.031356879 4289866019
0.034824647 0.00059018284 0.035172187 4289473574
0.039849516 -0.0071483105 0.043293059 4288884523
0.045439955 -0.016198039 0.052834727 4288688684
-0.0027232952 0.011555426 0.025313724 4288621619
-0.0013569593 0.01370376 0.0226386 4289537323
0.00041021407 0.014523376 0.021421768 4289407528
0.0028051436 0.013351824 0.022385914 4290258209
0.004997097 0.012844626 0.022621583 4290323999
0.0069781207 0.013001103 0.022130787 4289342759
0.009178143 0.012494713 0.022364583 4289342759
0.011383509 0.01198883 0.022597115 4289342759
0.013369968 0.012146 0.022105161 4289407783
0.015356457 0.012303259 0.02161327 4289146409
0.017113414 0.013122734 0.020399526 4289277224
0.018632879 0.01460379 0.018465891 4289538854
0.020611448 0.014760684 0.01797615 4290323744
0.023302544 0.012933198 0.019646306 4289408039
0.027450535 0.0071392991 0.025628407 4289407784
0.032131888 2.7105212e-05 0.033036068 4289342504
0.036626082 -0.0064194724 0.039711341 4289276714
0.041173287 -0.012861744 0.046373576 4288949803
0.046024255 -0.01996015 0.053739429 4288295983
-0.0050624236 0.010395054 0.023908839 4287509309
-0.0042988397 0.014549788 0.019056268 4289537323
-0.002745077 0.016037125 0.017116662 4289864743
-0.00057744607 0.015525598 0.017356608 4289472808
0.0020171329 0.013682883 0.019045215 4289080874
0.0046276897 0.011841547 0.020729944 4290061858
0.0068220384 0.011332382 0.020963453 4289473319
0.00880301 0.011488929 0.020472724 4289407783
0.01122679 0.010315608 0.021426696 4289211433
0.012765069 0.011802308 0.019491438 4289538599
0.014746148 0.011959143 0.019000884 4289996579
0.016727246 0.012116063 0.01851039 4290127393
0.018708359 0.012273069 0.018019952 4289538598
0.020924125 0.011766244 0.018248625 4289407784
0.023619799 0.0099324323 0.019912854 4289211433
0.028011048 0.003455326 0.026597325 4289080618
0.033425745 -0.0056707263 0.036137074 4289145899
0.037933636 -0.012138374 0.042792827 4289472553
0.041750811 -0.016613074 0.047288269 4289603879
0.045855619 -0.021747351 0.052489661 4285940548
-0.0062176585 0.012071241 0.019111469 4289537324
-0.0048583373 0.014232241 0.016447637 4289799464
-0.0033095554 0.015723575 0.014512543 4290258209
-0.0011475459 0.015209362 0.01475225 4290454559
0.0016515665 0.012691457 0.017160889 4290127394
0.004258737 0.010843173 0.018841598 4290389023
0.0064501148 0.010331552 0.01907422 4289146153
0.0082098003 0.011155307 0.01786276 4289865763
0.0099642128 0.011978772 0.016652621 4289865764
0.011937197 0.012134869 0.016164001 4289734949
0.013910208 0.012291059 0.01567544 4290585118
0.016341524 0.011114117 0.016624559 4290650399
0.018783446 0.0099381469 0.017571069 4290454049
0.021470428 0.008096911 0.019232545 4290388769
0.024410414 0.0055910647 0.021606963 4289276714
0.029049797 -0.001573287 0.028989386 4289014829
0.034474697 -0.010729559 0.038504019 4289145389
0.038993634 -0.017218485 0.045140907 4288883504
0.042327076 -0.020377487 0.048193745 4286921788
-0.0089302659 0.012273606 0.016264569 4288163384
-0.0071709976 0.013098892 0.015054349 4289341484
-0.0054169483 0.013923857 0.013845485 4289407274
-0.0034630448 0.014077794 0.013361122 4289342504
-0.0013013482 0.01356132 0.013599277 4289211433
0.0012864582 0.011704758 0.015279867 4289538598
0.0034642033 0.011189748 0.015514184 4289473318
0.0054316446 0.011345115 0.015026726 4289473318
0.0071808174 0.012170251 0.013819478 4289603878
0.0093666688 0.011656146 0.014051981 4289669413
0.011110622 0.012481052 0.012846161 4289799974
0.013301842 0.011967562 0.013077471 4289538344
0.015727308 0.010785758 0.014024761 4289407529
0.018626556 0.0082676373 0.016402677 4289865509
0.021781258 0.0050828904 0.019491322 4289473064
0.025673117 -0.00010429323 0.024719279 4289145898
0.030565538 -0.0079599619 0.032795273 4289080108
0.03600594 -0.017146036 0.042283468 4288883758
0.039561871 -0.020985536 0.046046995 4288360499
0.042902105 -0.024155073 0.049090073 4286006338
-0.011042587 0.010469686 0.015595961 4289602093
-0.0098713934 0.013318021 0.012215927 4289995048
-0.0077235252 0.012797903 0.012455728 4290454049
-0.0057724789 0.012951512 0.011971992 4290519839
-0.003411632 0.011759333 0.012931447 4289407783
-0.0012476034 0.011240821 0.013167407 4289146154
0.00071164221 0.011395346 0.012681834 4289146153
0.0026709624 0.011549979 0.012196321 4289604133
0.0041994192 0.013048906 0.010272961 4289669669
0.0061535425 0.013203312 0.0097888671 4289342503
0.0081077032 0.013357807 0.0093048252 4289996578
0.010061905 0.013512406 0.0088208504 4290323488
0.012242198 0.012995828 0.0090532526 4290257698
0.014885254 0.011137631 0.010715786 4289799973
0.018006967 0.0079390816 0.013804454 4289799974
0.022091283 0.00206016 0.01974408 4289734694
0.026696656 -0.0051557422 0.02709936 4289276459
0.031839017 -0.013707384 0.035866387 4288753199
0.036566343 -0.020913392 0.043191642 4288622128
0.040128864 -0.0247657 0.046943896 4286136899
-0.01296315 0.0079899617 0.015650839 4286789698
-0.012360208 0.012876157 0.010105804 4289210414
-0.010614108 0.013704706 0.0089019798 4289669159
-0.0084745251 0.013181757 0.0091421679 4289669668
-0.0061275475 0.011983935 0.010101754 4290389279
-0.0037698783 0.010787018 0.011058804 4289865763
-0.00181612 0.010941006 0.01057452 4289669669
0.00013771281 0.011095095 0.010090284 4289342503
0.0016664118 0.012598418 0.0081699714 4289342504
0.0033998117 0.013426613 0.0069697648 4289342503
0.0053458698 0.013580371 0.0064876638 4289473318
0.0077330787 0.012386348 0.0074378066 4289342503
0.0094613023 0.01321448 0.0062390566 4289800228
0.011635983 0.01269519 0.0064712763 4289996068
0.014272977 0.010829903 0.00813042 4289930789
0.018312857 0.0049274117 0.014066454 4289996068
0.023101907 -0.0029898435 0.022129156 4290061603
0.028191052 -0.011574596 0.030888326 4289341738
0.033109993 -0.019481309 0.038918979 4288818479
0.037125513 -0.024693906 0.044090681 4288164148
0.040694587 -0.028558955 0.047831587 4286267458
-0.014454834 0.0110876 0.0094429813 4288621874
-0.013287611 0.01395322 0.0060767457 4289341739
-0.011552025 0.014783129 0.0048771165 4289407783
-0.0090250894 0.012901433 0.0065579154 4289538598
-0.0066839457 0.011698667 0.0075157508 4289669669
-0.0041276664 0.0098194405 0.0091894679 4290389023
-0.0023837723 0.01065043 0.0079880171 4289604134
-0.00064508989 0.011481058 0.0067879707 4289342503
0.00087596104 0.012988146 0.0048728101 4289669669
0.0028165504 0.013141375 0.0043919869 4289734948
0.0051925629 0.011941973 0.0053415559 4290323744
0.0073588938 0.011419673 0.0055740587 4290127393
0.009530561 0.010897826 0.0058053322 4289604134
0.011481913 0.011052299 0.0053221323 4289407529
0.014346458 0.008504767 0.0076891519 4289211178
0.018848896 0.00123173 0.015034333 4289341993
0.024577653 -0.0094120875 0.02592127 4289733928
0.02968251 -0.018024407 0.034655578 4289668394
0.033900671 -0.023932382 0.040533192 4288294708
0.037200324 -0.027138568 0.043561988 4286136899
-0.017114054 0.011342194 0.0066178143 4288556338
-0.015752591 0.013536092 0.0039773546 4289210923
-0.014213309 0.015048407 0.0020603575 4290454814
-0.012488224 0.015879694 0.0008649379 4290127393
-0.0099726245 0.013990395 0.0025437362 4290192928
-0.0074410439 0.012102496 0.0042186007 4290389023
-0.0048934557 0.010215912 0.0058896132 4290258464
-0.0029505305 0.010369021 0.0054079928 4289604134
-0.0016361326 0.012559917 0.0027796403 4289669669
0.0002989769 0.012712602 0.0023000985 4289538598
0.002234146 0.012865391 0.0018206127 4290258209
0.0046043321 0.011661049 0.0027684383 4290323488
0.0072052963 0.0097793005 0.0044266023 4290519839
0.0095994212 0.0085770525 0.0053686462 4290519328
0.012004174 0.0073757842 0.0063080825 4289276714
0.015331922 0.0034643784 0.010088973 4289734438
0.020306645 -0.0051872283 0.01883433 4289734183
0.026050504 -0.015865326 0.029691786 4289341229
0.030698972 -0.023150906 0.03698317 4288948784
0.034212299 -0.027047157 0.040718377 4286856254
-0.01957025 0.010928489 0.0045182332 4288163893
-0.018205762 0.01312919 0.0018817298 4288818478
-0.016475514 0.013962872 0.00068647787 4289407784
-0.014750443 0.014796261 -0.00050740689 4289538598
-0.013030566 0.015629314 -0.0016999487 4289015338
-0.010719739 0.014415216 -0.00074118003 4289669669
-0.0081968307 0.012519941 0.00093103945 4289931299
-0.005861979 0.011307914 0.0018839836 4289408039
-0.0037231036 0.010778505 0.0021196827 4289538854
-0.0022068135 0.012293961 0.0002120696 4289538598
-0.00027712807 0.012446202 -0.00026614219 4289734693
0.001652617 0.012598541 -0.00074429996 4289800228
0.0042342357 0.010708522 0.00091374665 4289211178
0.0068318099 0.0088198222 0.0025679581 4289930789
0.0096679032 0.0062520802 0.0049290247 4289538344
0.012750454 0.0030059293 0.0079949833 4289080619
0.01654318 -0.0022780299 0.013182748 4289341738
0.021530977 -0.01095742 0.021903947 4289145388
0.027054071 -0.020990372 0.032024369 4288687153
0.031005874 -0.026261389 0.037172996 4287444793
-0.021649372 0.0091534667 0.0038605258 4288098359
-0.020832367 0.013418 -0.00092841312 4289210414
-0.018731616 0.012882661 -0.00068538822 4290192419
-0.016625442 0.012347858 -0.00044362992 4289538853
-0.014707074 0.012498505 -0.00091954507 4289342504
-0.012984458 0.01333398 -0.0021111611 4289604134
-0.010870021 0.012800116 -0.0018712431 4289342504
-0.008951351 0.01295108 -0.0023470167 4289146154
-0.0068287924 0.012418043 -0.0021089781 4289146153
-0.004494369 0.011201616 -0.0011590347 4289407784
-0.0025675148 0.011353526 -0.0016366225 4289341993
-0.00085236877 0.012189049 -0.0028259959 4290454049
0.00064313412 0.013707481 -0.0047250967 4290061604
0.0029963367 0.012492966 -0.0037795678 4289538344
0.0060193352 0.0092308074 -0.00070708059 4289472808
0.0092912577 0.005288206 0.0030681416 4289211434
0.013270071 -0.00069906563 0.0089610815 4289538343
0.017979613 -0.0087291151 0.016965862 4289210923
0.023213441 -0.018118054 0.026369419 4288949293
0.027822595 -0.025455624 0.033635028 4288425779
0.03084071 -0.028017275 0.035944968 4285940548
-0.022529356 0.010281932 -0.00014558434 4288752434
-0.021351706 0.013183411 -0.0034888946 4289930023
-0.019256581 0.012645405 -0.0032460969 4290323488
-0.016965665 0.011420503 -0.0022890437 4290650908
-0.015050068 0.011570904 -0.0027642902 4290127393
-0.013134364 0.011721425 -0.0032394882 4289538598
-0.011218559 0.011872046 -0.0037146378 4289342503
-0.0093026571 0.012022778 -0.0041897353 4289996578
-0.0075902715 0.012859941 -0.0053770002 4289277224
-0.0054706112 0.01232456 -0.0051397812 4289146409
-0.0033455752 0.011789687 -0.0049038325 4289538599
-0.0014267266 0.011941064 -0.0053793639 4289669159
6.3762069e-05 0.013463516 -0.0072740093 4290192419
0.0024111271 0.012244098 -0.0063302685 4290388513
0.005427666 0.0089703687 -0.0032642279 4290323488
0.0095815398 0.002274476 0.0033334047 4290323488
0.014013266 -0.0051018223 0.010624975 4289734438
0.018958231 -0.013842255 0.019314736 4289276714
0.023742039 -0.021892913 0.027281914 4288818734
0.027658422 -0.027202278 0.032413423 4287837239
-0.024416909 0.0078269988 -8.2731247e-05 4288687154
-0.023589823 0.012118753 -0.0048549287 4289407275
-0.022239856 0.014338054 -0.007473452 4289146154
-0.020155653 0.013796955 -0.0072295759 4289277223
-0.017875884 0.012566719 -0.0062729996 4289277223
-0.015585404 0.011337478 -0.0053190459 4289734948
-0.01367512 0.011487555 -0.0057929084 4289408039
-0.011368528 0.010259733 -0.0048427638 4289473318
-0.0098542571 0.011788014 -0.0067404993 4289473318
-0.0083504878 0.013315532 -0.0086355153 4289342504
-0.0064451471 0.013465624 -0.0091078561 4289538598
-0.0041223466 0.01223952 -0.0081614833 4289407783
-0.0020002127 0.011702269 -0.0079263058 4289342504
-0.00030074641 0.012541067 -0.0091085117 4289538599
0.0020434409 0.011316925 -0.0081671663 4289734948
0.0054947548 0.0066572055 -0.0036948323 4289734949
0.01009297 -0.001435034 0.0042987168 4290061859
0.01497942 -0.010209024 0.012981985 4289734693
0.019707544 -0.018290728 0.020943474 4289276714
0.024039498 -0.024994351 0.027481124 4287903029
0.027029166 -0.027576074 0.029785134 4286202433
-0.027016521 0.0081391335 -0.0028841309 4287052604
-0.025642481 0.010366742 -0.0055039562 4288818479
-0.024284191 0.012593217 -0.0081197992 4290257954
-0.022757024 0.014126275 -0.010017918 4289538853
-0.020865738 0.014274534 -0.010487309 4289800483
-0.018594451 0.013039242 -0.0095319021 4289735204
-0.01631245 0.011804849 -0.0085790344 4290389279
-0.014214996 0.011262853 -0.0083398521 4289800738
-0.012112141 0.010721382 -0.0081019383 4289604644
-0.010404974 0.011562433 -0.0092847757 4289604389
-0.0089062192 0.013094004 -0.011175381 4289931299
-0.0070063062 0.013243638 -0.011646401 4290454814
-0.0044808462 0.011322234 -0.0099939872 4290389279
-0.0019394197 0.0094021969 -0.0083454531 4290323488
-2.341345e-05 0.0095534287 -0.0088202227 4289865764
0.0023255162 0.0083252676 -0.0078833234 4289734948
0.0062187314 0.0022712275 -0.0020128619 4289734948
0.011046655 -0.0065362677 0.0066638701 4289996579
0.016167901 -0.016027331 0.016027436 4289473064
0.020682247 -0.023445636 0.023263134 4289080363
0.024106473 -0.02741573 0.026971847 4286987323
0.026633125 -0.028629169 0.027865209 4286006338
-0.029250875 0.0070757829 -0.0042504333 4286986814
-0.028400674 0.011395629 -0.0090092272 4288165423
-0.026686385 0.012238618 -0.010192826 4289277223
-0.02515905 0.013776042 -0.0120879 4289865763
-0.023457754 0.014618225 -0.013268124 4289473318
-0.021574531 0.014765821 -0.013735531 4289407783
-0.019311711 0.013525374 -0.012781216 4289734948
-0.017230589 0.012979768 -0.012539679 4289342503
-0.014949027 0.011741031 -0.011589916 4289538598
-0.012656763 0.010503203 -0.010642683 4289734948
-0.010754481 0.010652807 -0.011114446 4289931299
-0.0092580914 0.012188606 -0.01300125 4289408038
-0.0071553178 0.011645209 -0.012764715 4289538853
-0.0046306066 0.0097170919 -0.011116961 4289473318
-0.0025117993 0.0091751814 -0.010884235 4290454303
3.952533e-05 0.007249359 -0.0092429314 4289473319
0.0028230362 0.0046329573 -0.00690124 4289211689
0.0073788352 -0.0035158321 0.0010640062 4289341993
0.012219816 -0.012351066 0.0097165555 4289341994
0.017129723 -0.021180749 0.018352117 4288884013
0.021201227 -0.027240276 0.024164159 4287248953
-0.029399179 0.0054690912 -0.0053749792 4286921789
-0.028547853 0.0098022819 -0.010124398 4288230959
-0.027191363 0.01204174 -0.012730239 4288753963
-0.025487449 0.012886211 -0.013909601 4288819499
-0.023604486 0.013033669 -0.01437703 4288950314
-0.021908265 0.013877731 -0.015554335 4289146409
-0.019838165 0.013328925 -0.015311761 4289538598
-0.017954856 0.013476714 -0.015779058 4289538598
-0.015486941 0.011536956 -0.01412244 4289473318
-0.013595473 0.011685602 -0.014591597 4289734948
-0.011503793 0.011138894 -0.014354084 4289866020
-0.0098122731 0.011983208 -0.015529772 4289996834
-0.0077151358 0.011437152 -0.015293449 4289015594
-0.0051964745 0.009501908 -0.013649039 4288950314
-0.0028725788 0.0082626939 -0.012712548 4288949803
0.00010209158 0.0049411505 -0.0096685439 4289473063
0.0037513822 -0.00046083331 -0.0045229364 4289473064
0.0080991276 -0.0079413429 0.002718322 4289276459
0.013169175 -0.01749853 0.012049381 4289145388
0.017193595 -0.023581818 0.017858498 4287771959
0.02103911 -0.028967835 0.022955831 4286267968
-0.028166741 0.0061104894 -0.0091064069 4288296494
-0.026801817 0.0083572194 -0.01170953 4288754474
-0.025634017 0.011301972 -0.015018329 4288361774
-0.024119209 0.01284726 -0.016903769 4288819498
-0.022428207 0.013693154 -0.018078219 4288950058
-0.020553075 0.01384018 -0.018543573 4289211689
-0.018677823 0.013987329 -0.019008875 4289276969
-0.016607847 0.013436429 -0.018767715 4289408039
-0.014532477 0.012886114 -0.018527847 4289473319
-0.012451727 0.012336314 -0.018289249 4289538598
-0.010770727 0.013182003 -0.019460723 4290258208
-0.0086845197 0.012632862 -0.019223314 4290062369
-0.0061772093 0.010690078 -0.017580926 4289866018
-0.0032329001 0.0073549598 -0.014537534 4289931043
0.00037744641 0.0019320846 -0.0093952511 4289865509
0.0044618621 -0.0048801973 -0.0028611477 4289080108
0.0092547256 -0.013776876 0.0057613552 4288949294
0.013674267 -0.021275945 0.01296718 4287706423
0.017257078 -0.025987029 0.017361984 4286332739
-0.027962685 0.0031074584 -0.0088070352 4287838768
-0.026591972 0.0053612441 -0.011406785 4288820519
-0.025236994 0.0076138675 -0.014002506 4289212964
-0.023897786 0.0098654106 -0.016594272 4288819753
-0.022201408 0.010713868 -0.017768424 4288950568
-0.020510208 0.011562027 -0.018941216 4289146664
-0.018824209 0.012409933 -0.020112675 4289015849
-0.017143395 0.013257489 -0.021282736 4288949803
-0.015073657 0.012704495 -0.021043098 4289277224
-0.013198253 0.012851939 -0.021508228 4289407783
-0.011727475 0.014398925 -0.023379 4289407783
-0.0098572075 0.014546178 -0.0238427 4289277224
-0.0069485791 0.011197079 -0.020798601 4289408038
-0.0033824705 0.0057528913 -0.015658328 4289211689
0.00086494908 -0.0017844364 -0.0084278155 4289341993
0.005386319 -0.010015748 -0.0005120635 4289080108
0.0099713113 -0.018241867 0.0073879771 4288884014
0.014399037 -0.025764674 0.014574107 4287771958
-0.028110728 0.0015038103 -0.0099294409 4287969839
-0.026561201 0.0030604079 -0.011817243 4288886054
-0.025022142 0.0046163425 -0.013702417 4289147684
-0.023677126 0.006874904 -0.016290767 4289604899
-0.021975387 0.0077260211 -0.017464701 4289343269
-0.020656627 0.0099827386 -0.020046385 4289016104
-0.018970545 0.010832839 -0.02121627 4288950569
-0.017289653 0.011682592 -0.022384752 4289081128
-0.015220255 0.011127349 -0.022146652 4289342758
-0.013344973 0.011274785 -0.022611752 4289146409
-0.011873912 0.012826174 -0.024479399 4288688429
-0.010003775 0.01297342 -0.024943072 4288688428
-0.0068888664 0.0089116395 -0.021206763 4289146409
-0.0029016882 0.0020471886 -0.014680889 4289211433
0.0017767474 -0.0069162324 -0.0060721263 4289342504
0.0063087307 -0.015173256 0.001821667 4289210923
0.01068628 -0.022724412 0.0090023875 4288556849
0.014460076 -0.028169453 0.014078651 4286790974
-0.028960586 0.0027254447 -0.013876909 4288231214
-0.027243249 0.003579624 -0.015053296 4289016868
-0.025531061 0.0044334903 -0.016228339 4289409824
-0.023824066 0.0052870438 -0.017402021 4289213218
-0.022122238 0.0061403662 -0.018574372 4289409569
-0.020425584 0.006993331 -0.019745326 4289082148
-0.018925477 0.0085510015 -0.021617267 4289540384
-0.01704786 0.0086983703 -0.022083128 4288951079
-0.014973503 0.0081412941 -0.021847876 4289147429
-0.013093054 0.0082891062 -0.022314277 4289408804
-0.01161642 0.009845417 -0.024180118 4289146664
-0.0097411163 0.0099930391 -0.024645088 4289081385
-0.0066222735 0.0059182644 -0.020919373 4288819498
-0.0022122487 -0.0023751035 -0.013014888 4288819499
0.002899047 -0.012773387 -0.0030346774 4288361264
0.0072290935 -0.020352729 0.0041400194 4288033588
0.010963947 -0.025818661 0.0092129484 4286333249
-0.030657634 -0.00043404847 -0.013111047 4288362283
-0.029458202 0.0025482327 -0.016402176 4288624933
-0.027924016 0.0041124746 -0.018279811 4289345054
-0.026219696 0.0049679205 -0.019451303 4289344798
-0.024337355 0.0051152185 -0.01991866 4289802778
-0.022454899 0.0052626356 -0.020385958 4289475614
-0.020760808 0.0061176047 -0.021554675 4289344799
-0.019071925 0.0069722608 -0.022722024 4289344543
-0.017194439 0.0071196146 -0.023187861 4289082148
-0.014923979 0.0058534816 -0.022254653 4288886054
-0.013240103 0.0067080818 -0.023420516 4289278244
-0.011157971 0.0061496124 -0.023188658 4289474594
-0.0090704635 0.0055916756 -0.022958042 4289539364
-0.005528342 9.2402101e-05 -0.017850554 4289408549
-0.001105044 -0.0082265064 -0.0099686421 4288950314
0.0038065463 -0.017951362 -0.00071129948 4288818733
0.0075024571 -0.023438111 0.0043582842 4288164659
-0.026907034 0.0055159852 -0.022664726 4289346838
-0.024849761 0.0049525425 -0.022428822 4289280794
-0.022972729 0.0050995126 -0.022894798 4289279774
-0.021095578 0.005246602 -0.023360716 4288887074
-0.019218329 0.0053938255 -0.02382658 4288821028
-0.017534565 0.0062504187 -0.024991024 4289344544
-0.015463527 0.0056886002 -0.024758147 4289279009
-0.01338711 0.0051273331 -0.02452657 4289344034
-0.011103787 0.0038580075 -0.023599617 4289540384
-0.0090139657 0.0032979771 -0.023371156 4289801759
-0.005677823 -0.0015106648 -0.018972103 4289474338
-0.0010476783 -0.01056429 -0.010414202 4289539364
0.003863506 -0.020320147 -0.001179304 4289277224
0.0077750385 -0.026532121 0.0045705736 4288034098
-0.023489699 0.0049456358 -0.025397241 4288495393
-0.021617979 0.0050922781 -0.025861828 4288494118
-0.019364681 0.0038156807 -0.024930932 4289214494
-0.017487463 0.0039629787 -0.025396723 4289279008
-0.015610147 0.0041104034 -0.025862452 4289279009
-0.013732746 0.0042579398 -0.026328124 4289540638
-0.011452619 0.0029839352 -0.025403606 4289278754
-0.0091618225 0.0017108247 -0.024481613 4289540384
-0.0056206509 -0.003823854 -0.019399691 4289212963
-0.0014092326 -0.011485808 -0.012248855 4288950568
0.0037081726 -0.02198305 -0.0023426265 4288884778
0.0076176897 -0.028215073 0.0033932701 4287642164
-0.018020257 0.0038125217 -0.027891845 4288495649
-0.016148377 0.0039594993 -0.028356241 4288756514
-0.014077939 0.0033933446 -0.028126402 4289280284
-0.011801004 0.0021146014 -0.027204279 4289410844
-0.0095134117 0.00083684176 -0.026284767 4289541148
-0.0063894987 -0.0032906011 -0.022598956 4289344290
-0.0019793957 -0.011690073 -0.014771745 4289147174
0.0033411682 -0.022933416 -0.0041966178 4288885544
0.0074603744 -0.02989772 0.0022161752 4287053878
-0.014819186 0.0039644316 -0.031306542 4288757024
-0.012349848 0.0019653365 -0.02969363 4288887584
-0.0098645389 -3.2402575e-05 -0.028084548 4289149469
-0.0063322484 -0.0056031868 -0.023026127 4288952353
-0.0019221306 -0.014029182 -0.015218234 4289213219
0.0029746145 -0.023879014 -0.0060472749 4288623913
0.0070889499 -0.030865796 0.00035063177 4286333503
0.0032423846 -0.02696988 -0.0058313068 4287513643
0.0038930252 -0.053037979 -0.019913476 4288358204
0.00050201267 -0.050360732 -0.024573561 4287703363
0.0031048581 -0.052454628 -0.023070429 4287966014
-0.031839445 0.0022331253 -0.018452926 4283465773
-0.034378335 0.0026415214 -0.021202764 4281892168
-0.033535309 0.0070666783 -0.025882771 4281958979
-0.031325094 0.0057860389 -0.024941662 4282938688
-0.029281653 0.0052190945 -0.024704156 4284050234
-0.035878405 0.0067884102 -0.027918268 4280915519
-0.034539446 0.0090791583 -0.030481411 4280590905
-0.032343 0.0077929944 -0.029540123 4280981563
-0.030135855 0.0065078363 -0.028601449 4281567808
-0.027917966 0.0052235872 -0.02766531 4281763394
-0.026237145 0.0060838982 -0.028826158 4281830204
-0.024376255 0.0062295794 -0.029288141 4283203124
-0.02213949 0.0049471259 -0.028356453 4284578594
-0.038043141 0.0058023557 -0.029249465 4281372224
-0.037036844 0.0095355809 -0.033208959 4279613743
-0.03554149 0.011114165 -0.035064291 4280459323
-0.03335882 0.0098225027 -0.034122802 4279156273
-0.031165428 0.0085318275 -0.03318394 4280264248
-0.028781585 0.0065251067 -0.031550415 4281176383
-0.027111262 0.0073867589 -0.032707009 4281503294
-0.024706032 0.0053819641 -0.031078685 4281830969
-0.022847813 0.0055275261 -0.031539936 4280789804
-0.02060885 0.0042409226 -0.030611953 4283069504
-0.039383464 0.0012195408 -0.027080663 4281891914
-0.038518913 0.0056858435 -0.031737279 4280721464
-0.037348077 0.0087097585 -0.034989368 4281307964
-0.035683483 0.0095727071 -0.036143266 4281567809
-0.034024052 0.010435369 -0.037295796 4281307199
-0.031662263 0.0084201768 -0.035661712 4281046844
-0.029464006 0.0071255453 -0.034727216 4280850748
-0.027619369 0.0072698146 -0.035185266 4281243449
-0.025589816 0.006695427 -0.034948938 4281243448
-0.023742326 0.0068401322 -0.035407547 4281504824
-0.021704607 0.0062665716 -0.035173036 4282090559
-0.019854262 0.0064117238 -0.035632189 4282547263
-0.018003829 0.0065569952 -0.036091279 4283330113
-0.013098512 0.0025427714 -0.032866888 4282093874
-0.010011859 -0.0016142055 -0.02919127 4283079958
-0.040834844 0.0054351613 -0.03376098 4281306688
-0.03932599 0.0070233792 -0.035613425 4280134198
-0.037827551 0.0086108409 -0.037463162 4280265014
-0.036339566 0.010197602 -0.039310221 4280721209
-0.034688011 0.011061877 -0.040459257 4279873079
-0.032334901 0.0090393536 -0.038827851 4279547188
-0.030145131 0.0077396445 -0.037894465 4280981308
-0.028126597 0.0071620159 -0.03765706 4281046589
-0.02610267 0.0065849721 -0.037420951 4280981308
-0.02463514 0.0081708282 -0.0392625 4281307963
-0.022798259 0.008314807 -0.039718393 4280265524
-0.020961292 0.0084588937 -0.040174238 4280003894
-0.018733829 0.0071627535 -0.039249681 4280134709
-0.01629784 0.0051476136 -0.037638202 4281568064
-0.013645414 0.0024141595 -0.035341799 4281958978
-0.01056543 -0.0017566606 -0.031674147 4281959998
-0.0060130805 -0.010960139 -0.023201603 4281571379
-0.00076652691 -0.022315413 -0.012685463 4282160684
0.0039315522 -0.031507157 -0.0042488594 4283203888
-0.041854143 -0.00060587376 -0.030203745 4281763139
-0.040976964 0.0038877055 -0.034844279 4281306433
-0.039136045 0.0040309951 -0.035301913 4281371714
-0.037800595 0.0063477755 -0.037845038 4280915263
-0.036138497 0.007214915 -0.038995124 4281045824
-0.034655385 0.0088057965 -0.040837694 4280915518
-0.032476865 0.0075006597 -0.039904825 4280785213
-0.030287631 0.0061964542 -0.03897455 4280850494
-0.028451212 0.0063400343 -0.039430588 4281046334
-0.026614673 0.006483756 -0.039886568 4280981564
-0.024965096 0.0073505715 -0.041033071 4281177659
-0.023320701 0.0082171038 -0.042178191 4281112379
-0.021296814 0.0076381676 -0.041943446 4281567809
-0.019072533 0.006337367 -0.041021317 4280134709
-0.016442321 0.0035931468 -0.038725894 4280981564
-0.01399114 0.0015727356 -0.037122965 4281306943
-0.010509327 -0.0040551573 -0.032090716 4281437758
-0.0055460073 -0.014730461 -0.022267101 4281568319
0.00032971799 -0.028284766 -0.0097218249 4281568319
0.0046190843 -0.036061928 -0.0026786663 4281763904
0.0072585214 -0.038066909 -0.001121968 4282607698
-0.041836917 -0.0028936341 -0.030600633 4281631048
-0.040629908 0.00015927106 -0.033842579 4281370694
-0.038946889 0.0010300353 -0.034996487 4281240898
-0.037605643 0.0033538342 -0.037536185 4281306179
-0.036280133 0.0056765527 -0.040071953 4281241154
-0.034623139 0.0065455958 -0.0412191 4280915008
-0.032618769 0.0059622377 -0.040981621 4280785213
-0.030430071 0.0046535805 -0.040054418 4280784704
-0.028775349 0.0055227652 -0.041200764 4280980544
-0.026757404 0.0049408004 -0.04096641 4280589373
-0.025481436 0.0072602704 -0.043489333 4280068663
-0.023842268 0.0081285909 -0.044631567 4281306944
-0.02201616 0.0082718134 -0.045084722 4281502529
-0.019410819 0.0055167302 -0.04278969 4281306688
-0.01678421 0.0027634054 -0.040499799 4280851004
-0.013936266 -0.00071231276 -0.037529364 4280590648
-0.010048136 -0.0078058019 -0.031140015 4281242428
-0.0044640079 -0.020685159 -0.019288447 4281307199
0.0012154877 -0.033556901 -0.0074603762 4281307199
0.0048836432 -0.039187409 -0.0024869125 4281631048
-0.041179262 -0.0081036165 -0.028224288 4282020943
-0.039795533 -0.0057701543 -0.030769922 4281305159
-0.038096569 -0.0048959926 -0.031926159 4281305924
-0.036738977 -0.0025642887 -0.034465168 4280913989
-0.03539712 -0.00023368001 -0.037000183 4280980033
-0.034071013 0.0020957366 -0.039531179 4280915518
-0.032232448 0.0022392496 -0.039987925 4280588609
-0.030572489 0.0031109676 -0.041134104 4280849474
-0.028917685 0.0039823577 -0.04227886 4280980289
-0.027452059 0.0055811107 -0.044110365 4280849728
-0.025996931 0.0071792156 -0.045939215 4280394299
-0.024362981 0.0080493093 -0.047078557 4280068663
-0.022542302 0.0081920996 -0.047530368 4280459578
-0.020332359 0.0068813041 -0.04661113 4280199224
-0.017322861 0.0026649833 -0.042955171 4280459323
-0.013681885 -0.0037279576 -0.03725446 4281111104
-0.0087780692 -0.01447428 -0.027464394 4281045058
-0.0031792819 -0.027392253 -0.015645342 4281045314
0.0018914193 -0.038125195 -0.0058964733 4281240133
0.0049369484 -0.041595899 -0.002982704 4282281809
-0.040843576 -0.011872075 -0.02724825 4281825614
-0.039451443 -0.0095312968 -0.029791204 4281174854
-0.037909746 -0.007923007 -0.031638984 4281240388
-0.036210552 -0.0070465282 -0.032793593 4281305668
-0.034857646 -0.0047084615 -0.035326544 4281240899
-0.033347242 -0.0031022802 -0.037166305 4281307199
-0.03167145 -0.0022272766 -0.038314845 4281176384
-0.029822335 -0.0020828545 -0.038774155 4281045313
-0.028516531 0.00025197119 -0.041295089 4281110338
-0.027226508 0.0025856793 -0.043812018 4281175363
-0.026325107 0.0063776225 -0.047696736 4280979523
-0.024693735 0.0072497241 -0.048833832 4280587589
-0.023067567 0.0081215277 -0.049969546 4280849729
-0.020474724 0.0053477511 -0.047684237 4280784703
-0.017072566 -0.00033959001 -0.042671032 4280915263
-0.012429956 -0.010395333 -0.033572499 4280784193
-0.0073085427 -0.021902017 -0.023128323 4280784193
-0.0021023788 -0.033401877 -0.012705119 4281175109
0.0015276782 -0.039070837 -0.0077480283 4282085968
0.0043591224 -0.041825108 -0.0055213477 4282541654
-0.040668853 -0.014919616 -0.026972249 4281695564
-0.039433368 -0.011838056 -0.030202096 4281108809
-0.037723683 -0.010958619 -0.031357836 4281370694
-0.036019139 -0.01007954 -0.032512184 4281436228
-0.034319736 -0.0092007443 -0.033665173 4281436228
-0.032798491 -0.007589303 -0.035504416 4281305923
-0.030936405 -0.0074440017 -0.035967041 4281371203
-0.029430792 -0.005833514 -0.037802283 4281045314
-0.027754702 -0.0049560741 -0.038949136 4280914754
-0.026634544 -0.0018825829 -0.042149659 4280718658
-0.025535446 0.001189366 -0.045344871 4280653633
-0.024457417 0.0042598099 -0.048534755 4280652614
-0.022825893 0.0051342249 -0.049670205 4280848454
-0.020228725 0.0023519695 -0.047392391 4280849473
-0.01603578 -0.0062770694 -0.039665967 4280915518
-0.010781962 -0.018555284 -0.028549951 4280980543
-0.0054380819 -0.030826323 -0.017456125 4281110593
-0.0016421899 -0.037246563 -0.011822591 4281696583
0.0011643991 -0.040011741 -0.0095962603 4281694034
0.0039922148 -0.042775109 -0.0073751044 4282410838
-0.040654466 -0.017239511 -0.027391663 4281630283
-0.039415672 -0.014148884 -0.030615922 4281500743
-0.037703261 -0.013267107 -0.03177071 4281435719
-0.035996005 -0.012385584 -0.032924179 4281370694
-0.034293897 -0.011504367 -0.034076232 4281435973
-0.032596946 -0.01062347 -0.035226945 4281436229
-0.030729711 -0.010477774 -0.035690855 4281371459
-0.028684258 -0.011066698 -0.03546996 4281240134
-0.027175605 -0.0094515085 -0.037302632 4281109828
-0.025677431 -0.0078369603 -0.03913264 4280848964
-0.02456177 -0.0047549382 -0.042325508 4281175363
-0.023467183 -0.0016744062 -0.045513093 4281240898
-0.022011042 -6.2793493e-05 -0.047332417 4281174854
-0.019013677 -0.0043199435 -0.043702401 4281305669
-0.014411621 -0.01444079 -0.034638878 4281435718
-0.008938387 -0.027487971 -0.022875667 4281696838
-0.0043793097 -0.036863208 -0.014530221 4282021708
-0.0015923008 -0.039638884 -0.012305567 4282216018
0.00080156326 -0.040947877 -0.011441158 4282280789
0.0032060631 -0.042255826 -0.010579323 4282215254
-0.039843559 -0.023255587 -0.024374938 4281563729
-0.038912259 -0.018678486 -0.028971188 4281695309
-0.037353888 -0.017055668 -0.030813558 4281499979
-0.035973243 -0.014695816 -0.033339042 4280846668
-0.034098454 -0.014549784 -0.033805013 4281173833
-0.03256876 -0.012928851 -0.035640001 4281304649
-0.030523777 -0.013520144 -0.035420693 4281239623
-0.028829157 -0.012636989 -0.036569048 4281174088
-0.027139701 -0.011754118 -0.037716031 4281239879
-0.025455438 -0.010871544 -0.038861644 4281109318
-0.023962174 -0.0092528537 -0.040687148 4281044548
-0.022856317 -0.0061626807 -0.043871075 4281240644
-0.021007095 -0.0060177073 -0.044330016 4281175363
-0.018189006 -0.0095512047 -0.041392542 4281174853
-0.013576746 -0.019702114 -0.032354027 4281501509
-0.0082931966 -0.032052986 -0.021299992 4281696583
-0.0041297674 -0.039986111 -0.014331931 4281892424
-0.0019514635 -0.040565588 -0.014144721 4282476629
0.00043917447 -0.041879185 -0.01328277 4282541654
-0.037763171 -0.026187249 -0.024596293 4282281299
-0.036512285 -0.023077942 -0.02781065 4281564493
-0.035115317 -0.020710185 -0.030335426 4281303629
-0.033734068 -0.018343523 -0.032856219 4281173579
-0.032368533 -0.015978016 -0.035372965 4281369673
-0.030668691 -0.015092336 -0.036521152 4281369928
-0.02879633 -0.014946155 -0.036986277 4281370184
-0.027104177 -0.014060877 -0.038132332 4281239369
-0.025051259 -0.014653407 -0.037916344 4281109064
-0.023735389 -0.012291178 -0.040420324 4281109829
-0.022247065 -0.010668375 -0.042241324 4281109829
-0.020387407 -0.010522597 -0.042702857 4281109573
-0.017366353 -0.014804363 -0.039098002 4281240899
-0.012940101 -0.024247624 -0.030761551 4281567043
-0.0082461387 -0.034422882 -0.021765703 4281632068
-0.0052914247 -0.03795629 -0.018869875 4282150229
-0.0031267144 -0.038539059 -0.018680913 4282345048
-0.032523125 -0.025860451 -0.028506145 4281822554
-0.031480365 -0.022002995 -0.032386318 4281957448
-0.030289069 -0.01888907 -0.035579111 4281826633
-0.028586388 -0.018000901 -0.036726274 4281630793
-0.02688887 -0.017113023 -0.037872069 4281566023
-0.02519656 -0.01622536 -0.039016515 4281435208
-0.023694821 -0.014597274 -0.040837683 4281174598
-0.022015512 -0.013710447 -0.041978691 4281109318
-0.020341411 -0.012823917 -0.04311832 4281109318
-0.017512444 -0.016378641 -0.040199615 4281436738
-0.013285015 -0.025110781 -0.032558862 4281632323
-0.0093912892 -0.032358356 -0.026283482 4281696073
-0.0068535432 -0.034424871 -0.024740478 4282476884
-0.028862879 -0.027161799 -0.030570969 4282216019
-0.027490884 -0.024782315 -0.033079594 4281629263
-0.025954723 -0.023147374 -0.034906283 4281761098
-0.024611581 -0.020769864 -0.037407536 4281500999
-0.023469411 -0.017650507 -0.040581383 4281370694
-0.021972612 -0.016018294 -0.042398036 4281305668
-0.020486288 -0.014386758 -0.044211984 4281174854
-0.017465357 -0.01869496 -0.040626407 4281370948
-0.013433695 -0.026711412 -0.033678878 4281631558
-0.010335885 -0.03101337 -0.030112145 4281695818
-0.0082116537 -0.031603865 -0.029916452 4282347088
-0.0052671842 -0.035160027 -0.027034054 4282279514
-0.023481142 -0.027568139 -0.033783715 4282215253
-0.022874784 -0.022202782 -0.038980998 4281825104
-0.021930069 -0.018330231 -0.042820252 4281500744
-0.020250551 -0.017438903 -0.043958038 4281108809
-0.017225724 -0.021760009 -0.040383052 4281043274
-0.013777904 -0.02756732 -0.035471052 4281107789
-0.011080589 -0.030394427 -0.033256456 4281694033
-0.0089646541 -0.030987792 -0.03306032 4281757019
-0.020200968 -0.027371481 -0.037190057 4281170774
-0.019065201 -0.024234816 -0.040349267 4281498193
-0.01602323 -0.028567798 -0.036788154 4281564239
-0.01334019 -0.03140498 -0.034576535 4281302608
-0.010635912 -0.034240328 -0.032370076 4281626968
0.035509456 -0.05155883 0.028846215 4282537064
0.038101029 -0.052797586 0.02970133 4282275179
0.031818084 -0.049263492 0.023999676 4282602344
0.034865148 -0.051919892 0.026231792 4282405739
0.037450865 -0.053163543 0.0270852 4282471273
0.028860666 -0.049063474 0.021225881 4282667878
0.031652451 -0.051022232 0.022769716 4282471018
0.03422172 -0.052271754 0.02362388 4282602088
0.028928727 -0.051525757 0.020686407 4282667878
0.031957936 -0.054201394 0.022909977 4282536553
0.028996401 -0.053992167 0.020144053 4282536554
0.03132125 -0.054538742 0.020310488 4282798439
0.022153474 -0.048209511 0.012428287 4282668134
0.025592688 -0.052337416 0.016017441 4282274669
0.02859873 -0.055032685 0.018233784 4282339693
0.021990925 -0.049940199 0.01121781 4282471273
0.025199108 -0.053364031 0.014116049 4282209134
0.018423779 -0.047513239 0.0064291805 4282602598
0.021601623 -0.050950639 0.0093268007 4282143343
0.02480598 -0.054385856 0.012218002 4282274669
0.015112532 -0.045779139 0.0023321174 4281094783
0.018262694 -0.049229883 0.0052284785 4281094529
0.021665908 -0.053400561 0.0087975673 4282208879
0.024413275 -0.055402838 0.010323271 4282928999
0.014952684 -0.047484331 0.0011393763 4282012529
0.018325353 -0.051670797 0.0047062971 4281487484
0.021503445 -0.055130243 0.0075877979 4282732394
0.012108 -0.047168329 -0.0015843902 4282144618
0.015013708 -0.049916148 0.00062423944 4282077808
0.018387612 -0.05411575 0.00418121 4282602088
0.0094961524 -0.047566801 -0.0036254395 4282275944
0.012384966 -0.050324976 -0.0014191158 4282144108
0.015074354 -0.052352138 0.000106249 4282143599
0.0062586516 -0.045758963 -0.0076913256 4282013548
0.0091226213 -0.048528053 -0.005485367 4282012783
0.012443358 -0.052758545 -0.0019347295 4282143599
0.01513461 -0.054792203 -0.00041465089 4282601578
0.0058892109 -0.046706319 -0.0095423851 4281030013
0.0089644678 -0.05021856 -0.0066679306 4281553529
0.012066226 -0.05372858 -0.0037999488 4282273903
0.002684731 -0.044859804 -0.013590185 4281883244
0.0053081438 -0.046912394 -0.012063263 4281750134
0.008591637 -0.051172473 -0.0085227266 4281946228
-0.00090396032 -0.041510232 -0.018974556 4281949798
0.0025290437 -0.046527438 -0.014756845 4281620339
0.0051516742 -0.048586704 -0.013234545 4282078064
0.0082192514 -0.052121647 -0.010374203 4282602089
-0.0012643673 -0.042420655 -0.020801483 4280704123
0.0023733824 -0.048194759 -0.015923288 4281488758
0.0049952343 -0.050260685 -0.014405604 4282339693
0.0080616158 -0.053806752 -0.011552989 4283190118
-0.0058257915 -0.035299458 -0.029513264 4280177548
-0.0018304847 -0.042582758 -0.023294834 4280832899
0.0020089671 -0.049118377 -0.0177586 4282405483
-0.0053670034 -0.039159685 -0.028641624 4279719569
-0.0017778948 -0.044972979 -0.023777124 4279980688
0.0018535852 -0.050782837 -0.018923037 4282863718
-0.0099946447 -0.038847841 -0.030824227 4281752429
-0.0082618184 -0.037947409 -0.031971663 4280309384
-0.0051125064 -0.042284697 -0.028446378 4280177293
-0.0017256811 -0.047367327 -0.024262283 4280963203
-0.0046559423 -0.046168692 -0.027591441 4282666094
-0.0020849183 -0.04826539 -0.026080571 4282926703
0.013646562 -0.060425572 -0.025721513 4282142324
0.026915081 0.01810101 0.061802894 4285098283
0.027573057 0.022035308 0.056822069 4285820444
0.030579304 0.019685525 0.059289888 4285820189
0.035772748 0.011685934 0.068443187 4285885724
0.023531973 0.019346256 0.057371847 4285295909
0.024193779 0.023294128 0.052399725 4285690139
0.025294039 0.025978327 0.048921838 4285558048
0.027799875 0.024878509 0.049904287 4285558304
0.031759061 0.019998427 0.055335291 4285689629
0.036490016 0.013231859 0.062979378 4285624093
0.040787809 0.0077295005 0.069128022 4285558558
0.021302577 0.023311157 0.049472399 4285493023
0.022870818 0.024738308 0.047484629 4285755928
0.023958571 0.027430408 0.044016324 4285821208
0.026688231 0.025692429 0.045739867 4285755419
0.029674063 0.02332332 0.048199855 4285755674
0.033166915 0.01969149 0.05213391 4285821208
0.036446027 0.0166943 0.055321135 4285624349
0.039007027 0.015594672 0.056286879 4285559069
0.040826023 0.016390689 0.055037111 4285493534
0.041879125 0.019080482 0.051577702 4285558303
0.044447932 0.017981675 0.052541651 4285820189
0.04961551 0.01057421 0.060859986 4285754398
0.017975222 0.024614584 0.045066684 4285558558
0.019765239 0.02541 0.043825328 4285558558
0.021782044 0.025569782 0.043326013 4285624094
0.023329398 0.02699982 0.041346669 4285689884
0.026053054 0.025254667 0.043066889 4285690139
0.028792629 0.023510836 0.044783235 4285689883
0.032033481 0.020499438 0.0479718 4285558558
0.034319483 0.020027202 0.048204213 4285624349
0.036114771 0.020823509 0.046961896 4285689883
0.037654053 0.022253297 0.044984818 4285820954
0.038929392 0.024315882 0.042275041 4285689373
0.041212562 0.023843683 0.042508349 4285689373
0.045569859 0.018306427 0.048613414 4285755163
0.051281147 0.0096081384 0.05837407 4285886489
0.016020123 0.022113785 0.045116767 4285098284
0.017135879 0.024825662 0.041654304 4285820953
0.019147275 0.024984941 0.041156277 4285886233
0.021390567 0.024506725 0.041397452 4285821208
0.023404652 0.024666354 0.04089886 4285624094
0.026130237 0.02291473 0.042613715 4285558558
0.028871752 0.021164391 0.044324733 4285558814
0.031386688 0.020052116 0.045295328 4285558813
0.033421963 0.020213693 0.044791684 4285624349
0.034713864 0.022284131 0.04208257 4285558558
0.03624022 0.023717359 0.040111937 4286018324
0.037502848 0.025785606 0.03741017 4285886743
0.0400282 0.024674498 0.038378432 4285689628
0.043597702 0.021022573 0.042274378 4285689629
0.047982134 0.015467577 0.048358239 4285689884
0.053996459 0.0061064214 0.058817849 4285755419
0.014518201 0.024251368 0.039487094 4285689628
0.015845139 0.026330743 0.036773719 4285820443
0.018072179 0.025848977 0.037017196 4285952278
0.020999515 0.023448374 0.039472103 4286018323
0.023479484 0.022328641 0.040448017 4285689629
0.026207013 0.020570509 0.042157546 4285558558
0.028471248 0.020091936 0.042392075 4285558813
0.030740764 0.019613899 0.042625301 4285559068
0.03203588 0.021691233 0.039920151 4285558559
0.03356263 0.023128837 0.037952654 4285558558
0.035078719 0.024565693 0.035987809 4285689628
0.037089914 0.024725582 0.035490282 4285821209
0.039867662 0.022971895 0.037187792 4285821208
0.043177638 0.019944206 0.040343396 4285821719
0.048079107 0.013093989 0.047874533 4285756183
0.054092854 0.0036994591 0.058310091 4285493278
0.01100258 0.020313669 0.041515566 4284901679
0.011912188 0.023687199 0.037323624 4285624349
0.013242304 0.025773365 0.034614295 4285885979
0.015008798 0.026573498 0.033383563 4285557283
0.017456375 0.025446661 0.034364112 4285557538
0.020377479 0.023036681 0.036814094 4285754909
0.023319822 0.020628452 0.039258868 4285755164
0.026046636 0.018863607 0.040963732 4285624349
0.028071163 0.019024216 0.040462658 4285559068
0.029369516 0.021108359 0.037761554 4285624348
0.030651914 0.023191363 0.035064422 4285755673
0.032413095 0.023991641 0.033835404 4285755673
0.034918971 0.022869989 0.034801945 4285755419
0.037182771 0.022389524 0.035035223 4285623838
0.039962444 0.020629376 0.036727369 4285558814
0.043531906 0.016950846 0.040603958 4285559069
0.048696917 0.0094367303 0.048845418 4285427999
0.0097538177 0.021842528 0.0366394 4285295909
0.011092387 0.02393594 0.033932768 4285558304
0.012191799 0.026673079 0.030493688 4286082839
0.013721878 0.028119259 0.028531421 4286082584
0.016155683 0.026986871 0.029512141 4286083349
0.01929383 0.023922648 0.032693595 4285952534
0.022692403 0.020216573 0.036602296 4285755164
0.025176667 0.01908838 0.037570737 4285624349
0.026953956 0.019891948 0.036339201 4285624348
0.028000383 0.022625402 0.03291361 4285690139
0.02902556 0.025357239 0.029493336 4285952788
0.031018097 0.025515527 0.029000342 4285886998
0.034259629 0.022460017 0.032156579 4285952789
0.037527651 0.019406687 0.035306312 4285690138
0.040822141 0.016355541 0.038449563 4285559068
0.044916403 0.011380143 0.043769933 4285493788
0.051136367 0.0012727901 0.054897532 4285493789
0.013791388 0.025806177 0.028100144 4285754398
0.015998971 0.025316212 0.028343592 4285755164
0.018673932 0.023533739 0.030051526 4285689629
0.021832177 0.020460084 0.033219971 4285624348
0.024071632 0.019972868 0.033455685 4285624093
0.025838431 0.020777829 0.032228373 4285689884
0.026391715 0.024810702 0.027351189 4285820954
0.027890317 0.026259333 0.025400326 4285623329
0.030119097 0.025771569 0.025638904 4285623328
0.033850729 0.021414209 0.030245885 4285820699
0.037619442 0.017059915 0.034843706 4285689629
0.04142525 0.012708604 0.039432451 4285624093
0.046813466 0.004494071 0.04836987 4285559069
0.01629859 0.022347916 0.028639082 4285623584
0.018516524 0.021856572 0.028878447 4285689629
0.021206681 0.020068772 0.030577783 4285624603
0.023204414 0.020227175 0.030083288 4285559068
0.024485832 0.022329904 0.027400885 4285689373
0.02526846 0.025727216 0.023265097 4286083603
0.026756767 0.027179528 0.021319978 4286083604
0.029468106 0.025393751 0.023014396 4285820699
0.032943472 0.0216676 0.026885036 4285820698
0.037206743 0.016002934 0.03292603 4285755163
0.042536475 0.0077548325 0.041856878 4285558559
0.049221829 -0.0037207603 0.054394431 4285427743
0.022338487 0.020495091 0.026720475 4285425193
0.02385103 0.021953616 0.024772476 4285491239
0.024870526 0.024711583 0.021372955 4285491238
0.026600387 0.02551822 0.020158131 4285951513
0.029064482 0.024375416 0.021122094 4285886233
0.03253584 0.020635638 0.024984039 4285820699
0.037298117 0.013652124 0.032460615 4285689883
0.043900065 0.00212989 0.04498966 4285493534
0.027174996 0.021900706 0.021171141 4285622819
0.029153908 0.022057943 0.020681541 4285557793
0.032875519 0.017653264 0.025257055 4285623583
0.038395539 0.0086910464 0.034883939 4285558558
0.046023931 -0.0054755509 0.050270684 4285558558
