# .PCD v0.7 - Point Cloud Data file format
VERSION 0.7
FIELDS x y z rgba
SIZE 4 4 4 4
TYPE F F F U
COUNT 1 1 1 1
WIDTH 271
HEIGHT 1
VIEWPOINT 0 0 0 1 0 0 0
POINTS 271
DATA ascii
-0.0028289855 6.8746507e-05 0.027849179 4286920004
-0.00062777847 -0.00053243339 0.028116502 4286267204
0.0018779188 -0.002607815 0.0297486 4286397508
-0.0053009838 -0.0002643019 0.025658131 4289209393
-0.0035402514 0.0013514012 0.023878239 4289342758
-0.0014967583 0.0014870688 0.023464251 4290193183
0.00099489838 -0.00059576333 0.025094226 4290257698
0.0035027079 -0.0026774704 0.026721045 4289538343
0.0060266703 -0.0047579706 0.028344702 4289014319
0.0084093958 -0.0060982183 0.029285476 4287575609
-0.0076226443 -0.001329869 0.02415349 4287247423
-0.0061414614 0.0017748028 0.02101358 4289080873
-0.0042500794 0.0026519001 0.019920416 4289342248
-0.0022174343 0.0027868152 0.019508611 4289146663
0.00011365861 0.0014384389 0.020456251 4289081128
0.0026074201 -0.00065071881 0.022080962 4290389278
0.005117327 -0.0027386397 0.023702454 4289603878
0.0073289722 -0.003343001 0.023964711 4289342503
0.0093861818 -0.0032058209 0.023548413 4289210923
0.011606015 -0.0038093328 0.023809165 4288883504
0.013666045 -0.0036717057 0.023392476 4288883248
0.016061932 -0.0050149262 0.024327651 4291172129
0.018298015 -0.0056170225 0.024585444 4290386729
0.020539491 -0.0062185824 0.024842206 4288620343
-0.0087251067 0.002212882 0.018155646 4289079343
-0.006980136 0.0038360804 0.01638543 4289210923
-0.0049584657 0.0039701462 0.015975745 4290127648
-0.0029366612 0.0041043609 0.015566135 4289669924
-0.00061675906 0.0027508438 0.016512716 4289211943
0.0020172819 -8.931756e-05 0.018812299 4289866019
0.0043641366 -0.001440838 0.01975365 4290127648
0.0062507018 -0.00056126714 0.018663514 4289473574
0.0081320107 0.00031805038 0.017574593 4289604389
0.010170415 0.00045409799 0.01716218 4289473573
0.012208886 0.0005902797 0.016749857 4289800739
0.014582876 -0.00075878203 0.017686199 4289996579
0.017138004 -0.0028494447 0.019294161 4289668904
0.019536167 -0.0041966587 0.020225801 4289668649
0.022120817 -0.0062850863 0.021827981 4288753963
0.024899986 -0.0091142952 0.024099182 4289013808
-0.0094106831 0.0035460293 0.014216527 4288817968
-0.007676214 0.0051728487 0.012451725 4289669924
-0.005952321 0.0067990869 0.010689164 4289800484
-0.0039467141 0.0069322139 0.010282835 4289408039
-0.0014945492 0.0048271567 0.011905892 4288688684
0.0012767613 0.001231432 0.014877656 4289931553
0.0034582391 0.00062055886 0.015142599 4289669668
0.0054883063 0.0007557869 0.014731674 4289343013
0.0071994066 0.0023819655 0.012972226 4289539620
0.0092242807 0.0025171191 0.012562556 4290323998
0.011084352 0.0033974051 0.011479756 4289342758
0.013274223 0.0027877837 0.011743436 4288819499
0.015809946 0.00068926811 0.01335041 4289211433
0.018880442 -0.0036415309 0.016968954 4289211179
0.021807523 -0.007225737 0.019910056 4289014318
0.024583139 -0.010063872 0.02217536 4288817714
-0.010094814 0.004896909 0.010290606 4289538853
-0.0082302243 0.0057785958 0.0092076492 4289408038
-0.0063708536 0.0066599995 0.008125877 4289211688
-0.0043707527 0.006792739 0.0077206362 4288950058
-0.001924593 0.004680723 0.0093400162 4289342759
0.00068900362 0.0018218011 0.011630503 4289800483
0.0028621256 0.0012082458 0.011895446 4289735458
0.004884012 0.0013429075 0.01148616 4289539364
0.0065872893 0.0029729158 0.0097316038 4289670179
0.0086039826 0.0031075031 0.0093235727 4290454814
0.010126676 0.0054838508 0.0069008674 4290650908
0.012135472 0.005618155 0.0064946245 4289931298
0.014824495 0.0027651489 0.0087705161 4289538599
0.018053107 -0.0023263246 0.013052074 4290126884
0.021319222 -0.0074152052 0.017326184 4289079854
0.024088619 -0.010262445 0.019586116 4288294453
-0.011826053 0.00087414682 0.011513663 4290192673
-0.010364182 0.0040120631 0.0084039513 4289539364
-0.0085022263 0.004895702 0.0073232073 4290323998
-0.0067886338 0.0065298975 0.0055692997 4290389278
-0.004648231 0.0059116185 0.0058389287 4290193184
-0.0023539141 0.004543364 0.0067807641 4289473574
0.0002534911 0.0016753525 0.0090659056 4289015593
0.0024209283 0.0010592341 0.0093303379 4289539364
0.004437305 0.0011935383 0.0089221727 4289931808
0.0059762821 0.0035772026 0.0065009203 4289735713
0.007984791 0.0037112385 0.0060945395 4289931554
0.0096643418 0.005344227 0.0043482538 4289539109
0.011834834 0.0047289133 0.0046125967 4288819244
0.014350444 0.0026160628 0.0062136818 4289342503
0.017572314 -0.0024911016 0.01048507 4289604389
0.020831658 -0.0075955689 0.014748957 4289277223
0.023594828 -0.010451928 0.017003544 4287771959
-0.012632586 0.0029995739 0.006926192 4289146408
-0.010770746 0.0038852245 0.0058470163 4289931044
-0.0087738484 0.0040174723 0.0054422151 4290585629
-0.006776832 0.0041498542 0.0050374884 4290847258
-0.004634086 0.0035295337 0.0053049717 4290454813
-0.0023375899 0.0021570325 0.0062431004 4289604389
0.00012064725 3.2946467e-05 0.0078501608 4289604643
0.002134122 0.00016692281 0.0074424837 4289604899
0.0038350485 0.0018052459 0.0056949239 4289277734
0.0055253543 0.0034430325 0.0039495658 4289473828
0.0076900311 0.0028249025 0.0042132381 4289473828
0.0096957833 0.002958864 0.0038075019 4289146408
0.011868604 0.0023415685 0.0040696692 4288884779
0.014216505 0.00097355247 0.0049981195 4289211944
0.017436974 -0.0041489005 0.0092582479 4289473574
0.020519877 -0.0085178018 0.012844656 4289669923
-0.014762774 0.001236394 0.0061240774 4286462788
-0.013167851 0.0036356598 0.0037005302 4289800738
-0.011588838 0.0060340464 0.0012802538 4289473573
-0.0094653592 0.0054100305 0.0015498009 4289277479
-0.0076219551 0.0062968582 0.0004761871 4289539108
-0.0050565749 0.0034084171 0.0027564261 4289866019
-0.0027659349 0.0020312369 0.0036923978 4289473828
-0.00031372532 -9.983778e-05 0.0052957516 4289539364
0.0015407801 0.00078822672 0.0042202715 4289408548
0.0032338724 0.0024304241 0.0024775583 4289539620
0.0049163625 0.0040719658 0.00073711015 4290193438
0.0072341524 0.0026971996 0.0016680602 4290781979
0.0093985572 0.0020770282 0.0019301753 4290847259
0.011902045 -4.9829483e-05 0.0035237428 4289931554
0.014252111 -0.0014220625 0.0044484492 4289211944
0.017646022 -0.0073128194 0.0093618818 4289866274
0.020558199 -0.010941416 0.012272988 4289277478
-0.015553087 0.003396064 0.0015585367 4288819498
-0.013971165 0.0058010072 -0.00085748546 4290258973
-0.012267895 0.0074472725 -0.0025995988 4289473573
-0.01029535 0.0075778961 -0.0029994715 4288884778
-0.008037515 0.006193921 -0.0020603593 4289473828
-0.0054783337 0.0032963902 0.00021453388 4290389788
-0.0030456111 0.0011573881 0.001816784 4289604643
-0.00089797005 0.00053331256 0.0020801667 4289604899
0.00079523772 0.0021796376 0.00034064613 4289997343
0.0026338063 0.0030689389 -0.00072985329 4289473828
0.0044670925 0.0039580315 -0.0017992612 4290520093
0.0066177361 0.0033346266 -0.0015360508 4290389534
0.0089377537 0.0019557774 -0.00060877483 4290454813
0.011435207 -0.00017797947 0.00098107103 4290454813
0.014287397 -0.0038217306 0.0038958266 4289539874
0.017510392 -0.0089743137 0.0081323162 4289670688
0.020246839 -0.011858612 0.010372411 4287183419
-0.0162099 0.004817605 -0.0023206268 4289342503
-0.01436948 0.0057081878 -0.0033906307 4289669668
-0.012945496 0.0088782459 -0.0064663086 4289735203
-0.010983802 0.0090081245 -0.006864002 4289342758
-0.0085947365 0.0068594962 -0.0052580368 4289997344
-0.0058993362 0.0031933188 -0.0023206528 4290324253
-0.0037681758 0.002565816 -0.002055699 4289408548
-0.0017820075 0.0026978254 -0.0024579596 4289670433
-0.0001019612 0.0043476075 -0.0041915271 4289605154
0.0020348243 0.0037208796 -0.0039274041 4290324509
0.0037016496 0.0053700954 -0.0056581292 4289539109
0.0058412589 0.0047437549 -0.0053943601 4288884778
0.0079862773 0.0041179508 -0.0051316228 4289277479
0.010802619 0.00046086311 -0.0022179438 4289342758
0.013814896 -0.003952086 0.0013528401 4289474083
0.017374791 -0.010635525 0.0069029592 4289343780
-0.016602151 0.004731968 -0.0048498232 4288163893
-0.014767043 0.0056243539 -0.0059171114 4288687409
-0.012937181 0.006516546 -0.0069832895 4288819244
-0.011112526 0.0074084848 -0.0080482606 4288819498
-0.0087241381 0.0052533001 -0.0064471159 4289211944
-0.0066094436 0.0046223998 -0.006180583 4289277224
-0.0043417215 0.0032306314 -0.0052499082 4289212198
-0.0025139749 0.0041232854 -0.0063151256 4289604899
-0.00053856522 0.004254669 -0.0067151324 4289343523
0.0014369264 0.0043862164 -0.0071150535 4290193438
0.0030959472 0.0060391873 -0.0088408571 4290586139
0.0050662421 0.0061706454 -0.0092395265 4289669924
0.0072002336 0.0055419207 -0.0089762229 4289408294
0.010171127 0.0011130869 -0.005407053 4290258719
0.013681084 -0.0055933595 0.00013820548 4289538599
0.017067574 -0.011536643 0.005013559 4289539108
-0.016730912 0.0031261593 -0.0060387687 4287379514
-0.014895797 0.0040206909 -0.0071044215 4287445049
-0.012929164 0.0041507781 -0.0075032101 4287641398
-0.010962423 0.0042809695 -0.0079019424 4287902773
-0.00885351 0.0036474019 -0.0076359757 4288295474
-0.0067391433 0.0030143112 -0.0073710219 4288099123
-0.0049141496 0.0039087981 -0.0084341411 4289407784
-0.0029443353 0.0040396899 -0.0088331234 4289015594
-0.0011271797 0.0049339235 -0.009894466 4289016103
0.00084014237 0.0050649047 -0.010292737 4289604643
0.0023332313 0.0074845701 -0.012675071 4289081385
0.0046142191 0.0060899705 -0.011749903 4288427054
0.006742537 0.0054586679 -0.011487057 4289408294
0.01003911 -0.000508219 -0.0066069611 4289473574
0.013209719 -0.0057100505 -0.0023946008 4289408295
0.016589269 -0.011671156 0.0024689585 4286136643
-0.016728446 0.00075386465 -0.0065623322 4287117628
-0.014890619 0.0016507506 -0.0076268748 4287313723
-0.012784928 0.0010145456 -0.0073621036 4287575864
-0.010952219 0.0019113123 -0.0084254425 4287510329
-0.0088409595 0.0012757331 -0.00816161 4287313978
-0.0070133731 0.0021724105 -0.0092237163 4285875268
-0.0032240413 0.0031995773 -0.010683065 4287117884
-0.0014095493 0.0040958375 -0.011742266 4288165423
0.00039969012 0.0049918145 -0.012800274 4288099889
0.0020457357 0.0066525936 -0.014516862 4288230704
0.0041629523 0.0060182959 -0.014253559 4288099888
0.0064488426 0.004619807 -0.013332589 4288622894
0.0095752291 -0.00060026348 -0.0091229137 4289211944
0.012907702 -0.0065820068 -0.0042631393 4289014318
-0.01672627 -0.0016224831 -0.0070888875 4287444793
-0.014752053 -0.0014920533 -0.0074893339 4287445049
-0.012777731 -0.0013615042 -0.0078897132 4287313978
-0.010803275 -0.001230821 -0.0082900142 4287248699
-0.0088287145 -0.0010999888 -0.0086902445 4286725184
-0.0015391149 0.0024948418 -0.012927352 4286659393
0.00027013943 0.0033929795 -0.013983717 4286856253
0.0019163787 0.00505808 -0.01569706 4286922043
0.0040332526 0.0044215769 -0.015435344 4286660413
0.00631864 0.0030187666 -0.014517548 4286136898
0.0094436258 -0.0022165775 -0.010319135 4287313978
0.01243763 -0.0066827834 -0.0067842375 4286724419
-0.018829204 -0.0033620149 -0.0078799156 4286920259
-0.016855277 -0.0032317638 -0.0082804142 4287771959
-0.014747694 -0.0038723052 -0.008019424 4287575608
-0.012770832 -0.0037415922 -0.0084203137 4287445048
-0.010793872 -0.0036107451 -0.0088211326 4287313978
-0.0088167936 -0.0034797639 -0.009221877 4287313724
0.00045042485 0.00025530159 -0.013852752 4286202434
0.0022597648 0.0011557937 -0.014907437 4286856253
0.0043843389 0.00051759183 -0.01464888 4286856508
0.0065143108 -0.00012008846 -0.014391365 4286660159
0.009477634 -0.0046014488 -0.010860241 4286659648
-0.019214042 -0.0034240037 -0.010393004 4287445049
-0.017245591 -0.0032940954 -0.010792385 4287902774
-0.015010335 -0.0047103316 -0.0098721078 4287771959
-0.013036311 -0.0045798272 -0.010272435 4287575608
-0.010923475 -0.005221948 -0.010013971 4287444793
-0.0090879202 -0.0043183863 -0.011072869 4286659649
0.00063002855 -0.0028907359 -0.013728059 4286006083
0.0024447404 -0.0019877702 -0.014782134 4286071619
0.0044142455 -0.0018563867 -0.015180661 4286267713
0.0063838065 -0.0017248839 -0.015579115 4286267459
-0.017635196 -0.0033473969 -0.013297739 4287768643
-0.015538946 -0.003993094 -0.013037714 4287181889
-0.01357308 -0.003863126 -0.013436391 4287379514
-0.011468604 -0.0045079887 -0.013177897 4287312958
-0.0093586557 -0.0051523447 -0.012920405 4287181890
-0.0072432756 -0.0057962239 -0.012663919 4287639359
0.00049986318 -0.004497394 -0.014917291 4286071364
0.0024718121 -0.0043659806 -0.015316415 4286332993
0.0044438206 -0.0042344481 -0.015715469 4286463808
-0.01005207 -0.0036507398 -0.016729396 4287181123
-0.0078040026 -0.005074352 -0.015817884 4287507778
-0.0058378838 -0.0049438626 -0.016216226 4287966014
-0.0037226528 -0.0055896789 -0.015961181 4287377728
-0.0020570941 -0.0039061755 -0.017665502 4287574589
6.0983002e-05 -0.0045515895 -0.017410789 4287509564
0.0020274259 -0.0044205636 -0.017808806 4287444283
0.0043133646 -0.0058408231 -0.016904414 4286790719
0.0062852837 -0.0057091713 -0.01730334 4286332484
-0.000685554 -0.0030402243 -0.02119891 4287115843
0.0012700446 -0.0029099435 -0.02159474 4287966269
0.0037043132 -0.0051131845 -0.020041835 4287247169
0.0059924796 -0.0065375566 -0.019141052 4287377728
0.0082913786 -0.0079610348 -0.018242382 4287050563
0.0073815957 -0.0071096644 0.048001457 4282798439
0.027425231 -0.010401659 0.036579344 4282732394
-0.027313463 -0.0039891452 -0.024153274 4282928744
-0.035751194 -0.0068426877 -0.028033435 4282994278
-0.018279523 -0.0064947084 -0.030908994 4282994534
-0.042174622 -0.0071619526 -0.03177733 4282206328
-0.0072266906 -0.0096427575 -0.037382767 4282338928
-0.0077947266 -0.0088101923 -0.040450756 4282404973
-0.030919276 -0.0059077889 -0.049052183 4282732394
-0.012046941 -0.0093553513 -0.053887833 4281027209
-0.033972569 -0.007241495 -0.056984063 4282600303
-0.025137469 -0.0080173388 -0.062373746 4282994534
-0.019015267 -0.010939158 -0.061019108 4282074748
-0.019003287 -0.013286829 -0.061526317 4282339183
