# .PCD v0.7 - Point Cloud Data file format
VERSION 0.7
FIELDS x y z rgba
SIZE 4 4 4 4
TYPE F F F U
COUNT 1 1 1 1
WIDTH 288
HEIGHT 1
VIEWPOINT 0 0 0 1 0 0 0
POINTS 288
DATA ascii
-0.0026234984 -0.00055743009 0.027987136 4288096829
0.00013960898 -0.0032966733 0.030256731 4288814908
0.017370742 -0.0049222112 0.029055586 4286986048
-0.008067105 0.0025136098 0.022924209 4289014829
-0.006043952 0.0026684552 0.022438219 4289406764
-0.0036658719 0.0013706684 0.0233304 4289864489
-0.0012770742 7.3879957e-05 0.024220066 4289537578
0.0014878437 -0.0026739016 0.026482826 4290060839
0.003903389 -0.00396844 0.02736629 4289081385
0.0063296296 -0.00526198 0.028247235 4289081128
0.0081945956 -0.0043785721 0.027068133 4289014828
0.0096677169 -0.0020451173 0.0245199 4289931553
0.011516936 -0.0011626631 0.023344764 4289146918
0.013559535 -0.0010051876 0.02285493 4291435799
0.016004737 -0.0022966415 0.023731804 4290845473
0.018460622 -0.0035871789 0.024606252 4290714404
0.021546893 -0.0070491135 0.027524346 4288228409
0.023822816 -0.0076131746 0.027710529 4288816184
-0.01007434 -5.8121979e-05 0.022899373 4287508289
-0.0087363906 0.003012687 0.019657692 4289276458
-0.0068958998 0.0038956553 0.018485518 4289014828
-0.0047061779 0.0033212379 0.018689634 4288622894
-0.0023311973 0.0020189583 0.019579349 4289080618
0.00023701042 -1.0542572e-05 0.02115283 4289473573
0.002636075 -0.0013106987 0.02203696 4289932574
0.0048580393 -0.0018821582 0.022233693 4289343013
0.0068949461 -0.0017255321 0.021744931 4289342759
0.0085457265 -0.00011408329 0.019888939 4289736224
0.010185979 0.0014966875 0.018035589 4289801248
0.012212507 0.0016528815 0.017549591 4289408293
0.014641229 0.00035575032 0.01842715 4289408294
0.017284356 -0.0016669706 0.019983413 4289668393
0.020562556 -0.0058673173 0.023577334 4288752945
0.023245566 -0.0078867152 0.025124216 4289144113
-0.010735095 0.00044636428 0.019634238 4288097594
-0.0094044395 0.0035254061 0.016400794 4289341739
-0.0079205297 0.0058719516 0.013859021 4290322978
-0.0057444274 0.0052942187 0.014064802 4289277224
-0.0032036006 0.0032559261 0.015639851 4289342759
-0.00082905218 0.0019493029 0.016526559 4290650908
0.0015561953 0.00064368546 0.01741075 4289539364
0.0037645437 6.8955123e-05 0.01760911 4289539620
0.0059783086 -0.00050525367 0.01780632 4289604899
0.0074258149 0.0018393844 0.015273938 4290258973
0.0090530515 0.0034535229 0.013426928 4289801249
0.011066165 0.0036086887 0.012944149 4288950569
0.013681933 0.0015771538 0.014501953 4289081385
0.016517192 -0.0011817813 0.016735608 4289146408
0.019786052 -0.0053960383 0.020322034 4289407529
0.022460338 -0.0074227005 0.021866133 4289537578
-0.011394583 0.00096446276 0.01637877 4288359224
-0.010071229 0.0040517002 0.013153544 4289800993
-0.0082465336 0.0049378127 0.011988385 4289865763
-0.006250225 0.0050906837 0.011508893 4288623149
-0.0035360046 0.0023124963 0.013764253 4289015594
-0.0013467669 0.0017338395 0.013965385 4289669668
0.00084788352 0.0011557043 0.014165366 4289473828
0.0026731268 0.002042532 0.013000501 4289408548
0.0048732609 0.0014650524 0.013199339 4289670434
0.0063079596 0.003815271 0.010674881 4289866273
0.0083128996 0.0039696842 0.01019397 4290586139
0.0101199 0.0048555732 0.009033896 4289146919
0.012924962 0.0020853728 0.011268202 4289342758
0.015751287 -0.00068300217 0.013497459 4290258718
0.019422753 -0.0063726753 0.018431088 4289277989
0.022093611 -0.0084061995 0.019971142 4289472553
-0.012390092 0.0029677674 0.011763642 4289406253
-0.010736756 0.0045915321 0.0099159945 4289408038
-0.0087460205 0.0047438368 0.009437738 4289669668
-0.0065785572 0.0041610599 0.0096422918 4288819243
-0.0040472001 0.0021087974 0.011209909 4289015593
-0.0020455047 0.0022623092 0.0107293 4289277223
0.00014082342 0.0016813651 0.010929598 4289408549
0.001958169 0.0025697276 0.0097682886 4289343014
0.0041499808 0.0019894391 0.0099674463 4289473574
0.0057696812 0.0036117062 0.0081285872 4289800739
0.00776916 0.0037656799 0.0076489784 4289604389
0.0097687095 0.0039197803 0.0071694367 4289081129
0.01257015 0.0011405051 0.0093981139 4288950058
0.015595965 -0.0023701489 0.012298178 4289473318
0.01885413 -0.0066116229 0.015867764 4289080364
0.021310495 -0.0079194158 0.01672926 4289537578
-0.013046674 0.0035173967 0.0085306577 4289733674
-0.011229947 0.0044071972 0.0073705129 4289669670
-0.0090709031 0.0038214028 0.0075754095 4290651164
-0.0069064647 0.0032361895 0.0077790562 4290454814
-0.0045575574 0.0019143149 0.0086620338 4290193184
-0.0025613233 0.002067402 0.0081827268 4289342759
-0.00038064644 0.0014838129 0.00838276 4289277734
0.0016184337 0.0016373545 0.00790295 4289670179
0.0034279563 0.0025274307 0.0067452155 4289211944
0.0050399601 0.0041534156 0.0049114674 4289146408
0.0074212216 0.0028347895 0.0057872385 4289735204
0.0094179697 0.0029886663 0.005308371 4289277224
0.012416042 -0.00053524226 0.008206889 4289342759
0.015237786 -0.003321588 0.010424318 4289407528
0.018491903 -0.0075765103 0.013985099 4289341739
0.020945059 -0.0088889748 0.01484417 4289406764
-0.013365529 0.0026002005 0.0066703334 4289537323
-0.011551395 0.0034919232 0.0055124573 4290127649
-0.0097424462 0.0043833852 0.0043559149 4290585629
-0.0072339028 0.0023160577 0.0059191845 4290650908
-0.0050670505 0.0017289445 0.0061207153 4290781979
-0.0028947741 0.0011423826 0.0063210428 4289604389
-0.00071711093 0.0005563572 0.0065201558 4289539364
0.0012791604 0.0007096827 0.0060410239 4289670434
0.0028966442 0.0023403466 0.0042091049 4289539364
0.0045035854 0.0039703771 0.0023797601 4289408549
0.0066842549 0.0033850595 0.0025785901 4290651418
0.0092650764 0.0013243258 0.0041252114 4290650908
0.012061927 -0.0014728606 0.0063420199 4290520093
0.014880046 -0.0042682886 0.0085538272 4289603878
0.017924782 -0.0077993125 0.011433246 4289145644
-0.013851956 0.0024301261 0.0041334592 4289473318
-0.012384459 0.0048081577 0.0016197972 4289146409
-0.010239378 0.0042168796 0.0018247887 4289669668
-0.008088883 0.0036261827 0.0020285212 4289408038
-0.0055757016 0.0015527755 0.0035858601 4289931554
-0.0034090802 0.00096353889 0.0037859567 4289604389
-0.0012370646 0.00037486851 0.0039848052 4289997344
0.00038056821 0.0020098314 0.002155941 4289408548
0.0021769255 0.0029032826 0.0010046102 4289997344
0.0035842806 0.0052776486 -0.0014938414 4289604643
0.0059485175 0.0039489269 -0.00062047318 4290193438
0.008323431 0.0026211441 0.00025043637 4289474084
0.011308551 -0.00092572719 0.0031358525 4290455069
0.01452275 -0.0052102283 0.0066867117 4289342503
0.017358502 -0.0080129281 0.0088879112 4289080873
-0.016476728 0.0028633848 0.0013984963 4289015593
-0.014841057 0.0045031905 -0.00043207407 4289735714
-0.013045378 0.0053978786 -0.0015822984 4290127649
-0.011081733 0.0055480525 -0.0020540841 4289015593
-0.0089422017 0.0049543232 -0.001849331 4288950058
-0.0064403638 0.0028734207 -0.00029408932 4290258463
-0.0041036308 0.0015375167 0.00058214366 4290128159
-0.0019399226 0.00094603002 0.00078137964 4289669923
-0.00014359504 0.0018415153 -0.00036844984 4289539363
0.0014584735 0.003479749 -0.0021901987 4289866273
0.0030500069 0.0051173419 -0.0040093921 4289800993
0.0048253611 0.0060116127 -0.0051538832 4289146919
0.0073834546 0.0039359182 -0.0036114901 4289016104
0.010157146 0.0011194274 -0.0014021285 4289539109
0.013761297 -0.0046633929 0.0034827124 4290128159
0.016588124 -0.0074755698 0.005679572 4289408549
-0.017450787 0.004955478 -0.0031574667 4289734948
-0.015660472 0.0058518052 -0.0043048747 4288950313
-0.013705052 0.0060012192 -0.0047747903 4289146153
-0.011749513 0.0061507374 -0.0052446425 4288949803
-0.0097938552 0.0063004345 -0.0057144165 4289603878
-0.0074816309 0.0049581379 -0.0048356205 4290062113
-0.0051586851 0.0036167577 -0.0039592609 4289604389
-0.0030085929 0.0030220151 -0.0037584007 4289996834
-0.0014116615 0.0046640858 -0.0055757947 4289342503
0.00055243075 0.0048150718 -0.0060471222 4289538853
0.0019421205 0.0072012693 -0.0085316598 4290454814
0.0040925369 0.0066070557 -0.0083304979 4289931808
0.0060515366 0.006757997 -0.0088003427 4289212199
0.0094066933 0.0016980991 -0.0045858221 4290193183
0.012799006 -0.0033587664 -0.00038016401 4290717209
0.016023755 -0.0076686591 0.0031488333 4288752944
-0.018093221 0.0055713654 -0.0063457265 4287510838
-0.016310804 0.0064693242 -0.0074896738 4286660159
-0.014363483 0.00661809 -0.0079576559 4286987323
-0.01258878 0.0075156689 -0.0090995133 4287510583
-0.010643873 0.0076645166 -0.0095667131 4287641399
-0.0083427951 0.0063169301 -0.0086884499 4288557104
-0.006031014 0.004970327 -0.0078127049 4289015594
-0.0037085451 0.0036247075 -0.0069394074 4289342503
-0.0019333288 0.0045229346 -0.0080809481 4289342759
2.5294721e-05 0.0046734586 -0.0085509829 4289800739
0.001601439 0.006318599 -0.010359954 4289408295
0.0035549179 0.0064689815 -0.010828562 4288623149
0.0055084601 0.0066195056 -0.011297096 4288884778
0.008657489 0.002290383 -0.0077599036 4289866274
0.011838377 -0.0020361543 -0.0042302581 4289278244
0.015051141 -0.006360136 -0.00070810877 4288753963
-0.018240646 0.0039464086 -0.0075014383 4287835963
-0.016458184 0.0048465431 -0.0086437985 4287903028
-0.014680896 0.0057463646 -0.0097847655 4288360498
-0.012736257 0.0058950484 -0.01025201 4287968308
-0.010791499 0.0060438812 -0.010719184 4288098868
-0.0086688101 0.005442366 -0.010515183 4288098869
-0.0063602291 0.0040910989 -0.0096418597 4288164913
-0.0042241067 0.0034908503 -0.0094409063 4288165168
-0.002639927 0.0051407367 -0.01124876 4288688684
-0.00087784231 0.0060403198 -0.012385473 4288623404
0.00087903067 0.0069396049 -0.013520785 4288623404
0.0032118708 0.0055908263 -0.012652818 4288623148
0.0053589903 0.0049920976 -0.012454014 4288230703
0.0081085786 0.0021473691 -0.010258273 4288688173
0.011081103 -0.0014442131 -0.0074021267 4288754219
0.014488857 -0.0065304562 -0.0032227347 4288557869
-0.018223643 0.0015680715 -0.0079842182 4287574334
-0.01627145 0.0017170832 -0.0084534707 4287967544
-0.014658496 0.0033728108 -0.010265615 4288164148
-0.012539022 0.0027685463 -0.010062613 4288295730
-0.010764107 0.0036706775 -0.011201255 4288229683
-0.0086391196 0.0030670911 -0.010999389 4288426289
-0.0065087341 0.0024640933 -0.010798771 4288492078
-0.0043729618 0.0018616319 -0.010599346 4288622893
-0.0026029535 0.0027638525 -0.011736393 4288753963
-0.00083816797 0.00366579 -0.012872096 4289342758
0.001112286 0.0038158 -0.013340075 4289604644
0.0030627996 0.003965959 -0.013807982 4289211943
0.0054057315 0.0026137382 -0.012945622 4289081128
0.0075605027 0.0020135418 -0.012750179 4288688429
0.010728043 -0.0023403913 -0.0092367167 4288949549
0.013723299 -0.0059410408 -0.006394011 4289079854
-0.018371195 -5.8487058e-05 -0.0091410847 4287639868
-0.016252317 -0.00066520274 -0.008939785 4287902008
-0.014297493 -0.0005158931 -0.0094095888 4288164148
-0.0119983 -0.001876995 -0.0085408175 4288164404
-0.010212734 -0.00097192079 -0.0096803727 4288295729
-0.0082549378 -0.00082199275 -0.010150605 4288295729
-0.0064771175 8.2731247e-05 -0.011288106 4288230704
-0.0047045089 0.00098721683 -0.012424257 4288361519
-0.0027517267 0.0011371374 -0.012893006 4288492334
-0.00079886243 0.0012871847 -0.013361681 4289080874
0.0011540689 0.0014373884 -0.013830271 4289669669
0.003300406 0.0008340776 -0.013634611 4288688173
0.0054521039 0.00023131073 -0.01344014 4288361008
0.0076091625 -0.0003709197 -0.013246861 4288884524
0.010375414 -0.0032317862 -0.01106798 4288294963
0.013570778 -0.0075965822 -0.0075707855 4287640379
-0.018518694 -0.00168477 -0.010297754 4287574588
-0.016400173 -0.002293691 -0.010097981 4287902008
-0.014276221 -0.0029020831 -0.0098994346 4288164405
-0.012146864 -0.0035099387 -0.0097020874 4288033333
-0.010186676 -0.0033599585 -0.010172994 4288033843
-0.0084036216 -0.0024527833 -0.01131025 4288230194
-0.0066257492 -0.0015458763 -0.012446159 4288099378
-0.0046705604 -0.0013958663 -0.012915564 4288230704
-0.0027152896 -0.0012457669 -0.013384913 4288361519
-0.00057211518 -0.0018517822 -0.013190319 4287510838
0.0013859682 -0.0017011985 -0.013660149 4287118394
0.0035372414 -0.0023063272 -0.013467298 4287248953
0.0054981001 -0.0021552816 -0.013937608 4288099378
0.0076574609 -0.0027595535 -0.013746449 4288229939
0.010425385 -0.0056290478 -0.011574427 4287967543
0.013214551 -0.0084967241 -0.0094074402 4286986048
-0.018829949 -0.0025504231 -0.012122215 4287640123
-0.016547993 -0.0039218813 -0.011255969 4288098104
-0.014424399 -0.0045325011 -0.011058965 4287836984
-0.012295391 -0.005142577 -0.010863149 4288098358
-0.010335352 -0.0049926341 -0.011334033 4288098613
-0.0083752237 -0.0048425272 -0.011804827 4288099124
-0.0065946653 -0.0039332137 -0.012939763 4288033843
-0.004636988 -0.0037830621 -0.013409794 4288099633
-0.0026792213 -0.003632769 -0.013879747 4288295728
-0.00053375587 -0.0042408109 -0.013687321 4287314233
0.0014268123 -0.004090026 -0.014157743 4286790973
0.0035803914 -0.004697226 -0.013967027 4286856509
0.0055437386 -0.0045459718 -0.014437926 4287183418
0.0079035908 -0.0059099048 -0.013589235 4286987068
0.01047498 -0.0080303475 -0.012083827 4286528324
-0.021247886 -0.0027969927 -0.01414254 4287442243
-0.01914078 -0.0034113452 -0.013943379 4287639103
-0.01719448 -0.0032628179 -0.014411238 4287574079
-0.015079185 -0.0038763136 -0.014213813 4287508799
-0.013129994 -0.0037273318 -0.014682182 4287443263
-0.010832354 -0.0051015913 -0.013822657 4287639869
-0.0088776723 -0.0049519241 -0.014292155 4287706169
-0.0067434162 -0.0055634081 -0.014098952 4287705913
-0.0049680248 -0.0046521872 -0.015230943 4287640634
-0.0030130595 -0.0045021027 -0.015700227 4287902263
-0.0010580346 -0.004351899 -0.016169427 4287902519
0.0010871515 -0.0049620047 -0.01597845 4287640889
0.0034304336 -0.0063319206 -0.015129183 4287640888
0.0053936243 -0.0061806664 -0.015600038 4287248698
0.0075548925 -0.0067891553 -0.015412618 4286855743
-0.0056624785 -0.0039899722 -0.018369654 4287378239
-0.0035310462 -0.0046036541 -0.018177154 4287247679
-0.0017686933 -0.0036909208 -0.019304248 4288163384
0.00055805966 -0.0050666034 -0.018454337 4287509564
0.0030879825 -0.0072037727 -0.016949033 4288034353
0.0050483644 -0.0070527494 -0.017419221 4287903793
0.0072066337 -0.0076637045 -0.017232677 4287313724
0.0093702339 -0.0082740784 -0.017047348 4287573823
0.027484775 -0.0083161145 0.033772178 4282928999
0.021490352 -0.013463229 -0.011695405 4282994279
0.022896636 -0.013446137 -0.014655704 4282797419
-0.0055577084 -0.00729689 -0.028508816 4283255398
-0.006071277 -0.0073503926 -0.030951593 4283058794
-0.037984312 -0.0058269948 -0.029303126 4282863718
-0.0064008608 -0.0081733242 -0.032739148 4283058794
-0.0095153898 -0.0076028481 -0.037783183 4282600559
-0.010200091 -0.0068343058 -0.040846229 4282338674
-0.010524165 -0.0076273158 -0.042613339 4282272883
