# .PCD v0.7 - Point Cloud Data file format
VERSION 0.7
FIELDS x y z rgba
SIZE 4 4 4 4
TYPE F F F U
COUNT 1 1 1 1
WIDTH 282
HEIGHT 1
VIEWPOINT 0 0 0 1 0 0 0
POINTS 282
DATA ascii
0.012777321 -0.0040582567 0.026918348 4287705403
0.015609052 -0.006865494 0.029129446 4290125099
0.018462136 -0.0096709654 0.031335883 4289013044
0.020544115 -0.0095143318 0.030868933 4287377983
-0.011000324 -0.0029655546 0.026708674 4289012789
-0.0096100084 0.00016598403 0.02355586 4288555319
-0.0077429824 0.0010621473 0.022425991 4290257189
-0.0057125203 0.0012135506 0.021969546 4289537578
-0.0029967912 -0.0016120002 0.024199266 4290322724
-0.00043360889 -0.0036917627 0.025753353 4289799463
0.0017923824 -0.0042824447 0.025963251 4288491313
0.0038445182 -0.0041289255 0.02550232 4289014829
0.005532857 -0.0024883524 0.023703225 4289080108
0.0073952042 -0.0015916824 0.022575073 4289080364
0.0090650432 4.774332e-05 0.020780314 4289603114
0.011483978 -0.0012849271 0.021657363 4289995559
0.014298795 -0.0041020736 0.023865595 4289995303
0.017525453 -0.008402437 0.027401451 4289668903
0.019992437 -0.0097311288 0.028268006 4289013808
-0.011953447 -0.00089968741 0.022099994 4288884268
-0.010249581 0.00074547529 0.020300057 4289276969
-0.008556243 0.0023899823 0.018502589 4289931043
-0.0067050233 0.0032872409 0.017378032 4289212199
-0.0043457188 0.00194484 0.018264487 4289866274
-0.0018019341 -0.00014282763 0.01981787 4290062368
0.00058151409 -0.0014831722 0.020699095 4289539109
0.0026175193 -0.0013308674 0.020241778 4289539363
0.0042901151 0.00031287223 0.018449496 4289800993
0.0059521459 0.0019559041 0.016659733 4289669924
0.0076035969 0.0035982728 0.014872438 4289081128
0.0098136254 0.0030048639 0.015084735 4288950313
0.012606192 0.00017739832 0.017291285 4289604388
0.016005242 -0.0048822239 0.021486681 4289799974
0.018848469 -0.0077055991 0.023682076 4288752689
0.021111896 -0.0082945004 0.023882773 4286201924
-0.012744296 0.00043879449 0.018178478 4288360499
-0.011050832 0.0020875335 0.016384169 4290126884
-0.0092023201 0.0029865801 0.015261835 4289408294
-0.0073590316 0.0038853288 0.014140743 4288754219
-0.0050082617 0.0025380254 0.015025745 4289343014
-0.0029938705 0.0026884377 0.014573078 4289997089
-0.00062695518 0.0013425201 0.01545466 4289931554
0.0012140386 0.0022416562 0.014334439 4289408549
0.0034128912 0.00164482 0.014547336 4289343269
0.0048803091 0.0040390491 0.012097913 4290455324
0.0065186843 0.0056847781 0.010316833 4289931553
0.0087150596 0.0050881505 0.010530575 4289081385
0.011685561 0.0015039593 0.013397126 4289603878
0.015072411 -0.0035717115 0.017583583 4290126628
0.018101541 -0.0071512163 0.0204372 4289341228
0.020556808 -0.0084893554 0.021299839 4288098358
-0.013693601 0.0025466681 0.013601082 4288752688
-0.011687763 0.002695933 0.013149946 4290061858
-0.009681806 0.0028453469 0.012698884 4290454813
-0.0078437887 0.0037458763 0.011580656 4289866019
-0.0056695864 0.0031445622 0.011796973 4289931554
-0.0034899674 0.0025437474 0.012012216 4290062113
-0.0013049431 0.001943469 0.012226279 4289342759
0.00052812323 0.0028441399 0.011109552 4289801249
0.002537284 0.0029945374 0.010658349 4289604899
0.003994491 0.0053944662 0.0082162237 4289800994
0.0056224726 0.007043682 0.0064408435 4289735204
0.0079971664 0.0056947023 0.0073177917 4289669924
0.010766543 0.0028482229 0.0095162047 4289669668
0.014141196 -0.0022434741 0.013693719 4289800739
0.017158533 -0.0058346838 0.016541623 4289473574
0.020002538 -0.008675158 0.018723596 4289733674
-0.014001425 0.0016615018 0.011709864 4288033078
-0.012160931 0.002564095 0.010592538 4289734438
-0.0099952631 0.0019597337 0.01080891 4289866018
-0.0079920255 0.0021090582 0.010358545 4289015594
-0.0058181733 0.0015055537 0.010573271 4289604389
-0.0036389045 0.00090253353 0.010786912 4289342759
-0.0016300566 0.0010526627 0.010335575 4289604389
0.00020038337 0.0019553006 0.0092210425 4289604899
0.0022067241 0.0021054745 0.0087704612 4289539620
0.0036617257 0.0045116544 0.0063338643 4289800993
0.0054737553 0.0054132566 0.0052238023 4289408549
0.0078478977 0.0040599182 0.0060975393 4289604389
0.010424528 0.0019560754 0.0076292409 4289800483
0.013600526 -0.0023998916 0.011136393 4289604389
0.016414272 -0.0052514225 0.013318365 4289473829
0.019049553 -0.0073504001 0.01483718 4290193184
-0.014468495 0.0015369207 0.0091563379 4289211944
-0.012633264 0.0024412721 0.0080418577 4289866018
-0.01047327 0.001834318 0.008257824 4289735204
-0.0083078556 0.0012279004 0.0084726801 4289146409
-0.0063073225 0.0013771206 0.0080230078 4289604389
-0.0039607733 1.6614795e-05 0.0088990023 4289538853
-0.0019547418 0.00016650558 0.0084482906 4289473828
5.1371753e-05 0.00031654537 0.0079976572 4289474339
0.0018766187 0.001221031 0.0068860976 4289670690
0.0035129972 0.0028793812 0.0051154112 4289605154
0.0051387884 0.0045371205 0.0033471426 4289408548
0.0073208027 0.0039329007 0.0035590967 4290128159
0.0098913498 0.0018221661 0.0050871102 4289997344
0.013060678 -0.0025473088 0.0085857874 4289997089
0.015868137 -0.0054078773 0.01076248 4289408548
0.018497348 -0.0075138509 0.012277682 4289341739
-0.014615785 -9.4845891e-05 0.0079378625 4289473828
-0.013104785 0.0023274869 0.0054978421 4289997599
-0.010950457 0.00171794 0.0057134246 4289735458
-0.0089581572 0.00186643 0.0052654995 4290585629
-0.0067956522 0.0012576878 0.0054794578 4290650908
-0.0046277381 0.00064952672 0.0056922613 4290585629
-0.0024544075 4.1902065e-05 0.0059039509 4289604643
-0.00063185766 0.00094820559 0.004794552 4289539620
0.0013661869 0.0010977536 0.0043458259 4289670433
0.0031809025 0.0020037368 0.0032383939 4289735714
0.0049903356 0.0029094964 0.0021321913 4289801249
0.0067945197 0.0038149357 0.0010273149 4290781979
0.0093590058 0.0016972423 0.0025517484 4290716954
0.012327604 -0.0019301325 0.0053854836 4290781978
0.015519559 -0.0063106865 0.0088691423 4290455324
0.017945975 -0.0076683015 0.0097249011 4289211179
-0.015081588 -0.00020572543 0.0053944914 4288622128
-0.013737395 0.0029827356 0.0022986634 4289668903
-0.011755988 0.0031302869 0.0018530926 4289604389
-0.0099417455 0.0040376559 0.00074677821 4290323998
-0.0079628043 0.0041852593 0.00030194875 4290062369
-0.0056386217 0.0028143823 0.001176334 4291043609
-0.0033037215 0.0014445037 0.0020483788 4289866529
-0.0011359937 0.00083440542 0.0022597369 4289604899
0.00067603216 0.001742214 0.0011544731 4289735714
0.002482798 0.0026497543 5.0483271e-05 4289932064
0.0042843111 0.0035570338 -0.0010522204 4290128159
0.0060805455 0.0044640154 -0.0021536546 4289408038
0.0082539022 0.0038550124 -0.0019430527 4289277479
0.01101419 0.00097343326 0.00023082085 4289735459
0.014385341 -0.0041788667 0.0043625319 4289080363
0.017395418 -0.0078136623 0.0071788253 4288950313
-0.015546571 -0.00030766428 0.002857863 4287640888
-0.014368787 0.0036513731 -0.00089060981 4289735459
-0.012559921 0.0045603365 -0.0019941004 4289931298
-0.010756265 0.0054690689 -0.0030963616 4289538853
-0.0087881275 0.0056158528 -0.0035387771 4289015849
-0.0063027553 0.0034783781 -0.0020072842 4289735714
-0.0039763711 0.0021034926 -0.0011366103 4290259229
-0.0021723695 0.0030127615 -0.0022385614 4289605154
-0.00037361681 0.0039217174 -0.0033391947 4289932064
0.0016029067 0.0040697604 -0.0037830034 4290324254
0.0035794862 0.0042179376 -0.0042267265 4290782233
0.0051794536 0.0058867484 -0.0059790583 4289604389
0.0071508139 0.0060347915 -0.0064214142 4288819499
0.0100905 0.0023836568 -0.0035978574 4289015849
0.013645772 -0.0035443008 0.0011774916 4289604644
0.016845703 -0.0079500675 0.0046395035 4289081638
0.019875934 -0.011593983 0.0074430639 4287379258
-0.016646236 0.0026578903 -0.0023092907 4287247679
-0.015483599 0.0066265762 -0.0060460465 4289277224
-0.013690639 0.0075365305 -0.0071443478 4290585629
-0.011736039 0.0076821595 -0.0075838277 4289539109
-0.0096118115 0.0070641041 -0.0073662559 4289538853
-0.0069656633 0.0041557103 -0.0051809372 4289931554
-0.0046478137 0.0027758479 -0.0043117041 4290193694
-0.0030292496 0.004449904 -0.0060653179 4289997344
-0.0014212467 0.0061232522 -0.0078164274 4289539364
0.0003590025 0.0070331097 -0.0089111412 4290062624
0.0023194626 0.0071800798 -0.0093512395 4290389788
0.0044681132 0.0065647289 -0.0091385441 4289735204
0.0064313374 0.0067121685 -0.0095790634 4289604643
0.0091684386 0.0038115755 -0.0074133291 4289866274
0.012319081 -0.00061093271 -0.0039504115 4289538599
0.015899248 -0.0065541714 0.00080619194 4289277479
0.01911911 -0.010971203 0.0042537982 4288623148
-0.017426148 0.0041162521 -0.0061414032 4286593604
-0.016111977 0.0073283985 -0.0092105428 4289931554
-0.014326934 0.0082398802 -0.010305357 4289538598
-0.012213811 0.0076187178 -0.010087118 4288623148
-0.010095268 0.006998077 -0.0098700086 4288950313
-0.0076273531 0.0048463419 -0.0083446 4289735203
-0.0054926723 0.0042271763 -0.0081309099 4289735203
-0.0038845055 0.0059047192 -0.0098788189 4290127904
-0.0021069534 0.006816417 -0.010971417 4289539364
-0.00033464283 0.0077278316 -0.012062688 4289866529
0.0016176812 0.0078741759 -0.012500972 4289866529
0.0037579946 0.0072560757 -0.012288057 4288754219
0.0060942918 0.0058740526 -0.011425701 4288754219
0.0088277757 0.0029645562 -0.0092658158 4289408293
0.011778489 -0.00070717931 -0.0064612944 4289277223
0.014954418 -0.0051405877 -0.0030139182 4289015593
0.01816228 -0.0095714629 0.00042638648 4289210414
-0.016416829 0.0065059662 -0.011054152 4288884778
-0.014634434 0.0074194446 -0.012146753 4289145898
-0.012357831 0.0060274899 -0.01127521 4289342759
-0.010408767 0.0061728284 -0.011713357 4288885034
-0.0081160404 0.0047823787 -0.010845278 4289146408
-0.0059870295 0.004160583 -0.01063195 4289277223
-0.0040297322 0.0043069273 -0.011071642 4289342759
-0.0022521429 0.0052208006 -0.012162578 4289538853
-0.00066221878 0.0069015026 -0.013902889 4289408038
0.0014723763 0.0062806904 -0.013690443 4288754219
0.003800083 0.0048935711 -0.012829603 4288754219
0.0061384626 0.0035074353 -0.011971091 4288557868
0.0086806007 0.001355812 -0.010466551 4288950314
0.011238713 -0.00079441816 -0.0089655276 4288950313
0.014407977 -0.0052413046 -0.0055266041 4289015593
0.017408125 -0.0089198649 -0.0027413024 4289472043
-0.016238414 0.0033754259 -0.01093276 4288098614
-0.014450647 0.0042914078 -0.012024865 4288425779
-0.012501813 0.0044365972 -0.01246306 4288950314
-0.010383978 0.0038115978 -0.012249113 4288884779
-0.0082607307 0.0031871051 -0.012036314 4289212199
-0.0059578307 0.0017931759 -0.011173727 4288623659
-0.0038211308 0.0011699498 -0.010963744 4288492843
-0.0020381734 0.0020863339 -0.012054177 4288558123
-0.00026045367 0.0030024797 -0.013143317 4288623659
0.0016968735 0.0031491965 -0.01358273 4288230958
0.0038417876 0.0025270805 -0.013374211 4288361773
0.0061822757 0.0011368096 -0.012519492 4288558124
0.0087263137 -0.0010211468 -0.011020368 4288295729
0.011286341 -0.003177762 -0.0095247347 4288426033
0.014258716 -0.0068693012 -0.0067416155 4288229683
-0.016382255 0.0017827004 -0.012122067 4287968053
-0.014431022 0.0019279271 -0.01256091 4288164403
-0.012147542 0.00052782893 -0.011697592 4289146408
-0.010190804 0.0006737411 -0.01213746 4289146408
-0.0080625936 4.74751e-05 -0.011927431 4288950569
-0.0061030351 0.00019384176 -0.01236775 4288885289
-0.0039666891 -0.00043156743 -0.012159349 4288623658
-0.0020043254 -0.00028473884 -0.012600096 4288558123
-4.189834e-05 -0.00013778359 -0.013040761 4288362029
0.001920592 9.3206763e-06 -0.013481336 4288295983
0.0042578168 -0.0013856515 -0.012629325 4288426798
0.0064157322 -0.0020088553 -0.012425231 4288296239
0.0089643262 -0.0041728467 -0.010932149 4288034099
0.011333592 -0.005565092 -0.010086993 4288753963
0.014109492 -0.0084969848 -0.0079563912 4288165423
-0.016526051 0.00019025803 -0.013311164 4287836984
-0.014248524 -0.0012147129 -0.012449929 4288033589
-0.012126178 -0.0018438324 -0.012240453 4288753963
-0.0099984035 -0.0024724305 -0.012032093 4289212454
-0.0080364123 -0.0023260191 -0.01247306 4288950824
-0.0062482059 -0.0014052019 -0.013561556 4289081639
-0.0041122139 -0.0020327941 -0.013354739 4288296493
-0.0019708462 -0.0026598573 -0.013149036 4288296493
-5.915761e-06 -0.0025126934 -0.013590256 4288230959
0.0019590706 -0.0023654103 -0.014031393 4288034609
0.003924109 -0.002218008 -0.014472445 4288034609
0.0062688179 -0.0036166459 -0.0136253 4287903794
0.0086241812 -0.0050143152 -0.012780493 4288230193
0.010990232 -0.0064110905 -0.011937926 4288164404
0.013564717 -0.0085793585 -0.010455454 4287836984
-0.016509447 -0.0021793246 -0.013851063 4288231469
-0.014392842 -0.0028112084 -0.013642015 4288099634
-0.011939477 -0.0049965978 -0.012138551 4288099634
-0.010143422 -0.0040733144 -0.013227357 4288753709
-0.0080105998 -0.0047035664 -0.013021702 4288426799
-0.0063933469 -0.0030039474 -0.014755135 4288426798
-0.0044340231 -0.002857469 -0.015195301 4288099888
-0.0024746396 -0.0027108863 -0.015635395 4288230959
-0.00015192851 -0.0041158199 -0.014786972 4288165423
0.0019971877 -0.0047441944 -0.014584472 4287707443
0.0041516796 -0.0053720921 -0.014383039 4287838004
0.0061219186 -0.0052241683 -0.014825167 4287968819
0.0082844645 -0.0058511272 -0.014625361 4288098868
0.01045236 -0.0064775795 -0.01442668 4287576118
0.013020784 -0.0086528063 -0.012947786 4288032823
-0.018764213 -0.0031388253 -0.015249899 4286985028
-0.016653385 -0.0037733614 -0.015041357 4288035119
-0.014374293 -0.0051868334 -0.014187129 4287902773
-0.012249984 -0.0058201253 -0.013981422 4288098868
-0.010456555 -0.0048948973 -0.015067985 4288294963
-0.0084975436 -0.0047487095 -0.015508277 4288295473
-0.0067119114 -0.003823787 -0.016592873 4288361518
-0.0045792945 -0.0044559464 -0.016388634 4287969073
-0.0026200637 -0.0043093562 -0.016828684 4287904048
-0.00047934055 -0.0049406439 -0.016626066 4287904048
0.0016667545 -0.0055714101 -0.01642455 4287576628
0.0036314689 -0.0054240227 -0.016865535 4287314233
0.0055962279 -0.0052764863 -0.017306423 4287575608
0.0077530928 -0.0059060529 -0.017107023 4287969073
0.0099153221 -0.0065351278 -0.016908674 4287707189
0.012675051 -0.009494096 -0.014794423 4287769409
-0.017117217 -0.0038035437 -0.017522896 4287508288
-0.015006639 -0.0044401586 -0.01731587 4287768388
-0.013055936 -0.0042948574 -0.017754504 4287573824
-0.01110515 -0.004149422 -0.018193068 4287639103
0.021649936 -0.0090535134 0.036090944 4282928999
-0.014727909 -0.0072517991 -0.037690472 4282011509
-0.015201036 -0.007204704 -0.040109716 4282208113
-0.01581369 -0.0086980537 -0.043679189 4282797928
