# .PCD v0.7 - Point Cloud Data file format
VERSION 0.7
FIELDS x y z rgba
SIZE 4 4 4 4
TYPE F F F U
COUNT 1 1 1 1
WIDTH 283
HEIGHT 1
VIEWPOINT 0 0 0 1 0 0 0
POINTS 283
DATA ascii
0.0048049986 -0.00072801113 0.026207848 4287575609
0.0064800642 0.00086579472 0.024345746 4290649378
0.0093121082 -0.0018553436 0.02662014 4289406763
0.012362732 -0.0052937195 0.029578058 4289210158
0.015639873 -0.0094485581 0.03321752 4289994794
-0.0013440177 -0.0036295801 0.027125342 4287117884
0.00053338706 -0.0027524233 0.025951756 4288556594
0.0020327307 -0.00043173879 0.023400897 4288949038
0.0035162345 0.0018877983 0.020853875 4288818734
0.0051756054 0.0034848973 0.018998673 4289342249
0.0081851557 3.2357872e-05 0.021957973 4288034099
0.011024287 -0.0026970059 0.024224313 4289145643
0.014483854 -0.0075872391 0.028544294 4288949039
0.01696885 -0.0088711306 0.029427858 4289340973
-0.0092369467 0.00071573257 0.021135869 4286659393
-0.0066733509 -0.001306057 0.022728236 4287706423
-0.0044502169 -0.0018771142 0.022937762 4289079854
-0.0027643889 -0.00027421117 0.021079255 4289210923
-0.0010890961 0.0013280734 0.019223271 4289341994
0.00057567656 0.0029296428 0.017369891 4289342248
0.0022298992 0.0045305789 0.015519032 4290324254
0.0040651187 0.0054071322 0.014357241 4289473829
0.0066718534 0.0033894554 0.015940124 4288950313
0.010081992 -0.0015199706 0.020260202 4289604644
0.013329869 -0.0057034642 0.023887062 4290389534
0.016003188 -0.0077156574 0.025454598 4289016359
0.018487684 -0.0090039149 0.026335159 4288558379
-0.013629049 -0.0005576089 0.020192938 4287967544
-0.012275655 0.0025047883 0.01695572 4289211179
-0.010252398 0.002656512 0.016480545 4290323743
-0.0078782141 0.0013541505 0.017382713 4290585884
-0.0054933056 5.2794814e-05 0.018282423 4290651163
-0.0038205162 0.0016590729 0.016430201 4289474084
-0.0021582507 0.0032647476 0.014580512 4290063134
-0.0001344718 0.0034171417 0.014105672 4289605154
0.001700718 0.004295744 0.012945408 4290651674
0.00353067 0.0051740855 0.011786474 4290258718
0.0057433657 0.0046007857 0.011997359 4290520348
0.0087480247 0.0011260137 0.014941642 4290651163
0.011978608 -0.0030718967 0.018562792 4289539363
0.014635241 -0.0050920248 0.020129381 4289474593
0.017103238 -0.0063858628 0.021010535 4289147684
-0.016307451 -0.00021261722 0.017394742 4288295473
-0.014950879 0.0028586015 0.014163209 4289015338
-0.013105765 0.0037393123 0.013001537 4289016104
-0.011265814 0.0046197176 0.011841225 4289081384
-0.008905448 0.0033119246 0.012743378 4289473573
-0.0065343715 0.0020050928 0.013643058 4290062624
-0.0046941005 0.0028858855 0.012482943 4289735714
-0.0030422062 0.0044951737 0.010638924 4289539618
-0.00084336847 0.0039181858 0.010851191 4289408803
0.0011723787 0.0040700957 0.010378333 4289801248
0.0031881928 0.0042221174 0.0099055376 4289146919
0.0053978786 0.0036463737 0.010115499 4289800993
0.0080058351 0.0016157702 0.011688398 4289931808
0.010629786 -0.00041352957 0.013257692 4289735203
0.013067964 -0.0017141625 0.014142478 4289212710
0.015925646 -0.0044680908 0.016385274 4289343524
0.018597545 -0.0064933822 0.017943619 4287443008
-0.017997868 -0.0042477772 0.018734066 4286462788
-0.017279774 0.0017628074 0.012752512 4288230449
-0.015935831 0.0048418865 0.0095303748 4290127904
-0.014273621 0.0064556524 0.0076867584 4290062368
-0.012104869 0.005873628 0.0079039559 4289473829
-0.009755671 0.0045605972 0.008805478 4289866274
-0.0072180927 0.0025172159 0.010389375 4290978583
-0.0052054301 0.0026685074 0.0099169482 4289670178
-0.0033756346 0.0035508052 0.0087609757 4289474083
-0.00099416822 0.0022406876 0.0096552987 4289343269
0.0012097023 0.0016620681 0.0098648164 4289474083
0.0032280236 0.0018142685 0.0093914252 4289277733
0.0054400191 0.0012365058 0.0095992144 4289539363
0.0072648898 0.0021190867 0.0084448885 4289800993
0.0094823092 0.0015419945 0.0086515937 4289408293
0.011705093 0.00096540898 0.0088571329 4290127903
0.014954306 -0.0032571927 0.012454623 4289408039
0.017821699 -0.0060190335 0.014688762 4288949038
0.02029131 -0.0073213354 0.015563259 4286136644
-0.017593302 0.0008225739 0.010871844 4286986814
-0.016418226 0.0046445653 0.0069708973 4289799718
-0.014930587 0.0069964752 0.0044465121 4289866274
-0.012770124 0.0064115897 0.0046640746 4289669924
-0.010604247 0.0058272704 0.0048804153 4290455069
-0.0080780387 0.0037764385 0.0064620934 4289866274
-0.0057159066 0.0024602264 0.0073575191 4289604388
-0.003708601 0.0026112199 0.0068864301 4289604899
-0.0015157908 0.0020293966 0.0070967972 4289408549
0.00049433857 0.0021808594 0.0066252351 4289473828
0.0025045499 0.0023324564 0.0061537549 4289604643
0.0047082193 0.0017518476 0.0063618645 4289670179
0.0065251663 0.0026360154 0.0052110031 4289604643
0.008336857 0.0035199299 0.0040614791 4290324254
0.010344647 0.0036718324 0.0035909265 4290716699
0.013372563 0.00016625971 0.0065056942 4290127393
0.016840413 -0.0047997758 0.010767171 4290585884
0.0197175 -0.007569544 0.012992634 4289799209
-0.016399853 0.0022468343 0.0064704865 4288360498
-0.015078407 0.0053418875 0.003266681 4289734949
-0.012918301 0.0047547445 0.0034826864 4289669668
-0.010752767 0.0041681901 0.0036974717 4289931298
-0.0084045678 0.0028464422 0.0045927726 4289931554
-0.0064054728 0.0029966906 0.0041235108 4289931554
-0.0044062883 0.0031470433 0.0036543161 4289473573
-0.0022217929 0.0025624111 0.003865011 4289408293
0.00015599281 0.0012433529 0.0047537871 4289539108
0.0019728467 0.002129443 0.0036043786 4289342758
0.0041708574 0.001546219 0.0038121939 4289408294
0.0057866797 0.0031665489 0.0019868128 4289800738
0.0075904429 0.0040520355 0.00084075332 4289473829
0.0093889572 0.0049372539 -0.00030397996 4289343014
0.012201278 0.0021535382 0.001929976 4289343014
0.015447821 -0.0020954832 0.0055087246 4289800739
0.018517142 -0.0056086108 0.0084058885 4288950568
0.020977689 -0.0069202557 0.0092761163 4288491314
-0.016381823 -0.00015499443 0.0059671532 4287183163
-0.015057072 0.0029490069 0.0027690828 4289538343
-0.013066433 0.0030982122 0.0023015086 4290062113
-0.011075653 0.0032475665 0.0018340051 4289931554
-0.009084776 0.003397055 0.0013665818 4289800483
-0.0070938095 0.0035466626 0.00089921057 4290716443
-0.0049203634 0.0029588714 0.0011107847 4290913049
-0.0025564954 0.0016342774 0.0019994341 4290651163
-0.00055730343 0.0017848834 0.0015304163 4289473573
0.0012516379 0.0026725605 0.00038447604 4289408293
0.0030553378 0.0035599694 -0.00076013803 4289800993
0.0046581291 0.0051836967 -0.0025792308 4290258719
0.0064486638 0.0060703903 -0.0037205592 4290520348
0.0084348954 0.0062206611 -0.004186064 4289539108
0.011235639 0.0034273043 -0.001955878 4289604644
0.014057668 0.00063565373 0.00026940554 4290520349
0.017109893 -0.00288973 0.0031624623 4289408293
0.019553939 -0.0042069629 0.0040332805 4288884778
-0.016364142 -0.0025609657 0.0054609291 4286529344
-0.015036106 0.00055208057 0.0022685155 4288687919
-0.013386067 0.0021826029 0.00044073537 4289800228
-0.011398111 0.0023317188 -2.6121736e-05 4290323999
-0.0094100423 0.0024809763 -0.00049290434 4289538853
-0.0077809133 0.0041102618 -0.0023154505 4290062368
-0.0057979561 0.0042593926 -0.0027808435 4289539108
-0.0030755997 0.0014504269 -0.00053944439 4289604644
-0.0010818653 0.0016006157 -0.0010071844 4289604644
0.00072180852 0.0024900958 -0.0021502636 4289604899
0.0025202297 0.00337933 -0.0032920763 4289866529
0.0043134093 0.0042682663 -0.004432518 4289866529
0.0061013363 0.0051569343 -0.0055716224 4289669924
0.0078840032 0.0060453266 -0.0067094155 4289408294
0.010475051 0.0039808899 -0.0051566064 4289997088
0.013082087 0.001917772 -0.0036073923 4289735459
0.015913805 -0.00088177621 -0.0013907626 4289343014
0.018555405 -0.0029420331 0.00015053526 4289212199
0.021212947 -0.0050008819 0.0016881619 4288229429
-0.016678914 -0.0034846589 0.0035927705 4286267458
-0.01535289 -0.00036304444 0.00040734932 4286725948
-0.014047995 0.0027571619 -0.0027730651 4289080619
-0.011894125 0.0021631196 -0.0025604181 4289604389
-0.010264851 0.0037966594 -0.0043798722 4290193184
-0.0084668025 0.004687421 -0.0055204518 4289212199
-0.0066739395 0.0055778846 -0.0066596717 4289015849
-0.0039631426 0.0027592704 -0.0044220351 4289015849
-0.0017928965 0.0021670833 -0.0042127818 4289997599
2.8572977e-06 0.0030581355 -0.0053524002 4289735714
0.0016007759 0.0046900958 -0.0071639121 4289997344
0.0035786293 0.004839465 -0.0076276548 4289866529
0.0053586178 0.0057297572 -0.0087633282 4289539109
0.0071333647 0.006619744 -0.0098976381 4289473573
0.0095124915 0.0052883849 -0.0090183541 4289539109
0.012314003 0.002477698 -0.0068012625 4289081128
0.015136795 -0.00033130497 -0.0045890324 4289015849
0.017980853 -0.0031385198 -0.00238166 4288688174
0.02063233 -0.0052044764 -0.00084743463 4288228918
-0.016661532 -0.0058944151 0.0030838456 4286201668
-0.015332222 -0.0027637407 -9.5918775e-05 4286333249
-0.014195196 0.0011104196 -0.0039472654 4287249209
-0.012563139 0.0027484819 -0.0057642646 4289669158
-0.011294544 0.0058749616 -0.0089294948 4290258463
-0.0098679438 0.0082556009 -0.011414852 4290127904
-0.0080936253 0.0091468394 -0.012548115 4290062624
-0.005217921 0.0055740252 -0.0096388571 4290455069
-0.0026897788 0.0034908727 -0.0080816112 4290455069
-0.00071486458 0.0036397949 -0.0085448436 4289800993
0.0012601167 0.0037888065 -0.0090080015 4290062623
0.0034302287 0.0031947494 -0.0088000111 4290127904
0.0052102618 0.0040872321 -0.0099340901 4289212199
0.006985046 0.0049794391 -0.011066776 4289408548
0.0091605969 0.0043862239 -0.01085981 4288231214
0.011958502 0.0015664399 -0.0086483331 4287969329
0.014986007 -0.0019937381 -0.0057738014 4287641909
0.018040087 -0.0055517778 -0.0029054005 4287510329
-0.014342353 -0.00053600222 -0.0051212572 4286528833
-0.012883686 0.001853399 -0.0076095276 4288425778
-0.011969648 0.0064820349 -0.012115449 4289734948
-0.010550585 0.0088687018 -0.014594238 4289277479
-0.0086026005 0.0090151504 -0.015051451 4290128158
-0.0059175752 0.0061770678 -0.012820732 4290062623
-0.0033981353 0.0040866509 -0.011266261 4289931554
-0.0012417994 0.003489159 -0.011056889 4289931808
0.00091991574 0.0028921887 -0.010848697 4289539109
0.0032818615 0.0015503541 -0.009972156 4288950569
0.005259458 0.0016998202 -0.010435741 4288950824
0.0072370991 0.0018494353 -0.010899235 4288950824
0.0096204095 0.00050964206 -0.010027458 4287969328
0.012219857 -0.0015738085 -0.0084910737 4287576629
0.015251512 -0.0051446483 -0.0056256223 4287183674
0.018309735 -0.0087133273 -0.0027662795 4287052603
0.021394523 -0.012279861 8.6924061e-05 4286659649
-0.013377216 0.0017122105 -0.010124292 4287052604
-0.012467463 0.0063536987 -0.014619552 4289408803
-0.010874525 0.0079977736 -0.016420662 4289343778
-0.0087479688 0.0073954388 -0.016206227 4289539109
-0.0062479377 0.0052968562 -0.014652155 4289800483
-0.003545206 0.0024514273 -0.01243199 4289277479
-0.0013892204 0.00185173 -0.012224156 4288558379
0.0011561438 -0.00024307519 -0.010680445 4288231469
0.0035228319 -0.001588881 -0.0098082991 4288296748
0.005505573 -0.0014390349 -0.010273096 4288427563
0.007888291 -0.0027833804 -0.0094045186 4289016614
0.010281678 -0.0041268393 -0.0085383067 4288230958
0.012685699 -0.0054692999 -0.0076745199 4287511349
0.015308311 -0.0075574294 -0.0061483067 4287314489
0.017946867 -0.0096442476 -0.0046257395 4286921534
-0.012260914 0.0032297447 -0.014434334 4287902773
-0.010483898 0.0041276142 -0.015563481 4288491823
-0.0081685409 0.0027728751 -0.014683023 4288623659
-0.0060263313 0.0021696612 -0.014473781 4288427563
-0.0036922283 0.00081657618 -0.013597482 4288754729
-0.001536604 0.00021459907 -0.013391205 4287970094
0.0008161962 -0.0011367872 -0.012519141 4287904558
0.0029852279 -0.0017375126 -0.012315773 4287970094
0.0053567216 -0.0030872226 -0.0114479 4288035373
0.0077388771 -0.0044360012 -0.010582429 4288689448
0.010536531 -0.0072822198 -0.0083904164 4288231469
0.012945315 -0.0086287782 -0.0075309472 4287445558
0.015157016 -0.0092255324 -0.0073371101 4287379769
0.017374037 -0.0098217875 -0.0071444381 4286921533
-0.013842709 -0.00080344081 -0.013125152 4286724673
-0.012582175 0.0023574233 -0.016262569 4287772215
-0.010272771 0.00099773705 -0.015384044 4288491823
-0.0077716596 -0.0011140481 -0.013840047 4288034608
-0.0058054887 -0.00096610934 -0.01430145 4287773234
-0.0038392209 -0.0008180216 -0.014762768 4288034864
-0.0018729009 -0.00066979975 -0.01522401 4287969839
0.00085990131 -0.0035302565 -0.013023679 4287773489
0.0032254718 -0.004884921 -0.01215775 4287838768
0.0054048002 -0.0054868981 -0.011958369 4288034864
0.0073899329 -0.0053367168 -0.012423617 4288362029
0.0099817589 -0.0074406192 -0.010900122 4287772979
0.012179788 -0.0080407634 -0.010704816 4286856509
0.014383161 -0.0086403564 -0.010510647 4286659904
-0.012376554 -0.00077690929 -0.016084831 4287052603
-0.010062389 -0.0021406338 -0.015210667 4287838003
-0.007918302 -0.0027482733 -0.015005169 4288099889
-0.005768843 -0.0033553466 -0.014800881 4287707189
-0.0038000941 -0.003207095 -0.015262795 4287772468
-0.0016425252 -0.0038132891 -0.01506021 4287772724
0.0007118322 -0.0051733553 -0.014194948 4287445304
0.0028827861 -0.0057782754 -0.013995313 4287314234
0.0050591081 -0.006382674 -0.013796841 4287314233
0.0068420544 -0.005478926 -0.014923361 4287183163
-0.012346968 -0.0031619892 -0.01657914 4286136643
-0.010208644 -0.0037723333 -0.01637404 4287772213
-0.008064907 -0.0043822005 -0.016170073 4287968818
-0.0059158094 -0.0049914941 -0.015967328 4287968564
-0.0039472133 -0.0048432574 -0.016429208 4287575864
-0.0014128946 -0.0069653094 -0.014902444 4287379513
0.00075498968 -0.0075727925 -0.014703811 4286725184
0.0029282458 -0.0081797168 -0.014506315 4287182654
0.0062949955 -0.0056119636 -0.017416645 4286593348
-0.010532603 -0.004643932 -0.01820096 4287902773
-0.0083918869 -0.0052561909 -0.017997961 4288099123
-0.0060627386 -0.0066273436 -0.017133566 4287247679
-0.0040943101 -0.0064791068 -0.017595412 4287116353
-0.013163336 -0.0041334108 -0.020890594 4286920514
-0.011211224 -0.0039868206 -0.021348905 4286920513
-0.0087184235 -0.0061254948 -0.019822439 4286593859
0.035578758 -0.0089979023 0.0060561169 4282929254
-0.040006667 -0.0089998543 0.012672888 4282797928
-0.038131312 -0.0081052706 0.011512699 4282929254
0.01431301 -0.0098130032 -0.020294866 4282797163
0.015719198 -0.0097835585 -0.023235055 4282862954
-0.032354489 -0.0065225363 -0.026023516 4282863974
-0.034723289 -0.0067211688 -0.028036395 4282863974
-0.015439209 -0.010019235 -0.043732561 4281946229
-0.016106844 -0.0092398748 -0.046793357 4282405228
