# .PCD v0.7 - Point Cloud Data file format
VERSION 0.7
FIELDS x y z rgba
SIZE 4 4 4 4
TYPE F F F U
COUNT 1 1 1 1
WIDTH 284
HEIGHT 1
VIEWPOINT 0 0 0 1 0 0 0
POINTS 284
DATA ascii
0.0069687814 -0.0023400709 0.027401462 4286659649
0.0091966614 -0.0029440373 0.027678296 4290387238
0.011907186 -0.0057592392 0.029994853 4290125608
0.014639229 -0.0085729137 0.032307316 4289209903
0.01689945 -0.0091744289 0.032578111 4288555318
0.00062286109 -0.0044261962 0.027361996 4286659393
0.0025457405 -0.0035530701 0.026277136 4288359988
0.0043125078 -0.0019402802 0.024513252 4288884523
0.006068632 -0.00032801181 0.022751503 4289079853
0.0082827918 -0.00093509257 0.023029383 4289997089
0.011137985 -0.004499279 0.026020721 4289930533
0.013858456 -0.0073224008 0.028328821 4289668393
0.016271889 -0.0086658448 0.029277679 4289146663
-0.011181474 0.00065764785 0.021309983 4288226879
-0.0090032741 4.5090914e-05 0.021592468 4290058798
-0.0066822991 -0.0013099089 0.022555102 4289340208
-0.0043504871 -0.0026640967 0.023515698 4289734439
-0.0025784746 -0.0010470226 0.021753814 4289014319
-0.00038107485 -0.0016578063 0.022032887 4289341739
0.0015257597 -0.00078359246 0.020952836 4289472553
0.0032766387 0.00083249807 0.019195344 4289669924
0.004863508 0.0031900108 0.016761977 4289342504
0.0072146207 0.0018378198 0.017719381 4288950314
0.0098939911 -0.00099676847 0.020028785 4289473574
0.01291769 -0.0053126961 0.023687057 4289734693
0.015481316 -0.0074026212 0.02531125 4288950824
0.017894313 -0.0087503791 0.026257016 4286464063
-0.015144534 -0.0027589053 0.022236824 4288230193
-0.013741475 0.0011000484 0.018430799 4289212453
-0.011969753 0.0027209967 0.016671848 4289408293
-0.0098052584 0.0021053702 0.016955338 4289603878
-0.0074981675 0.00074513257 0.017917369 4289669924
-0.0051802471 -0.00061430037 0.018877376 4290193439
-0.0032789484 0.00026147068 0.017799858 4289277479
-0.0012377501 0.00039240718 0.017401442 4289474084
0.00065570325 0.00126791 0.016325641 4289669924
0.0022428483 0.0036318153 0.013897064 4289931554
0.0039672032 0.0052506775 0.012148156 4289997089
0.0061485507 0.004637152 0.012429065 4289081385
0.0089695603 0.0010490343 0.015410515 4289343269
0.011817425 -0.0025372282 0.01838683 4289539108
0.01452823 -0.0053782091 0.020683691 4289147683
0.016760718 -0.0059879273 0.020955019 4288949804
-0.016283914 0.0015570968 0.015558402 4288034354
-0.014772657 0.0046777427 0.012444171 4289539618
-0.012887884 0.0055541396 0.011371153 4289146664
-0.010605518 0.0041878149 0.012334595 4288819498
-0.0083122961 0.0028223097 0.013296067 4289081385
-0.00586861 0.00071044266 0.014932911 4289669924
-0.0039780214 0.0015877187 0.013859081 4289997344
-0.0018026941 0.00097110868 0.014139182 4289343013
8.2738698e-05 0.0018483102 0.013066548 4289866018
0.0016622096 0.0042181611 0.01064445 4289604389
0.0033787079 0.0058408827 0.0089003248 4289997089
0.0053959861 0.0059707761 0.0085069491 4289866274
0.0080468804 0.0031169802 0.010808672 4289735714
0.01071927 0.00026468933 0.013106308 4289670433
0.013576899 -0.0033316538 0.016072556 4289212453
0.016294941 -0.0061807334 0.01836149 4289407274
-0.016790159 0.0021573827 0.012298177 4287836984
-0.015415169 0.0060362369 0.008514124 4289342503
-0.01354108 0.0069140643 0.0074448315 4290258719
-0.011404011 0.0062923729 0.0077303154 4289931808
-0.0091246888 0.0049216002 0.0086911721 4289539109
-0.0066950582 0.0028023571 0.010325762 4290651164
-0.0043914057 0.0014334023 0.011282063 4289866019
-0.0023665838 0.001563251 0.010886821 4289604643
-0.000341665 0.0016932487 0.010491661 4289604643
0.001382973 0.0033206791 0.0087491339 4289735458
0.0032498501 0.0041990727 0.0076820059 4289408549
0.0052669682 0.0043289363 0.0072886525 4289016104
0.0076006018 0.0029626489 0.0082396781 4289277223
0.010105889 0.00084926188 0.0098602539 4289473574
0.012790889 -0.0020107478 0.01214892 4289473064
0.015829865 -0.0063644573 0.015774626 4289276203
0.018563181 -0.0092210993 0.018054083 4289210414
-0.017169438 0.0020186454 0.0097246943 4286267203
-0.015799098 0.0059079975 0.0059497831 4289473574
-0.013930351 0.0067876726 0.0048831841 4289342759
-0.011932887 0.0069152713 0.0044929003 4289146408
-0.0097987056 0.006291315 0.0047773747 4289146408
-0.0072411671 0.0034132898 0.00708343 4289800483
-0.004804071 0.0012881383 0.0087116985 4289669668
-0.002495449 -8.4728003e-05 0.0096638156 4289342759
-0.00061801448 0.00079622865 0.0085960729 4289473828
0.0012541413 0.0016770288 0.007529418 4289539364
0.0031210259 0.0025575459 0.0064639179 4289604643
0.0049826279 0.0034378767 0.0053995503 4289670178
0.0069969893 0.0035676807 0.0050068228 4289408294
0.0094935782 0.0014471859 0.0066241873 4290127904
0.012169696 -0.0014220774 0.0089079803 4289931298
0.015365526 -0.0065391883 0.013194517 4289472809
0.01843014 -0.010904126 0.016805414 4288556338
-0.015668653 0.0027713478 0.0060907407 4289212198
-0.014187805 0.0059161037 0.0030023558 4289605154
-0.012193181 0.0060435086 0.0026126197 4289342759
-0.010061987 0.0054171979 0.0028960248 4289342759
-0.007507965 0.002530247 0.0051961495 4289735204
-0.0050742067 0.00039836764 0.0068201004 4289669924
-0.0027687587 -0.0009790659 0.0077695278 4289473574
-0.0010411553 0.00065711141 0.0060329242 4289604643
0.00097550452 0.000786677 0.0056394553 4289539620
0.0028397329 0.0016691983 0.0045761233 4289539363
0.0048538633 0.0017988682 0.0041833511 4289539363
0.0068680607 0.0019286573 0.0037906459 4290193183
0.0090428703 0.0013062656 0.0040663956 4290258719
0.011549555 -0.0008199513 0.0056769392 4290062368
0.01457008 -0.0052009076 0.0092864046 4290323488
0.017622791 -0.0095796213 0.012889729 4288556594
0.020022621 -0.010949664 0.013821737 4287575353
-0.015667081 0.00038278103 0.0055524549 4288360498
-0.014313959 0.0042928308 0.0017974889 4289211179
-0.012185887 0.0036640167 0.0020797541 4289800739
-0.010324895 0.0045477301 0.0010181246 4289539109
-0.0079133287 0.0024077892 0.0026413603 4290716443
-0.0057688616 0.0017803907 0.0029207012 4290651164
-0.0034746304 0.00039789081 0.0038689999 4290127648
-0.0014635697 0.00052696466 0.0034765182 4289670179
0.00039791688 0.0014113486 0.0024152761 4289670179
0.0022541061 0.0022955537 0.0013551069 4289474084
0.0042600483 0.0024246871 0.00096391793 4290258974
0.0062660575 0.0025539398 0.00057280716 4289473573
0.0081117451 0.0034378171 -0.00048496667 4289015849
0.010441307 0.0020584762 0.00045712106 4289604134
0.013610307 -0.0030907094 0.0047257831 4289539108
0.016816845 -0.0082374066 0.0089872526 4289146664
0.019718736 -0.011873886 0.011912153 4288883503
-0.01592198 -0.00049227476 0.0036682626 4286659903
-0.014440067 0.0026698709 0.00059286039 4288884014
-0.012579195 0.0035556555 -0.00046724174 4289669668
-0.010723539 0.0044412017 -0.0015261853 4289996833
-0.008595556 0.0038104504 -0.0012453729 4290258463
-0.0064621121 0.0031801164 -0.00096549559 4290062369
-0.0041790903 0.0017926097 -1.8348917e-05 4290650908
-0.0020320863 0.001163438 0.00025902875 4289735458
-0.00032811612 0.0028068274 -0.0014662268 4289801249
0.0015173852 0.0036924481 -0.0025226334 4289408548
0.0033575967 0.0045779347 -0.0035779187 4290716443
0.005350057 0.0047063082 -0.003966392 4290455069
0.007342577 0.0048348159 -0.0043547796 4289211943
0.0098238103 0.0026939362 -0.0027491981 4289277479
0.012652285 -0.00095841289 0.00018154643 4290127649
0.015675824 -0.0053650364 0.0037707398 4289603878
0.018560611 -0.0090134963 0.0066906931 4289277479
-0.014566138 0.0010472089 -0.00061155297 4288229684
-0.012971774 0.0034562796 -0.0030075135 4289931044
-0.011393338 0.0058644563 -0.00540026 4289866019
-0.0092763901 0.0052308291 -0.0051189521 4289146408
-0.0070126876 0.0038375556 -0.0041713985 4289277223
-0.0045942217 0.0016852319 -0.0025592018 4289866529
-0.0027461946 0.0025729835 -0.0036146762 4290062623
-0.0010527521 0.0042200238 -0.0053345868 4289866273
0.00047804415 0.0066259056 -0.0077174539 4289735458
0.0026115738 0.0059940815 -0.0074388133 4289669668
0.0045931637 0.0061217546 -0.0078251706 4290323999
0.0067348555 0.0054906756 -0.0075478787 4289669924
0.0092073679 0.0033427626 -0.0059455829 4289669668
0.011696007 0.0011959821 -0.0043462906 4290585629
0.014536891 -0.0024662614 -0.0014261175 4289538854
0.017404586 -0.006126672 0.0014889212 4289015849
0.020299096 -0.0097851977 0.0043988461 4287641143
-0.014953032 0.00095072389 -0.0031510945 4289079853
-0.013629828 0.0048914403 -0.0068753967 4289734439
-0.012197506 0.00806804 -0.0099277766 4290520093
-0.010094274 0.0074313283 -0.0096454592 4289539109
-0.0077033304 0.0052706003 -0.008032945 4289866019
-0.0051524341 0.0023489892 -0.0057584317 4290454814
-0.0034588948 0.0040002763 -0.0074752173 4289669668
-0.0016268343 0.0048892349 -0.0085257897 4289735204
0.00019995496 0.0057779849 -0.009575245 4289996834
0.0021759681 0.0059051812 -0.0099606114 4289931554
0.0043092296 0.0052712858 -0.0096834647 4289735204
0.0062880442 0.0053989142 -0.010069189 4289015849
0.0089170784 0.0024832189 -0.0078092492 4288884778
0.011071913 0.0018511117 -0.0075360141 4289473574
0.013903748 -0.001822561 -0.0046223309 4289211689
0.01642124 -0.0039737374 -0.0030334163 4288950824
0.019474581 -0.0084041581 0.00053038262 4288621873
-0.015469424 0.0016283542 -0.0063499641 4287313979
-0.014286485 0.0063443482 -0.010730118 4289210923
-0.01259315 0.0079993904 -0.012443901 4289408038
-0.010495584 0.0073601454 -0.012162128 4289081129
-0.0082516186 0.0059570074 -0.01121736 4289081129
-0.005709596 0.0030261278 -0.0089477394 4289669923
-0.0041702054 0.0054452419 -0.011322559 4289800739
-0.002348844 0.0063357353 -0.012369444 4289408038
-0.00053274632 0.0072259754 -0.013415151 4289669669
0.0017410778 0.005825296 -0.012475711 4289080873
0.0038686581 0.0051888824 -0.012199105 4288950314
0.0060016438 0.0045529455 -0.011923471 4288557869
0.0084647909 0.0023913831 -0.010329211 4288623148
0.01077899 0.00099387765 -0.0093972776 4288492589
0.013439395 -0.0019281954 -0.0071498398 4288034609
0.016291656 -0.0056112409 -0.0042482782 4287575608
0.01917072 -0.0092924237 -0.0013518287 4287509819
-0.016114846 0.003086552 -0.010203315 4286202179
-0.014809005 0.0070478544 -0.013907799 4289342503
-0.012988072 0.0079398155 -0.01495338 4289015594
-0.010758087 0.0065312237 -0.014009268 4288950314
-0.0083765127 0.0043569505 -0.01240486 4288884778
-0.0061222352 0.0029501766 -0.011465291 4289015593
-0.0042955764 0.0038429946 -0.012511612 4289081129
-0.0024742 0.0047356337 -0.013556854 4288950314
-0.0003550984 0.00409621 -0.013280404 4288623148
0.0016152412 0.0042230189 -0.013664675 4288165169
0.0037424862 0.00358437 -0.013389681 4287969074
0.0057156235 0.0037116408 -0.013774288 4288165168
0.0083376095 0.00077813864 -0.01152618 4288165168
0.010651313 -0.0006237179 -0.010597439 4287969074
0.013478413 -0.0043193698 -0.0076993275 4287707189
0.016162101 -0.0072484761 -0.0054629389 4287313723
0.019213051 -0.011705071 -0.001918464 4286854724
-0.014667537 0.0039182901 -0.013764062 4287248698
-0.012841247 0.0048127323 -0.014809069 4288361008
-0.010744337 0.0041691065 -0.014530466 4288361519
-0.0085013695 0.0027571917 -0.013592129 4288361263
-0.0061042942 0.0005774945 -0.011995556 4288688429
-0.0041289814 0.00070422888 -0.012381094 4288426798
-0.002153594 0.00083108246 -0.012766557 4288492333
-0.00017812476 0.00095807016 -0.013151938 4288230704
0.0017974116 0.0010852069 -0.013537223 4287707189
0.003773015 0.0012124926 -0.013922418 4287772469
0.0059080198 0.0005723387 -0.013650471 4287576374
0.0083724856 -0.0016021729 -0.012066381 4287314744
0.010853067 -0.0037754625 -0.010485305 4287118393
0.013517119 -0.0067145824 -0.0082518179 4287183674
0.016202632 -0.0096522272 -0.0060223667 4286659394
-0.014659148 0.0015518069 -0.014287284 4287248444
-0.012830164 0.0024485886 -0.015331165 4288164658
-0.010593142 0.0010318309 -0.014395064 4288164914
-0.0083452947 -0.00038416684 -0.01346094 4288230704
-0.0060866624 -0.0017992705 -0.012528846 4288295983
-0.0039630383 -0.0024429709 -0.012256825 4288099889
-0.0019824579 -0.0023157746 -0.012643302 4287969073
-1.7918646e-06 -0.002188459 -0.0130297 4287903794
0.0019789375 -0.0020609945 -0.013416005 4287641909
0.0039597303 -0.0019334108 -0.013802236 4286922044
0.0060997643 -0.0025754273 -0.013532868 4286202689
0.0084070489 -0.0039865226 -0.012609588 4286202689
0.010889631 -0.0061661899 -0.011033846 4286529598
0.013221093 -0.0075754225 -0.010115067 4286267713
-0.014651056 -0.0008187294 -0.014813518 4287117118
-0.012819376 8.0376863e-05 -0.015856287 4287902518
-0.010717761 -0.00056730211 -0.015581911 4287968564
-0.0084704272 -0.001987651 -0.014650984 4288099633
-0.0062122941 -0.0034071356 -0.013722101 4288099634
-0.0039433651 -0.0048258305 -0.012795193 4287838259
-0.0021085739 -0.0039258599 -0.013838125 4287968819
2.2914261e-05 -0.0045710057 -0.013569051 4287837748
0.0020061582 -0.0044433922 -0.013955852 4287248954
0.0041458011 -0.0050877035 -0.013688205 4286856253
0.0062908456 -0.0057315528 -0.013421526 4286529343
0.0086029917 -0.0071466863 -0.012502437 4287052349
0.010925874 -0.0085609555 -0.01158539 4286659648
0.012925435 -0.0084316134 -0.011974866 4286463044
-0.014907412 -0.0016417503 -0.016657649 4287312703
-0.013078403 -0.00074064732 -0.017698245 4288098614
-0.01097979 -0.0013906658 -0.017424939 4287968054
-0.0087356232 -0.0028155595 -0.01649669 4287902774
-0.0066234507 -0.0034644753 -0.016225846 4287772215
-0.0042149201 -0.0056627691 -0.014646297 4287707189
-0.0025309213 -0.0039860755 -0.016341334 4287771958
-0.00025431067 -0.0054083019 -0.015419053 4287772469
0.0017260872 -0.005280897 -0.015805317 4287314488
0.0041750446 -0.0074761212 -0.014233215 4287117629
0.0060047656 -0.0065738112 -0.015273055 4286855488
0.0081522018 -0.0072195381 -0.015008399 4287247933
0.010140855 -0.0070910603 -0.015395863 4286789698
-0.014899604 -0.0040160567 -0.017186692 4287574079
-0.013067905 -0.0031126291 -0.018226171 4288164405
-0.011241447 -0.002209425 -0.019264529 4288033333
-0.009000469 -0.0036387891 -0.018338999 4287706424
-0.0068912841 -0.0042901188 -0.01806918 4287771959
-0.0046313964 -0.0057180077 -0.017147133 4287509819
-0.002804596 -0.0048142672 -0.01818517 4287574844
-0.00053117424 -0.0062410384 -0.017265579 4288162873
0.0014463961 -0.0061137974 -0.017651277 4287574078
-0.013326529 -0.0039286911 -0.020064464 4287443264
-0.01150275 -0.0030235052 -0.021100668 4287966013
0.02384836 -0.0092605576 0.03465753 4283059814
0.020843187 -0.011937946 -0.015295758 4282797163
-0.030277967 -0.003403753 -0.025770267 4282928743
-0.038695306 -0.0062339678 -0.029711297 4282732394
-0.033604272 -0.006106317 -0.050059862 4282863719
