# .PCD v0.7 - Point Cloud Data file format
VERSION 0.7
FIELDS x y z rgba
SIZE 4 4 4 4
TYPE F F F U
COUNT 1 1 1 1
WIDTH 963
HEIGHT 1
VIEWPOINT 0 0 0 1 0 0 0
POINTS 963
DATA ascii
-0.025634341 -0.0083171017 0.030459307 4290324509
-0.023526929 -0.0090382025 0.031012811 4290652183
-0.021296784 -0.010522544 0.032238171 4289933339
-0.01917601 -0.011243081 0.032791015 4289607193
-0.033345632 -0.012379836 0.031769641 4288490803
-0.031759344 -0.0092735421 0.028964646 4288687919
-0.029875606 -0.0084654782 0.028174557 4288622893
-0.028106607 -0.0068915188 0.0267139 4289604643
-0.02590102 -0.0083809849 0.027937315 4289736224
-0.023684651 -0.0098701026 0.029160172 4290456598
-0.021574844 -0.010593206 0.029712014 4290129689
-0.019579813 -0.010550356 0.029593252 4289475614
-0.033589952 -0.012445187 0.029244874 4288360499
-0.032009043 -0.0093302764 0.026446678 4288818988
-0.030130856 -0.0085201301 0.025658552 4290258718
-0.028476462 -0.0061738025 0.02353204 4288950824
-0.026279327 -0.0076677958 0.024752736 4288689448
-0.024185963 -0.0083935363 0.025303863 4289344289
-0.02185268 -0.010654811 0.027192477 4289344289
-0.019983269 -0.0098442286 0.026405338 4289671453
-0.018242169 -0.0082658967 0.024950027 4289541659
-0.0053711385 -0.0025924146 0.019455662 4288627228
-0.035333339 -0.016395807 0.030187964 4286267459
-0.033733174 -0.013271868 0.027395014 4286987068
-0.032258518 -0.009377934 0.023935355 4289080873
-0.030492213 -0.0077953991 0.022481255 4290324509
-0.028736912 -0.0062129879 0.0210279 4290455578
-0.026657272 -0.0069412747 0.021578096 4290979603
-0.024457797 -0.0084394589 0.022795506 4290914323
-0.022130288 -0.010707408 0.024679683 4290783508
-0.020146452 -0.010664796 0.024561591 4290129434
-0.01840812 -0.009082091 0.023109663 4290260504
-0.016555406 -0.008269459 0.0223253 4289084699
-0.010763668 -0.0073710401 0.021307338 4289673748
-0.0087915882 -0.0073279794 0.021190468 4290000660
-0.0073757917 -0.0042063408 0.018409727 4289541403
-0.035277586 -0.018771935 0.029668592 4286201923
-0.033674616 -0.015639238 0.026881929 4286856509
-0.032300651 -0.010961716 0.022763692 4288753964
-0.030534387 -0.0093748104 0.021312837 4289604644
-0.028779127 -0.0077880314 0.019862726 4290128414
-0.026699699 -0.008518503 0.020411316 4290914068
-0.024614934 -0.0092487261 0.02095969 4290325529
-0.022524841 -0.0099787191 0.021507829 4289932829
-0.020429425 -0.010708476 0.022055745 4289671198
-0.018573936 -0.0098936968 0.021272764 4289736733
-0.016598683 -0.0098510273 0.021155365 4289934104
-0.014751647 -0.0090362132 0.020373054 4290588944
-0.012779411 -0.0089933518 0.02025602 4290129943
-0.010807317 -0.0089503862 0.02013908 4290326293
-0.0089716241 -0.0081354892 0.019357685 4289475359
-0.0076974183 -0.004233392 0.015919207 4291307788
-0.035221949 -0.0211521 0.029146161 4286398273
-0.033716947 -0.017235808 0.025700793 4286790973
-0.032342792 -0.01254521 0.021592241 4287642419
-0.030789003 -0.0094046025 0.018815225 4289408293
-0.028821334 -0.009362801 0.018697754 4289604643
-0.026742123 -0.010095445 0.019244749 4289932063
-0.024771962 -0.010053332 0.01912732 4289343778
-0.02303616 -0.0084622037 0.01768183 4289540128
-0.020951845 -0.0091944085 0.01822884 4289801758
-0.019107345 -0.0083776461 0.017448088 4289932829
-0.017017841 -0.0091095073 0.017994963 4289670943
-0.01530708 -0.0075184349 0.01655132 4289867293
-0.013084389 -0.0090241618 0.017761454 4289867293
-0.01111789 -0.008981321 0.017644841 4290063644
-0.0091515407 -0.0089383628 0.017528329 4290652948
-0.008018814 -0.0042513963 0.013435299 4289344288
-0.03526441 -0.02275929 0.027957156 4286594624
-0.033557862 -0.020386053 0.025846675 4287575863
-0.032178063 -0.015682271 0.021747552 4287249973
-0.030618742 -0.012532802 0.018976619 4288492588
-0.028972443 -0.010160431 0.01687004 4289539108
-0.026896156 -0.010895347 0.017415645 4289408803
-0.025043208 -0.010076584 0.016635738 4289997598
-0.023195822 -0.0092578717 0.015856292 4289801504
-0.021234233 -0.0092156921 0.01573956 4291109909
-0.019395255 -0.0083969207 0.014960788 4291371539
-0.017436642 -0.0083545847 0.014844399 4291044628
-0.015478164 -0.0083121313 0.014728103 4290063133
-0.013258472 -0.0098222289 0.015935149 4289867293
-0.011161424 -0.010555746 0.016480226 4290325274
-0.0093313493 -0.0097365435 0.015702372 4291176463
-0.0080622584 -0.0058127493 0.012280371 4290456853
-0.035698574 -0.021249333 0.024120472 4286594624
-0.033600308 -0.021986408 0.024662744 4287772214
-0.032116942 -0.018048655 0.02123493 4286726458
-0.030660924 -0.014111351 0.01780884 4286923064
-0.029123422 -0.010953486 0.015045784 4288296493
-0.027273178 -0.010132756 0.01426762 4289669923
-0.02554277 -0.0085331276 0.012828838 4290324254
-0.023706373 -0.0077124443 0.012051681 4289473828
-0.021755822 -0.0076705087 0.011935603 4289408549
-0.019927837 -0.0068497788 0.011159115 4290520603
-0.017980266 -0.0068076886 0.011043373 4290847768
-0.015777037 -0.0083226031 0.012248088 4290390043
-0.013432432 -0.010615718 0.014112307 4290259483
-0.011471651 -0.010572992 0.013996042 4290193948
-0.0096470974 -0.0097517576 0.013220187 4289998618
-0.0081057101 -0.0073738378 0.011125639 4290523663
-0.035838671 -0.022065848 0.022277992 4286856253
-0.033743344 -0.022805169 0.022818819 4287052859
-0.032159254 -0.019637825 0.02005928 4286595644
-0.030491013 -0.017252067 0.017960977 4286595644
-0.029056758 -0.013304187 0.014544375 4287118648
-0.027538359 -0.010137905 0.011789005 4289146408
-0.025813423 -0.0085340664 0.010353839 4289931553
-0.023982558 -0.0077113174 0.0095786341 4290128158
-0.022157274 -0.0068885693 0.0088038445 4289473828
-0.020337548 -0.0060657924 0.0080294237 4289081383
-0.018273175 -0.0068047279 0.0085729472 4289539363
-0.015947822 -0.0091048591 0.010433337 4290586393
-0.013736822 -0.010623894 0.011634484 4289867038
-0.011648353 -0.011361904 0.012176799 4290063133
-0.0099626072 -0.0097579388 0.010744609 4289475358
-0.0081491694 -0.0089346394 0.0099711232 4288887584
-0.03636989 -0.019743418 0.017803958 4287444794
-0.034087338 -0.022052212 0.019661153 4286594878
-0.032098301 -0.0220102 0.019542225 4286595134
-0.030321334 -0.020401273 0.018106904 4286529598
-0.028772779 -0.017225722 0.015356135 4286857274
-0.027468987 -0.012483969 0.01129091 4287707954
-0.025855534 -0.010092447 0.0092010163 4288819753
-0.024375401 -0.0069180131 0.0064545795 4290193694
-0.02267798 -0.0053101629 0.0050244648 4290979094
-0.020869236 -0.0044854367 0.0042523183 4290847769
-0.018815961 -0.005226763 0.004794905 4291043864
-0.016629592 -0.0067507643 0.0059941504 4290520858
-0.014301971 -0.0090573169 0.0078496821 4289997598
-0.0122246 -0.0097977407 0.008391045 4289866783
-0.010277867 -0.0097551867 0.0082757138 4288951588
-0.0084699541 -0.0089298319 0.0075041708 4288690724
-0.03224387 -0.022815378 0.017708568 4286594878
-0.030363739 -0.021987718 0.016933287 4286529343
-0.028597802 -0.020374488 0.015501918 4286857019
-0.02728837 -0.015619549 0.011446048 4287903793
-0.025783531 -0.012435979 0.0087045245 4289016104
-0.024417412 -0.0084674256 0.0053084027 4289473829
-0.022720013 -0.0068552066 0.0038815299 4290782744
-0.021033634 -0.0052430769 0.0024553472 4290847513
-0.01898329 -0.0059866039 0.0029964475 4290324254
-0.017055344 -0.0059447978 0.0028819768 4289735713
-0.01499708 -0.0066879848 0.0034228051 4289735969
-0.012933522 -0.0074308766 0.0039633801 4289670689
-0.01072878 -0.008958485 0.0051585641 4289213218
-0.03269875 -0.02125245 0.013912739 4286529089
-0.030406132 -0.0235739 0.015759863 4286725694
-0.028314464 -0.024319436 0.016296355 4286987834
-0.026885342 -0.020338872 0.012904387 4288100144
-0.025597598 -0.015571214 0.0088595897 4288231214
-0.024342664 -0.010804068 0.0048168134 4289604644
-0.022881545 -0.0076124901 0.0020845318 4289408293
-0.021075692 -0.0067835124 0.0013158312 4289735459
-0.019150488 -0.0067418693 0.0012014471 4289997599
-0.017225403 -0.0067001311 0.0010871431 4289997599
-0.01543083 -0.0058710454 0.00031937473 4289735968
-0.013641838 -0.0050419755 -0.00044798385 4289343524
-0.011450961 -0.0065742293 0.00074479822 4289016868
-0.0095264278 -0.0065320479 0.0006308658 4289806349
-0.03044853 -0.025159817 0.014586635 4286463808
-0.028465603 -0.025117664 0.014468273 4288099379
-0.02692781 -0.021916077 0.011737628 4287903794
-0.025639869 -0.017135354 0.0077025071 4286857529
-0.024268016 -0.01314489 0.0043222085 4288231213
-0.022923518 -0.0091548515 0.00094358064 4289670178
-0.020995606 -0.0091132615 0.00082895346 4290128159
-0.019317556 -0.0074925357 -0.00059015024 4290063134
-0.017522935 -0.006661389 -0.001356394 4290259738
-0.015733887 -0.0058302591 -0.002122228 4291044884
-0.01381737 -0.0057884762 -0.002235855 4290848788
-0.011901002 -0.0057465797 -0.0023493832 4290783508
-0.0099847689 -0.0057045752 -0.0024628229 4289541149
-0.0079274848 -0.0064516384 -0.0019248696 4290197263
-0.030702423 -0.025161188 0.012109976 4286594624
-0.028616618 -0.025911245 0.01264363 4287968308
-0.026970275 -0.023493018 0.010571063 4286922298
-0.025568213 -0.01949114 0.0071969517 4286791738
-0.024310134 -0.014697859 0.0031733988 4287446324
-0.022965483 -0.010696938 -0.00019716565 4289277479
-0.021403987 -0.0082800966 -0.0022642827 4289670178
-0.019484505 -0.0082385913 -0.0023783362 4290128669
-0.017692685 -0.007405323 -0.0031427937 4289670944
-0.015906446 -0.0065720333 -0.0039068907 4289409058
-0.014125779 -0.0057387725 -0.0046705129 4290521624
-0.012350693 -0.0049055517 -0.0054337429 4291111439
-0.010165907 -0.0064465338 -0.0042469744 4290195480
-0.0081115291 -0.0071958704 -0.0037104124 4290326803
-0.029092763 -0.024317523 0.0088722482 4286202178
-0.027235001 -0.023481378 0.0081049465 4286660414
-0.025610525 -0.021056945 0.006038636 4286725949
-0.024235655 -0.017044658 0.0026742965 4286857018
-0.023007441 -0.012238797 -0.0013377443 4287904304
-0.021567937 -0.0090214834 -0.0040492327 4289408549
-0.01990084 -0.0073922398 -0.0054612644 4289867038
-0.017989792 -0.0073508071 -0.0055747367 4289998109
-0.016339269 -0.0057217255 -0.0069855656 4288820263
-0.014566842 -0.0048864977 -0.0077471072 4289016869
-0.012935642 -0.0032575782 -0.0091566704 4289670943
-0.010761995 -0.0048032003 -0.0079724286 4290194969
-0.0085776076 -0.0063484656 -0.0067888061 4289868314
-0.0062386841 -0.0086868582 -0.0049577462 4289477399
-0.027499504 -0.023460697 0.0056454483 4286790973
-0.02565283 -0.022622511 0.0048804972 4286660158
-0.024277817 -0.018599316 0.0015242388 4286791483
-0.022930142 -0.014576607 -0.0018303189 4286922554
-0.021731779 -0.0097582359 -0.0058308267 4288362029
-0.020067416 -0.0081247361 -0.0072394218 4289539364
-0.018414062 -0.0064913612 -0.0086472789 4290652184
-0.016641591 -0.0056540268 -0.009407335 4290783254
-0.015140399 -0.0032249745 -0.011460843 4290980114
-0.013248932 -0.0031836219 -0.011572897 4291045649
-0.011080988 -0.004733704 -0.010391607 4290718484
-0.0089023039 -0.0062834648 -0.0092108138 4289868058
-0.0067128614 -0.0078328662 -0.0080306409 4289737499
-0.0049521104 -0.0069951667 -0.0087894676 4289478928
-0.027874779 -0.02263258 0.0025458941 4286529344
-0.025808871 -0.023389334 0.003076083 4286790973
-0.02408703 -0.021750577 0.0016669752 4287052858
-0.022733763 -0.017716864 -0.0016798405 4288034354
-0.021529738 -0.012885343 -0.0056709475 4288099889
-0.020233858 -0.0088526588 -0.0090141958 4288950569
-0.018710613 -0.0064167846 -0.011064381 4290062624
-0.016943656 -0.0055774292 -0.011822449 4290586393
-0.01518226 -0.0047380906 -0.012580107 4290325018
-0.01342646 -0.0038987193 -0.013337394 4290652438
-0.011399727 -0.00465531 -0.012804128 4290063899
-0.0093677007 -0.0054116519 -0.012271153 4289802014
-0.0071866885 -0.0069655795 -0.011093701 4289867548
-0.0052877441 -0.0069236355 -0.01120588 4289803288
-0.028138723 -0.022591848 0.00010129903 4286071619
-0.025851097 -0.024952229 0.0019199196 4287576119
-0.024129286 -0.023309104 0.00051405467 4288099888
-0.022418469 -0.021666154 -0.00089103449 4287314999
-0.02120607 -0.016821358 -0.0048730006 4287053113
-0.020026453 -0.011977194 -0.008852887 4288295983
-0.01875231 -0.007933991 -0.012186693 4289604389
-0.016985435 -0.0070924591 -0.012943138 4289670178
-0.015356865 -0.0054506753 -0.014342962 4289867293
-0.013468381 -0.0054094177 -0.014454861 4290129179
-0.011441842 -0.0061681923 -0.0139232 4289736478
-0.0096918195 -0.0053265654 -0.01467838 4290129179
-0.0076601058 -0.0060850214 -0.014146873 4289539873
-0.0059158131 -0.0052433182 -0.014901562 4289082404
-0.0038789585 -0.0060014669 -0.014370216 4289738774
-0.028846052 -0.019330658 -0.0049104439 4285940804
-0.026461452 -0.022500739 -0.002452408 4286660669
-0.024287887 -0.024064641 -0.0012817951 4286791739
-0.022460751 -0.023220109 -0.0020405613 4286726459
-0.021126337 -0.01916495 -0.0053700474 4286922298
-0.019943789 -0.014307644 -0.00934048 4287576373
-0.018666759 -0.010253491 -0.01266638 4288361774
-0.01728712 -0.0070022922 -0.015348288 4289604388
-0.01539864 -0.0069611426 -0.015460268 4290063134
-0.013645694 -0.0061175432 -0.016214129 4290063134
-0.01176019 -0.0060762512 -0.016325777 4289866784
-0.010156516 -0.0044303667 -0.017720608 4291044629
-0.0082767233 -0.0043889852 -0.017831758 4290848533
-0.0062508062 -0.005149615 -0.017301502 4290783509
-0.0042195693 -0.0059100315 -0.016771488 4289278498
-0.02479523 -0.02240075 -0.0049987715 4286268224
-0.022741046 -0.023164047 -0.0044726259 4286595134
-0.021168448 -0.020707818 -0.0065113618 4286857018
-0.019736759 -0.01744703 -0.0091900844 4286922553
-0.018581316 -0.012577182 -0.013149096 4287446069
-0.01732875 -0.0085125417 -0.016465444 4289342758
-0.015705645 -0.0068622353 -0.017858461 4290128158
-0.013822876 -0.0068211053 -0.017970022 4290324764
-0.011940219 -0.0067798812 -0.018081507 4289997344
-0.010339271 -0.0051297313 -0.019472966 4290128159
-0.0086058378 -0.0042840326 -0.020223871 4290651929
-0.006731756 -0.0042426819 -0.020334616 4290782743
-0.0047088638 -0.0050055142 -0.019805688 4290325529
-0.0026806891 -0.0057680747 -0.019277034 4289411354
-0.023021076 -0.023099098 -0.0068980432 4286661433
-0.021210544 -0.022250468 -0.0076525179 4286857019
-0.019654363 -0.019787911 -0.0096853962 4286922809
-0.018623091 -0.014098112 -0.014274163 4287315509
-0.017370366 -0.010022588 -0.01758245 4288688938
-0.015614726 -0.0091746971 -0.018333333 4289866784
-0.013729356 -0.0091335392 -0.018445071 4289997598
-0.011982109 -0.0082856128 -0.01919529 4289670178
-0.010662612 -0.0050179129 -0.021860421 4289277734
-0.0089346766 -0.0041702176 -0.022609357 4289604899
-0.0070661604 -0.0041290121 -0.022719789 4290717719
-0.0049000308 -0.0057004988 -0.021554239 4289736478
-0.0028747395 -0.006465354 -0.021026995 4289475614
-0.00099848956 -0.0064236727 -0.021137657 4290459148
-0.023063075 -0.024643686 -0.0080406442 4286333248
-0.021131013 -0.024602061 -0.0081555583 4288099634
-0.019447733 -0.02294204 -0.0095459819 4288296239
-0.018410746 -0.017236888 -0.014123792 4288100398
-0.017022625 -0.013959449 -0.016786873 4288231724
-0.015656386 -0.010682374 -0.019448576 4289081383
-0.013771158 -0.010641219 -0.019560307 4289408293
-0.012299858 -0.0081734899 -0.021582868 4290324509
-0.010845024 -0.0057059815 -0.023604427 4289931808
-0.0092632547 -0.0040475009 -0.02498826 4289147429
-0.0071080998 -0.0056236843 -0.023825364 4289278244
-0.0050910264 -0.0063909665 -0.023299376 4290390554
-0.0030686483 -0.0071580475 -0.022773638 4289736734
-0.0013494864 -0.0063079773 -0.023520149 4289606429
0.014842637 -0.011628426 -0.019956993 4286465084
-0.021416247 -0.024523703 -0.01057071 4286922044
-0.019738428 -0.022859529 -0.011957566 4287052858
-0.018325612 -0.019572964 -0.014615744 4287249973
-0.016934667 -0.016286764 -0.017272543 4287250229
-0.015433162 -0.013812087 -0.019292228 4287512114
-0.014083251 -0.010526577 -0.021946441 4289212198
-0.01275523 -0.0072414456 -0.024599284 4290717208
-0.011589691 -0.0031457469 -0.027885953 4290913559
-0.009591572 -0.0039158156 -0.027360599 4291044884
-0.0075881481 -0.0046857046 -0.026835516 4290914069
-0.0052818805 -0.0070768949 -0.025041156 4290456089
-0.0034138933 -0.0070355218 -0.025151424 4289801504
-0.0015460253 -0.0069940556 -0.025261611 4290129179
0.00032170117 -0.0069525084 -0.02537173 4289345053
0.011363089 -0.014846229 -0.019586656 4286923829
0.013257064 -0.014803559 -0.019697919 4287250738
0.014974959 -0.013950689 -0.020442259 4287250229
-0.020153094 -0.021954598 -0.014997166 4286725693
-0.018367514 -0.021099798 -0.015745182 4286791483
-0.016846806 -0.018618297 -0.017761255 4286988344
-0.015607294 -0.014510393 -0.021044526 4287054134
-0.014530204 -0.0095898025 -0.024959985 4288231468
-0.013210222 -0.0062961653 -0.02760591 4289800993
-0.011631049 -0.0046291538 -0.028983217 4290063133
-0.009633109 -0.0054014279 -0.028459487 4289605409
-0.0076298639 -0.0061734878 -0.027936 4289605409
-0.005472593 -0.0077582961 -0.026779588 4289605154
-0.0036074296 -0.0077170031 -0.0268897 4289604644
-0.0015882701 -0.0084884334 -0.026366947 4289277734
0.00043617934 -0.0092596505 -0.025844432 4288951079
0.0027850717 -0.011656068 -0.024057169 4288951334
0.0053124204 -0.014864672 -0.021638483 4287839279
0.0075313449 -0.016447527 -0.020485349 4287643183
0.0095932484 -0.017217539 -0.019964769 4287381554
0.01149001 -0.017174933 -0.020076292 4287446578
0.013386615 -0.017132234 -0.020187734 4287381299
0.01510717 -0.016277144 -0.020930627 4287118903
-0.020567372 -0.021036467 -0.018026927 4286791229
-0.018409397 -0.022626406 -0.016874451 4286791228
-0.016759042 -0.020953923 -0.018253073 4286791738
-0.015384324 -0.017650621 -0.02089596 4287053879
-0.014571637 -0.011086032 -0.026066756 4287446578
-0.013251547 -0.0077837016 -0.028706241 4289146664
-0.01167237 -0.0061123697 -0.030080345 4289474084
-0.0096746236 -0.0068868259 -0.029558219 4289801504
-0.0078174621 -0.0068459325 -0.029668024 4289343268
-0.0055145249 -0.0092502851 -0.027883176 4288623658
-0.0034981295 -0.010024045 -0.027361941 4288754729
-0.0013223588 -0.011612588 -0.026209772 4288427819
0.00086415559 -0.013200843 -0.025058124 4287970094
0.0030613914 -0.014788717 -0.023907078 4288231724
0.0052693635 -0.016376328 -0.022756573 4288296749
0.0073231161 -0.017148802 -0.022237204 4287446323
0.0097174719 -0.01955051 -0.020457292 4287381043
0.011616834 -0.019507851 -0.020568974 4287315508
0.013342947 -0.018650508 -0.021310689 4287446323
0.014887668 -0.016978763 -0.022681888 4287380534
-0.020608976 -0.022558531 -0.01915285 4286921788
-0.018578079 -0.023335088 -0.018634785 4286987578
-0.016671382 -0.023293732 -0.018747985 4287445814
-0.015293833 -0.019981669 -0.021384586 4287314998
-0.014208116 -0.015034847 -0.025281236 4287446068
-0.012879744 -0.011723661 -0.027914777 4287773489
-0.011292424 -0.010047808 -0.029286142 4288493098
-0.0092866905 -0.010824295 -0.028766125 4288297004
-0.007567361 -0.009965891 -0.029506467 4288165933
-0.0052592903 -0.012376628 -0.027726818 4288100654
-0.0030863285 -0.013969751 -0.02657776 4287969584
-0.00074863434 -0.016379621 -0.024799701 4288035118
0.0014485195 -0.017972007 -0.023651924 4288035374
0.0033375025 -0.017929951 -0.023763269 4287904559
0.0055506751 -0.019521769 -0.022616349 4288624424
0.0072799176 -0.018662496 -0.023356795 4287773488
0.009506382 -0.020253841 -0.022210529 4287838768
0.011402935 -0.020211276 -0.022322066 4287642164
0.013299331 -0.020168627 -0.022433532 4287708209
-0.019000128 -0.022399336 -0.021650966 4286660158
-0.016842771 -0.023997955 -0.020504806 4287641653
-0.015335638 -0.021497082 -0.022505559 4287969074
-0.014249682 -0.016537232 -0.026392562 4288362284
-0.012921203 -0.013217389 -0.029019691 4288427563
-0.011333883 -0.011537202 -0.030387841 4289081893
-0.0093283318 -0.01231586 -0.02986942 4288427563
-0.0073174611 -0.013094352 -0.029351277 4288165933
-0.0051527843 -0.014692045 -0.028205059 4288100399
-0.002977334 -0.016289476 -0.027059384 4288034863
-0.0007911697 -0.017886512 -0.0259143 4287969584
0.0012490749 -0.01866395 -0.025397591 4287904559
0.0032946169 -0.019441232 -0.024881095 4288035373
0.0055075586 -0.021037422 -0.023737403 4288362538
0.0075664073 -0.021814201 -0.023221608 4288885799
0.0094630048 -0.02177174 -0.023333229 4288035118
0.011189207 -0.020910241 -0.024071794 4288034609
0.012736842 -0.019229867 -0.025436809 4287838768
-0.019548517 -0.020628285 -0.025285352 4286202689
-0.01714344 -0.023875579 -0.022886142 4286922044
-0.015509553 -0.022190381 -0.024254085 4286791228
-0.014156371 -0.018861413 -0.026876308 4287314998
-0.012825053 -0.01553281 -0.029497154 4287838769
-0.011235014 -0.013848248 -0.030862262 4288165678
-0.0089409053 -0.016272539 -0.029091615 4288951078
-0.0069220513 -0.017053086 -0.028575523 4288623914
-0.0047494546 -0.018654967 -0.027433008 4287969584
-0.0027172714 -0.019434983 -0.026917607 4287773488
-0.00083366036 -0.019393273 -0.027028801 4288100398
0.0012064129 -0.020172928 -0.026513726 4288362284
0.0032517835 -0.020952404 -0.025998844 4288231469
0.0054644868 -0.022552967 -0.024858378 4288231469
0.0075231716 -0.023331951 -0.02434421 4288230703
0.0092521906 -0.022468325 -0.025081407 4287641908
-0.015815407 -0.022054918 -0.02662532 4286463808
-0.014467545 -0.018717436 -0.029240754 4287053369
-0.012866519 -0.017028358 -0.030603416 4287511349
-0.011136241 -0.01616345 -0.031339757 4287838769
-0.0086967424 -0.019418221 -0.028948691 4287969584
-0.0066726506 -0.020200782 -0.028434563 4288427053
-0.0046432391 -0.020983126 -0.027920678 4288296238
-0.0027596205 -0.020941537 -0.028031964 4288230959
-0.0010299608 -0.020076174 -0.028767925 4288165679
0.0011637807 -0.021681726 -0.027629729 4288296494
0.0030497164 -0.021639779 -0.027740924 4287838513
0.0052594766 -0.023244841 -0.026603501 4286791994
-0.016385015 -0.020258013 -0.030238856 4286594878
-0.014643714 -0.019390849 -0.030974433 4286987833
-0.012907945 -0.018523784 -0.031709589 4287772979
-0.010897376 -0.019309033 -0.031196438 4287772979
-0.0084528103 -0.022572393 -0.028812123 4287642164
-0.0065690726 -0.02253098 -0.028923549 4287838259
-0.0046854466 -0.02248951 -0.029034924 4288492333
-0.0026508793 -0.023273859 -0.028522914 4288754219
-0.0007647872 -0.023232149 -0.028634297 4288099888
0.0011211708 -0.023190368 -0.028745618 4286464574
-0.014954403 -0.019231386 -0.033327427 4286725693
-0.012949336 -0.020019067 -0.032815661 4288099633
-0.010938957 -0.02080651 -0.032304123 4287903794
-0.0086375773 -0.023250323 -0.030548429 4287707189
-0.0070477724 -0.021552611 -0.031903766 4286725948
-0.015130203 -0.019893695 -0.035052821 4286071619
-0.013128035 -0.020683624 -0.034542508 4287772214
-0.011120554 -0.021473341 -0.034032434 4287052859
-0.0089649707 -0.023093313 -0.03290198 4288623149
0.013629481 0.0058791563 0.03179032 4284704818
0.011234835 0.0041707139 0.028208971 4284704818
0.0092188567 0.0025455821 0.027155578 4284705328
0.011517659 0.0010776259 0.028387915 4284377399
0.0090128556 0.001722889 0.025313489 4284049468
0.006524764 0.0023819897 0.022247996 4284640559
0.018112175 0.011810165 0.013398815 4280907614
0.020938642 0.0080538243 0.016636057 4281235289
0.024157733 0.0027783904 0.021211468 4280645219
0.0119505 0.011659361 0.011257179 4280129864
0.013183989 0.014751952 0.0084686447 4278371639
0.016471662 0.017124755 0.0062386077 4279286068
0.019273214 0.013357008 0.0094691906 4278764084
0.02246727 0.0080657806 0.014034776 4280909909
0.0042206571 0.0099465996 0.010569949 4281167458
0.0056595579 0.012283793 0.0084529258 4280519504
0.0074092597 0.013091272 0.0076725166 4280063563
0.008820571 0.015427986 0.0055572949 4280523073
0.010215342 0.017764462 0.0034430698 4279871549
0.011593573 0.020100681 0.0013299007 4280328764
0.013304375 0.020907646 0.00055204425 4280719933
0.015364029 0.020185782 0.0011085104 4279874863
0.017788902 0.017935408 0.0029983819 4278570794
0.020960659 0.012628425 0.0075539593 4280978249
0.02417028 0.0073223282 0.012107415 4280516953
-0.0026277676 0.0036319792 0.013886822 4281301589
-0.0014390126 0.0075108092 0.01043753 4280781644
-0.00027766079 0.011389127 0.0069899242 4280327744
0.0025954247 0.016076175 0.0027657021 4279223084
0.004168056 0.017652372 0.0013214452 4281371459
0.0058932081 0.01846149 0.00054410473 4280391748
0.007779032 0.018503761 0.0004331544 4280196673
0.011378348 0.019355262 -0.0004541697 4279026479
0.012911908 0.020930985 -0.0018957527 4281436738
0.014965959 0.020206841 -0.0013405541 4281437504
0.01702524 0.019482886 -0.00078560878 4281045313
0.019637667 0.016459728 0.0017642193 4280587334
0.0228277 0.011138 0.0063074827 4280453969
-0.0054769516 0.0066527687 0.0088583753 4282090303
-0.0042905584 0.010542337 0.0054172259 4280980543
-0.0031315759 0.014431428 0.0019777901 4281045059
-0.0016947016 0.016781377 -0.00012961775 4278373933
-0.00027433038 0.019131029 -0.0022359258 4279615273
0.0016037896 0.019172857 -0.0023466209 4278965279
0.0033209026 0.019983934 -0.0031219777 4281111359
0.0053594634 0.019256787 -0.0025677634 4280653633
0.0072370246 0.019298876 -0.0026782183 4280849729
0.0092833564 0.018572113 -0.0021243813 4280002619
0.014390975 0.02100567 -0.0044467621 4278504493
0.018680714 0.018784581 -0.0026758937 4280522564
0.021486036 0.014984405 0.00053035561 4280586569
0.024694316 0.0096479133 0.0050612893 4280257109
-0.0069642067 0.012829453 0.0010786615 4281633598
-0.0056577325 0.015957741 -0.0016889023 4280720698
-0.0039236173 0.016770953 -0.0024638837 4280785723
-0.0023477152 0.018355684 -0.0039020535 4281632579
-0.00062756985 0.019168803 -0.0046760538 4280980799
0.0010869727 0.019981874 -0.0054496597 4280720188
0.0029566139 0.020023616 -0.0055597792 4280785469
0.0048260912 0.020065458 -0.0056698075 4280653889
0.0066953748 0.020107364 -0.00577978 4280849984
0.008733362 0.019378265 -0.0052270447 4280653888
0.010776594 0.018649356 -0.0046745637 4280654398
0.012476377 0.019462658 -0.0054468852 4280003129
0.01417052 0.020275911 -0.0062188222 4279938104
0.016038813 0.020318234 -0.0063284053 4280654909
0.017906882 0.020360662 -0.0064378954 4280915264
0.020145208 0.018861638 -0.0052240421 4280848964
0.023145996 0.014280099 -0.0013647191 4280782408
0.026369847 0.0089287981 0.0031540561 4280648533
-0.0072954223 0.012859216 -0.0013690693 4282286398
-0.0061413571 0.016769899 -0.0047921184 4280915009
-0.0045652688 0.018358851 -0.0062270965 4279223085
-0.0028477162 0.019173982 -0.0069994037 4279483183
-0.00098054111 0.019215496 -0.0071095056 4280915774
0.00072848052 0.020030649 -0.0078811552 4280394553
0.0025925785 0.020072279 -0.0079909377 4279873078
0.0044564903 0.020113988 -0.0081006456 4280850494
0.0063202158 0.020155793 -0.0082102735 4280784448
0.0081837401 0.020197699 -0.0083198063 4280653889
0.01021865 0.019466432 -0.0077684475 4281045314
0.011910237 0.020281726 -0.0085386746 4280849473
0.013596147 0.02109704 -0.0093085356 4281045313
0.01545617 0.021139199 -0.0094176177 4280849984
0.017315999 0.021181429 -0.0095266365 4280915519
0.019360788 0.020450765 -0.0089754984 4280459323
0.021786563 0.018174594 -0.0071049081 4280523329
0.02518145 0.012034748 -0.0019365437 4281239623
0.028426297 0.0066687372 0.0025697351 4281236308
-0.0069049075 0.0090177171 -0.0005059829 4281768239
-0.0061835498 0.015267441 -0.0059034498 4281436228
-0.0049069524 0.018412584 -0.0086561833 4280525369
-0.0033473596 0.020005668 -0.010086925 4278505768
0.0025500134 0.018578565 -0.0090957573 4280068664
0.0040871203 0.020171547 -0.010524878 4280850494
0.0059452876 0.020213226 -0.010634177 4280784959
0.0078032687 0.020255024 -0.010743376 4280849729
0.0098325685 0.019521454 -0.0101933 4280914499
0.011692882 0.019563461 -0.010302516 4280783938
0.013553001 0.019605553 -0.010411657 4280718913
0.015053608 0.021198189 -0.011838208 4280654398
0.016725495 0.022015469 -0.012605475 4279351093
0.030487649 0.0044047367 0.001982199 4280713813
-0.0071468726 -0.0018830821 0.0063946918 4284575788
-0.0062263012 0.0036069676 0.001666029 4282617133
-0.0056379288 0.0106526 -0.0043783658 4281636659
-0.0047993436 0.01614101 -0.0091019832 4280848964
-0.0035418421 0.019294577 -0.011847097 4280655163
-0.0016857982 0.019335868 -0.011956524 4280655419
0.00017008185 0.019377226 -0.012065887 4280787509
0.0020257756 0.019418674 -0.012175171 4281046588
0.0037180111 0.020238006 -0.012942454 4280981564
0.0054046065 0.021057365 -0.013709363 4281110848
0.0072543249 0.021098958 -0.013818085 4280915008
0.0091038495 0.021140633 -0.013926737 4280915008
0.011127345 0.020404806 -0.013377827 4281110338
0.012979217 0.020446731 -0.013486467 4280784703
0.014830872 0.020488711 -0.013595052 4280198203
0.016682342 0.020530758 -0.013703572 4280719933
0.018718645 0.019795606 -0.0131552 4280068919
0.020947933 0.018283414 -0.01195043 4279155254
0.026018105 0.012928575 -0.0075735301 4278501178
0.029463008 0.0067551583 -0.002433842 4280387159
-0.0058366507 -0.00026452541 0.002506936 4283204908
-0.0049458891 0.0052402299 -0.00220857 4282159663
-0.0040934086 0.010744216 -0.0069216816 4281177404
-0.0032792017 0.016247483 -0.011632511 4280982328
-0.0017279312 0.017849179 -0.013056166 4280981564
-2.9958785e-05 0.018670632 -0.013822306 4280916539
0.0018229038 0.018712023 -0.013931416 4280851259
0.0033491328 0.020313507 -0.015353413 4280590139
0.0050302595 0.021134852 -0.016118364 4278505768
0.006705761 0.02195617 -0.016882908 4279743284
0.0085470155 0.021997677 -0.016991057 4281045569
0.010562189 0.021259526 -0.016443314 4280718659
0.012582608 0.02052159 -0.015895808 4280784703
0.014608264 0.019783868 -0.015348541 4279482164
0.016092397 0.021384938 -0.016767593 4280198968
0.018120393 0.020647416 -0.01622035 4281567043
0.020341322 0.019130642 -0.015018279 4281698368
0.022572905 0.017614225 -0.013816816 4280394808
0.024815157 0.016098076 -0.012615886 4280784193
0.027655609 0.012244575 -0.0094518475 4280390984
0.030920155 0.0068334248 -0.0049805394 4279992673
-0.0055914819 -0.0033662422 0.0026823198 4283791663
-0.0044013113 0.00058883242 -0.00071052369 4283138099
-0.0035376251 0.0061082933 -0.0054130014 4282222904
-0.003016755 0.013191851 -0.011424171 4281699388
-0.002080068 0.017927429 -0.015466349 4280915264
-0.00054530799 0.019533211 -0.016885726 4280655163
0.0014597028 0.018792225 -0.016339319 4280915773
0.0081618726 0.022086101 -0.019391201 4280329529
0.010171443 0.021345602 -0.018844705 4281242429
0.012186259 0.020605376 -0.018298475 4280850238
0.01420632 0.01986534 -0.017752504 4280459834
0.019922696 0.019209599 -0.01742292 4278896684
0.021958292 0.01847023 -0.01687762 4279350329
0.023999095 0.017731013 -0.016332529 4278958904
0.026632518 0.014647754 -0.013828867 4280784704
0.029684447 0.010002404 -0.010020812 4280128589
-0.0057786927 -0.0041222051 0.0008883113 4283793194
-0.0044443011 -0.00094096828 -0.0018420806 4283203378
-0.0032813326 0.0030245148 -0.0052251494 4282093364
-0.0027546063 0.010127781 -0.011222139 4281570614
-0.0018121973 0.0148765 -0.015254926 4280979523
-0.00027199835 0.016486818 -0.016671423 4280523583
0.0014175251 0.017312536 -0.017433763 4280133689
0.0027752593 0.019706888 -0.019502187 4281436738
0.0042822957 0.021316724 -0.020916536 4281436994
0.0081195086 0.020615125 -0.020479172 4280328764
0.0099549368 0.020656588 -0.020586915 4280981054
0.011966862 0.019914066 -0.020042095 4280915773
0.013625212 0.020739758 -0.020802177 4280850238
0.015642203 0.019997502 -0.020257544 4280393789
0.017109901 0.021607039 -0.021669146 4278635309
0.019129209 0.020865047 -0.021124568 4280005679
0.021153785 0.020123186 -0.020580214 4279026989
0.023569569 0.017814288 -0.018733144 4280457793
0.025805764 0.016289355 -0.017538276 4280588353
0.028846368 0.011630673 -0.013739254 4280456774
0.03191933 0.0069727935 -0.0099420818 4280453458
-0.0059657842 -0.0048735244 -0.00090225879 4283987759
-0.004487291 -0.0024705175 -0.0029734503 4283203888
-0.0031747147 0.00071904622 -0.0056960187 4282419508
-0.0023405179 0.006268464 -0.010374049 4282094383
-0.0016994551 0.012603847 -0.015701916 4281698879
-0.00031412393 0.015005203 -0.017767299 4281111103
0.0027331486 0.018233987 -0.020591602 4279938869
0.0040744618 0.02063462 -0.022654198 4281241408
0.006073162 0.019889401 -0.022110457 4281176128
0.0080771372 0.019144395 -0.021566954 4280003893
0.010086365 0.018399546 -0.021023661 4280394043
0.011747584 0.019227399 -0.021782354 4280850494
0.013582528 0.01926901 -0.021889951 4280719168
0.01559937 0.018524589 -0.021346912 4280588099
0.017436668 0.018566409 -0.021454532 4280392004
0.019273765 0.018608289 -0.021562088 4280586823
0.02149111 0.017078491 -0.020369481 4281174599
0.023912057 0.014763119 -0.018527534 4281306689
0.02654478 0.01166244 -0.016036741 4281175364
0.029000662 0.0093480647 -0.014196765 4281043528
0.031673715 0.006248435 -0.011708238 4281236818
-0.0045302734 -0.0039998172 -0.0041046333 4283727404
-0.0033669472 -1.2565404e-05 -0.0074715815 4282485044
-0.002230987 0.0039741863 -0.010836835 4282288948
-0.0012772009 0.0087492894 -0.014850911 4281376304
-0.00035624206 0.013523804 -0.018863019 4281175109
0.00069216639 0.017508896 -0.022222895 4280524604
0.0037010461 0.020745737 -0.025038399 4278375974
0.0056941509 0.01999818 -0.024495892 4278636074
0.0078636333 0.018462384 -0.02330412 4278374189
0.0098699927 0.017715329 -0.022762317 4280720189
0.011705026 0.017756859 -0.022869982 4280849984
0.013539866 0.017798478 -0.022977564 4280980033
0.015556544 0.017051863 -0.022436142 4280587333
0.017393745 0.017093675 -0.022543762 4280392004
0.019605629 0.01555931 -0.021354124 4280587843
0.022208512 0.012449082 -0.018868163 4280849729
0.024832927 0.0093394313 -0.016383402 4281175874
0.027283281 0.007018324 -0.014548002 4280978758
0.029551469 0.0054854862 -0.013361409 4281041743
0.031830266 0.0039530024 -0.01217543 4280972128
-0.0045732558 -0.0055288756 -0.0052356394 4284445993
-0.0032604337 -0.0023219017 -0.0079453122 4282812209
-0.001817517 9.3547627e-05 -0.010004514 4281833264
-0.00085532665 0.004881924 -0.014009451 4282157879
-0.00024087727 0.011251621 -0.019309781 4281506608
0.00065024942 0.016038636 -0.023310367 4281112379
0.0018344 0.019243227 -0.026012098 4280655928
0.0033278987 0.020865778 -0.02741592 4278506278
0.0054837391 0.019325206 -0.026226662 4278896428
0.007650286 0.017784933 -0.025037913 4280654908
0.0098275319 0.016245024 -0.023849782 4281307199
0.011838973 0.015495965 -0.023309775 4281240644
0.01403489 0.013956631 -0.022122623 4281044803
0.015877604 0.013998516 -0.022230603 4281110083
0.018274121 0.011669293 -0.020397086 4281240898
0.020686738 0.0093405619 -0.018564492 4281436483
0.023305595 0.0062219854 -0.01608593 4281762628
0.025560342 0.0046843421 -0.014901889 4281370438
0.02782578 0.0031470675 -0.013718456 4281435209
0.029903643 0.0024001282 -0.013181963 4281172814
-0.0028555393 -0.0062221028 -0.0071268547 4283857453
-0.0015563592 -0.0030066296 -0.0098291924 4283007538
-0.0004338026 0.0010016877 -0.013177437 4282680628
0.00018918514 0.0073890071 -0.018465417 4282156858
0.00092860311 0.012982316 -0.023103736 4281958468
0.0017926395 0.017781859 -0.027092982 4281112634
0.0034517199 0.018615777 -0.02784694 4280785979
0.0054417551 0.017863827 -0.02730754 4281045824
0.0079500824 0.014733499 -0.024829354 4281306178
0.010306269 0.012396503 -0.02299856 4281045058
0.012502126 0.010852749 -0.021814682 4281372224
0.014708698 0.0093092676 -0.020631336 4281502528
0.016744062 0.0085587632 -0.020094281 4281436738
0.018784702 0.007808445 -0.019557485 4281566534
0.021205202 0.005473312 -0.017730163 4281500999
0.023451768 0.0039310995 -0.016548969 4281435719
0.025709033 0.0023891591 -0.015368303 4281370438
0.027781509 0.0016398635 -0.014833151 4281434954
0.029859222 0.00089074485 -0.014298266 4281237584
-0.0030477569 -0.0069530057 -0.008901896 4284446248
-0.0015992671 -0.0045243502 -0.010951795 4283465009
-0.00032187998 -0.0013005501 -0.01364631 4282941748
0.00061888993 0.0035135299 -0.01763049 4282157369
0.0013667941 0.0091222711 -0.022258077 4280788273
0.0025648177 0.012344543 -0.024947666 4280782663
0.0040719286 0.013976142 -0.026345879 4280849983
0.0062409118 0.012427121 -0.025163805 4280784703
0.0084205866 0.010878481 -0.023982331 4281241153
0.010784626 0.0085351449 -0.022156835 4281109319
0.012988426 0.006987201 -0.020976659 4281370693
0.015382014 0.0046446715 -0.019152794 4281370693
0.017246291 0.0046870243 -0.019262055 4281435973
0.019479439 0.0031399801 -0.018083431 4281435719
0.021536015 0.0023879241 -0.017549127 4281631558
0.023597859 0.0016360227 -0.017015034 4281566534
0.02566494 0.00088434294 -0.016481243 4281304648
0.027932644 -0.00066161249 -0.01530442 4281434444
0.029814817 -0.00061842427 -0.015414411 4281237074
-0.0016421601 -0.0060418677 -0.012074245 4284183598
-0.00021007657 -0.0036069434 -0.014118257 4283529014
0.0010482371 -0.00037482195 -0.016805088 4282157878
0.0021246225 0.0036543924 -0.020134347 4281440819
0.0031736493 0.0076831579 -0.023461951 4281763649
0.0050225407 0.007724639 -0.023570698 4281632579
0.0070394352 0.006968867 -0.023036081 4281370949
0.0092324838 0.0054161604 -0.021858629 4281370694
0.011436231 0.0038637184 -0.020681718 4281435973
0.013474353 0.0031087548 -0.020148179 4281631558
0.015696779 0.0015569497 -0.018972278 4281435973
0.017566368 0.0015993975 -0.01908187 4281436229
0.01962027 0.00084502436 -0.018549085 4281566534
0.021679424 9.0792775e-05 -0.018016513 4281566278
0.023743838 -0.00066318829 -0.017484231 4281565259
0.026006073 -0.0022137063 -0.016310379 4281303118
0.027693033 -0.0013739644 -0.017062124 4281040978
0.029572397 -0.0013308683 -0.01717197 4280647003
-0.00025288761 -0.00511772 -0.015235715 4283856433
0.0011627823 -0.0026765997 -0.017273817 4282223924
0.0024020225 0.00056394748 -0.019953031 4281962549
0.0037820041 0.0030044969 -0.021988939 4282154819
0.0054762959 0.0038457159 -0.022740141 4281762374
0.0075011626 0.0030879974 -0.022207646 4281566534
0.0095313191 0.0023304429 -0.021675352 4281566278
0.011740267 0.00077382103 -0.020502008 4281566534
0.013783671 1.6771257e-05 -0.019970413 4281500999
0.01583232 -0.00074006245 -0.01943906 4281435973
0.017704539 -0.0006975634 -0.019548811 4280979778
0.019761033 -0.0014541214 -0.019017765 4281435719
0.022009857 -0.0030094571 -0.017846474 4281370438
0.024269365 -0.0045644715 -0.016675754 4281368909
0.026346996 -0.005320332 -0.016145786 4281302609
0.028039359 -0.0044782562 -0.016896281 4281170009
0.00096289068 -0.003378761 -0.019026957 4282942769
0.0023594275 -0.00093141664 -0.021059074 4282026554
0.0039021 0.00071386993 -0.022449743 4281762373
0.0059296936 -4.6057627e-05 -0.02191909 4281696838
0.0077945143 -4.151836e-06 -0.022028722 4281566024
0.009829931 -0.00076371524 -0.021498393 4281304648
0.011870608 -0.0015231045 -0.020968333 4281697093
0.014092766 -0.0030837618 -0.019798901 4281566024
0.016146697 -0.0038426695 -0.019269481 4281369418
0.018024258 -0.0038000634 -0.019379556 4280783173
0.019901656 -0.0037574014 -0.019489577 4281240133
0.021965921 -0.0045158518 -0.018960597 4281040214
0.00092024356 -0.0048804376 -0.020137679 4283726383
0.0023168549 -0.0024265563 -0.02216495 4282549048
0.0040220842 -0.0015808586 -0.022913653 4281761863
0.0060522035 -0.0023429012 -0.022384763 4281827399
0.0080876052 -0.0031047529 -0.021856129 4281304138
0.010128289 -0.0038664164 -0.021327753 4281434698
0.012347676 -0.0054315822 -0.020161457 4281762374
0.01422549 -0.0053891502 -0.020271681 4281892423
0.016281977 -0.0061501861 -0.019744031 4281564749
0.017980613 -0.0053040581 -0.02049192 4280189279
0.0007205829 -0.0055756392 -0.021885745 4284445738
0.0022743046 -0.0039215153 -0.023270693 4283527994
0.0041419417 -0.003879766 -0.023380656 4281891658
0.0063398182 -0.0054499824 -0.022216558 4281891404
0.0085484162 -0.0070199361 -0.021053001 4282022474
0.010597073 -0.0077835824 -0.0205267 4282479434
0.012651026 -0.0085470509 -0.020000665 4283198278
0.0045865551 -0.007799414 -0.02257962 4282675529
0.0067923367 -0.0093738176 -0.021419227 4282675273
0.0090088546 -0.010947922 -0.020259421 4283264324
0.016283989 0.0029261727 0.034389023 4280174743
0.021482646 -0.0022289129 0.038904406 4279256489
0.015730023 0.0035858359 0.031178072 4280044948
0.018053144 0.0021274034 0.032415636 4279519649
0.020561859 -8.209981e-05 0.034329496 4278863788
0.023264289 -0.0030424418 0.036919132 4278930853
0.013205729 0.0042147692 0.028092928 4279454113
0.019816518 0.0013332907 0.030446142 4278471598
0.022330128 -0.00088249333 0.032354899 4278734504
0.015469886 0.0011661202 0.028155327 4278862768
0.017273612 0.0019662771 0.027365413 4279191209
0.019421242 0.0012549572 0.027923062 4278668969
0.021219045 0.0020551924 0.027133644 4278800294
0.023551911 0.00058851205 0.028364435 4279259548
0.026627205 -0.0038999896 0.032287076 4279259803
0.013448641 -0.00046340004 0.02709908 4279785103
0.015424527 -0.00041908026 0.026982859 4278800039
0.01688417 0.0018992107 0.024850316 4278603943
0.018327273 0.0042172726 0.022718787 4278735523
0.020108715 0.0050193202 0.021931954 4278343333
0.022425003 0.0035479851 0.023160465 4278279074
0.028945655 -0.0069704596 0.032329194 4281292408
0.010608472 0.0017091203 0.022688072 4281620593
0.012570858 0.0017530527 0.022572581 4278735779
0.014363803 0.0025572944 0.021786503 4278408104
0.015291348 0.0071622897 0.017648226 4279261078
0.030897699 -0.0085294601 0.031025432 4280439944
0.0042089522 0.0022921339 0.019861359 4281359473
0.0056888387 0.0046235714 0.017736981 4279591813
0.029157139 -0.0032758852 0.023827434 4278410908
0.00025490671 0.00063841045 0.018933011 4281817964
0.0027652159 0.0076091513 0.012688031 4281164398
0.0312756 -0.0055792956 0.023206353 4278541213
0.029702894 -0.0010352824 0.016716704 4278738328
0.035681516 0.0014953036 -0.0030627344 4279132304
0.038621217 -0.0023665344 8.7632798e-05 4279850638
0.040704668 -0.0046462035 -0.00051326957 4281160319
0.043216974 -0.0085006356 0.00018011499 4282012784
0.033916026 0.0032085795 -0.011637665 4279851914
0.036006995 0.0024642982 -0.011100117 4278928559
0.038730711 -0.00064268522 -0.0086208675 4278930598
0.041687801 -0.0045366855 -0.0054956712 4278931618
0.045315653 -0.010792522 -0.00043099839 4281160828
0.033871368 0.0016968101 -0.012755722 4278932384
0.035755806 0.001740247 -0.012865698 4278995623
0.037849165 0.00099389441 -0.012329865 4278798253
0.040371373 -0.0013317354 -0.010503243 4279127714
0.043767802 -0.0068157297 -0.006095849 4278538664
0.047419295 -0.013088437 -0.0010454012 4281226363
0.03717719 0.0018560905 -0.015381748 4279061669
0.039267495 0.0011075716 -0.014847368 4278603944
0.042649843 -0.0043920027 -0.010450469 4278800549
0.046069972 -0.0098906085 -0.0060557746 4279653268
0.031495959 0.00021916628 -0.016167311 4279590284
0.03317149 0.0010566674 -0.016919853 4278996388
0.035047643 0.001099892 -0.017029364 4278865064
0.036923595 0.0011431836 -0.017138809 4278931619
0.039222725 -0.00040168874 -0.015963553 4278866594
0.041961327 -0.0035343636 -0.013504484 4278932384
0.045589946 -0.0098424572 -0.0084785614 4279653524
0.049041934 -0.01535553 -0.004097004 4282340203
0.03125082 -0.0004911907 -0.017923117 4279195034
0.033127077 -0.00044801086 -0.018032668 4278735779
0.035209358 -0.0012012171 -0.017501157 4279062178
0.037505783 -0.0027505737 -0.016329022 4278865828
0.039812863 -0.0042996556 -0.015157416 4278931364
0.042130612 -0.0058484171 -0.01398645 4279391129
0.045110188 -0.0097853709 -0.010894814 4280374663
0.048336476 -0.014517787 -0.0071644261 4282406249
0.0314072 -0.0027943458 -0.018396024 4279325084
0.033692956 -0.0043484392 -0.017226599 4279258784
0.036195509 -0.0067008696 -0.015418299 4278931874
0.038296446 -0.0074557485 -0.014889439 4278669478
0.040825762 -0.0098074377 -0.013082609 4279259293
0.042942621 -0.010561856 -0.012554606 4279783573
0.045498699 -0.012912829 -0.010749266 4281882224
0.026495203 -0.0076343408 -0.016626129 4280245633
0.028190255 -0.0067900801 -0.01737513 4279981964
0.029879689 -0.0059458474 -0.018123806 4279916429
0.031764142 -0.0059026005 -0.018233925 4279915664
0.033851765 -0.0066601653 -0.017705975 4279718804
0.036150686 -0.0082182568 -0.016540511 4279652759
0.038460307 -0.0097761098 -0.015375601 4278603688
0.040992059 -0.012134228 -0.013573797 4279586714
0.043111503 -0.012890784 -0.013047577 4279849108
0.021735027 -0.0052186688 -0.020711884 4280179844
0.023991406 -0.0067824954 -0.019547462 4280178824
0.02645088 -0.009149313 -0.017746586 4280046734
0.028341055 -0.0091060717 -0.01785714 4279850128
0.030231059 -0.0090627857 -0.017967649 4280046989
0.031920284 -0.0082163792 -0.01871462 4279784083
0.034010485 -0.0089760348 -0.018188491 4279718549
0.036311902 -0.010538433 -0.01702641 4279652504
0.038624056 -0.012100594 -0.015864886 4278799529
0.040735409 -0.01285961 -0.01533988 4279586969
0.042852007 -0.013618438 -0.014815129 4279586969
0.017936967 -0.006807873 -0.021604151 4279587223
0.019629985 -0.0059596309 -0.022350045 4279521689
0.021504283 -0.005916982 -0.022459842 4279915663
0.023757726 -0.0074852491 -0.021298494 4279784594
0.026406571 -0.010664082 -0.018866891 4279784849
0.028296679 -0.010620878 -0.018977469 4279784849
0.030384392 -0.011382917 -0.01845292 4279719313
0.032076329 -0.010534314 -0.019198466 4280111758
0.03437233 -0.012101274 -0.018039359 4279455899
0.036473066 -0.012862872 -0.017515391 4279455133
0.038579054 -0.013624246 -0.016991731 4278931108
0.04069028 -0.014385455 -0.016468341 4279914643
0.042592682 -0.014341563 -0.016579336 4280046479
0.017711945 -0.0075036427 -0.023350652 4279914644
0.019402191 -0.0066532651 -0.024094827 4279259038
0.021647453 -0.0082262205 -0.022936266 4279850128
0.024092965 -0.010606436 -0.021144345 4279784594
0.026554614 -0.012986282 -0.019353297 4279850128
0.028447345 -0.012943037 -0.019464042 4279850129
0.030142166 -0.012092281 -0.02020821 4279850128
0.032031834 -0.01204899 -0.020318689 4279457174
0.034327626 -0.013620336 -0.019162821 4279587733
0.03663411 -0.015191432 -0.018007498 4279258784
0.038742676 -0.015954945 -0.017485615 4278734759
0.040856495 -0.016718293 -0.016964009 4279718803
0.042547524 -0.015867278 -0.017707696 4281948014
0.01803118 -0.010624982 -0.023195412 4279980944
0.019726843 -0.0097723901 -0.02393828 4279128734
0.021977291 -0.011349514 -0.022783276 4279849618
0.024238482 -0.0129264 -0.021628831 4279719059
0.026318096 -0.013693138 -0.021107156 4280308364
0.028208025 -0.013649974 -0.021217749 4280045969
0.030097783 -0.013606764 -0.021328297 4279980178
0.031987362 -0.013563511 -0.0214388 4280046478
0.03407988 -0.014329715 -0.020917702 4280636804
0.038280651 -0.015861653 -0.019876275 4281619063
0.016643539 -0.01460984 -0.022304488 4281420419
0.017987587 -0.012130471 -0.024308888 4279652759
0.020051256 -0.01289997 -0.023788061 4278997663
0.021933451 -0.012857223 -0.02389838 4279718039
0.024194427 -0.014438495 -0.02274717 4279652758
0.026081711 -0.01439549 -0.022857685 4279587989
0.028163761 -0.01516431 -0.022337738 4279587223
0.030053437 -0.015121139 -0.022448309 4279523729
0.032143265 -0.015889684 -0.021928746 4280965244
0.037401982 -0.014136326 -0.023519659 4282143599
0.041601814 -0.015672449 -0.022481339 4282274668
0.04414282 -0.018063083 -0.020704281 4281946993
0.016421355 -0.015307155 -0.024052426 4281289603
0.018306524 -0.015264518 -0.024163051 4279652249
0.020375483 -0.01603616 -0.023644138 4278734759
0.022263028 -0.015993319 -0.02375479 4278997663
0.023771629 -0.014321998 -0.025123652 4279128988
0.025461301 -0.013465025 -0.025862817 4280440963
0.027729884 -0.015050322 -0.024715243 4282014059
0.045558423 -0.01791543 -0.023196373 4281881459
0.047673941 -0.018685255 -0.022679623 4279849363
0.016377807 -0.016816655 -0.025168881 4281225344
0.01808168 -0.015957469 -0.025907479 4280703104
0.020331681 -0.017547879 -0.024762221 4281097589
0.016155884 -0.01750719 -0.026911736 4282471018
0.025521792 -0.018801143 -0.02857833 4282274668
0.027597837 -0.019578941 -0.02806459 4282405484
0.029240534 -0.020222653 -0.029913414 4281881459
-0.027643424 -0.02050088 -0.02956946 4282994023
0.031945184 -0.017520228 -0.034349751 4281880948
-0.0055813268 0.011977674 0.056474559 4284902189
-0.0042616203 0.015650967 0.052862912 4286016539
-0.0023975223 0.01642043 0.052045591 4286081309
0.00018938631 0.013560895 0.054718725 4286081053
-0.0096678697 0.010268049 0.055514731 4285361444
-0.0081856251 0.013224514 0.052606449 4285623838
-0.0070002824 0.017636923 0.048305783 4285820443
-0.0054273009 0.019864397 0.046097327 4285754144
-0.0034421831 0.01990754 0.045979533 4285622818
-0.00087470561 0.017038865 0.048647348 4286017049
0.0020110756 0.012714954 0.052706383 4285688864
-0.018645119 0.013587307 0.049922671 4285950239
