# .PCD v0.7 - Point Cloud Data file format
VERSION 0.7
FIELDS x y z rgba
SIZE 4 4 4 4
TYPE F F F U
COUNT 1 1 1 1
WIDTH 963
HEIGHT 1
VIEWPOINT 0 0 0 1 0 0 0
POINTS 963
DATA ascii
-0.01783444 0.017080018 0.01349197 4281110594
-0.015962623 0.017124327 0.013374775 4281110593
-0.014090985 0.017168706 0.013257642 4281177659
-0.012219556 0.017213164 0.013140588 4281112123
-0.01034832 0.017257726 0.013023623 4281176384
-0.0082994327 0.016532743 0.013568793 4280718914
-0.0044397712 0.0081123505 0.020732762 4281502528
-0.00033725053 -0.0010759793 0.028554751 4281567809
0.0030863583 -0.0071849721 0.033726539 4284184619
-0.0336155 0.0090047996 0.018741129 4281239368
-0.032717235 0.014457224 0.013983063 4280916538
-0.031131644 0.016045952 0.012540033 4281242174
-0.029704958 0.018407078 0.010435414 4278897959
-0.027843088 0.018450556 0.010318395 4280590138
-0.02567479 0.016949346 0.011525469 4281046078
-0.023651801 0.016220858 0.012070106 4281241409
-0.021623544 0.015492583 0.012614475 4280980289
-0.019912906 0.016308879 0.011835645 4280980033
-0.018043742 0.016353024 0.011718538 4280980289
-0.016341634 0.017169317 0.010940391 4281045569
-0.014475554 0.017213566 0.010823607 4278960944
-0.012609676 0.017257931 0.010706928 4278827324
-0.010568939 0.016530504 0.011250929 4280524349
-0.0085229576 0.015803294 0.011794672 4281110594
-0.0050278381 0.0089023728 0.01762045 4281175874
-0.00093434751 -0.00031233393 0.025423605 4281110594
0.0024804324 -0.0064388998 0.03058295 4282550834
-0.033660021 0.0074884389 0.017616104 4281435464
-0.033046108 0.014505731 0.011547277 4281176384
-0.0298969 0.017691558 0.0086691305 4278636838
-0.024008393 0.016273117 0.0096393321 4281111104
-0.021985754 0.015542543 0.010182442 4281045569
-0.020119242 0.015586549 0.010065446 4281111104
-0.018417008 0.01640494 0.0092888474 4280915519
-0.016720407 0.01722333 0.0085126273 4280786234
-0.012999557 0.01731169 0.0082798693 4278960943
-0.011139408 0.017356003 0.0081636105 4279030814
-0.0089240447 0.015852394 0.0093651172 4278767143
-0.0057959333 0.010479622 0.013859356 4281503294
-0.0015310869 0.00046468712 0.022302311 4282220353
-0.033844095 0.0067494046 0.015831685 4281500488
-0.033090189 0.013009248 0.010437014 4280720189
-0.031655047 0.015383551 0.0083415238 4281241664
-0.030088689 0.016980661 0.0069062719 4281502529
-0.028382927 0.017800825 0.0061307102 4280069428
-0.026376463 0.017067512 0.0066730827 4280459323
-0.024520606 0.017111065 0.0065566031 4280850494
-0.022347726 0.015601525 0.0077570332 4280850238
-0.02048678 0.015645413 0.0076403935 4280916029
-0.018625997 0.015689371 0.0075238198 4280916539
-0.01693216 0.01650984 0.0067494418 4280720698
-0.015074462 0.01655391 0.0066331998 4280656184
-0.013216965 0.016598096 0.0065170592 4280721208
-0.0093249008 0.015910523 0.0069421921 4278635563
-0.0060224086 0.0097462349 0.012082543 4281307454
-0.0019443184 0.00047893636 0.019847794 4281895230
-0.034167536 0.0067942515 0.013392663 4281565258
-0.033418681 0.013071349 0.0080113113 4279027754
-0.031844005 0.014672967 0.0065786699 4279873333
-0.030428004 0.017053446 0.0044893166 4281176894
-0.028727747 0.017875681 0.0037157377 4281176383
-0.026726924 0.017140048 0.0042568352 4279676983
-0.02472081 0.01640459 0.0047977129 4280459579
-0.022709429 0.015669422 0.0053383103 4280785723
-0.020854026 0.015713168 0.0052220086 4280981819
-0.018998817 0.015757004 0.0051057925 4280982074
-0.017143771 0.015800947 0.0049896678 4278377249
-0.015458338 0.016623499 0.004217512 4281372733
-0.013434246 0.015889069 0.00475764 4281697858
-0.011754602 0.01671165 0.003985974 4281503038
-0.0095478967 0.015199197 0.0051815202 4280916028
-0.0064290464 0.0097957067 0.0096537108 4281112634
-0.0023573115 0.00050219335 0.017399887 4281504058
0.0012222826 -0.0064552836 0.023176791 4283855158
-0.034630116 0.0076294187 0.010303956 4281695819
-0.033746928 0.013142472 0.0055922274 4281047354
-0.032177679 0.014748262 0.0041632047 4279355174
-0.030767061 0.017135156 0.0020790556 4279745578
-0.029072307 0.017959425 0.0013074325 4279810603
-0.025232382 0.017264826 0.0017315177 4280785468
-0.022912405 0.014965305 0.0035813942 4280785724
-0.021059856 0.015009003 0.0034652862 4280785978
-0.01920747 0.015052779 0.0033492509 4281112124
-0.017521895 0.015877472 0.0025786085 4278962474
-0.015841946 0.016702062 0.0018084096 4279157804
-0.013995528 0.016745972 0.0016929554 4279157548
-0.011974528 0.016009407 0.0022317395 4279353134
-0.0099482536 0.015272992 0.0027702868 4279484203
-0.006835416 0.0098541509 0.007231459 4281307963
-0.0029529706 0.0013147257 0.01430501 4281504314
0.00080342591 -0.0064428383 0.02072138 4282743359
-0.034674264 0.0061271619 0.0091894008 4282219333
-0.033932835 0.012438966 0.0038344008 4281438780
-0.032366309 0.014049089 0.0024087445 4281306178
-0.030810826 0.015659032 0.00098391902 4280196164
-0.029116131 0.016485488 0.00021392945 4279869254
-0.027121127 0.01574537 0.00075215381 4280522054
-0.025120832 0.015005494 0.0012901379 4280588354
-0.023273669 0.015048968 0.0011742963 4280588864
-0.021104425 0.013526356 0.0023653607 4280392769
-0.019252159 0.013570128 0.0022493345 4280522818
-0.017566621 0.014396975 0.0014802939 4280980034
-0.016055986 0.016006636 5.8855861e-05 4280980033
-0.014212407 0.016050486 -5.6416728e-05 4280068664
-0.012369014 0.016094429 -0.0001716055 4279677749
-0.010348365 0.015355757 0.00036563631 4280718659
-0.0076018497 0.011486789 0.0035114619 4280719168
-0.0035482273 0.0021405872 0.011219945 4280981308
0.00019924343 -0.0056389431 0.017620685 4281244468
-0.034579128 0.0038393941 0.0087281698 4282218824
-0.033692572 0.0093829986 0.0040389085 4280786999
-0.032120608 0.010997562 0.0026161992 4280719679
-0.030707128 0.013397573 0.0005415841 4280718148
-0.028859615 0.013440771 0.00042550685 4280850238
-0.027012236 0.013484059 0.00030951062 4280785214
-0.025009409 0.012742059 0.00084570935 4281112123
-0.023159638 0.012785589 0.00072970008 4280786488
-0.021148987 0.012043929 0.0012655952 4281047864
-0.01929684 0.012087708 0.0011495859 4280784194
-0.017444856 0.012131585 0.0010336568 4281044804
-0.01593148 0.013745705 -0.00038475869 4281436228
-0.01425723 0.014574593 -0.0011512986 4280979014
-0.012413934 0.014618522 -0.0012664902 4280718914
-0.010393463 0.013877692 -0.00073083816 4280719169
-0.0078274608 0.01078262 0.0017563249 4280849218
-0.0041430816 0.002979748 0.0081447512 4281306178
-0.00040452927 -0.004821755 0.01452985 4281959488
-0.034344878 0.00075961091 0.0089154365 4281564493
-0.033452567 0.0063185114 0.0042371703 4280523074
-0.031875163 0.0079376157 0.00281733 4280131649
-0.030456167 0.010344237 0.00074726576 4279543363
-0.028453223 0.0095998626 0.0012816866 4279866703
-0.026597813 0.009643333 0.0011651819 4279735889
-0.02458702 0.0088993553 0.001699266 4279670099
-0.022887476 0.0097305756 0.00093243504 4280390984
-0.020871565 0.0089869089 0.0014663404 4280000323
-0.019014098 0.0090308171 0.0013499958 4279738694
-0.016990364 0.0082875323 0.0018835599 4279543109
-0.015299655 0.0091188997 0.0011175452 4280456518
-0.01344271 0.0091630593 0.0010014307 4280586568
-0.0119351 0.010781528 -0.0004132106 4279999814
-0.010083936 0.010825731 -0.00052882871 4280065349
-0.0078729242 0.009296082 0.00065357424 4279999813
-0.0043720454 0.002258338 0.0063770516 4280127568
-0.001193352 -0.0032044761 0.010800289 4280058463
-0.034389202 -0.00074844621 0.0077965762 4281107278
-0.033212814 0.0032456089 0.0044291192 4280782663
-0.031629965 0.0048691239 0.0030121969 4280326214
-0.030058149 0.0064925347 0.0015960084 4280129864
-0.028197281 0.0065360349 0.0014790893 4279672904
-0.026183784 0.0057897959 0.002011348 4280259914
-0.024165012 0.0050438326 0.0025433174 4280194635
-0.022457361 0.0058774035 0.0017775828 4279540049
-0.020594388 0.0059213582 0.0016608327 4279867723
-0.018731602 0.005965393 0.0015441547 4279999303
-0.016868964 0.0060095079 0.0014275499 4279869254
-0.015006505 0.0060537141 0.001311027 4279999558
-0.013144225 0.0060980115 0.001194586 4279999558
-0.011456668 0.0069317278 0.00043049734 4280194889
-0.0097746775 0.0077653266 -0.0003331583 4280064073
-0.0073784962 0.0054422487 0.0014930698 4279475788
-0.0046008676 0.0015414972 0.004612742 4278950233
-0.034433529 -0.0022562426 0.0066779125 4281107533
-0.033256948 0.0017486755 0.0033185226 4280455244
-0.031674102 0.0033765528 0.001904849 4280260679
-0.029955007 0.0042121615 0.001139713 4280456264
-0.02809155 0.0042557307 0.0010226369 4280063309
-0.026228227 0.0042993817 0.00090563111 4279736399
-0.024209641 0.0035512391 0.0014359923 4279801424
-0.022343904 0.0035951342 0.001318974 4279866704
-0.02031748 0.0028473735 0.001848991 4279866703
-0.018612944 0.003683256 0.0010852278 4279932748
-0.016747713 0.0037274268 0.00096845534 4279802698
-0.01505167 0.004563285 0.00020535523 4279867979
-0.013189495 0.0046075694 8.8912435e-05 4279607114
-0.01132749 0.0046519469 -2.7447473e-05 4279932494
-0.0094656646 0.0046964027 -0.00014373334 4279799893
-0.0072442666 0.0031582937 0.0010315385 4279145819
-0.034616873 -0.0029693525 0.0049127303 4280520523
-0.033301074 0.00025199167 0.0022081123 4280521033
-0.031718217 0.0018841866 0.00079765031 4279999303
-0.029999211 0.0027219914 3.4157652e-05 4280324684
-0.028285787 0.0035597961 -0.00072896248 4279867724
-0.026272662 0.0028091948 -0.00019991864 4280193614
-0.024254255 0.0020588618 0.00032882625 4279735634
-0.02223058 0.0013087485 0.00085731177 4279343954
-0.020362407 0.0013528001 0.00074021658 4279214158
-0.018494405 0.0013969708 0.00062322151 4278953038
-0.016792797 0.002235027 -0.0001386893 4279867724
-0.015096791 0.0030730478 -0.00090017682 4279998539
-0.013234735 0.0031173173 -0.0010166205 4279867724
-0.011372849 0.0031617042 -0.0011329637 4279866704
-0.0095111281 0.0032061338 -0.0012492607 4279212119
-0.0072899535 0.0016636793 -7.7204313e-05 4279732574
-0.034661107 -0.0044745039 0.0037960273 4279996498
-0.033203494 -0.0020410549 0.0017427579 4280193613
-0.031617932 -0.00040442683 0.00033537811 4279802698
-0.029896252 0.00043557398 -0.00042669475 4279867724
-0.028180167 0.0012755785 -0.0011883178 4279866959
-0.026317097 0.0013192352 -0.0013052979 4279801169
-0.024298877 0.00056671165 -0.0007781703 4280191829
-0.022275373 -0.00018557161 -0.00025128294 4279735378
-0.020246603 -0.00093764625 0.00027533388 4279278418
-0.018539436 -9.7388402e-05 -0.00048538577 4279279183
-0.01667171 -5.3154305e-05 -0.00060231006 4279998793
-0.014804155 -8.8382512e-06 -0.00071916124 4280129609
-0.012765169 -0.00076028891 -0.00019289786 4279085384
-0.011243857 0.00087586604 -0.0015954738 4279474769
-0.0093795285 0.00092037581 -0.0017119213 4279341149
-0.033530913 -0.0019419864 -0.00065551698 4278687074
-0.030234624 0.0005409494 -0.0028194715 4279863134
-0.028374247 0.00058444217 -0.0029363581 4279797089
-0.026666522 0.0014265049 -0.003695779 4278948704
-0.024653941 0.00067166984 -0.003169917 4279209823
-0.020773552 -3.9057806e-05 -0.0027610059 4279209058
-0.01891122 4.9415976e-06 -0.0028776717 4279407958
-0.016882941 -0.00074912794 -0.0023524989 4279016278
-0.014849402 -0.0015029889 -0.0018275944 4278364499
-0.01315365 -0.00066056103 -0.0025857822 4278886739
-0.011463508 0.00018181838 -0.0033435547 4279015769
-0.0096020028 0.00022624433 -0.0034598387 4279732829
0.0012704879 -0.0055191061 0.012627302 4281026954
0.0031777546 -0.0054731676 0.012508473 4281614983
0.0050848201 -0.0054271249 0.012389737 4282204289
0.0071879998 -0.0061675943 0.012919023 4282335613
0.0092964321 -0.0069079166 0.013448071 4282660994
0.011208326 -0.0068615554 0.013329186 4283316598
-0.0017962456 -0.0023585502 0.0077307737 4279391383
9.4823539e-05 -0.0023130625 0.0076129073 4279584418
0.0038763806 -0.0022218768 0.0073773819 4279120829
0.0059630945 -0.0029649213 0.0079060718 4278464713
0.0080550686 -0.0037077814 0.0084344763 4279782043
0.0099505857 -0.0036618169 0.0083166091 4279586458
0.012050286 -0.004404393 0.0088446802 4280046478
-0.0023987368 -0.0014993306 0.0046711182 4278799529
-0.000515908 -0.0014540572 0.0045537567 4279781788
0.0013667047 -0.0014087036 0.0044364696 4278275504
0.0034426451 -0.0021542832 0.0049641365 4278470324
0.0076101646 -0.0036448501 0.0060187327 4278602414
0.0092985481 -0.0028082579 0.0052567925 4279062433
0.011185616 -0.0027624276 0.0051395041 4281685874
-0.0028155223 -0.001420293 0.0022651067 4278798764
-0.0011262 -0.00058185123 0.0015044678 4279321258
0.0007481724 -0.00053669699 0.0013876939 4279783573
0.0028157756 -0.001284644 0.0019142684 4278735014
0.0052808449 -0.0036186054 0.0037267944 4279324063
0.0071655288 -0.003572993 0.0036095358 4278405808
0.008848466 -0.0027343538 0.002849556 4278865573
0.010525763 -0.0018957742 0.0020899842 4281292663
-0.0052864701 -0.00058161654 -0.00065993052 4279326614
-0.003232047 -0.0013322812 -0.00013432279 4279520158
0.00032066554 -0.00044680573 -0.0010094536 4278271168
0.0083986819 -0.0026515834 0.00044896966 4278931108
0.01007054 -0.0018109661 -0.00030865055 4280111503
-0.036043279 -0.0092185689 0.0053726402 4281751408
-0.0053322911 -0.0020780135 -0.0017699902 4279788163
-0.0032780543 -0.0028308704 -0.0012459997 4278539174
0.0060784519 -0.0026052501 -0.0018287455 4278800039
0.0079491884 -0.0025599226 -0.0019450984 4278603434
0.0096156076 -0.0017172936 -0.0027007838 4278801058
-0.036359869 -0.0091298167 0.0029657451 4279850638
-0.035304923 -0.0042801872 -0.0010043234 4279130009
-0.033858061 -0.0018339809 -0.0030471613 4278868634
-0.031994812 -0.0017906558 -0.0031644017 4280505733
-0.030425712 -0.00014557689 -0.0045642485 4280045969
-0.028717898 0.00069854222 -0.0053221439 4280243084
-0.0053781122 -0.0035741944 -0.0028798911 4279719314
-0.0036941394 -0.0027294718 -0.0036354256 4278669988
-0.0020157471 -0.0018847957 -0.0043905466 4278669479
-0.00015250593 -0.0018399507 -0.0045066574 4278800294
0.001710549 -0.0017950237 -0.0046226927 4278668968
0.0035734251 -0.0017500445 -0.0047386731 4278865829
0.0054361373 -0.0017050169 -0.0048546069 4278407084
0.0074999928 -0.0024593957 -0.0043325168 4278669224
0.0095690936 -0.0032135993 -0.0038107191 4278669734
-0.037625361 -0.014698719 0.0051683015 4282536554
-0.036812231 -0.0082289828 -7.4907206e-05 4280045968
-0.034184936 -0.0017170385 -0.0054322504 4278472108
-0.027364545 0.0016677566 -0.0084568486 4279585694
-0.025208116 0.00010549836 -0.0072942623 4278733738
-0.023356572 0.00014903024 -0.0074104113 4278406318
-0.017470933 -0.0013248436 -0.0064813099 4279651228
-0.015783265 -0.00047836825 -0.0072358348 4278599099
-0.014101192 0.00036807358 -0.0079899393 4278992309
-0.012424722 0.0012145154 -0.008743668 4279519394
-0.010223322 -0.00034599751 -0.0075833886 4279061923
-0.005788438 -0.0034659281 -0.0052646683 4278735014
-0.0039249435 -0.0034212209 -0.005380902 4278603689
-0.0022493005 -0.0025744755 -0.0061342609 4278603944
-0.00038886815 -0.0025297143 -0.0062502087 4278669479
0.0027439073 -3.4501776e-05 -0.0083919074 4279715998
0.0047942325 -0.00079148449 -0.0078706741 4278996644
0.0070510954 -0.0023500007 -0.006713361 4278537899
0.009114638 -0.0031065233 -0.006192843 4278603688
0.010976717 -0.0030613318 -0.0063086017 4278276268
0.012838587 -0.0030160733 -0.0064242953 4278277798
0.014700301 -0.002970783 -0.0065399506 4279064218
0.016776651 -0.0037267692 -0.0060200621 4279719059
0.019075841 -0.0052838577 -0.004865156 4280897414
0.020945132 -0.0052382266 -0.0049811671 4281225088
0.022591233 -0.0043914169 -0.0057321112 4280701064
0.024683148 -0.0051468322 -0.005213045 4282602344
-0.037669718 -0.016218197 0.0040409453 4282536299
-0.036992207 -0.0089256661 -0.0018281317 4280046478
-0.035808939 -0.0048555378 -0.0051395237 4278669734
-0.034370109 -0.002396483 -0.0071722283 4278537899
-0.03265943 -0.0015481524 -0.0079272203 4278994094
-0.031101197 0.00010533631 -0.0093199331 4279255468
-0.027408533 0.0001916755 -0.0095519349 4279191973
-0.025407374 -0.00056995451 -0.0090302136 4278997153
-0.023558661 -0.00052649528 -0.0091461875 4278735014
-0.021870576 0.00032189116 -0.0098993257 4278603688
-0.019861713 -0.00043927506 -0.0093778782 4278668459
-0.017681643 -0.0020049866 -0.008219758 4278273974
-0.015996747 -0.0011564046 -0.0089724958 4278991799
-0.014146097 -0.0011124387 -0.0090882499 4278597059
-0.010445267 -0.0010242872 -0.0093195587 4278602414
-0.0085951015 -0.00098007917 -0.009435093 4278996388
-0.0065628961 -0.0017401129 -0.0089146756 4278735015
-0.0047103539 -0.0016957 -0.009030249 4278603689
-0.0026703551 -0.0024554022 -0.0085102096 4278472619
0.0010393262 -0.0023660939 -0.0087413657 4278268108
0.0066024959 -0.0022316836 -0.0090876594 4278603434
0.0088643953 -0.0037943721 -0.0079338551 4278603688
0.010723673 -0.0037492625 -0.0080494527 4278733993
0.012582757 -0.0037040897 -0.0081649832 4278865063
0.014229625 -0.0028552543 -0.0089145545 4279258784
0.021875575 -0.0034775995 -0.008741973 4280241298
0.024410501 -0.005841949 -0.0069576702 4279522198
0.027646564 -0.010615461 -0.0032752161 4282013293
-0.041261528 -0.019440414 0.0044291643 4282404974
-0.037980497 -0.016122159 0.0016390067 4281552508
-0.037307993 -0.008810197 -0.0042152083 4278801314
-0.036129963 -0.0047293603 -0.0075182091 4278406573
-0.033135422 -0.00060615689 -0.010935415 4279324828
-0.031438541 0.00024411455 -0.011687856 4278604199
-0.029448159 -0.0005201716 -0.011167247 4278863024
-0.027452484 -0.0012842119 -0.01064688 4279323554
-0.025606483 -0.0012409054 -0.010762753 4278669479
-0.023760617 -0.0011975076 -0.010878546 4278996898
-0.022075281 -0.00034704059 -0.011629913 4278735014
-0.018058062 -0.0018736869 -0.010590188 4279061413
-0.016210072 -0.0018298738 -0.010705842 4278865829
-0.014362253 -0.0017860141 -0.010821449 4278538154
-0.010843761 -0.00089140236 -0.011687035 4278930344
-0.0088197142 -0.0016538948 -0.011167793 4278734248
-0.0069725215 -0.0016097147 -0.011283111 4278538664
-0.0051255077 -0.0015654415 -0.011398345 4278341549
-0.001241684 -0.0022830442 -0.010994826 4278340018
0.00060755014 -0.0022385214 -0.011110052 4278406063
0.006154187 -0.0021045692 -0.011455361 4278930343
0.0080027282 -0.0020598099 -0.011570355 4278735013
0.010057665 -0.002820868 -0.011052523 4278801058
0.012117833 -0.0035817549 -0.010534983 4278669734
0.01375927 -0.0027309433 -0.011282573 4278603178
0.024363592 -0.0073379874 -0.0080673769 4279520413
0.027827494 -0.012929975 -0.0037631621 4279979923
-0.038157843 -0.016827058 -0.00012054574 4282471274
-0.03735175 -0.010305367 -0.0053245206 4280701828
-0.036312122 -0.0054039815 -0.0092548393 4278866084
-0.033466984 -0.00046051107 -0.01329869 4278340273
-0.031628843 -0.00041772053 -0.013414316 4279651738
-0.029641375 -0.0011842195 -0.01289512 4279258274
-0.025960326 -0.00109802 -0.013126293 4278669478
-0.024120003 -0.0010547638 -0.013241747 4278931364
-0.022279844 -0.0010114275 -0.013357129 4278472874
-0.020276763 -0.001777105 -0.012838574 4278404533
-0.018268406 -0.0025425851 -0.012320297 4278337213
-0.016254753 -0.0033078343 -0.011802271 4279127713
-0.014407031 -0.0032639876 -0.011917882 4278866085
-0.012907304 -0.0016023479 -0.013299758 4279258274
-0.010888681 -0.0023672394 -0.012781864 4278405809
-0.0092235059 -0.001514487 -0.013529915 4278603688
-0.007381849 -0.0014704615 -0.013644904 4278538153
-0.005540356 -0.0014263317 -0.013759801 4278603689
0.00017606467 -0.0021019988 -0.013472175 4279390109
0.002410911 -0.0036742687 -0.012323331 4279062434
0.0042597279 -0.0036296342 -0.012438443 4278864808
0.0063094348 -0.0043931585 -0.011922026 4278341039
0.0081606135 -0.0043483563 -0.012037199 4278669479
0.010011613 -0.0043034963 -0.012152318 4278407849
0.011862442 -0.0042585935 -0.012267388 4278473129
0.015348904 -0.0033607539 -0.013128003 4279455389
0.016979128 -0.0025079325 -0.013873272 4278735269
0.01904393 -0.0032707639 -0.013357477 4278734249
0.02089116 -0.0032256879 -0.013472131 4278667694
0.023865752 -0.007218672 -0.010436907 4279127204
0.027323678 -0.012826021 -0.0061437222 4279390364
0.031281278 -0.020047395 -0.00059355935 4282143344
-0.03860122 -0.0159034 -0.003145006 4282667623
-0.037938714 -0.0085526034 -0.0089695118 4281094273
-0.037048224 -0.0028265938 -0.013523255 4278866338
-0.031965692 -0.00026326813 -0.015770685 4278273209
-0.027844563 -0.0026123114 -0.014102176 4278340784
-0.02600424 -0.0025691725 -0.014217719 4278604198
-0.024164036 -0.0025259424 -0.014333181 4278604454
-0.022484243 -0.0016712882 -0.01508099 4278538663
-0.016804665 -0.0023521781 -0.014794296 4278534074
-0.011110157 -0.0030319504 -0.014507964 4278405809
-0.0094477087 -0.0021771155 -0.015254246 4278603689
-0.007790871 -0.0013223402 -0.016000124 4278341804
-0.0059549063 -0.0012783892 -0.016114708 4278865318
-0.00044795126 -0.0011461303 -0.016458094 4278339254
0.0017785206 -0.002722919 -0.015312016 4278862259
0.0036190897 -0.0026785079 -0.01542663 4278468793
0.005660519 -0.0034444071 -0.014911318 4278930599
0.0075034797 -0.0033998396 -0.015026007 4278407849
0.0093462765 -0.0033552144 -0.015140641 4278604198
0.011398032 -0.0041206926 -0.014625844 4278473129
0.014873616 -0.0032210387 -0.015484236 4278468283
0.016498432 -0.0023662299 -0.016227517 4278863789
0.01855766 -0.0031313691 -0.015713066 4278667948
0.020622142 -0.0038963128 -0.015198892 4278600883
0.023142762 -0.0062806932 -0.013428275 4278471853
0.026592061 -0.011903553 -0.0091458689 4278997154
0.030540861 -0.019144723 -0.0036097323 4280504969
-0.039878342 -0.021523485 -0.00097968429 4280502929
-0.038778149 -0.016594864 -0.0048945914 4280832389
-0.038117923 -0.0092246141 -0.010704437 4281290623
-0.037091386 -0.0042974912 -0.014614549 4278866339
-0.035532881 -0.0026268754 -0.015994534 4278866594
-0.033985376 -0.00095646642 -0.01737372 4278670754
-0.032009028 -0.0017277002 -0.016857155 4278342569
-0.030027375 -0.0024987236 -0.016340861 4278604964
-0.027888335 -0.0040832814 -0.015193475 4278801313
-0.026048109 -0.0040401574 -0.015309021 4278670499
-0.024523005 -0.0023697503 -0.016686482 4278539173
-0.022688501 -0.0023265928 -0.016801544 4278604708
-0.02101706 -0.0014698822 -0.017547151 4278539173
-0.019019909 -0.0022400022 -0.017031427 4278472363
-0.011331439 -0.0036921725 -0.01623074 4278866085
-0.0094925389 -0.0036483239 -0.016345639 4278408104
-0.0076537803 -0.0036043953 -0.016460467 4278604453
-0.0061845109 -0.0019344836 -0.017833818 4278407594
0.0052130148 -0.0032950994 -0.017262567 4278604199
0.0072541311 -0.0040631704 -0.016748846 4278408104
0.0093005002 -0.0048310338 -0.016235391 4278538919
0.011143051 -0.0047863787 -0.016349982 4278473385
0.012773648 -0.0039294269 -0.017092131 4278603433
0.022420242 -0.0053295763 -0.016409902 4279062944
0.025404736 -0.0093441233 -0.013391448 4278735524
0.029570118 -0.017417042 -0.0072426018 4280111758
-0.039087884 -0.016465468 -0.0072717131 4282668134
-0.038161304 -0.010708322 -0.011805249 4280634254
-0.033884663 -0.0032345746 -0.017828207 4278472363
-0.031905785 -0.0040079411 -0.017313434 4278800294
-0.029921576 -0.0047811456 -0.016798895 4278735268
-0.02793207 -0.0055540828 -0.016284654 4278865828
-0.025937259 -0.0063267993 -0.015770674 4278277289
-0.022732452 -0.0037930962 -0.017889505 4278343079
-0.02106104 -0.0029342324 -0.018633507 4278343334
-0.019229636 -0.0028909985 -0.018748261 4278801823
-0.017398387 -0.0028476473 -0.018862918 4278802078
-0.01539626 -0.003619682 -0.018349018 4278801569
-0.01338885 -0.0043915566 -0.017835349 4278997153
-0.011376143 -0.0051631629 -0.01732198 4278604708
-0.0093581751 -0.0059345728 -0.016808886 4278539684
-0.0076986626 -0.005075437 -0.017551731 4278473384
-0.0062293485 -0.0034012087 -0.018921873 4278604708
-0.0043964237 -0.003357308 -0.019036254 4278669733
-0.0025636703 -0.0033133402 -0.01915057 4278932128
-0.0005383119 -0.0040842816 -0.018637648 4279521178
0.0011013746 -0.0032252334 -0.019379042 4279586714
0.0027355105 -0.0023663156 -0.020120012 4278867105
0.0043640435 -0.0015074555 -0.020860579 4278736034
0.0065977424 -0.003092628 -0.019721318 4278539173
0.0088421777 -0.0046775443 -0.018582657 4278604708
0.010888249 -0.0054475786 -0.018070795 4278539173
0.012516148 -0.0045885304 -0.018811168 4278669988
0.013709523 -0.0021007601 -0.020802809 4279127713
0.015537962 -0.0020563453 -0.020916447 4278406318
0.01736623 -0.0020118989 -0.021030048 4278602924
0.019416913 -0.002781596 -0.020518305 4278735524
0.021698192 -0.0043653101 -0.019381704 4278538918
0.02490215 -0.0092049669 -0.015745906 4278669733
0.028599963 -0.015671831 -0.010862473 4279063708
0.032107532 -0.02132364 -0.0066063595 4282340459
-0.046149302 -0.021411067 -0.0053895251 4279128224
-0.039397355 -0.016327173 -0.0096423049 4282537318
-0.038069062 -0.013010282 -0.012276812 4281357434
-0.036762636 -0.0096938079 -0.014909875 4279062689
-0.035337009 -0.007196093 -0.016912669 4278472619
-0.033496521 -0.0071533825 -0.017028544 4278865574
-0.031802636 -0.0062924027 -0.017772773 4278668968
-0.027975775 -0.0070246933 -0.017375691 4278603944
-0.025981151 -0.0077996254 -0.016863346 4278472618
-0.024138577 -0.0077563804 -0.01697899 4279127203
-0.022456199 -0.0068952031 -0.017722148 4279323809
-0.020779409 -0.0060340734 -0.018464897 4278406064
-0.018942676 -0.0059907259 -0.018579993 4278734759
-0.017106101 -0.0059472853 -0.018695012 4278408358
-0.013259679 -0.0066777244 -0.018298119 4278342058
-0.011244431 -0.0074514886 -0.017786559 4278276524
-0.0059050843 -0.006502389 -0.018757679 4278341803
-0.0040668175 -0.006458411 -0.018872431 4278798764
-0.002228722 -0.0064143278 -0.018987091 4278406573
-0.00039076805 -0.0063702017 -0.019101707 4278341549
0.0012516454 -0.0055090021 -0.019841645 4278407083
0.0028884709 -0.0046478147 -0.020581217 4278603944
0.0047205165 -0.0046036579 -0.020695336 4278930343
0.0067559481 -0.005376311 -0.020184495 4278472618
0.0090028718 -0.0069654919 -0.019049281 4278407338
0.011051528 -0.0077376701 -0.018539222 4278276269
0.012682147 -0.0068764491 -0.019278197 4278603689
0.013878375 -0.0043821121 -0.021265179 4278668969
0.015492387 -0.0035211723 -0.022003032 4278996643
0.017320611 -0.0034767631 -0.022116655 4279062178
0.019371197 -0.0042486852 -0.021606561 4278931873
0.021652274 -0.0058368035 -0.020473223 4278932128
0.024399936 -0.0090570739 -0.018093817 4278997663
0.028322369 -0.016357655 -0.012599785 4279325338
0.031826742 -0.022024801 -0.0083548296 4282471273
-0.048318572 -0.021319216 -0.0076453998 4281879929
-0.039839368 -0.015359367 -0.01263394 4282144364
-0.03824801 -0.013675209 -0.014006484 4280440199
-0.036805905 -0.011170663 -0.016005594 4279652758
-0.035098247 -0.010307427 -0.01674925 4278931363
-0.03325244 -0.010264604 -0.016865466 4278931109
-0.031553175 -0.0094013233 -0.017608413 4278931109
-0.029561192 -0.01017869 -0.017097671 4278275758
-0.02771575 -0.010135598 -0.017213659 4278538154
-0.025870435 -0.010092427 -0.017329575 4279127713
-0.024025254 -0.01004915 -0.017445404 4279324574
-0.022020191 -0.010825822 -0.016935192 4278996644
-0.018655948 -0.0090989228 -0.018418085 4278669224
-0.01715035 -0.0074157193 -0.019784385 4278931618
-0.015143126 -0.0081920214 -0.019274071 4278801059
-0.013130605 -0.0089681037 -0.018764015 4278931618
-0.010936506 -0.010563633 -0.017629294 4278931618
-0.0090897232 -0.010519665 -0.017744737 4278866083
-0.0074248388 -0.009656135 -0.01848474 4278538154
-0.0057655275 -0.0087926276 -0.019224312 4278734759
-0.0020838976 -0.0087045031 -0.019454101 4278995878
-5.069375e-05 -0.0094796289 -0.018944997 4278931364
0.0015971363 -0.0086161401 -0.019683663 4278341548
0.0034374073 -0.0085718557 -0.019798348 4278865063
0.0050768033 -0.0077084722 -0.020536419 4279258018
0.0069140494 -0.0076641692 -0.020650845 4278538409
0.0089573264 -0.0084387474 -0.020142142 4278341803
0.012636468 -0.0083497558 -0.020371083 4278342314
0.014047176 -0.0066677229 -0.021730641 4278604453
0.016097963 -0.0074419491 -0.021222277 4278996133
0.017714538 -0.00657879 -0.021958683 4278865063
0.019770421 -0.007352788 -0.021450557 4278931363
0.021606438 -0.0073081646 -0.021564648 4279193503
0.024581634 -0.011355586 -0.018569989 4279194523
0.028275572 -0.017857397 -0.013712257 4279784594
-0.039882679 -0.016846888 -0.013737595 4282667878
-0.038291328 -0.015158425 -0.015106935 4280112013
-0.03671094 -0.013470149 -0.01647546 4279587733
-0.034859698 -0.013427328 -0.016592113 4278997154
-0.03315223 -0.012561779 -0.017334105 4278800293
-0.031303946 -0.012518807 -0.017450411 4279062689
-0.029455774 -0.012475777 -0.017566664 4278865829
-0.027607739 -0.012432644 -0.017682826 4278996898
-0.025759816 -0.01238944 -0.017798929 4279455899
-0.023912027 -0.01234612 -0.017914936 4278996644
-0.021904416 -0.013124996 -0.017406493 4279062179
-0.020054176 -0.013081444 -0.017522523 4278668459
-0.018369451 -0.012215709 -0.018262554 4279127713
-0.016858384 -0.010528062 -0.019625982 4278734758
-0.014845893 -0.011306427 -0.019117627 4278997153
-0.013001651 -0.011262693 -0.019233041 4279194014
-0.010805033 -0.012862593 -0.018101696 4278997153
-0.0089556277 -0.012818593 -0.018217323 4278473128
-0.0072880685 -0.011952782 -0.018955922 4279259294
-0.0056260675 -0.011087088 -0.019694084 4278472619
-0.0035954267 -0.01186459 -0.01918654 4278734758
-0.0017493218 -0.011820409 -0.01930177 4279455899
9.6619129e-05 -0.01177616 -0.019416938 4279324829
0.0019423962 -0.011731842 -0.019532038 4278800293
0.0037880391 -0.011687479 -0.019647097 4278800293
0.0056335106 -0.01164306 -0.019762097 4278800548
0.0074788556 -0.011598596 -0.019877056 4279062688
0.0091179013 -0.010732973 -0.02061343 4278997409
0.011169031 -0.011509513 -0.020106815 4278931619
0.01280237 -0.010643963 -0.020842787 4279455899
0.014644355 -0.010599379 -0.020957386 4279128224
0.016486205 -0.010554763 -0.02107195 4279259294
0.018108241 -0.0096893357 -0.021807106 4279455644
0.020169437 -0.010465444 -0.021300977 4279717784
0.022235908 -0.011241369 -0.020795135 4279849619
0.02499108 -0.014478937 -0.018429207 4279849873
0.028459348 -0.020177541 -0.014204696 4280503183
-0.039793268 -0.01915925 -0.014216673 4281942403
-0.03819919 -0.017466402 -0.015582966 4280373898
-0.036616098 -0.01577374 -0.016948441 4279195034
-0.034621399 -0.016555689 -0.016441325 4279390873
-0.033052105 -0.014863152 -0.017805789 4279127969
-0.031054925 -0.015644871 -0.017298698 4279193504
-0.02935046 -0.0147771 -0.018038725 4279259039
-0.027348086 -0.015558479 -0.017531799 4278931619
-0.025649287 -0.014690664 -0.018271336 4279259294
-0.02395606 -0.013822835 -0.01901049 4279128224
-0.022108503 -0.013779484 -0.019126454 4278931363
-0.020098493 -0.014560377 -0.018619707 4278472364
-0.018083163 -0.015341049 -0.018113295 4279127459
-0.016734682 -0.012824723 -0.020096125 4278931363
-0.014890388 -0.012781107 -0.020211631 4278996898
-0.012872756 -0.01356148 -0.019705182 4279259294
-0.01067365 -0.015165679 -0.018577235 4279062688
-0.0088216215 -0.015121659 -0.01869306 4279062688
-0.0071513578 -0.014253698 -0.0194302 4279127969
-0.0054866746 -0.01338576 -0.02016698 4278865829
-0.0036405101 -0.013341649 -0.020282269 4279521179
-0.0016047508 -0.014121229 -0.019776609 4279324574
0.00043631345 -0.014900565 -0.019271268 4278996898
0.0020922646 -0.014032621 -0.020007269 4278734758
0.0039405376 -0.013988227 -0.020122515 4279324829
0.0059892833 -0.014767183 -0.019617507 4279062688
0.0078399852 -0.014722642 -0.019732837 4278735013
0.0096905157 -0.014678031 -0.019848103 4279063199
0.011332139 -0.013810165 -0.020583015 4278997664
0.012968205 -0.012942371 -0.021317609 4279193759
0.014812849 -0.012897767 -0.021432405 4279062688
0.016874269 -0.013676213 -0.020927962 4279127969
0.018501729 -0.012808483 -0.021661913 4279324573
0.020345919 -0.012763781 -0.0217766 4279586969
0.02241502 -0.013541933 -0.021272553 4279980688
0.025172591 -0.016788177 -0.018913275 4280308618
-0.041441645 -0.022345902 -0.013957905 4281288329
-0.039836582 -0.020648623 -0.015321707 4282994534
-0.038377866 -0.018124329 -0.017307451 4279521944
-0.036797483 -0.016427407 -0.01866954 4279652758
-0.034805693 -0.017211631 -0.018163884 4279652758
-0.032952085 -0.017168701 -0.018280646 4279324829
-0.031098608 -0.017125679 -0.018397329 4279128223
-0.029245242 -0.017082538 -0.018513916 4279128223
-0.027240328 -0.017866086 -0.018008811 4278997409
-0.025538862 -0.01699605 -0.018746907 4279259549
-0.023842946 -0.01612607 -0.019484604 4279127969
-0.02215261 -0.015256081 -0.020221917 4278668968
-0.020142764 -0.0160392 -0.019716812 4278931108
-0.018127613 -0.016822066 -0.019212017 4279258528
-0.016443096 -0.015952008 -0.01994874 4279390108
-0.014422774 -0.016734594 -0.019444155 4278866594
-0.012917362 -0.01503823 -0.020800717 4278735014
-0.010894597 -0.015820658 -0.020296134 4279390618
-0.0090453848 -0.015776722 -0.020411795 4278931874
-0.0070147514 -0.016558778 -0.019907642 4278800548
-0.0049788579 -0.017340627 -0.019403758 4279390363
-0.003124617 -0.017296368 -0.019519581 4279521433
-0.0010808706 -0.018077895 -0.019016085 4279652249
0.00058338046 -0.017207693 -0.019751074 4279193248
0.0022420436 -0.016337564 -0.020485668 4279455643
0.0042908117 -0.017118804 -0.019982362 4279389598
0.0061443001 -0.017074274 -0.020097924 4279455643
0.0084041506 -0.018680766 -0.01897656 4279390108
0.0098508224 -0.016985092 -0.020328922 4279324574
0.01149518 -0.016115041 -0.021062426 4279390109
0.01292257 -0.014419718 -0.022413505 4279717529
0.014767155 -0.014375163 -0.022528334 4279455388
0.016611636 -0.014330598 -0.022643147 4279127713
0.018455945 -0.014285989 -0.022757916 4279127713
0.020522349 -0.015066434 -0.022255359 4279652759
0.022819012 -0.016671687 -0.021136099 4279653013
0.025354043 -0.019101627 -0.019400546 4280832643
-0.043736652 -0.021393836 -0.016812589 4282732648
-0.040410187 -0.018820392 -0.018911602 4282274669
-0.038691685 -0.017948486 -0.019649675 4279980433
-0.036978725 -0.017076554 -0.020387359 4280569228
-0.034849092 -0.018692253 -0.019262398 4279848854
-0.033139057 -0.017820252 -0.01999972 4279454624
-0.030849915 -0.020264421 -0.018255105 4280110484
-0.029140115 -0.019392233 -0.018992269 4279783828
-0.027284265 -0.019348994 -0.019108983 4279455899
-0.025737152 -0.017647974 -0.020465352 4279194523
-0.023886986 -0.017604686 -0.020581571 4279194269
-0.021877162 -0.018390058 -0.020078214 4279652249
-0.019862056 -0.019175207 -0.019575117 4278800038
-0.018006824 -0.019131536 -0.019691462 4279062688
-0.016487524 -0.017430764 -0.021045782 4279259549
-0.014467366 -0.018215541 -0.020542813 4278997408
-0.012788586 -0.017343335 -0.021277474 4279391128
-0.010763265 -0.018127859 -0.020774731 4279325339
-0.0089114234 -0.018083891 -0.02089058 4278734248
-0.0068782344 -0.018868081 -0.020388221 4278930343
-0.0050239563 -0.018823953 -0.020504145 4279978649
-0.0031698048 -0.018779743 -0.020620001 4279652249
-0.0013158023 -0.018735478 -0.020735802 4279127968
0.00034571439 -0.017863195 -0.021469021 4279652249
0.0021967068 -0.017818885 -0.021584548 4279389088
0.0042453259 -0.018602328 -0.021082869 4279061669
0.00629922 -0.0193856 -0.020581486 4279455133
0.0081551969 -0.019341016 -0.020697208 4279455643
0.0098051503 -0.018468766 -0.021429526 4279586714
0.011449516 -0.017596597 -0.022161454 4279389599
0.013299651 -0.017551996 -0.022276694 4279521689
0.014935575 -0.016679959 -0.023008045 4278930599
0.016782708 -0.016635373 -0.023123056 4278734504
0.018410228 -0.015763409 -0.023853859 4279259038
0.020698719 -0.017373322 -0.022737337 4279979923
0.022772998 -0.018155739 -0.022236954 4278996899
0.025307812 -0.020592257 -0.02050628 4281881458
-0.031039752 -0.020918068 -0.019975508 4281556334
-0.025472537 -0.020788448 -0.020325692 4282144618
-0.023773983 -0.019914132 -0.02106037 4282014058
-0.021921314 -0.019870732 -0.021176707 4281749879
-0.019906379 -0.020658085 -0.020675236 4278728894
-0.018051252 -0.020614466 -0.020791607 4280440964
-0.016531907 -0.018909387 -0.022142729 4279785358
-0.014682472 -0.018865744 -0.022258626 4279720588
-0.012833163 -0.018822033 -0.022374464 4280506244
-0.010983966 -0.018778251 -0.022490239 4279981199
-0.0089562386 -0.01956483 -0.021989217 4279063199
-0.0069231987 -0.020351248 -0.021488504 4280044949
-0.0048848838 -0.021137457 -0.020988056 4280503948
-0.0030281022 -0.021093216 -0.021104099 4280110229
-0.0011714697 -0.021048943 -0.021220105 4280176274
0.00049275905 -0.02017446 -0.021951906 4279652249
0.0023464113 -0.020130156 -0.022067649 4279193504
0.0043976009 -0.020915743 -0.021567771 4278734503
0.0060532615 -0.02004135 -0.022298953 4279455133
0.0079064742 -0.01999685 -0.022414515 4279127203
0.0095537081 -0.019122539 -0.02314508 4279717019
0.011403926 -0.019078055 -0.023260415 4279913113
0.013465278 -0.019863188 -0.022761015 4279978903
0.015317909 -0.019818546 -0.022876425 4280045713
0.016953729 -0.018944336 -0.023606149 4280374153
0.018583998 -0.018070243 -0.024335517 4279917193
0.020430781 -0.01802564 -0.024450487 4280048774
0.022727087 -0.019639704 -0.023337753 4280374408
-0.046057399 -0.021908196 -0.020756714 4282862444
-0.031229429 -0.021567261 -0.021692609 4279982984
-0.027523473 -0.02148113 -0.021925831 4279982984
-0.020112984 -0.021307854 -0.022391411 4281551999
-0.0086437538 -0.022710895 -0.021857562 4280047243
0.011358403 -0.020559419 -0.024359308 4281948269
0.015058309 -0.020470412 -0.024589907 4282210409
-0.031564903 -0.021376409 -0.024022 4281685618
-0.027870052 -0.021290572 -0.024254551 4281948013
-0.020481706 -0.021117961 -0.024718845 4281751153
-0.0075568259 -0.020813037 -0.025528857 4281226619
0.01458507 -0.020283895 -0.026911469 4280964989
0.01707904 -0.02274124 -0.025193019 4280045204
-0.048482008 -0.021557152 -0.025297543 4282667368
-0.031608269 -0.022852238 -0.025116948 4282077809
-0.0057556257 -0.022245625 -0.026739614 4282602344
0.017789707 -0.020000352 -0.02945582 4280309129
0.019850172 -0.020792078 -0.028961258 4282668390
-0.018887885 -0.023187269 -0.027635997 4281881969
-0.0035814494 -0.025356108 -0.026730759 4281946739
-0.028605506 -0.022350257 -0.029980803 4281815923
-0.019096598 -0.023819387 -0.029338865 4282471784
-0.0027659386 -0.02405739 -0.032075349 4282602343
-0.034771837 -0.022025488 -0.034240987 4281880948
-0.018180251 -0.02248973 -0.034668516 4282470763
-0.0017404929 -0.0221023 -0.035699122 4282274413
0.018570654 0.0078793205 0.029955596 4285295909
0.019855902 0.010206355 0.027836954 4285360934
0.021340765 0.011773033 0.02638559 4285950494
0.023033366 0.012579655 0.025600934 4286081053
0.025385045 0.011106545 0.026814204 4286081563
0.02797161 0.0088740364 0.028692495 4285688354
0.030347221 0.0074016266 0.029904366 4285361953
0.032503702 0.0066892337 0.03045027 4285362208
0.034665354 0.0059770197 0.030995894 4285427744
0.03612677 0.0075434819 0.029546252 4285492769
0.03757704 0.0091097802 0.028097309 4286213654
0.039256819 0.0099164322 0.027313774 4286146843
0.041417472 0.0092043616 0.027859587 4286146589
0.044813327 0.0046961345 0.03172674 4285819424
0.015557125 0.010098666 0.025603414 4285492513
0.016837299 0.012432078 0.023489924 4285689628
0.018527694 0.013240652 0.022706971 4285688609
0.020212382 0.014049148 0.021924416 4285819678
0.022329003 0.013333404 0.022471027 4285885469
0.02422931 0.013379851 0.022353135 4285951768
0.026577801 0.011902438 0.023563383 4285624093
0.028256118 0.012711016 0.022781402 4285558814
0.030158393 0.012757687 0.022663519 4285559324
0.032060437 0.012804387 0.022545677 4285624604
0.034197293 0.012089429 0.023091247 4285689629
0.035625972 0.013659542 0.021646947 4286083093
0.037524588 0.013706287 0.021529414 4285885213
0.039422937 0.013753066 0.021411924 4286147354
0.042058803 0.011515616 0.02328258 4286082328
0.046699829 0.0031875893 0.030452607 4285492258
0.015093625 0.010093264 0.023138229 4285361189
0.01615791 0.013197565 0.02036668 4285886488
0.017840147 0.014008129 0.019585861 4285951513
0.019732699 0.014054293 0.019468378 4285491239
0.021625035 0.014100512 0.019350955 4285557029
0.023295693 0.014910983 0.018570997 4285689118
0.025633126 0.013428969 0.019778714 4285755164
0.027527444 0.013475398 0.019661287 4285623839
0.029421531 0.013521867 0.019543914 4285624349
0.031315371 0.013568392 0.019426597 4285689884
0.033208959 0.013614947 0.019309323 4286017558
0.034626894 0.015189147 0.017868927 4285688609
0.036755003 0.014471913 0.018413506 4285491238
0.038645186 0.014518501 0.018296534 4285754398
0.041026838 0.013037873 0.019501805 4285688863
0.044661932 0.0077398587 0.024011007 4285492513
0.01442261 0.010863466 0.020017894 4285295143
0.01526843 0.014742995 0.016591642 4285624093
0.016939767 0.015555503 0.015813144 4286215694
0.019037336 0.014834905 0.01635767 4285951513
0.021140128 0.014114419 0.016901933 4285951514
0.023026727 0.014160575 0.016784923 4285951768
0.025137149 0.013440466 0.017328784 4285952789
0.026799195 0.014253015 0.016551061 4285558559
0.028685063 0.014299309 0.016434213 4285558813
0.030338474 0.015111806 0.015657071 4285558303
0.032456122 0.014392005 0.016200656 4286017814
0.034103625 0.015204435 0.015423937 4286082839
0.03598585 0.015250808 0.015307441 4285885468
0.038110934 0.014531324 0.015850661 4286017303
0.040486954 0.013046259 0.017053008 4286017049
0.04386761 0.0084985737 0.02089194 4285427234
0.014375165 0.0093402993 0.01888804 4285294633
0.015010789 0.013999561 0.014809851 4285624349
0.016466267 0.015582962 0.013373293 4285558558
0.018558264 0.014860054 0.013916548 4285755164
0.020436868 0.014905958 0.013799991 4285886234
0.022536561 0.014183359 0.014342858 4285689628
0.024417415 0.014229441 0.014226254 4285558559
0.026524782 0.013507115 0.014768708 4285558814
0.028178424 0.01432172 0.013993189 4285558558
0.030058607 0.014367921 0.013876728 4285624093
0.031703666 0.015182389 0.013101799 4285689119
0.033580638 0.015228612 0.012985614 4286083349
0.03545741 0.015274858 0.012869462 4286082584
0.037576906 0.014553105 0.013411365 4286148628
0.039701633 0.013831517 0.013952976 4285623838
0.043073721 0.0092705209 0.017782763 4285427234
0.047984935 0.00010341033 0.025555667 4285427234
0.01453539 0.0070462916 0.018416945 4286081564
0.014963679 0.012489708 0.01368988 4285493278
0.016419195 0.014077475 0.012256567 4285559068
0.018295258 0.014123263 0.012140129 4285624093
0.020171091 0.014169106 0.012023751 4285623583
0.022046693 0.014215013 0.011907441 4285623584
0.023922056 0.014260964 0.011791182 4285623838
0.025797203 0.014306949 0.011674964 4285624604
0.027442724 0.015123533 0.010901572 4285558814
0.029778861 0.013628604 0.012099776 4285558814
0.031421229 0.014445191 0.01132664 4285624348
0.033295475 0.014491336 0.011210615 4285624348
0.035169445 0.014537534 0.011094648 4285689629
0.037043206 0.01458375 0.010978715 4285623583
0.039408036 0.013089718 0.012175287 4285558558
0.042031862 0.010825844 0.014027314 4285558813
0.046680324 0.0024023242 0.021125598 4285427743
0.014695443 0.0047481563 0.017942786 4286868494
0.015126839 0.010206897 0.01322688 4285558814
0.01615911 0.013345318 0.010483368 4285559068
0.017816633 0.014164155 0.0097106146 4285689628
0.019468501 0.014982859 0.0089382902 4286281229
0.021335907 0.015028557 0.0088224821 4286280464
0.022979178 0.015847174 0.0080507826 4285886489
0.025069997 0.01512011 0.0085910344 4285623839
0.026936717 0.01516596 0.008475394 4285558303
0.029499263 0.012893846 0.010326207 4285624349
0.031373657 0.012939969 0.010210152 4285558558
0.033247836 0.012986125 0.010094138 4285624348
0.034641467 0.014577257 0.0086682243 4285754908
0.036266886 0.015395721 0.0078978408 4286083604
0.038132273 0.01544177 0.0077824574 4285886744
0.040990584 0.012398789 0.01028494 4285558558
0.045376383 0.0047232155 0.016711833 4285427488
0.01444032 0.0039967541 0.016154861 4286539798
0.014659189 0.010246027 0.010795247 4285427488
0.015899144 0.012617784 0.0087135229 4285624348
0.017553948 0.013438689 0.007942603 4285821208
0.019203119 0.014259523 0.0071720816 4286017303
0.020846635 0.015080249 0.0064019328 4286083094
0.022708304 0.015125887 0.0062865373 4286017558
0.024569765 0.015171541 0.0061711743 4285755163
0.026430987 0.015217254 0.0060558682 4285558304
0.028755896 0.013713358 0.0072482997 4285558558
0.030856758 0.012984509 0.0077864206 4285558558
0.032725461 0.013030535 0.0076707513 4285689374
0.034113787 0.014625834 0.0062484383 4286412299
0.035491012 0.01622091 0.0048268465 4286016794
0.037348218 0.016266761 0.0047119716 4286147354
0.039949827 0.013989361 0.0065556341 4286147864
0.044073127 0.0070661101 0.01231439 4285623074
0.049766876 -0.0045017581 0.021985168 4285295654
0.014401942 0.0095165409 0.0090238051 4285427488
0.015213571 0.013449704 0.0056402921 4285886998
0.017075822 0.013495201 0.0055247429 4285755164
0.018719554 0.014318069 0.0047561741 4285491748
0.020799704 0.013586303 0.0052937842 4285622819
0.022437565 0.014409134 0.0045256559 4285754909
0.024296239 0.014454743 0.0044104811 4285689118
0.026154689 0.014500385 0.0042953445 4285558304
0.028012946 0.014546065 0.0041802591 4285558814
0.030105568 0.013814842 0.0047172713 4285689884
0.031966083 0.013860667 0.0046021105 4286017558
0.033586361 0.014683327 0.0038352653 4285688863
0.035200976 0.015505934 0.0030687607 4285557283
0.03705544 0.015551718 0.0029540535 4285885979
0.039405979 0.014044253 0.0041418476 4286017048
0.043272324 0.0078778453 0.0092353076 4285688863
0.048449732 -0.0021699369 0.017580602 4285296164
0.013934731 0.0095714051 0.0066037718 4285427233
0.014741182 0.013515329 0.0032286809 4285755673
0.016382404 0.01434025 0.0024618392 4285886489
0.018236242 0.014385587 0.0023468498 4285688608
0.020089872 0.014430968 0.0022319104 4285557029
0.022166945 0.013697011 0.0027681345 4285820444
0.02402287 0.013742523 0.0026531105 4285820953
0.026107661 0.013008801 0.0031889663 4285624093
0.027734019 0.01383373 0.0024232471 4285558813
0.029589273 0.013879383 0.0023083806 4285624604
0.031207092 0.014704118 0.0015432765 4286017559
0.032819279 0.015528744 0.00077854283 4285885979
0.034425803 0.01635327 1.4193356e-05 4285622818
0.036762826 0.014841145 0.0011995267 4285557283
0.03886237 0.014108097 0.0017346251 4285624093
0.04197035 0.010260269 0.0048671844 4285493278
0.046626292 0.0017411374 0.011893781 4285230119
0.013677835 0.008853225 0.0048407167 4285360679
0.014269091 0.013589794 0.00082370127 4285559069
0.015904896 0.014416764 5.8819074e-05 4286019089
0.017753236 0.014461963 -5.5834185e-05 4285885978
0.01982227 0.013725569 0.0004792274 4285951769
0.021896489 0.012989363 0.0010140068 4285951768
0.023749642 0.013034826 0.00089916959 4285558303
0.025602557 0.013080327 0.00078437291 4285558813
0.027223527 0.013907233 2.0632986e-05 4285558814
0.029073313 0.013952756 -9.3889888e-05 4285624604
0.030448541 0.0155608 -0.0015057456 4286215693
0.032292485 0.015606252 -0.0016198559 4286017558
0.034136213 0.015651708 -0.0017339461 4285951003
0.036470361 0.014135109 -0.00055163493 4285885723
0.038567118 0.013399785 -1.8003862e-05 4286083604
0.041170575 0.011102801 0.0018110159 4285558813
0.045564093 0.0033403859 0.0081726555 4285295908
0.0020704791 -0.0071296403 0.01636106 4285228843
0.013421096 0.008139614 0.0030810526 4285163309
0.014222659 0.012105158 -0.00027755369 4285427743
0.015643045 0.013718287 -0.0016892455 4285558814
0.017706729 0.012979502 -0.0011554658 4285558304
0.019333966 0.013808584 -0.0019181627 4285623583
0.021626197 0.012286274 -0.00073674042 4285492513
0.023250297 0.013115348 -0.0014991174 4285493023
0.025097743 0.013160704 -0.0016135783 4285624859
0.026944973 0.013206108 -0.0017279922 4285559068
0.028557591 0.01403507 -0.0024896045 4285558813
0.030401714 0.014080474 -0.0026037632 4285558813
0.032245621 0.0141259 -0.0027178912 4285624093
0.034331866 0.013388036 -0.0021852325 4285885724
0.036423288 0.012650391 -0.0016529034 4286017303
0.03802406 0.01347916 -0.0024136356 4285820699
0.04062181 0.011175537 -0.00058917468 4285493024
0.04424914 0.0057402272 0.0038185394 4285361954
0.013794206 0.0050718039 0.0032660889 4285557029
0.014601454 0.0090483632 -8.4777363e-05 4285491748
0.016242668 0.0098798256 -0.00084675103 4285360679
0.017878272 0.01071118 -0.001608354 4285295398
0.019508243 0.011542445 -0.0023695691 4285361444
0.021356031 0.01158773 -0.0024841144 4285426979
0.023429818 0.010847194 -0.0019525192 4285361188
0.025279909 0.01089262 -0.0020671417 4285361189
0.027129814 0.01093808 -0.002181726 4285295398
0.028979495 0.010983577 -0.002296261 4285361188
0.030591942 0.011814682 -0.003056197 4285426979
0.032438532 0.01186016 -0.0031704954 4285295653
0.034527354 0.011120236 -0.0026396536 4285361443
0.036621399 0.010380456 -0.0021091229 4285295653
0.038472779 0.010426149 -0.0022236514 4285361954
