# .PCD v0.7 - Point Cloud Data file format
VERSION 0.7
FIELDS x y z rgba
SIZE 4 4 4 4
TYPE F F F U
COUNT 1 1 1 1
WIDTH 969
HEIGHT 1
VIEWPOINT 0 0 0 1 0 0 0
POINTS 969
DATA ascii
-0.028451648 -0.010120489 -0.0072966535 4289670943
-0.026674747 -0.0092745433 -0.008065844 4289866529
-0.024783541 -0.0092297886 -0.0081914775 4290717719
-0.022769865 -0.0099859806 -0.0076740608 4290324509
-0.020876139 -0.0099409297 -0.0077996864 4290913304
-0.018854506 -0.010696718 -0.0072826375 4289932574
-0.017089013 -0.0098504648 -0.0080506401 4289409824
-0.030278925 -0.012482109 -0.0076507097 4288883503
-0.028725266 -0.010027027 -0.009702513 4290062368
-0.026953891 -0.009179052 -0.010469729 4289212198
-0.025068272 -0.0091344211 -0.010594986 4289473828
-0.023060247 -0.0098929293 -0.010078816 4289277734
-0.021046877 -0.010651257 -0.0095628873 4289931808
-0.018900223 -0.012212432 -0.0084063057 4290063388
-0.017265469 -0.010560967 -0.0098134913 4289213474
-0.030658431 -0.011580428 -0.010695605 4289081384
-0.029112883 -0.0091190683 -0.012741983 4290454813
-0.027349751 -0.0082691135 -0.013507033 4290193694
-0.025592159 -0.007419127 -0.014271669 4289343013
-0.023595218 -0.0081801405 -0.013756358 4289474084
-0.021592941 -0.008940869 -0.013241357 4290390044
-0.01958533 -0.0097013349 -0.01272661 4289474849
-0.017833576 -0.0088510951 -0.013490492 4289017634
-0.032482598 -0.013941465 -0.011049414 4286005828
-0.031149022 -0.0098576583 -0.01436945 4288949039
-0.029614314 -0.007390012 -0.016410314 4289603878
-0.027745213 -0.0073458813 -0.016534556 4290586139
-0.025876205 -0.0073016444 -0.016658708 4290716954
-0.023884919 -0.0080649145 -0.016144674 4290913304
-0.022013385 -0.0080204057 -0.01626884 4290848023
-0.019886315 -0.0095907962 -0.015117391 4289670688
-0.018270615 -0.0079310387 -0.016516883 4288495138
-0.031416241 -0.0097373137 -0.016755849 4288294963
-0.029886916 -0.0072633168 -0.018791463 4289080618
-0.027906537 -0.0080292579 -0.018278498 4289015848
-0.02604039 -0.0079851095 -0.01840248 4289670178
-0.024174336 -0.0079408316 -0.018526353 4289474084
-0.022308383 -0.0078964718 -0.018650159 4289343013
-0.020442519 -0.0078519704 -0.018773854 4289539619
-0.018707234 -0.0069977809 -0.019533413 4288101673
-0.03289758 -0.014525659 -0.015196642 4286202179
-0.031349096 -0.012044778 -0.017228818 4288687664
-0.02970292 -0.010376352 -0.018624347 4289473319
-0.027717303 -0.01114434 -0.018113345 4289081383
-0.0260849 -0.0094760293 -0.019507803 4289408549
-0.024218991 -0.0094317673 -0.01963168 4289081638
-0.022603106 -0.007763573 -0.021024909 4288885289
-0.020615134 -0.0085310908 -0.020513682 4289212709
-0.018752236 -0.0084865959 -0.02063713 4287969839
-0.032941893 -0.016029384 -0.016311508 4287248188
-0.031504661 -0.012727584 -0.018972822 4288491313
-0.029633187 -0.012683555 -0.019097339 4289015848
-0.027761791 -0.01263941 -0.01922176 4289147429
-0.025890484 -0.012595146 -0.019346088 4289016613
-0.024141449 -0.011736644 -0.020103596 4288493098
-0.022397947 -0.010878158 -0.02086065 4288624424
-0.020532362 -0.01083371 -0.020984359 4288558888
-0.018536553 -0.011603061 -0.020475231 4288428073
-0.016668454 -0.011558343 -0.020598948 4288493609
-0.015072022 -0.0098858718 -0.021987289 4288232233
-0.013486579 -0.0082135377 -0.023374882 4288625954
-0.011770915 -0.0073550744 -0.024129614 4288167463
-0.0096290037 -0.0089374864 -0.022988433 4287513644
-0.032877676 -0.018349519 -0.016793655 4287706423
-0.031326372 -0.015855586 -0.018816285 4288295219
-0.029563557 -0.0149949 -0.019573402 4289278244
-0.027572908 -0.015767176 -0.019065939 4288755239
-0.025815707 -0.014906375 -0.019822497 4288428073
-0.023941915 -0.01486196 -0.019946922 4288820518
-0.022317879 -0.013184951 -0.021334205 4288623913
-0.020322163 -0.013956612 -0.020826787 4288428073
-0.018451378 -0.013911942 -0.020950768 4288493609
-0.016580697 -0.013867154 -0.021074653 4288362538
-0.014981542 -0.012190294 -0.022459956 4288231979
-0.013254941 -0.011329528 -0.023213893 4288689959
-0.01139275 -0.011284631 -0.023336984 4288755749
-0.0093868114 -0.012055431 -0.022829784 4288363559
-0.0076687187 -0.011194556 -0.023582926 4288756003
-0.0056575835 -0.011965002 -0.023075897 4288755748
-0.0039451793 -0.011104075 -0.023828523 4287511859
-0.032922026 -0.019855002 -0.017909827 4287902518
-0.031370666 -0.017354587 -0.01992764 4288360753
-0.02938015 -0.018129125 -0.019421924 4288689703
-0.027500883 -0.018084804 -0.019546878 4289016868
-0.025621701 -0.018040378 -0.019671746 4288493609
-0.023742605 -0.017995857 -0.019796535 4288297258
-0.021863606 -0.017951194 -0.019921212 4288231979
-0.019857213 -0.018724794 -0.019416133 4288231723
-0.017975688 -0.018679859 -0.01954082 4288362538
-0.016094267 -0.018634832 -0.019665429 4288493353
-0.014484234 -0.016953399 -0.021048246 4288428074
-0.012608465 -0.016908295 -0.021172322 4288493353
-0.010873903 -0.016045021 -0.02192514 4288820518
-0.0090010725 -0.01599979 -0.022048876 4288755239
-0.0072748885 -0.015136547 -0.022800937 4288493098
-0.0054050237 -0.015091181 -0.022924321 4289147428
-0.0038391948 -0.013410207 -0.024303764 4287772469
-0.033074737 -0.020539345 -0.019655215 4287902774
-0.031192735 -0.020495214 -0.019780539 4288165169
-0.029310811 -0.020450953 -0.019905761 4287970093
-0.027312424 -0.021227362 -0.019402098 4288755494
-0.025547203 -0.020362124 -0.020155955 4288755494
-0.023543544 -0.021138189 -0.019652478 4288428073
-0.021783948 -0.020272838 -0.020405781 4288297258
-0.019902457 -0.020228025 -0.020530554 4288166444
-0.018021062 -0.020183129 -0.020655259 4288166444
-0.016139772 -0.020138117 -0.020779867 4288558888
-0.014394172 -0.01927267 -0.021531921 4288493353
-0.012515813 -0.01922752 -0.021656182 4288624168
-0.01077858 -0.01836207 -0.02240753 4289605919
-0.0089031607 -0.018316805 -0.022531459 4288558888
-0.0068814196 -0.019091474 -0.022028463 4288950823
-0.0050035268 -0.019045915 -0.022152379 4289605919
-0.0035814121 -0.016540455 -0.024155654 4287641145
-0.033227306 -0.021219153 -0.02139724 4287968564
-0.031459209 -0.02035201 -0.022149922 4288295984
-0.029355347 -0.021953929 -0.021020051 4288101164
-0.027357157 -0.022732543 -0.020518012 4288624679
-0.025353625 -0.023510918 -0.020016244 4288821028
-0.023588564 -0.0226434 -0.020768391 4288231723
-0.021579765 -0.023421407 -0.020266792 4288166444
-0.019820325 -0.022553811 -0.02101841 4288231723
-0.017806269 -0.023331473 -0.020516995 4288951589
-0.015919678 -0.023286354 -0.020641971 4288886053
-0.014033191 -0.023241131 -0.02076686 4288689959
-0.012423266 -0.021550946 -0.022143157 4288820518
-0.010824315 -0.01986091 -0.023518644 4289474848
-0.009092696 -0.018993301 -0.024267988 4289016868
-0.0069274716 -0.020592535 -0.023141202 4288558124
-0.0049006045 -0.02136917 -0.0226401 4289082149
-0.0033238679 -0.019679295 -0.02401384 4287117629
-0.031503454 -0.021850459 -0.023260871 4286071874
-0.029627245 -0.021806374 -0.023385743 4287641908
-0.027634706 -0.022587301 -0.022884948 4287903538
-0.025636807 -0.023367969 -0.022384413 4287968819
-0.023755409 -0.023323432 -0.022509385 4288230449
-0.02199867 -0.022453839 -0.02325929 4287838513
-0.020120163 -0.022409139 -0.023383897 4288230703
-0.017981745 -0.024013933 -0.02225907 4288230703
-0.016098004 -0.023968879 -0.022383854 4288885033
-0.014214363 -0.023923753 -0.022508577 4288623404
-0.012468986 -0.023053924 -0.023257351 4288624169
-0.010729156 -0.022184098 -0.024005661 4289212963
-0.0089948662 -0.021314325 -0.024753546 4289147684
-0.0069735013 -0.022093391 -0.024253791 4288820773
-0.004946813 -0.022872241 -0.023754323 4289410078
-0.02404388 -0.023171786 -0.02487064 4287250483
-0.016408823 -0.023820026 -0.024745308 4287184184
-0.014530741 -0.023775037 -0.024869666 4287838513
-0.01265277 -0.023729969 -0.024993952 4287576883
-0.010774903 -0.023684768 -0.025118137 4288427818
-0.0091842115 -0.021986164 -0.026486628 4288623914
-0.0073119923 -0.021940924 -0.026610306 4289410079
-0.0052909181 -0.022722147 -0.026112057 4289344799
0.021947466 -0.00079216063 0.024138099 4284311608
0.019408502 -0.00011370517 0.021108618 4284575023
-0.0081973188 -0.00080627948 0.020414962 4284314668
-0.0066811219 0.0015445929 0.018288786 4283726385
-0.0048907325 0.0023593027 0.017495228 4283661359
-0.0031059608 0.0031740069 0.016702138 4283136570
-0.0010252297 0.0024531055 0.017240172 4283071033
0.0012142584 0.00096473657 0.018443113 4283858219
0.0034644529 -0.00052329525 0.01964548 4284643619
0.0054074749 -0.0004757829 0.019517543 4284708388
0.007188648 0.00033934787 0.018725069 4284643364
0.0092929527 -0.00038045645 0.019261939 4284579103
0.012668177 0.0020172056 0.017014349 4284708389
0.01442951 0.0028322358 0.01622347 4284446248
0.016535752 0.0021128729 0.016760504 4284379183
0.01900319 -0.00014052168 0.018624431 4284181813
-0.0095031932 0.0045692474 0.013280936 4282548539
-0.0080114231 0.006926056 0.011161232 4282025534
-0.0063908696 0.0085124578 0.0097068381 4281635639
-0.0043374076 0.0077886321 0.010244988 4280663579
-0.0022786707 0.0070650503 0.010782877 4280334119
9.2230737e-05 0.0048018601 0.012647629 4282026299
0.0023231134 0.0033090562 0.01384799 4282156094
0.0042469576 0.0033561178 0.013721332 4282091834
0.0063322112 0.0026335847 0.014257772 4282614074
0.0084227398 0.0019112509 0.014793992 4282484023
0.010017388 0.0034978651 0.013341859 4282483768
0.011600964 0.0050842911 0.011890592 4282874683
0.013345949 0.0059010983 0.011102408 4282613054
0.015786067 0.003640458 0.012963165 4283331134
0.018242307 0.001380261 0.014822969 4283331388
-0.010947619 0.010756664 0.0055133523 4281569338
-0.0096254945 0.013891703 0.0027376609 4281307454
-0.0060115531 0.014755016 0.0018270155 4280204833
-0.003832303 0.013256395 0.0030273916 4280334884
-0.0016423389 0.01175813 0.0042271344 4280461364
0.00071445853 0.009488184 0.0060880417 4281371969
0.0026109591 0.0095345974 0.005963197 4281111104
0.0048303455 0.0080373157 0.0071612718 4281371969
0.0067319423 0.0080840494 0.007036237 4280849729
0.0084663704 0.008902641 0.0062501933 4281568063
0.012090765 0.0097680073 0.0053401953 4278441509
0.014511533 0.0075003188 0.0071974108 4280004403
0.017126277 0.0044616479 0.0097139534 4281370949
0.019762561 0.0014236737 0.012229133 4280516954
-0.011790145 0.0029993039 0.0098068919 4283984443
-0.011831973 0.013889613 0.00042314641 4281372479
-0.010526035 0.017032946 -0.0023449375 4281176638
-0.0086614974 0.017078074 -0.0024680528 4281241409
-0.0067971088 0.017123284 -0.0025910945 4281307199
-0.0047822967 0.0163943 -0.0020535351 4279809074
-0.002915509 0.016439775 -0.0021765805 4280980798
-0.0010488778 0.016485358 -0.0022995337 4280849984
0.00097631663 0.015756918 -0.00176244 4280915518
0.0031682402 0.014254669 -0.00056582782 4281111104
0.0050424933 0.014300743 -0.00068905484 4281178169
0.015655488 0.0091167968 0.0033070622 4280522563
0.018630646 0.0045223478 0.007134309 4280651339
-0.012384348 0.0045748539 0.0060322424 4283722814
-0.012296647 0.014718654 -0.00266855 4280720954
-0.011141095 0.018647222 -0.0060891048 4279612724
-0.0091424994 0.017915459 -0.0055522476 4280915518
-0.007434193 0.018737042 -0.006333794 4281046079
-0.0051294491 0.016452624 -0.0044793533 4280134199
-0.0034214705 0.017274415 -0.0052607167 4280003383
-0.0014071763 0.016543446 -0.0047245896 4280654398
0.00029505044 0.017365279 -0.0055054422 4280915518
0.0023144484 0.016634641 -0.0049694967 4280849984
0.004174985 0.016680384 -0.0050918176 4279287088
0.0058685243 0.017502299 -0.0058718785 4281437504
0.0075564384 0.018324168 -0.0066514988 4281307199
0.0097555444 0.016818112 -0.0054583256 4280980033
0.011965349 0.015312387 -0.0042657256 4280002108
0.014718965 0.011479532 -0.0011024759 4281109829
0.017860413 0.0060959347 0.003372916 4280782919
0.021039724 0.000713313 0.0078459289 4279796323
-0.012978032 0.0061681066 0.0022706389 4283787838
-0.012900487 0.01633996 -0.0064084274 4280651849
-0.011328794 0.017942576 -0.0078467261 4279024184
-0.0074798688 0.01725349 -0.0074335434 4279160098
-0.0056267753 0.017298555 -0.0075557451 4278446354
-0.0039270222 0.018122373 -0.0083349831 4280459068
-0.0020769611 0.018167565 -0.0084568355 4280653888
-0.00022707134 0.018212846 -0.0085786078 4280915264
0.0017839819 0.017479783 -0.0080436897 4280980543
0.003636241 0.01752531 -0.0081654787 4279482673
0.0053215697 0.018349262 -0.008943405 4279352623
0.0070012808 0.019173114 -0.0097208619 4280199989
0.0091919899 0.017662482 -0.0085303094 4280720954
0.011393368 0.016152227 -0.0073404466 4279155254
0.014138378 0.012308272 -0.0041847322 4280132924
0.017631814 0.0053533204 0.0015905593 4281044548
0.020624734 0.00073330104 0.0053972965 4280061013
-0.013434418 0.0069978852 -0.00082128122 4283723068
-0.013364308 0.017197868 -0.0094788 4280392004
-0.011658553 0.018023549 -0.010257086 4280849218
-0.0096685216 0.017287238 -0.0097228903 4280850494
-0.0079685077 0.018112985 -0.010500649 4280915263
-0.0059733354 0.017377006 -0.0099666398 4281045824
-0.0042790622 0.01820281 -0.010743866 4281110593
-0.0021229461 0.016686453 -0.0095547419 4280980033
-0.00043171644 0.017512394 -0.010331612 4281045569
0.0015764311 0.016777126 -0.0097981654 4280980289
0.0030979067 0.018383635 -0.011229275 4280719933
0.0067853704 0.018474577 -0.011471497 4278573344
0.013558216 0.01315031 -0.0072570574 4280849984
0.017042756 0.0061755683 -0.0014958121 4280783429
0.020393036 -1.7846003e-05 0.0036088489 4280519759
-0.013890393 0.0078409836 -0.0039033289 4283657278
-0.013548873 0.016502446 -0.011229752 4280718914
-0.011845905 0.01733025 -0.012006225 4280980033
-0.010148525 0.018158013 -0.012782257 4280981053
-0.0083091371 0.018202631 -0.01290364 4281567553
-0.0064699091 0.018247383 -0.013024904 4281437249
-0.0044778064 0.017509257 -0.012492236 4281306434
-0.0024804175 0.016771348 -0.011959851 4281045313
-0.00063620508 0.016816502 -0.012081239 4281110849
0.001207836 0.016861772 -0.012202526 4281110595
0.002723895 0.018472502 -0.013630042 4280718914
0.0047287792 0.017735163 -0.013097862 4280784448
0.0064002499 0.018563161 -0.013871541 4281045824
0.0085822865 0.017043663 -0.012686931 4281110848
0.010600254 0.016306927 -0.012155401 4281111359
0.012978464 0.01400567 -0.010319584 4280653889
0.016454138 0.0070110802 -0.0045722816 4280127824
-0.014345966 0.0086973384 -0.0069754715 4281895484
-0.013733305 0.015811643 -0.01297728 4280914243
-0.010772925 0.019827476 -0.016484587 4278575129
-0.0066656135 0.017560693 -0.014768499 4280265014
-0.0046764165 0.016820291 -0.014237206 4281372479
-0.0025262535 0.015295072 -0.013054173 4281110848
-0.0009989664 0.016910234 -0.014479331 4280784448
0.0010006353 0.016170399 -0.013948563 4280849729
0.0025139898 0.01778548 -0.015372689 4280457539
0.0043494254 0.017830702 -0.015493289 4280783938
0.0060154051 0.018660767 -0.016264971 4281110848
0.0080197603 0.017921431 -0.015734231 4281175365
0.01002939 0.017182263 -0.015203738 4280718658
0.012399137 0.014874296 -0.013372273 4280392514
0.015865937 0.007859936 -0.0076389355 4279932494
-0.014664587 0.0087793693 -0.0093860533 4281698623
-0.013917595 0.015125433 -0.014721401 4280849984
-0.0092845298 0.019983811 -0.018991744 4279744813
-0.0047219768 0.015348589 -0.015328147 4280981308
-0.0028833076 0.015393512 -0.015449242 4281111104
-0.00088645518 0.014651367 -0.014919962 4280915519
0.00079358369 0.015483661 -0.015691169 4280980288
0.0023042411 0.017103007 -0.01711189 4280980033
0.0058000535 0.017980346 -0.018002175 4278764084
0.0076295882 0.018025605 -0.018122254 4279285814
0.0098082423 0.016497383 -0.016943846 4280264758
0.012174949 0.014182774 -0.015116994 4280981054
0.015278146 0.0087220259 -0.010695702 4280652614
-0.014982913 0.0088702794 -0.011789979 4281959998
-0.014101755 0.014443843 -0.016462173 4280785723
-0.012691036 0.016857481 -0.018532719 4281372478
-0.011007451 0.017691491 -0.019303024 4281437759
-0.0093294457 0.018525412 -0.020072846 4281437759
-0.0073568076 0.01778019 -0.019543819 4280395573
-0.0052260384 0.01624565 -0.018366013 4280981564
-0.0032400936 0.015500953 -0.017837714 4280981054
-0.0012488663 0.014756484 -0.01730969 4280915519
0.00058666617 0.014801526 -0.01743043 4280915518
0.002094619 0.016425109 -0.018847704 4280786489
0.0035915226 0.018048575 -0.020264208 4280003639
0.0054156855 0.018093606 -0.020384002 4279741754
0.0072396845 0.018138727 -0.020503715 4278501944
0.011773631 0.014284724 -0.017505733 4281112123
0.015050799 0.0080198105 -0.012448188 4281045058
-0.015300982 0.008970188 -0.014187308 4282156094
-0.014424931 0.014558813 -0.018847793 4280395573
-0.012735832 0.015394976 -0.01961688 4279419434
-0.011052307 0.016231151 -0.020385567 4281112124
-0.0093743578 0.017067259 -0.021153759 4280981819
-0.0075519457 0.017111568 -0.021273945 4279810349
-0.0054241568 0.015572635 -0.020099159 4280655928
-0.0035966039 0.015617287 -0.02021952 4280654398
-0.0016110018 0.0148705 -0.019692745 4280850238
5.8054924e-05 0.015706865 -0.020460002 4280849984
0.0017215088 0.016543245 -0.021226846 4280263994
0.0032130107 0.018170873 -0.022639723 4281500999
0.0052006841 0.017424507 -0.022112813 4281436228
0.0070218444 0.017469568 -0.022232335 4281371203
0.0093663856 0.015141258 -0.020413812 4280721464
0.011727035 0.012813443 -0.018596277 4281242429
0.015003547 0.0065311268 -0.013551619 4280783429
0.01795803 0.0018317904 -0.0098005831 4281234524
-0.016164262 0.012256006 -0.01916549 4282091325
-0.015026018 0.01627109 -0.022520229 4280394044
-0.013064243 0.015520955 -0.021993948 4279027499
-0.011097152 0.014771054 -0.021467937 4278703394
-0.0095665008 0.016403286 -0.022880681 4278376738
-0.0060802102 0.017285747 -0.023766356 4280589884
-0.0042636544 0.017330127 -0.023885993 4280785213
-0.0022891164 0.016580893 -0.023360111 4280784959
-0.00047013909 0.016625522 -0.023479771 4280849984
0.0028347671 0.018302077 -0.025008643 4279352113
0.0046478361 0.018346848 -0.0251277 4280850494
0.0068041757 0.016804939 -0.023957599 4280850494
0.0087967813 0.016056685 -0.023432506 4279872823
0.011326142 0.012928901 -0.020975076 4280393788
0.014596559 0.0066289809 -0.015942931 4280718404
0.017727681 0.0011233855 -0.011557419 4279017044
-0.016208898 0.010789601 -0.020252571 4282221373
-0.015070461 0.014815582 -0.023599219 4280980033
-0.013392366 0.015655832 -0.024364341 4281503294
-0.011575371 0.015699806 -0.024484321 4281112124
-0.0099057034 0.016540071 -0.025248727 4281241919
-0.0080916993 0.016584171 -0.025368363 4281111613
-0.0062778443 0.016628394 -0.02548789 4281046078
-0.0044641197 0.016672699 -0.025607347 4280915518
-0.0023344234 0.015125332 -0.02443907 4280980799
-0.00067634135 0.01596578 -0.025202364 4281045569
0.0011396408 0.016010424 -0.025321757 4280850749
0.0042643249 0.018486878 -0.027489683 4279159843
0.011102624 0.01225782 -0.022704648 4280393024
0.014189854 0.0067358222 -0.018327653 4280587843
0.016949929 0.0028053578 -0.015237481 4280257364
-0.016117297 0.00852485 -0.020695819 4282286653
-0.014836974 0.011763223 -0.023391129 4281112379
-0.013295181 0.013404218 -0.024798291 4280915774
-0.0114756 0.01344827 -0.024918426 4280980799
-0.0098032616 0.014290737 -0.025681417 4281176383
-0.0079866648 0.014334915 -0.02580121 4281110848
-0.0061702132 0.014379209 -0.025920905 4281371714
-0.0041986257 0.013625441 -0.02539815 4281306689
-0.0022217408 0.012871908 -0.024875663 4281241408
-0.00040026754 0.012916593 -0.024995491 4281371969
0.0014210418 0.012961367 -0.025115237 4281437249
0.0030760467 0.013804076 -0.025876589 4281567553
0.0047254562 0.014646759 -0.026637491 4281502529
0.0065408498 0.014691664 -0.026756642 4281372224
0.0083561018 0.014736628 -0.026875738 4281307708
0.01070223 0.012388913 -0.025071863 4280850748
0.013603717 0.0076490026 -0.021346554 4280326978
0.016355187 0.0037075132 -0.018263938 4279668058
-0.015344944 0.0022520423 -0.017931886 4282286654
-0.014464851 0.0079016611 -0.022547411 4281307454
-0.012773283 0.0087465532 -0.023310212 4280915774
-0.011087276 0.0095914379 -0.024072554 4280785468
-0.0092597902 0.0096357651 -0.024193151 4280524603
-0.0074324347 0.0096802097 -0.024313653 4280261188
-0.0054527298 0.0089243576 -0.023793126 4280458813
-0.0036229417 0.0089690462 -0.023913646 4280524859
-0.0016353726 0.0082136001 -0.023393484 4281243194
3.6209822e-05 0.0090587027 -0.024154449 4280524603
0.0020289198 0.0083035491 -0.023634499 4280459069
0.0036947429 0.0091487281 -0.024394924 4279937849
0.0055237859 0.0091938544 -0.024515057 4280459323
0.0070096329 0.010838924 -0.025914563 4280785978
0.0086586773 0.01168392 -0.026673716 4281047354
0.010832995 0.010129532 -0.025514336 4281177659
0.013377346 0.0069760866 -0.023077251 4280391238
0.016125657 0.0030236058 -0.020002544 4279797854
-0.015253913 -3.1834468e-05 -0.018389313 4281893699
-0.013954274 0.0032243822 -0.021072971 4281632324
-0.012251891 0.0040717013 -0.021834876 4281240388
-0.010555066 0.0049189944 -0.022596335 4281305669
-0.0088638291 0.0057663284 -0.023357367 4280784449
-0.0068787299 0.0050082915 -0.022838848 4280719168
-0.0048883483 0.0042505264 -0.022320645 4281175873
-0.0028926656 0.0034929886 -0.021802716 4281176130
-0.0012073964 0.0043405127 -0.022563031 4281176130
0.00047228485 0.0051879734 -0.023322925 4280849729
0.0021463782 0.0060354508 -0.024082409 4280850239
0.0039808974 0.0060806163 -0.024202975 4280719678
0.0058152601 0.0061258748 -0.024323458 4280198204
0.0074780211 0.0069732908 -0.025081962 4280457794
0.0091351941 0.0078206677 -0.025840025 4280980288
0.011140525 0.0070640966 -0.02532219 4280195908
0.013689928 0.0039020479 -0.022891933 4279931728
-0.015162989 -0.0023198631 -0.01884982 4281828674
-0.013721753 0.00014005415 -0.020888578 4281632833
-0.012013998 0.00098968297 -0.021649217 4281110084
-0.010167591 0.0010343492 -0.021771153 4281240388
-0.0083213262 0.0010791291 -0.021892991 4281110339
-0.0066248141 0.001928784 -0.022652667 4280849218
-0.0046291873 0.00116897 -0.022136427 4281241154
-0.0026282519 0.00040937215 -0.021620473 4281175873
-0.00077982247 0.00045460835 -0.021742154 4281241154
0.0007474646 0.0021089613 -0.02313816 4281241154
0.0024269447 0.0029586777 -0.023896361 4280979778
0.0041008517 0.0038083643 -0.024654111 4280653634
0.0059378222 0.0038536675 -0.024774779 4280783939
0.0077746361 0.0038990639 -0.024895366 4280718914
0.0096112862 0.0039445534 -0.02501587 4280848453
0.011624612 0.0031859726 -0.024500201 4280847434
0.013822727 0.0016235765 -0.023348851 4280257618
-0.015208162 -0.0038047591 -0.019950608 4281568063
-0.013628166 -0.0021455921 -0.021347463 4281176383
-0.011776328 -0.0021009147 -0.021469846 4281175873
-0.010068759 -0.0012489706 -0.022228822 4281175873
-0.008366745 -0.00039711408 -0.022987323 4281045568
-0.006520737 -0.00035224296 -0.023109073 4280915263
-0.0046748668 -0.00030730292 -0.023230759 4281240898
-0.0026741177 -0.0010690819 -0.02271641 4281110849
-0.0008258 -0.00102387 -0.022838103 4281110849
0.00086194277 -0.00017186627 -0.023595294 4281240898
0.0025441051 0.0006800741 -0.024352062 4281045568
0.004220672 0.0015319847 -0.025108384 4281110849
0.0058916584 0.0023838319 -0.025864283 4281045568
0.0078996792 0.0016227886 -0.025349999 4281306178
0.0099129751 0.00086193532 -0.024836017 4280979778
0.012108304 -0.00070495903 -0.02368778 4280846669
0.013955414 -0.00065908208 -0.023808874 4280646493
-0.015117414 -0.006098913 -0.020415658 4281240898
-0.013673313 -0.0036259452 -0.022444874 4280783938
-0.011821613 -0.0035812687 -0.022567248 4281240898
-0.010114104 -0.0027271491 -0.023324599 4281437759
-0.0082653686 -0.0026823375 -0.023446621 4281110339
-0.0067157559 -0.0010191854 -0.02483796 4280849729
-0.0048727244 -0.00097429566 -0.024959445 4281437759
-0.002874881 -0.0017383285 -0.02444653 4281502274
-0.00087174028 -0.0025021471 -0.023933902 4281567299
0.00097632408 -0.0024568588 -0.024055514 4281436994
0.002824232 -0.0024114791 -0.024177045 4281305923
0.0046720058 -0.0023660176 -0.024298504 4281176383
0.0063511133 -0.0015118141 -0.025053332 4281241664
0.0081958622 -0.0014662538 -0.025174463 4281306178
0.0098665059 -0.000612095 -0.025928613 4280979778
0.011884913 -0.0013749022 -0.025416516 4280520268
-0.01529846 -0.0067739161 -0.022151716 4282219334
-0.013718452 -0.0051060673 -0.023542115 4281566534
-0.012008157 -0.0042498652 -0.024298152 4281697604
-0.010015424 -0.0050166529 -0.023786783 4281762629
-0.0083108135 -0.0041603632 -0.024542276 4281504058
-0.0066117607 -0.0033041462 -0.025297284 4281244469
-0.0046139732 -0.0040704887 -0.024786083 4281762628
-0.0027657524 -0.0040253885 -0.024907848 4281632579
-0.00076007843 -0.0047913734 -0.024396969 4281500998
0.00093027204 -0.0039349468 -0.025151163 4281436994
0.0027780831 -0.0038896045 -0.025272714 4281176383
0.0044599995 -0.0030332692 -0.026026193 4280848963
0.0061363429 -0.0021769498 -0.026779216 4281305923
0.0079782829 -0.0021314994 -0.026900193 4281044294
0.0098200589 -0.0020859446 -0.027021078 4281044549
0.011838287 -0.002850946 -0.026510596 4280911693
-0.0025019348 -0.0071300287 -0.024741121 4282214234
0.00056378543 -0.0037864633 -0.027508214 4280645729
0.0022430867 -0.0029281173 -0.02825998 4280713559
0.0044138208 -0.0045090625 -0.027120126 4280585039
0.0062585175 -0.0044636223 -0.027241342 4280846414
0.0081030577 -0.0044181142 -0.027362494 4280714833
0.010121278 -0.0051853871 -0.026853701 4280780625
0.01196824 -0.0051396573 -0.026974892 4280057954
0.027397938 -0.0052097114 0.030387301 4280110739
0.024636738 -0.0037940005 0.026675776 4281489268
0.026788697 -0.0045075258 0.027213313 4279324063
0.024036221 -0.003076084 0.023512758 4280701319
0.027384035 -0.00068438053 0.021263037 4279586968
0.029332846 -0.00063561276 0.021135548 4279717783
0.031281427 -0.00058677793 0.021008126 4279257509
0.034018122 -0.0035957154 0.023536542 4278668714
0.036776297 -0.0066040177 0.026063621 4278931619
0.023619525 -0.0031118598 0.021022858 4278996643
0.026956469 -0.00071386807 0.018778728 4278270659
0.028899752 -0.00066522323 0.01865161 4278269893
0.036126323 -0.0058848718 0.02290575 4279258273
0.020714663 -0.00087944418 0.016681785 4280836978
0.023019753 -0.0023694709 0.017877977 4278735523
0.024777301 -0.0015519075 0.017089302 4278603688
0.026340388 3.4686178e-05 0.015639808 4279256488
0.028275415 8.312054e-05 0.015513228 4278664123
0.030210204 0.00013165921 0.015386745 4278732209
0.032735609 -0.0021262169 0.017242463 4278799273
0.035476744 -0.0051523605 0.019757709 4278603434
0.039453655 -0.012789973 0.026233707 4281029758
0.024169736 -0.00079419278 0.013956482 4278671518
0.025913425 2.5326386e-05 0.013170421 4278800039
0.027842917 7.3637813e-05 0.013044216 4279062434
0.029966332 -0.00064902753 0.013577351 4278866339
0.032291837 -0.0021425076 0.014769336 4278734758
0.035226762 -0.0059484169 0.01793739 4278800293
0.038795523 -0.012066106 0.023079952 4280374154
0.023562573 -2.3158267e-05 0.010833532 4278276013
0.032045133 -0.0029229596 0.012960279 4278996643
0.0349769 -0.0067398213 0.016120454 4278800294
0.038340077 -0.01210203 0.0205932 4279783828
0.023327574 -0.00079009682 0.0090336166 4278406828
0.031405121 -0.0021481607 0.0098429658 4279126183
0.034328289 -0.0059761228 0.012995606 4279389599
0.03768272 -0.011353738 0.017457552 4279521689
0.023278482 -0.0023302212 0.0078920741 4278276269
0.024822712 -0.00072672404 0.0064568147 4279324063
0.026738308 -0.00067872182 0.0063315462 4279389599
0.030962192 -0.0021375492 0.0073897056 4278864043
0.033680089 -0.0051990803 0.0098805744 4278537643
0.037429988 -0.012146964 0.015639573 4279258783
0.024962097 -0.0030421559 0.005971848 4278274483
0.026689164 -0.0022142585 0.0051934216 4279322534
0.028410576 -0.0013864115 0.0044154301 4278667184
0.033032306 -0.0044087162 0.0067754164 4279061923
0.036571309 -0.010596838 0.011868158 4281423223
0.02625785 -0.0021854918 0.0027526869 4278400453
0.027973786 -0.0013555922 0.0019766828 4278597059
0.030077152 -0.0020895395 0.002503112 4278406063
0.032783426 -0.0051687416 0.0049818121 4278931364
0.036319084 -0.011374386 0.0100618 4280178059
0.02146098 0.00010983832 -0.0013825917 4278540703
0.023545764 -0.00062703341 -0.00085670408 4278735269
0.025444768 -0.00057943724 -0.00098087965 4279323809
0.027731024 -0.0021000169 0.00019416818 4279454878
0.029635057 -0.0020521656 6.975932e-05 4278603434
0.032335557 -0.005140231 0.002542356 4278931364
0.035865106 -0.011363409 0.0076098135 4279653014
0.021041505 0.00016324967 -0.0038059123 4278606238
0.022932455 0.000210559 -0.0039296262 4279126948
0.025014147 -0.00052843802 -0.003405133 4278733484
0.027101085 -0.0012672357 -0.0028809325 4279454879
0.02919326 -0.0020058434 -0.0023569576 4278669223
0.032087043 -0.0058889231 0.00075715175 4278735015
0.035613231 -0.012129553 0.0058118356 4279390619
0.03163965 -0.0058446722 -0.0016707135 4278931619
0.035361506 -0.012891183 0.0040172758 4278996898
0.020574167 -0.0012848582 -0.0073422366 4278608279
0.022647567 -0.0020285267 -0.0068204463 4278731953
0.024535425 -0.0019812267 -0.0069439057 4278665654
0.030794643 -0.0042104591 -0.0053807236 4279323808
0.034303248 -0.01048639 -0.00035074726 4280111504
0.022035196 -0.0011620205 -0.0098719383 4279913878
0.024105541 -0.0019078366 -0.0093515655 4279717529
0.026181109 -0.0026534535 -0.0088314824 4278340018
0.028065749 -0.0026060808 -0.0089546172 4278406063
0.030347988 -0.0041440818 -0.0077921143 4279192993
0.033850513 -0.010437571 -0.0027746896 4279653014
0.023485281 -0.0010305047 -0.012394267 4278403514
0.029702805 -0.0032738838 -0.010838103 4279127968
0.032793485 -0.0079953792 -0.0071149957 4282078318
0.036937766 -0.016689671 -0.00018995581 4282471529
0.027184658 -0.0024376176 -0.013751864 4278603433
0.029654317 -0.0047816234 -0.011955605 4278997154
0.03274449 -0.0095162131 -0.0082421973 4280701828
0.036683753 -0.017437542 -0.0019740853 4281291899
0.018530726 0.00067108124 -0.018207196 4278539429
0.020388484 0.00071750581 -0.018328777 4278669989
0.022436634 -3.5466626e-05 -0.017811786 4278800038
0.024489991 -0.00078818947 -0.017295124 4278865828
0.026352629 -0.00074140541 -0.017416848 4278800038
0.029009812 -0.00389151 -0.014986762 4278800294
0.032091334 -0.0086393282 -0.011282541 4281094784
0.018113308 0.00078684464 -0.020584308 4278669479
0.019965537 0.00083313324 -0.020705525 4278668204
0.021817602 0.00087947771 -0.020826686 4278273974
0.02386266 0.00012435764 -0.02031111 4279389599
0.02591297 -0.00063055009 -0.019795816 4278930854
0.028564364 -0.003789492 -0.017371818 4278800294
0.031841263 -0.0093518784 -0.01304073 4280636039
0.017881148 0.00010760315 -0.022319222 4278733993
0.025277816 0.00029278919 -0.022803042 4278406573
0.027920686 -0.0028751064 -0.020384986 4278931108
0.031390123 -0.0092563974 -0.015430168 4280308364
0.015984535 -0.00141933 -0.023295697 4279720078
0.017464243 0.00023898482 -0.024684833 4278535603
0.027475908 -0.0027531739 -0.022755284 4279127458
0.030939296 -0.0091520827 -0.01781299 4279914133
0.01557333 -0.0012832321 -0.025658278 4278470579
0.01888603 0.00042513013 -0.027164144 4279389854
0.020914502 -0.00033705868 -0.026652431 4278997153
0.022755258 -0.00029098988 -0.026772847 4279127714
0.024791516 -0.0010528117 -0.026261518 4278798763
0.026833057 -0.0018144585 -0.025750499 4279258529
0.030287661 -0.0082309889 -0.020820573 4280045203
0.033785507 -0.014646373 -0.01589343 4282602089
0.015344486 -0.0019488111 -0.027383309 4278929833
0.020487107 -0.00019046105 -0.029005768 4278732719
0.022322349 -0.00014452636 -0.029125821 4278470579
0.026388995 -0.0016726926 -0.028106028 4278865573
0.02963648 -0.0072967401 -0.023818336 4279259549
0.033125542 -0.013729686 -0.018903594 4281686129
0.013815045 -0.0050938353 -0.027096001 4278804373
0.015115798 -0.0026099179 -0.029105026 4278800039
0.026540011 -0.0039588911 -0.028570225 4278735013
0.029588692 -0.0087859156 -0.02492209 4279194268
0.032873429 -0.014424164 -0.020648167 4282340969
-0.002238363 -0.01024313 -0.024580743 4282011763
-0.00085199624 -0.0077513698 -0.026591128 4280308618
0.00083826482 -0.0068906397 -0.027342113 4279785104
0.0023600608 -0.0052146902 -0.028721593 4279326613
0.013768323 -0.0065717464 -0.028191464 4279195033
0.015614882 -0.0065258704 -0.028312512 4279062688
0.016907439 -0.004035593 -0.030316116 4278668968
0.018745549 -0.003989798 -0.030436516 4279062943
0.020393454 -0.0031292811 -0.031184027 4279389598
0.022614039 -0.0047125816 -0.030050116 4279455134
0.024454385 -0.0046665212 -0.030170504 4278669478
0.026492752 -0.00543484 -0.029664183 4278473129
0.029139131 -0.0086461511 -0.027278721 4278538919
0.032621503 -0.015114129 -0.022389399 4282405993
-0.0022843555 -0.011729348 -0.025682446 4281813629
-0.0010553077 -0.0084134284 -0.028315758 4280306833
0.00079230219 -0.008368223 -0.028437393 4279455134
0.0024769455 -0.0075054392 -0.029186307 4278406828
0.0046526566 -0.0090950392 -0.028053237 4278997153
0.0065025687 -0.009049518 -0.028174832 4279127713
0.0085232928 -0.0098212082 -0.027669534 4279062434
0.010375634 -0.0097754663 -0.027791169 4279325339
0.024798118 -0.0077734701 -0.030012283 4279061924
0.026841782 -0.0085439179 -0.029507918 4279062434
0.029091544 -0.010130671 -0.028379027 4278997154
0.032166183 -0.014983067 -0.024752021 4282340969
-0.0021757185 -0.014035325 -0.026157718 4281682558
-0.0009437874 -0.010710659 -0.028784771 4280044693
0.0010664463 -0.011485154 -0.028280679 4279126948
0.0027564913 -0.010620086 -0.029028345 4278603433
0.0047718957 -0.011394262 -0.028524451 4279062688
0.006624423 -0.011348695 -0.028646231 4279062688
0.0086477026 -0.012122541 -0.028142754 4278866338
0.010329045 -0.011257356 -0.028889602 4278997409
0.012181148 -0.01121156 -0.029011175 4279062944
0.013854042 -0.01034642 -0.029757347 4278800038
0.015884884 -0.011119749 -0.02925412 4278800038
0.02699253 -0.010842726 -0.029981472 4278539174
0.029244773 -0.012433775 -0.028855985 4279587734
0.032118179 -0.016480535 -0.025861923 4282472039
-0.038564634 -0.023820663 -0.019136477 4283186804
-0.0022217408 -0.015523409 -0.027260806 4280109209
-0.00098965317 -0.012190092 -0.029881436 4279256743
0.00070047379 -0.011322908 -0.030627608 4278930088
0.0027104169 -0.012099572 -0.030125033 4279258019
0.0047256574 -0.012875954 -0.029622767 4279062433
0.0067461804 -0.013652132 -0.029120792 4279062433
0.0086011812 -0.013606451 -0.029242694 4279062178
0.010629587 -0.014382273 -0.028741118 4279258784
0.012487009 -0.014336358 -0.02886305 4278865573
0.01416532 -0.01346897 -0.029608004 4278996644
0.016019739 -0.013422978 -0.029729627 4279062178
0.029598638 -0.015562084 -0.02871443 4282209643
-0.040982869 -0.021243643 -0.023262102 4282666603
-0.0021132529 -0.017835524 -0.027740709 4279584929
-0.00087828934 -0.014493475 -0.030355083 4279257763
0.00081451982 -0.013624147 -0.031099815 4278798763
0.0026643947 -0.01357889 -0.031221602 4279323553
0.0048447773 -0.015181398 -0.030098598 4279061924
0.0065317526 -0.014311962 -0.030842759 4278865574
0.008554697 -0.015090204 -0.030342523 4278800038
0.010582931 -0.015868219 -0.029842563 4278930598
0.012264065 -0.014998674 -0.03058615 4278996644
0.014118537 -0.014952801 -0.030707866 4279324829
0.029550985 -0.017052751 -0.029819302 4279980689
0.032022297 -0.019475121 -0.028081479 4281748604
-0.0023136511 -0.018499108 -0.029466644 4279650464
-0.00092414021 -0.015974762 -0.031453133 4279061159
0.0007686317 -0.015103295 -0.032196265 4279191974
0.0029434785 -0.016710421 -0.031076234 4279257764
0.0047985315 -0.016664967 -0.03119831 4279520159
0.0064854771 -0.015793378 -0.031940866 4278996133
0.0083375499 -0.015747821 -0.032062612 4278733993
0.010536313 -0.017354043 -0.030943921 4279127203
0.012393557 -0.017308192 -0.031065885 4278800038
0.014250651 -0.017262308 -0.031187814 4279062433
-0.0026682317 -0.018329598 -0.031809133 4282078829
-0.0011269972 -0.016627444 -0.033170752 4281424499
0.00088252872 -0.017410733 -0.032673143 4280309129
0.0028973818 -0.01819382 -0.032175831 4281029249
0.0049175322 -0.018976679 -0.031678796 4281028993
0.00660716 -0.018102879 -0.032419931 4279912858
0.0086324811 -0.018885456 -0.031923123 4280108699
0.010316409 -0.018011641 -0.032663766 4279519649
0.012346886 -0.018793935 -0.032167178 4279193249
0.014203906 -0.018748088 -0.032289125 4279389599
0.00067695975 -0.018061193 -0.034388885 4281556588
0.0067287385 -0.020416604 -0.032902129 4282406758
0.0084154904 -0.019540681 -0.033641443 4282602599
0.014335923 -0.0210639 -0.032773681 4278735779
0.016558252 -0.02267804 -0.031662855 4279980689
-0.028742086 -0.02191777 -0.032287199 4282863719
0.00031191856 -0.017874375 -0.036717616 4281490034
-0.012222525 -0.022167413 -0.035110265 4282405738
-0.0066643506 -0.022033412 -0.035477664 4282078574
-0.0068583041 -0.022676617 -0.037188984 4282078574
0.0020645708 -0.020777944 -0.039024804 4281947504
-0.0072006583 -0.022475792 -0.0395092 4282340969
0.0020189658 -0.022252085 -0.040117554 4282078063
-0.0076911934 -0.021424506 -0.042433403 4282079083
0.0034418702 -0.023468267 -0.043640126 4282537318
0.00021052361 0.0091379303 0.058334865 4285032239
0.0020754263 0.0099148694 0.057506949 4285687843
0.0046945959 0.007049365 0.060151935 4286015263
-0.002571471 0.011127625 0.053802915 4285295908
-0.0010102764 0.013368035 0.051590789 4285623073
0.00098197162 0.013415927 0.051458996 4286081819
0.0029740036 0.013463916 0.051327299 4286212378
0.0055844039 0.010589613 0.053966474 4286146843
0.0080590248 0.0084464457 0.055911798 4285425959
0.010869958 0.0048428439 0.059240758 4285229864
0.012893841 0.0048919953 0.059107244 4285296164
0.016604371 0.0064510964 0.057456918 4285097774
0.018280119 0.007960828 0.055940781 4285294379
0.020118453 0.008740196 0.055116899 4286080799
-0.0046207607 0.009474609 0.052745484 4284967214
-0.003625825 0.014653856 0.047770478 4285689629
-0.001790829 0.015434423 0.046947699 4285688864
0.00033678859 0.014749082 0.047508318 4285557028
0.0023178086 0.014796847 0.047377374 4285491238
0.0044531822 0.014111938 0.047937591 4285688863
0.0064365193 0.014159946 0.047806632 4285689118
0.0090597197 0.011277428 0.050438631 4285558558
0.011053517 0.011325898 0.050307136 4285559069
0.013047099 0.011374442 0.050175723 4285624348
0.014704041 0.012888027 0.048664026 4285755419
0.0166917 0.01293662 0.048533142 4286083093
0.018679127 0.012985302 0.048402343 4285951004
0.021019049 0.011569517 0.049650911 4286147608
0.023727782 0.0086897444 0.052277762 4285820444
-0.0052328259 0.010811001 0.048794352 4285033259
-0.0038176179 0.013799632 0.045901928 4285689629
-0.0021317303 0.015317487 0.044391055 4285951768
-9.75281e-06 0.01462988 0.044950392 4285688353
0.0018138811 0.015412586 0.044130232 4285754654
0.0039409176 0.014725307 0.044689383 4285885978
0.0059159547 0.014773151 0.044559002 4285755163
0.0082106814 0.013351383 0.045806922 4285624093
0.010190755 0.013399558 0.045676362 4285624094
0.012170583 0.013447793 0.045545872 4285755419
0.013813943 0.014965454 0.044038352 4285886233
0.015787885 0.015013741 0.043908391 4285557028
0.017761581 0.015062129 0.043778528 4285425703
0.019911341 0.014376165 0.044336755 4285688864
0.022245318 0.012956006 0.045582566 4285755164
-0.005985193 0.012902638 0.044167668 4285033004
-0.0044399276 0.01516225 0.041971248 4285427233
-0.0026186854 0.015946941 0.041152686 4285952788
-0.00050506741 0.015256943 0.041711021 4286017049
0.0014620721 0.015304433 0.041581038 4286017048
0.003429018 0.015352027 0.041451152 4286149394
0.0055529252 0.01466261 0.042008977 4285623839
0.0078419521 0.013236431 0.043254022 4285624349
0.0098164529 0.013284495 0.043123845 4285558559
0.011625387 0.014069518 0.042306643 4285689374
0.013428658 0.014854508 0.041489895 4286083603
0.015567809 0.014165958 0.042047083 4286017304
0.017538689 0.014214309 0.041917428 4285885979
0.019509315 0.014262734 0.041787852 4285952024
0.021837614 0.012838164 0.043030791 4286017304
0.0256299 0.0055219289 0.049761448 4285360933
-0.0063146614 0.012797395 0.041618768 4285164839
-0.0046313256 0.014323926 0.040114488 4285493278
-0.0028128475 0.015110699 0.039297786 4285624348
-0.00070215762 0.014418526 0.039854672 4285689374
0.0011104792 0.015205374 0.03903852 4285557538
0.0030718595 0.015252857 0.038909014 4285623838
0.0051901266 0.01456116 0.039465625 4285624349
0.0074734613 0.013130443 0.040707842 4285558813
0.0094423965 0.013178403 0.04057806 4285558813
0.011245824 0.013965527 0.039762881 4285624604
0.01304359 0.014752662 0.038948111 4285689884
0.015177146 0.014061758 0.0395041 4286018069
0.01696901 0.014848923 0.038689855 4286149394
0.018931374 0.014897192 0.038560852 4286083859
0.021251269 0.013468022 0.039801147 4285361443
0.024671383 0.0076071955 0.045147274 4285164074
-0.0066439062 0.01270123 0.039076522 4285164584
-0.0049660057 0.014231989 0.037575919 4285493534
-0.003153041 0.015020842 0.036761228 4285755929
-0.0010479987 0.014326366 0.037316877 4286017814
0.00075913966 0.015115293 0.03650273 4285952024
0.0027149394 0.015162664 0.036373612 4285623838
0.004670538 0.015210131 0.03624459 4285558304
0.0069454387 0.013774922 0.037484098 4285558813
0.0089060888 0.01382271 0.037354887 4285493278
0.010866508 0.013870584 0.037225757 4285558813
0.012826711 0.013918558 0.037096716 4285624094
0.01478669 0.013966614 0.036967758 4285623584
0.016399726 0.015496856 0.035472225 4285557539
0.01835382 0.015544953 0.035343792 4285558304
0.020665281 0.014111301 0.036581386 4285427234
0.023713529 0.0097145364 0.040549546 4285230119
-0.0050137565 0.012661131 0.036411408 4285427488
-0.0033469349 0.014196141 0.034914818 4285820953
-0.0016911924 0.015730949 0.033419084 4285951258
0.00025651604 0.015778052 0.033290453 4286017813
0.0022040159 0.015825244 0.033161905 4286083858
0.0043082908 0.015128898 0.03371622 4285558304
0.0065774992 0.01368917 0.034952927 4285493279
0.0085325763 0.013736853 0.034824107 4285493278
0.010322288 0.014528098 0.034013074 4285558303
0.011938512 0.016062638 0.032520462 4285689373
0.013714187 0.016853707 0.031710554 4286082839
0.015484214 0.017644705 0.030901067 4286016794
0.017600603 0.016949331 0.031455096 4285558048
0.019900933 0.01551106 0.032690194 4285427234
0.022937812 0.011100905 0.036649417 4285361444
-0.0054913685 0.013329068 0.033200871 4285624603
-0.0038327128 0.014868228 0.03170814 4285623074
-0.0021851361 0.016407268 0.030216169 4285491239
-0.00024573505 0.016454196 0.030088104 4285688864
0.0018476471 0.015755298 0.030641515 4285689119
0.0041031837 0.014310827 0.031875763 4285623838
0.0062097833 0.013612481 0.032428402 4285559068
0.008321628 0.01291438 0.032980781 4285493278
0.0099435225 0.014453357 0.031491 4285623839
0.011218749 0.017483303 0.028641075 4285820954
0.012812994 0.019021785 0.027153246 4286083094
0.014915816 0.018323841 0.027706496 4286017049
0.017199799 0.016880734 0.02893937 4286214163
0.019851804 0.013947377 0.031531125 4285558304
0.023069538 0.0087789409 0.036160234 4285295909
-0.0056821778 0.012513684 0.031361211 4285690903
-0.0040262341 0.014057154 0.029871911 4285885978
-0.0025300458 0.016348729 0.027703304 4285820189
-0.00059621036 0.016395533 0.027575616 4285819934
0.0016456321 0.014946328 0.028807487 4285820443
0.0037413612 0.014245411 0.029359203 4285558303
0.0058423281 0.013544789 0.02991062 4285624859
0.0076239929 0.014340123 0.029103383 4285559068
0.0094000101 0.01513545 0.028296538 4285689629
0.010499492 0.018921698 0.024774827 4285754398
0.012423754 0.018968971 0.02464829 4285491748
0.014520936 0.018268732 0.025200311 4285557284
0.016975142 0.016073568 0.027108666 4285689119
0.01962404 0.013131438 0.029694151 4285558304
0.023201108 0.0064528678 0.035668012 4285361699
-0.0079584122 0.012406738 0.028974634 4285231138
-0.0063023046 0.013954552 0.027488474 4285427999
-0.004803136 0.016252654 0.025324475 4285820699
-0.0028747022 0.016299253 0.025197089 4286083348
-0.0009464547 0.016345972 0.025069799 4286148628
0.001289703 0.014892207 0.02629884 4285557793
0.0032230169 0.014939258 0.026171371 4285559068
0.0051561445 0.014986368 0.02604397 4285559068
0.0070890784 0.015033597 0.02591667 4285624604
0.0088568777 0.015830895 0.025112055 4285755928
0.010451369 0.017378112 0.02363063 4285951769
0.012205124 0.018175265 0.022827087 4286148374
0.01429943 0.017472783 0.023377683 4286213654
0.016750589 0.015271047 0.025281403 4286149394
0.019396387 0.012320129 0.027860615 4286083603
0.023332514 0.0041227024 0.035172757 4285426979
-0.0084267855 0.013108479 0.025788475 4285230884
-0.0069219284 0.015413163 0.023628898 4285427234
-0.0051419735 0.01621226 0.022824602 4285492259
-0.0030705929 0.015506184 0.023374449 4285623329
-0.0012964383 0.016305333 0.022570679 4285360934
0.00078003109 0.015599592 0.023120351 4285426723
0.0025483593 0.016398819 0.022317126 4285493279
0.0046298876 0.015693394 0.022866609 4285493533
0.0067166835 0.01498819 0.023415809 4285493534
0.0086438358 0.015035396 0.023288978 4285493279
0.010403216 0.015834788 0.022486631 4285755928
0.012156941 0.016634131 0.021684719 4286281739
0.014078029 0.016681476 0.021558503 4286084114
0.016174652 0.01597699 0.022107411 4286019088
0.018454976 0.014520844 0.023330962 4285492768
0.022376634 0.0062990915 0.030626226 4285426979
-0.008333616 0.010803748 0.025315356 4286146844
-0.0066829547 0.012360135 0.023836102 4286081054
-0.0050433576 0.013916427 0.022357643 4285753124
-0.0031179041 0.013962997 0.022230484 4285687588
-0.0011926368 0.014009682 0.022103423 4285425959
0.00057855994 0.014811067 0.02130156 4285294633
0.0025007427 0.014857879 0.02117485 4285361189
0.0042633787 0.015659267 0.020373717 4285295908
0.0065066069 0.01419734 0.021596013 4285361699
0.008430928 0.014244495 0.021469381 4285295653
0.010522559 0.013537446 0.022016807 4285361698
0.012278959 0.014339069 0.021216366 4285295653
0.014029711 0.015140651 0.020416373 4285295653
0.015774794 0.015942177 0.019616811 4285295908
0.018227801 0.013727592 0.021510743 4285361699
0.021964774 0.0062356871 0.028115373 4285230118
-0.0079601482 0.0069806147 0.026187547 4286277149
-0.0064442642 0.0092987008 0.024037009 4286408473
-0.0046535432 0.010102453 0.023235271 4286408474
-0.0025716573 0.0093923062 0.023781208 4286408473
-0.00078673661 0.010196133 0.02298001 4286277915
0.00099256635 0.010999914 0.022179257 4286147098
0.0026096478 0.012560466 0.020705851 4286016793
0.004534252 0.01260745 0.02057907 4286345489
0.006620653 0.011897922 0.021125084 4286149649
0.0085475817 0.011945158 0.020998295 4286215694
0.010474302 0.011992499 0.020871602 4286150414
0.012400813 0.012039922 0.020744981 4286085134
0.01398135 0.013600087 0.019274442 4285690393
0.015726395 0.014403811 0.01847652 4285427744
0.017822437 0.013695093 0.019022331 4285295654
0.021191075 0.0076935664 0.024268193 4285229609
0.0017136708 0.005657997 0.024390744 4286080544
0.0031879023 0.0079821609 0.022248229 4285949474
0.0049640387 0.0087882821 0.021449475 4285818914
0.0068965033 0.0088355709 0.02132226 4285688098
0.0089933947 0.0081242472 0.021866063 4285623328
0.010928169 0.0081717931 0.021738844 4285623329
0.012862727 0.0082194321 0.021611711 4285689373
0.01462426 0.0090256874 0.020814288 4285623583
0.016380139 0.0098318905 0.020017302 4285754654
0.018486895 0.0091212597 0.020560786 4285688863
0.021322787 0.0053775609 0.023783443 4285492258
0.0034527406 0.0049088895 0.022438204 4286146589
0.0053934157 0.004956305 0.022310389 4285753634
0.0071720406 0.005764829 0.021513147 4285688609
0.0094387829 0.0042905249 0.022724332 4285689374
0.011214294 0.0050991289 0.021927482 4285558048
0.013154171 0.005146917 0.021800017 4285492514
0.01474835 0.006716229 0.02033505 4285492513
0.016682379 0.0067640692 0.020208111 4285492258
0.018972583 0.0052908137 0.021418108 4285426469
0.021635264 0.0022969544 0.023963885 4284966960
0.0019247532 0.0010163914 0.02341851 4286211613
0.0037173033 0.0018271916 0.022621861 4286146589
0.0056632906 0.001874771 0.022493724 4285622819
0.0076090991 0.0019224193 0.022365654 4285492003
0.0097192302 0.0012070872 0.022905363 4285426723
0.01150012 0.0020180214 0.022109792 4285295909
0.01327537 0.0028289035 0.021314656 4285427489
0.015044972 0.0036397539 0.020519974 4285296163
0.01715973 0.0029249191 0.021059664 4285230883
0.019457839 0.0014475696 0.022265876 4284902444
0.0018765107 -0.00054500438 0.022261074 4286277404
0.0038252845 -0.00049746968 0.022132671 4285949983
0.0056148544 0.00031557307 0.021337938 4285360678
0.0073988065 0.001128573 0.020543648 4285295654
0.0095060319 0.0004110001 0.021081934 4285230628
0.011284143 0.0012240633 0.020288179 4285165858
0.013056621 0.0020370819 0.019494867 4285165604
0.014650844 0.0036151465 0.018036412 4284968743
