# .PCD v0.7 - Point Cloud Data file format
VERSION 0.7
FIELDS x y z rgba
SIZE 4 4 4 4
TYPE F F F U
COUNT 1 1 1 1
WIDTH 960
HEIGHT 1
VIEWPOINT 0 0 0 1 0 0 0
POINTS 960
DATA ascii
-0.024631958 -0.0062461682 0.01672372 4288691488
-0.0086739622 -0.0082298629 0.017718811 4290001933
-0.0068584085 -0.0074058603 0.016937701 4289672728
-0.0051877424 -0.0058028325 0.015498778 4289409058
-0.0035281107 -0.004199909 0.014060587 4288621873
-0.03009579 -0.011060115 0.018575411 4288035373
-0.028565999 -0.0078885499 0.015816679 4290522134
-0.026839532 -0.0062811691 0.01437646 4290914324
-0.024788044 -0.0070194537 0.014912207 4290325783
-0.022845946 -0.0069757225 0.014789449 4289803289
-0.020903956 -0.0069318386 0.014666814 4288955158
-0.010933667 -0.0082735429 0.015369337 4289674004
-0.008719407 -0.0097915214 0.016560894 4289869333
-0.0070404336 -0.0081840595 0.015124604 4289671964
-0.0053724982 -0.0065767383 0.013689093 4291240723
-0.0035736635 -0.0057506505 0.012910796 4290716954
-0.0020697638 -0.0033624861 0.010820357 4290062114
-0.030658506 -0.0087026823 0.014129613 4288820008
-0.028822765 -0.0078751296 0.013349457 4290913558
-0.026992559 -0.0070476104 0.012569791 4290455324
-0.024720129 -0.0093561616 0.014417579 4291306003
-0.022890117 -0.0085284067 0.013638103 4290717719
-0.020830892 -0.0092684152 0.014171874 4290260248
-0.019366879 -0.0060890373 0.011424216 4289868569
-0.017433442 -0.0060451068 0.011302298 4288103459
-0.013182074 -0.0083078695 0.013025917 4291244549
-0.010978837 -0.0098305782 0.014214836 4289802268
-0.0090322979 -0.0097858915 0.014092434 4290718228
-0.0074952394 -0.0073906984 0.012004495 4289801759
-0.0055571459 -0.0073459893 0.011882788 4289801758
-0.0037610903 -0.0065178312 0.011106327 4289409058
-0.0021152347 -0.0049064672 0.0096755885 4289998618
-0.034291714 -0.012701001 0.015192686 4287839024
-0.032543253 -0.011084806 0.013757335 4289343268
-0.031013191 -0.007895967 0.011011431 4289474083
-0.029185709 -0.0070664464 0.010233471 4289408549
-0.02736377 -0.0062368782 0.0094559174 4289800993
-0.025099847 -0.0085521648 0.011299377 4290848279
-0.023048893 -0.0092946561 0.01183196 4289735968
-0.020992596 -0.010036951 0.012364339 4289736479
-0.019171063 -0.0092069237 0.011587158 4290456599
-0.017355092 -0.0083769318 0.010810468 4290325783
-0.015419193 -0.0083328309 0.010688484 4289214238
-0.01348342 -0.0082886256 0.010566587 4289933339
-0.011416838 -0.0090300422 0.011098718 4289866783
-0.0097459182 -0.007414178 0.0096693244 4290063643
-0.0080860443 -0.005798392 0.0082406774 4290782998
-0.006158974 -0.00575394 0.0081196595 4289540128
-0.0040902123 -0.0064949049 0.0086520296 4289540638
-0.0024498329 -0.0048792465 0.007224849 4289999639
-0.036380954 -0.01351413 0.013506101 4287184949
-0.034826133 -0.010316286 0.010764914 4288885543
-0.032788567 -0.01106186 0.011296278 4289605154
-0.031160206 -0.0086530205 0.0092112627 4290717209
-0.029441915 -0.007032874 0.0077811894 4289670433
-0.0277346 -0.0054128887 0.0063519483 4289212199
-0.025702823 -0.0061580958 0.0068840473 4289670433
-0.0236657 -0.0069030803 0.0074158818 4290782743
-0.021388702 -0.009224344 0.0092538521 4289409314
-0.019575421 -0.0083923638 0.0084788576 4289606174
-0.017644998 -0.0083485115 0.0083571244 4289933084
-0.016090974 -0.0059403284 0.006277489 4290456854
-0.014040809 -0.006684415 0.006808951 4289998108
-0.011985317 -0.007428281 0.0073401504 4290128414
-0.010191716 -0.0065961564 0.006566837 4289539618
-0.0084036887 -0.0057640662 0.0057939435 4290848534
-0.0063431598 -0.0065074665 0.0063250861 4291044884
-0.0044190921 -0.0064629586 0.0062043495 4290849554
-0.0027841479 -0.0048431093 0.0047807922 4291046924
-0.0367104 -0.012697621 0.010393186 4287838258
-0.035163671 -0.0094912425 0.0076589943 4289277734
-0.033134483 -0.01023923 0.0081893057 4289212453
-0.031307101 -0.0094054332 0.0074144625 4289997599
-0.029804178 -0.0061997091 0.0046833609 4290978838
-0.028105065 -0.0045755208 0.0032578283 4290979094
-0.026193421 -0.0045325682 0.0031369259 4291175954
-0.02393844 -0.0068609612 0.0049713538 4290586903
-0.021784432 -0.0083984314 0.0061532301 4289409314
-0.019619625 -0.0099355653 0.0073345681 4289474849
-0.017811999 -0.0091013731 0.0065615964 4289540128
-0.016135287 -0.0074769901 0.0051380736 4289801758
-0.014341507 -0.0066429367 0.0043661804 4289670433
-0.012291662 -0.0073890993 0.0048961234 4289735968
-0.010370038 -0.00734499 0.0047752853 4289474338
-0.0084485523 -0.0073007653 0.0046545439 4290128413
-0.0063882284 -0.0080463327 0.0051840912 4290586904
-0.0044642948 -0.0080018286 0.005063362 4290849809
-0.0028293505 -0.0063776383 0.0036430345 4290392338
-0.036658056 -0.015040174 0.0098955296 4287249463
-0.035010435 -0.01261807 0.0078187659 4288819754
-0.033177625 -0.011782147 0.0070451437 4289081383
-0.031453859 -0.010153274 0.0056211245 4289211943
-0.029741071 -0.0085246079 0.0041979016 4290128158
-0.028039265 -0.0068959864 0.0027754516 4289997598
-0.026125051 -0.0068529677 0.0026543946 4290325274
-0.023982096 -0.008395182 0.0038337014 4289671199
-0.021828361 -0.0099369874 0.0050123748 4289278498
-0.019903556 -0.0098933848 0.0048909062 4289736478
-0.01810145 -0.0090571921 0.0041199368 4290063644
-0.016430207 -0.0074285967 0.0026999847 4291175444
-0.014513914 -0.0073848404 0.0025793114 4291175188
-0.012467001 -0.008133241 0.003107822 4291044628
-0.010414768 -0.0088814106 0.0036360822 4290259483
-0.0084934197 -0.0088371746 0.0035153595 4289932319
-0.0065722093 -0.0087928474 0.003394716 4289735968
-0.004651133 -0.0087484159 0.0032741618 4289736989
-0.0028745681 -0.0079118917 0.0025054826 4288232488
-0.03670112 -0.01659153 0.0087450836 4287706935
-0.03505348 -0.014162897 0.0066731754 4288361009
-0.033220761 -0.013324811 0.0059011686 4288100654
-0.031497031 -0.011691597 0.0044803801 4288297004
-0.02978427 -0.010058569 0.0030604065 4289212198
-0.028082494 -0.0084256046 0.0016411869 4289670433
-0.026280053 -0.0075877197 0.00087145157 4289539874
-0.024254456 -0.0083394796 0.0013991687 4289670688
-0.022340596 -0.0082962178 0.0012783213 4289474339
-0.020187221 -0.009842312 0.0024539088 4289670433
-0.018390644 -0.0090040714 0.001684905 4289866784
-0.016349129 -0.0097550042 0.002211967 4290193694
-0.014686197 -0.0081221014 0.00079581002 4290259484
-0.012642197 -0.0088727996 0.0013229195 4291175445
-0.01085972 -0.0080343578 0.00055512041 4290193949
-0.0088105351 -0.0087847076 0.0010820748 4289670689
-0.0068949014 -0.0087405108 0.00096178101 4289670689
-0.0048378371 -0.009490394 0.0014883778 4289212963
-0.0030640438 -0.0086517893 0.00072146906 4288363048
-0.036553718 -0.019737486 0.0088910218 4287510584
-0.034802638 -0.018099625 0.0074715777 4288622639
-0.033062533 -0.016461831 0.0060528866 4288296748
-0.031333383 -0.014824207 0.0046350188 4287970094
-0.029721335 -0.012389475 0.0025704917 4288689194
-0.028125715 -0.0099549741 0.00050710794 4288951079
-0.026434936 -0.00831783 -0.00090804882 4289605154
-0.024640847 -0.0074778246 -0.0016755397 4289670178
-0.02273529 -0.0074347863 -0.0017958898 4289735713
-0.020710111 -0.0081884805 -0.0012695775 4289997598
-0.018802039 -0.0081451377 -0.0013899021 4290913559
-0.017019257 -0.0073049311 -0.0021563382 4289212199
-0.015242048 -0.0064647235 -0.0029223291 4288754474
-0.013209146 -0.0072177863 -0.0023961652 4289081638
-0.011304267 -0.0071740812 -0.0025159644 4290586649
-0.0091273934 -0.0087232534 -0.0013446198 4289866783
-0.0073561221 -0.0078827171 -0.002109891 4289867038
-0.0053074136 -0.0086350031 -0.0015844125 4289409314
-0.0036860928 -0.006998077 -0.0029941776 4289149468
-0.036596887 -0.021292709 0.0077377087 4287640888
-0.034747951 -0.020450033 0.0069678179 4288360754
-0.033105776 -0.018008359 0.0049060457 4288034864
-0.031273313 -0.017165817 0.0041373721 4288100399
-0.029658511 -0.014724499 0.0020775259 4288296748
-0.027951345 -0.013082762 0.00066447537 4288035119
-0.02658968 -0.0090433806 -0.0026841676 4288362283
-0.024798404 -0.0082012834 -0.0034498782 4289147174
-0.023012675 -0.0073591135 -0.0042151641 4289081638
-0.021112807 -0.0073160874 -0.0043350691 4289474339
-0.019335456 -0.0064739389 -0.0050996281 4290913814
-0.017438523 -0.0064307246 -0.0052191573 4290848023
-0.015669543 -0.0055885511 -0.0059830276 4290521114
-0.013645016 -0.0063439924 -0.0054579629 4290913559
-0.01188172 -0.0055017117 -0.0062212986 4290979094
-0.009443976 -0.0086529199 -0.0037646575 4290063134
-0.0075394996 -0.0086089838 -0.0038842531 4290063134
-0.0056351535 -0.0085649304 -0.0040037516 4289801248
-0.004163444 -0.0061252723 -0.0060533937 4289736224
-0.0024144202 -0.0052827802 -0.0068154316 4289605663
-0.00052137673 -0.0052386792 -0.0069339909 4288953374
-0.036640048 -0.022847667 0.0065845908 4287444794
-0.034791209 -0.022002842 0.0058163074 4288426033
-0.032847323 -0.021959648 0.0056930087 4287903794
-0.031110078 -0.020313099 0.0042810584 4287904049
-0.0294898 -0.017865192 0.0022257469 4287904049
-0.027885944 -0.01541748 0.00017152959 4288231469
-0.026187055 -0.013771459 -0.0012376718 4287970094
-0.024613317 -0.01132417 -0.0032897952 4288950823
-0.022939116 -0.0096784923 -0.0046972795 4289212964
-0.0212759 -0.0080328817 -0.0061040083 4289016359
-0.019501343 -0.0071886405 -0.0068667866 4289474594
-0.017607272 -0.007145511 -0.0069861501 4289932063
-0.015713323 -0.007102252 -0.0071054082 4290455579
-0.013819486 -0.007058912 -0.007224597 4290717209
-0.011925776 -0.0070154313 -0.0073436713 4290193949
-0.0098962449 -0.0077727288 -0.0068203858 4289866784
-0.0078614019 -0.0085297935 -0.0062973527 4290063134
-0.0059626289 -0.0084858704 -0.0064165029 4289931808
-0.0043521859 -0.0068405299 -0.0078191385 4290913814
-0.0027527809 -0.0051952815 -0.0092210341 4290848534
-0.00071575493 -0.005951928 -0.008697792 4290259993
0.0011742935 -0.0059078075 -0.008816096 4288690724
-0.036778256 -0.023598412 0.0047884095 4287836728
-0.034834456 -0.023555376 0.0046650008 4288295474
-0.03289073 -0.023512207 0.0045416937 4287707699
-0.031050291 -0.022665121 0.0037757657 4287707443
-0.029427264 -0.020210601 0.0017250776 4287969584
-0.027711991 -0.01855994 0.00031794375 4288231214
-0.026007682 -0.016909475 -0.0010883859 4288035373
-0.024314355 -0.015259135 -0.0024939305 4288231723
-0.022748839 -0.012805407 -0.0045406073 4288558634
-0.021199759 -0.010351921 -0.0065861503 4289736224
-0.019422561 -0.0095054461 -0.0073474785 4288951079
-0.017650899 -0.008658981 -0.0081083719 4289670433
-0.015629377 -0.0094189718 -0.0075864503 4289735969
-0.013863392 -0.0085724005 -0.00834681 4289866529
-0.01196982 -0.0085289348 -0.0084658843 4289866529
-0.010076355 -0.008485375 -0.0085848793 4289801248
-0.0080444328 -0.0092446916 -0.0080632865 4290390299
-0.0062898211 -0.0083979536 -0.0088226143 4289932063
-0.0048288703 -0.0059454897 -0.01086187 4290455579
-0.0032376125 -0.0042961426 -0.012259994 4290652183
-0.0010594726 -0.0058578337 -0.011098061 4290914324
0.00097720325 -0.0066165105 -0.010576373 4289867293
0.0030191839 -0.0073749898 -0.010054888 4290456599
0.0042782798 -0.004120565 -0.012730345 4290326804
-0.035170842 -0.02268943 0.00158941 4286790973
-0.033135001 -0.023452453 0.0021079318 4287510584
-0.031196941 -0.0234093 0.0019850694 4287576629
-0.029258963 -0.023366004 0.0018623183 4287969584
-0.027538266 -0.021710943 0.00045809522 4287838769
-0.025717221 -0.020861769 -0.00030473061 4288100908
-0.0241298 -0.018401155 -0.002348037 4288100908
-0.022442035 -0.016746471 -0.0037499066 4288689449
-0.020884741 -0.014286306 -0.005791137 4289343779
-0.018977247 -0.014242998 -0.005911442 4288820264
-0.017444652 -0.011783153 -0.0079509374 4288558634
-0.01554554 -0.011739809 -0.0080705453 4289343014
-0.014037654 -0.0092803426 -0.010108272 4289866273
-0.012013838 -0.010042222 -0.009587938 4289866273
-0.010256328 -0.0091934744 -0.010346002 4290585884
-0.0082273297 -0.0099550169 -0.0098258313 4290389788
-0.0064755008 -0.0091061983 -0.010583389 4289932063
-0.0050172061 -0.0066472841 -0.012617635 4289081638
-0.0034286678 -0.0049936781 -0.014012372 4289409059
-0.0012534931 -0.0065597733 -0.012853479 4289997853
0.00078027695 -0.0073207123 -0.01233324 4289736224
0.0028193295 -0.0080814064 -0.011813244 4289540129
0.0042334422 -0.0056230947 -0.013844332 4290063643
0.0059516355 -0.0047743442 -0.014599251 4290065684
-0.033780515 -0.020151079 -0.0028779814 4285875268
-0.031755846 -0.020916384 -0.0023602636 4287576118
-0.029619988 -0.022489604 -0.0012034513 4287707443
-0.027473323 -0.024062378 -4.7247391e-05 4288034863
-0.025538381 -0.024018921 -0.00016963435 4288035629
-0.023831494 -0.022359585 -0.0015695728 4288362538
-0.022135593 -0.020700339 -0.0029687744 4289409569
-0.020450667 -0.019041257 -0.0043671448 4288558633
-0.018654574 -0.018190028 -0.0051264474 4288297004
-0.017238643 -0.014915856 -0.0077997549 4288493099
-0.015589405 -0.013257207 -0.0091956686 4288493098
-0.014211774 -0.0099837035 -0.011866411 4289277479
-0.012456939 -0.009132944 -0.012622764 4289800739
-0.010571923 -0.0090895873 -0.012741236 4290520604
-0.0085485391 -0.0098534618 -0.012222351 4290258973
-0.0066610388 -0.0098098367 -0.012340821 4290913559
-0.0053493008 -0.006537348 -0.015006976 4289539618
-0.0037662089 -0.00487947 -0.016398175 4289212708
-0.0017460808 -0.0056430055 -0.015878778 4289539873
0.00058348477 -0.0080203665 -0.014086738 4290652439
0.0024648681 -0.007976382 -0.01420445 4289932574
0.0041886047 -0.0071254214 -0.014958167 4289932574
0.0059067532 -0.0062745204 -0.015711483 4289605918
0.0074563622 -0.0046168501 -0.017100157 4290390554
0.0091606155 -0.0037660869 -0.017852465 4289671709
0.0113644 -0.0053352099 -0.016698111 4288561948
-0.027733926 -0.023987399 -0.0024683063 4287183928
-0.025693372 -0.024754185 -0.0019529604 4287838258
-0.023875315 -0.023900639 -0.0027122942 4288820009
-0.022179432 -0.022237051 -0.004108266 4288754474
-0.020255797 -0.022193488 -0.004229669 4288296493
-0.018576439 -0.020530108 -0.0056244 4288296493
-0.017157666 -0.017247193 -0.0082914308 4288165679
-0.015633255 -0.014774402 -0.010320643 4288231469
-0.014125258 -0.012301923 -0.012348699 4288362029
-0.012500748 -0.01063929 -0.013739673 4288427563
-0.010615848 -0.010595961 -0.013858154 4289212199
-0.0087310821 -0.010552526 -0.013976548 4289604388
-0.0071286708 -0.0088900998 -0.015365833 4290717209
-0.0055372864 -0.007227811 -0.016754415 4290520858
-0.0038103387 -0.0063750362 -0.017507039 4291044628
-0.0017903969 -0.0071407408 -0.01698924 4291044628
0.0003868565 -0.0087154619 -0.015836855 4291044629
0.0022654012 -0.0086715734 -0.015954413 4289735968
0.0043012351 -0.0094366176 -0.015437394 4289736479
0.0058618858 -0.0077744918 -0.016823564 4289997598
0.0075744018 -0.0069214134 -0.017574884 4290128414
0.0091157407 -0.0052595772 -0.018959725 4289605664
0.011150971 -0.0060242759 -0.0184424 4289213474
-0.026070509 -0.023860285 -0.0050044991 4287576374
-0.02414684 -0.023816969 -0.0051260917 4288819243
-0.022456419 -0.022149231 -0.0065184631 4288034864
-0.020419069 -0.022917904 -0.0060042636 4287969584
-0.018986497 -0.01962612 -0.008665802 4288100399
-0.017076805 -0.019582646 -0.0087861596 4288100399
-0.015549608 -0.017103363 -0.01081069 4288427563
-0.013778493 -0.016247964 -0.011564969 4288296748
-0.012278721 -0.013769059 -0.013587588 4288427563
-0.010659777 -0.012102095 -0.014974896 4289605154
-0.0090518035 -0.010435352 -0.016361415 4289016104
-0.0073137805 -0.009580357 -0.017113274 4289473573
-0.0057251081 -0.0079137981 -0.01849846 4289735969
-0.0040009469 -0.0070588933 -0.019249279 4289997598
-0.0022823364 -0.0062040603 -0.019999707 4290193948
-0.00011350214 -0.007783276 -0.018850066 4289670689
0.0019114166 -0.00855086 -0.018334063 4289605408
0.0039416403 -0.0093182847 -0.017818291 4290063644
0.0054968745 -0.0076519204 -0.019200949 4290324763
0.0070410967 -0.005985789 -0.020582829 4291044374
0.0087398216 -0.0051308032 -0.021331549 4290456088
0.010937698 -0.0067088297 -0.020183347 4290914324
0.012804359 -0.0066646785 -0.020299761 4289475358
0.014844552 -0.0074312808 -0.019784248 4289150489
-0.02284966 -0.021238128 -0.0095559191 4287510838
-0.020701434 -0.022823498 -0.0084091341 4287837749
-0.019030277 -0.021151576 -0.0097969277 4287903794
-0.016996048 -0.021922288 -0.0092839953 4288034863
-0.015338685 -0.020250492 -0.010670705 4288100399
-0.013432074 -0.020206904 -0.010790732 4288427563
-0.011924099 -0.017721247 -0.012809059 4288951334
-0.010432545 -0.015235938 -0.014826259 4288951334
-0.0089574382 -0.012750847 -0.016842378 4288754984
-0.0074987561 -0.010266021 -0.018857382 4288885544
-0.0059127919 -0.0085952487 -0.020239146 4288819753
-0.0043378323 -0.0069246143 -0.021620132 4289800993
-0.0026247352 -0.0060676849 -0.022368634 4290193694
-0.000613451 -0.0068379138 -0.021853434 4289735969
0.0014031455 -0.0076078884 -0.021338543 4289932319
0.0035823286 -0.0091910474 -0.020192662 4290324763
0.0052921697 -0.0083338749 -0.020940648 4290324764
0.0068336949 -0.0066634603 -0.022319125 4290259228
0.0083641931 -0.0049931724 -0.023696886 4289867039
0.010556407 -0.0065757073 -0.022551509 4290456088
0.012417533 -0.0065317098 -0.022667594 4291045139
0.014452122 -0.0073006442 -0.02215337 4289736733
0.016139343 -0.0064434865 -0.022899557 4290457618
0.018537134 -0.0088379122 -0.021125738 4289608214
-0.020983543 -0.022720143 -0.010807442 4286856764
-0.019074041 -0.022676818 -0.010927893 4287969074
-0.016915392 -0.024266083 -0.0097848363 4288034608
-0.015127994 -0.023406127 -0.010537029 4288492843
-0.013346139 -0.022546221 -0.011288738 4289147428
-0.011968158 -0.019237872 -0.013933592 4288689703
-0.010341052 -0.017562138 -0.015314953 4288427563
-0.0088631622 -0.015070481 -0.017326413 4288558889
-0.0072607547 -0.013395091 -0.018706055 4288297003
-0.0059566647 -0.010088047 -0.021345973 4288493098
-0.0042353347 -0.0092288982 -0.022093406 4289212453
-0.0028177425 -0.0067382464 -0.024100794 4289735714
-0.0009611845 -0.0066950042 -0.024217075 4289932064
0.00089526176 -0.0066516567 -0.024333267 4289932319
0.0030660704 -0.0082394173 -0.023190064 4290521113
0.004767701 -0.0073802201 -0.023935962 4290782744
0.0064637661 -0.0065211048 -0.024681402 4289016359
0.0081542581 -0.0056620594 -0.025426449 4289147429
0.010343499 -0.0072489753 -0.024284165 4289539874
0.012201801 -0.0072050858 -0.024400106 4289997853
0.014407076 -0.0087915063 -0.023258662 4289867293
0.016446777 -0.0095624365 -0.02274633 4289671199
0.019028701 -0.012778368 -0.020349357 4289540638
0.02145049 -0.015178683 -0.018581837 4288100908
0.024072848 -0.018393518 -0.016187282 4287643694
-0.017208513 -0.024158474 -0.012179102 4287445303
-0.01529935 -0.024114955 -0.012299381 4288427054
-0.013390291 -0.024071325 -0.012419572 4288230959
-0.01174676 -0.022390986 -0.013798822 4288165678
-0.01011423 -0.020710735 -0.015177332 4288296493
-0.0084926859 -0.019030692 -0.016555045 4288362029
-0.0068821274 -0.017350741 -0.01793202 4288231214
-0.0055697486 -0.014034862 -0.020565953 4288231214
-0.0039866343 -0.01235535 -0.02194106 4288427563
-0.0025635287 -0.0098581109 -0.023943914 4288493098
-0.001005128 -0.0081789782 -0.025317332 4289081383
0.00085119158 -0.008135681 -0.025433552 4289212453
0.0025502145 -0.0072745178 -0.026177704 4289997344
0.0047233403 -0.0088664517 -0.025037866 4290520859
0.0062567517 -0.0071875863 -0.026409408 4290782744
0.0081098154 -0.0071439994 -0.026525153 4290586393
0.0099627227 -0.0071003204 -0.026640816 4290128414
0.011986278 -0.0078739971 -0.026129236 4290848534
0.014188595 -0.0094648572 -0.024990859 4290193949
0.016577803 -0.011872632 -0.023226282 4289800993
0.019340992 -0.015914461 -0.020209268 4288035118
0.024211019 -0.020727552 -0.016685463 4286399549
0.026296109 -0.021499325 -0.016177388 4287118393
0.028196678 -0.021453893 -0.01629556 4287379258
-0.017750345 -0.022400644 -0.015823718 4286399293
-0.015724976 -0.02317806 -0.015314991 4287576373
-0.013694275 -0.023955185 -0.014806546 4287642164
-0.011790898 -0.023911595 -0.014926312 4288165169
-0.010023002 -0.023047475 -0.015673772 4287969073
-0.0083987415 -0.021362986 -0.017048469 4288165423
-0.0069262721 -0.018858373 -0.019049859 4288362029
-0.0054702349 -0.016354064 -0.021050084 4288427308
-0.00373815 -0.015490368 -0.021794999 4288231214
-0.002160579 -0.013806571 -0.023166476 4288558889
-0.00074568391 -0.011302929 -0.025163909 4288820263
0.00096154958 -0.010439487 -0.025907099 4288950568
0.0025061294 -0.0087562231 -0.027276261 4289800993
0.0043593496 -0.0087128123 -0.027392151 4290258974
0.0058873519 -0.0070296982 -0.028760172 4290390299
0.0077348724 -0.0069862641 -0.028875589 4291175444
0.0095822439 -0.006942763 -0.028990941 4290848023
0.011770897 -0.0085383961 -0.027855022 4290586393
0.014143683 -0.010953229 -0.026094308 4289735459
0.016708724 -0.014187016 -0.023709344 4289343013
0.01965306 -0.019059133 -0.020075468 4287118903
0.024164811 -0.022246471 -0.017811531 4286268478
0.02568876 -0.020562783 -0.019178804 4285940804
-0.01425774 -0.022184705 -0.018440025 4286595133
-0.01223278 -0.022964032 -0.017932761 4287968564
-0.010337796 -0.02292056 -0.018051943 4287903539
-0.0087189674 -0.021231918 -0.019423041 4288099888
-0.0071111359 -0.019543389 -0.020793419 4288165678
-0.0055142827 -0.017855057 -0.022162993 4288362029
-0.0036360696 -0.017811535 -0.022280795 4288165679
-0.0020557866 -0.016123364 -0.02364924 4288231469
-0.0003348738 -0.015257585 -0.024391709 4288428073
0.0013804808 -0.014391866 -0.025133777 4288689449
0.0026191249 -0.011059853 -0.02774989 4289343779
0.0043151975 -0.010194412 -0.028490623 4288950824
0.0056807324 -0.0076850131 -0.030479904 4289147174
0.0075254366 -0.0076416759 -0.030595167 4289735714
0.0093699992 -0.0075982576 -0.030710356 4289669924
0.011555687 -0.0091983434 -0.02957751 4289931553
0.014098801 -0.012441481 -0.027197672 4288623148
0.016663499 -0.015684005 -0.024819179 4286595644
0.02203913 -0.022988871 -0.019442668 4286137409
0.023566008 -0.021300901 -0.020806914 4286071874
-0.010922797 -0.02113523 -0.021672653 4286725439
-0.0093148462 -0.019442512 -0.023039851 4287641398
-0.0072958358 -0.020223867 -0.02253362 4287838258
-0.0055583045 -0.019355848 -0.02327575 4288558634
-0.0035341009 -0.020136889 -0.022769701 4288231468
-0.0019510686 -0.018444378 -0.024135059 4288428073
-0.00022751093 -0.017576331 -0.024876131 4288755239
0.0013362542 -0.015884073 -0.026240136 4289082404
0.0028890222 -0.014191978 -0.027603384 4289016869
0.0042710677 -0.01167583 -0.029588966 4288297004
0.0056366846 -0.0091599487 -0.03157343 4288754473
0.0074812919 -0.0091166366 -0.031688705 4289211943
0.0093257502 -0.0090732444 -0.031803906 4289146663
0.01168178 -0.011501634 -0.030051935 4289211944
0.014227264 -0.014753453 -0.027678741 4286791739
0.019561686 -0.022079056 -0.022314362 4286202943
0.021448888 -0.022034267 -0.022431942 4286006338
-0.0093585849 -0.020943118 -0.024152495 4287052859
-0.0073397681 -0.021726677 -0.023647888 4287968819
-0.0053156279 -0.022510016 -0.023143539 4288820009
-0.0034322143 -0.022466443 -0.023261722 4289016614
-0.0016977116 -0.021596143 -0.024001917 4288951589
3.1262636e-05 -0.0207259 -0.024741711 4288820518
0.0016004592 -0.019029152 -0.026102886 4288623913
0.0030017644 -0.016506186 -0.028084861 4288623914
0.0043866113 -0.013983472 -0.030065782 4288427819
0.0057550445 -0.011461049 -0.032045607 4288362283
0.0077673271 -0.012243994 -0.031539943 4289016359
0.0097848997 -0.01302667 -0.03103458 4288688939
0.012319311 -0.016287537 -0.02866723 4287315254
0.014702052 -0.018721711 -0.026921773 4286268478
0.018980093 -0.021110997 -0.025294395 4286071874
-0.0055029728 -0.023185959 -0.024880156 4287380023
-0.0034764186 -0.023971327 -0.024377512 4287838258
-0.0015932471 -0.0239277 -0.024495633 4287838768
-1.3038516e-05 -0.022226518 -0.025854317 4288231214
0.0017103255 -0.021354171 -0.0265921 4288231214
0.0029575527 -0.017996 -0.029189439 4288623658
0.0045020729 -0.016295349 -0.030545739 4288427308
0.0060355961 -0.014594907 -0.031901244 4288623914
0.0080531463 -0.015379858 -0.03139757 4288623658
0.010076001 -0.016164623 -0.030894181 4288623404
0.012615465 -0.019434078 -0.028533621 4286661178
0.01517652 -0.022702953 -0.026174361 4286137408
0.017231561 -0.023486735 -0.025672814 4286202688
-0.0038124323 -0.023814021 -0.026731305 4287446578
-0.0016375333 -0.025432454 -0.025611321 4288492333
-5.7294965e-05 -0.023726977 -0.026966812 4288623404
0.0018200874 -0.023683319 -0.027084447 4289211944
0.003070198 -0.020316452 -0.029675553 4289146918
0.0044579431 -0.017780704 -0.031647008 4289081639
0.0059914961 -0.016075956 -0.032999311 4288689194
0.0080088675 -0.016863123 -0.032497272 4288427564
0.010199219 -0.018480677 -0.031377792 4287773234
0.012741037 -0.021758728 -0.029023891 4287184438
0.014958277 -0.023375485 -0.027905967 4288230958
0.016658857 -0.022500884 -0.02864025 4288296239
-0.00055541098 -0.02272805 -0.029930558 4286202689
0.0013137162 -0.022684611 -0.030047698 4287903283
0.0030260086 -0.02180817 -0.030781548 4288034609
0.004573293 -0.020098874 -0.032131568 4287838258
0.0062717348 -0.019222522 -0.032864451 4288034863
0.0081295073 -0.019179016 -0.032980632 4288034863
0.010154769 -0.019968167 -0.032480624 4286922808
0.0011156723 -0.023343191 -0.031770542 4286267968
0.0029818714 -0.023299769 -0.031887461 4287510584
0.0045291856 -0.021586165 -0.033234276 4287838514
0.0060654953 -0.019872699 -0.034580391 4288100399
0.0079204589 -0.019829288 -0.034696415 4287904303
0.0099428147 -0.020620678 -0.034197915 4286464829
0.0060214549 -0.021355588 -0.035679832 4286987834
0.0077115819 -0.020475155 -0.036408942 4287445559
0.0097310618 -0.021268807 -0.035911892 4286202433
0.0056535453 -0.021159733 -0.038002402 4286922044
0.007338196 -0.020277239 -0.038729616 4287052859
0.017983772 0.0094755013 0.021263422 4281366358
0.019918047 0.0095213261 0.021142848 4282282829
0.02380918 0.0011994112 0.028379316 4282934865
0.014814787 0.013220705 0.01556056 4281044549
0.015695646 0.017844176 0.011435898 4279286833
0.017594457 0.017889189 0.011317557 4280068663
0.020915851 0.011831144 0.01653686 4278635054
0.0250028 0.002722919 0.024421651 4279873334
0.012686238 0.012405762 0.013875697 4280386393
0.013241962 0.01857301 0.0084276944 4280655673
0.014615647 0.020913376 0.0063120318 4279742519
0.016322941 0.021723161 0.0055290046 4280263483
0.018735737 0.019472634 0.0074086548 4279611448
0.025808305 0.0057936274 0.019148074 4280848963
0.010727398 0.010828 0.012858789 4280260169
0.011639155 0.015478151 0.0087515712 4280327233
0.014225528 0.020939479 0.0038649752 4281111613
0.015927337 0.021751357 0.0030838684 4281632324
0.017978966 0.02102861 0.0036311611 4281372223
0.020216219 0.019538963 0.0048419503 4280981053
0.023013644 0.015748249 0.0080430042 4280851003
0.025838032 0.011958262 0.011242446 4281176894
0.029255174 0.005868027 0.016430151 4280914754
0.0090409368 0.016993118 0.0050907391 4280653888
0.010592856 0.018576955 0.0036470355 4280915008
0.012472674 0.018621387 0.0035297782 4278960943
0.014180087 0.019435452 0.0027499232 4278375719
0.015706919 0.021019006 0.0013079438 4278831914
0.017400339 0.021832908 0.00052908529 4278507044
0.02168569 0.019614076 0.0022826619 4280785724
0.023747377 0.018889716 0.0028278739 4280849984
0.026191346 0.016627224 0.0046961312 4280653889
0.029033892 0.012826931 0.007886529 4280718403
0.032679252 0.0059512705 0.01372055 4280978248
0.036569968 -0.0016921917 0.020212848 4282543183
0.0058585703 0.012305843 0.0068542263 4280972128
0.0066263154 0.017754359 0.0021035108 4280915009
0.0081757009 0.019342432 0.0006630905 4281371458
0.009880729 0.02015846 -0.00011511799 4281176383
0.011918984 0.019430825 0.00042953622 4281176639
0.013618194 0.020246895 -0.00034817215 4279938613
0.01548662 0.020291252 -0.00046457443 4278375464
0.017177284 0.021107281 -0.0012416281 4278960944
0.019403204 0.019608675 -3.6593527e-05 4280394044
0.021273755 0.019653315 -0.00015295669 4280719423
0.023144089 0.019698067 -0.00026921183 4280654398
0.024637327 0.021285551 -0.0017055124 4280653888
0.026692979 0.02055903 -0.0011614254 4280133179
0.029529437 0.016747834 0.0020212722 4278894899
0.033179328 0.009852726 0.0078405421 4279089209
0.036877885 0.0029588696 0.013656851 4279675453
0.041029215 -0.0054757632 0.020788603 4280654144
0.0036050677 0.01229113 0.0045258007 4280716363
0.0043869242 0.017755168 -0.0002145716 4279221043
0.0095024183 0.020209508 -0.0025445614 4280982329
0.011535048 0.01947959 -0.0020011591 4281176894
0.013228767 0.020297723 -0.0027768966 4281046588
0.01509165 0.020341946 -0.0028929515 4280720189
0.016954362 0.020386251 -0.0030089337 4280850238
0.018997081 0.019656943 -0.0024658854 4280785213
0.020862095 0.019701479 -0.0025818797 4280784703
0.022541232 0.020519657 -0.0033564148 4280654909
0.024214715 0.021337857 -0.0041305535 4280654653
0.026073664 0.02138249 -0.0042459909 4278503983
0.028320074 0.019880371 -0.0030451361 4279936318
0.03116677 0.016058607 0.00012888387 4279545913
0.033841163 0.013010833 0.0026435363 4279221299
0.037950911 0.004551243 0.0097600501 4278568499
0.041506112 -0.0015874393 0.014900681 4281628498
0.0019746497 0.0091796033 0.0048394944 4280840803
0.0024701282 0.016212309 -0.0012088777 4280849473
0.0037085116 0.019361893 -0.0039606616 4278895409
0.0052472278 0.020958314 -0.0053939437 4279155764
0.011320673 0.01876116 -0.0037672168 4281046078
0.012667589 0.021133626 -0.0058568576 4281111614
0.014871672 0.019625617 -0.0046570692 4280915263
0.016554087 0.02044584 -0.0054303473 4281045824
0.018771388 0.018938268 -0.0042312155 4280915519
0.020267807 0.020534454 -0.005661373 4280849984
0.02212435 0.020578871 -0.0057767788 4280589628
0.023792371 0.021399071 -0.0065489197 4279938104
0.0256458 0.021443589 -0.0066640023 4281371713
0.027692772 0.020712601 -0.0061225435 4281372223
0.029941469 0.019206235 -0.0049250275 4281113143
0.032001615 0.018475717 -0.0043842718 4280460598
0.035278447 0.013093108 9.2074275e-05 4281111359
0.038593084 0.0077114571 0.0045661819 4280914499
0.042774893 -0.00077018514 0.011660531 4281044804
0.046386063 -0.0069247931 0.016784841 4281043528
-0.0001173839 0.0083957631 0.0031749192 4280976464
0.00040049106 0.015448509 -0.0028603398 4280393024
0.0013361052 0.020164186 -0.006920727 4279481398
0.0031889752 0.020207645 -0.0070365481 4281371713
0.0050416812 0.020251179 -0.0071523059 4281632068
0.0072217807 0.018737907 -0.005954518 4280981308
0.0089130625 0.019560156 -0.0067269923 4280850748
0.010767944 0.019604044 -0.0068426589 4280916539
0.012278751 0.021204578 -0.0082707331 4281046334
0.0143025 0.020470237 -0.0077298358 4280915773
0.015976712 0.021292487 -0.0085010221 4280785468
0.018005513 0.020558456 -0.0079602972 4281045569
0.019856729 0.020602675 -0.0080754254 4280980289
0.021707751 0.020646958 -0.0081904875 4280980288
0.023746826 0.019913459 -0.0076502664 4278896174
0.02560015 0.019957973 -0.0077653416 4278765868
0.027646981 0.019224806 -0.0072254939 4281046079
0.029502608 0.019269513 -0.0073406128 4281306689
0.031557165 0.018536689 -0.0068011228 4280393279
0.034222484 0.015471356 -0.0042988029 4280198203
0.037318416 0.01085164 -0.00048939278 4280719424
0.041068561 0.0039005056 0.005280186 4280783429
0.044657372 -0.0022720657 0.010392927 4281040468
-0.00091288239 0.010784684 -0.001228848 4281370694
-0.00010249764 0.016294939 -0.0059371241 4280718913
0.00098078698 0.020242678 -0.0093316725 4278505768
0.0028281063 0.020285996 -0.0094471565 4279156784
0.0046752393 0.020329421 -0.0095625473 4280265014
0.0066859424 0.019592287 -0.0090227621 4280069173
0.0083690137 0.020416537 -0.0097930925 4278896938
0.010384783 0.019679712 -0.0092534833 4280720443
0.012062058 0.020503985 -0.010023335 4280850748
0.014082901 0.019767465 -0.0094838981 4280915773
0.015577048 0.021372082 -0.010907528 4280915518
0.017600253 0.020635782 -0.010368119 4280980033
0.019263163 0.021460073 -0.011136809 4281111104
0.021291405 0.02072406 -0.01059759 4281175618
0.023136698 0.020768298 -0.010712232 4280654909
0.029260367 0.018561838 -0.009096439 4278374444
0.031312048 0.017826764 -0.0085583963 4278634798
0.034176067 0.013972921 -0.0054096212 4279871548
0.037067026 0.010119818 -0.0022624508 4280718659
0.040399373 0.0047081895 0.0021879463 4280979014
0.043139718 0.0016361643 0.0046792873 4281300569
-0.0012575909 0.01084624 -0.0036532395 4281961273
-0.00014674664 0.014805397 -0.0070414976 4281240389
0.0010922328 0.017981024 -0.0097739529 4280784194
0.0027839243 0.018807365 -0.010543422 4279221809
0.0044700131 0.019633668 -0.011312468 4278636328
0.0081581101 0.019720638 -0.011542668 4279938868
0.0098328069 0.020546952 -0.012310798 4280720189
0.011673689 0.02059059 -0.012425528 4280850749
0.013688922 0.019851776 -0.011887354 4280785979
0.015354909 0.020678131 -0.012654754 4281046078
0.017015271 0.021504452 -0.013421734 4279812643
0.021060728 0.020027729 -0.012345904 4280915519
0.023091353 0.019289659 -0.011808404 4281241409
0.024745479 0.02011616 -0.012574752 4280980543
0.026974685 0.018596271 -0.011385808 4280850494
0.029018261 0.017858719 -0.010848887 4280654654
0.031465068 0.015557444 -0.0090097021 4280850749
0.034533091 0.010910861 -0.0052179694 4281045824
0.038042337 0.0047014561 -0.00012634089 4281239879
0.040973403 0.00083849952 0.0030102939 4281955153
-0.0010020509 0.007775398 -0.0034600038 4282288949
0.00026713312 0.01096034 -0.0061879484 4281115184
0.001514405 0.014144853 -0.0089144595 4281177913
0.0028979108 0.016543841 -0.010987297 4281110084
0.0042649284 0.018942496 -0.013058991 4280653889
0.0061062202 0.018985881 -0.013173946 4280719679
0.0077810436 0.019814288 -0.013940528 4280915518
0.0096192658 0.019857774 -0.014055161 4280654909
0.011457331 0.019901345 -0.014169721 4280524858
0.013295211 0.019945001 -0.014284199 4280524604
0.014955722 0.020773465 -0.015049666 4280199224
0.016790509 0.020817226 -0.015163822 4278446354
0.018625103 0.020861065 -0.015277902 4279163414
0.022293761 0.020948948 -0.015505865 4281241409
0.024318561 0.020208621 -0.014969511 4280849984
0.026542105 0.018684236 -0.013783459 4280850238
0.028972514 0.016375938 -0.011948112 4280785214
0.0320158 0.011715651 -0.0081646685 4280915518
0.035293117 0.0062721428 -0.0037336568 4281045824
0.038812608 4.5556575e-05 0.0013444456 4281371203
0.041132927 -0.0014761863 0.0025247973 4282085968
-0.0018962696 0.00071441568 0.00010147924 4284508214
-0.00074677169 0.0046961494 -0.0032730792 4282157624
0.00068064779 0.0071024448 -0.0053439182 4281897524
0.0020915791 0.0095085092 -0.0074136863 4281701683
0.0033279508 0.012701569 -0.01013297 4281310514
0.0047031939 0.015106997 -0.012200356 4281568063
0.0060619488 0.017512077 -0.014266614 4280914499
0.0077367201 0.018342661 -0.015031572 4280457539
0.0094058737 0.019173229 -0.015796164 4280327488
0.011241101 0.019216726 -0.015910551 4280459323
0.012901761 0.020047238 -0.016674437 4279547188
0.014733911 0.020090846 -0.016788492 4281371713
0.016386047 0.020921322 -0.017551722 4281501763
0.01821512 0.02096503 -0.017665455 4281045823
0.022436678 0.018692849 -0.015946463 4281111104
0.024464034 0.017950417 -0.015411945 4280915519
0.026690066 0.016421771 -0.014229266 4280392768
0.02931904 0.013320616 -0.011750685 4280392258
0.032764994 0.0070746969 -0.0066810809 4280586823
0.03645578 4.3636188e-05 -0.00096620386 4281760078
0.039582364 -0.004627551 0.0028024749 4282607699
-0.00049174577 0.0016083755 -0.0030923965 4282026554
0.00094117224 0.0040213671 -0.0051587718 4282157878
0.0023576096 0.0064340923 -0.0072240275 4281702193
0.0037575886 0.0088464674 -0.0092881517 4281376304
0.0049803331 0.012048012 -0.01200003 4280789548
0.0061811432 0.015249142 -0.014710467 4280525623
0.0078585818 0.016081946 -0.015473986 4280587588
0.0093615204 0.017703967 -0.016885445 4280392259
0.01085341 0.019325795 -0.018296095 4280458048
0.012508579 0.020158352 -0.019058015 4279351603
0.014335193 0.020201808 -0.019171743 4279416628
0.016161643 0.020245368 -0.019285379 4281176128
0.017987885 0.020289006 -0.019398941 4281306943
0.019999169 0.019543881 -0.018865146 4280850749
0.022015691 0.01879896 -0.018331615 4280263993
0.024418741 0.016476808 -0.016504386 4280719933
0.02703128 0.013366455 -0.014031332 4280719168
0.030253544 0.0078910328 -0.0096196579 4280718403
0.033911251 0.0008395128 -0.0039173542 4281499214
0.037617639 -0.006210749 0.0017819949 4282345813
-0.00038678199 -0.0006959755 -0.0035659184 4282484534
0.0010489374 0.0017236043 -0.0056276168 4282355249
0.0027786493 0.0025594439 -0.0063930582 4281898289
0.0041868538 0.0049785729 -0.0084528932 4281572398
0.005578585 0.0073973965 -0.01051156 4281049138
0.006790407 0.010607479 -0.013216218 4281311789
0.0084786862 0.011442712 -0.013978796 4280724014
0.0098236799 0.013860751 -0.016034389 4280588098
0.011323735 0.015487092 -0.017442334 4280783429
0.012638494 0.017904582 -0.019495912 4280524093
0.014113739 0.019530559 -0.020902213 4278634798
0.015577942 0.021156313 -0.022307722 4278504493
0.017578371 0.020408662 -0.021774938 4279223594
0.019398905 0.020452248 -0.021888079 4278896173
0.021970704 0.017332075 -0.019419076 4279481654
0.024564028 0.014212506 -0.016951347 4280915263
0.027952105 0.0079302285 -0.011904152 4280849983
0.031383395 0.0016491506 -0.0068596029 4281565769
0.034857988 -0.0046308916 -0.0018176693 4282150228
-0.00028192252 -0.0030044541 -0.0040425025 4283466285
0.001156576 -0.00057827402 -0.0060995123 4282813484
0.0025786087 0.0018475577 -0.0081553934 4282223924
0.004142046 0.0034793429 -0.0095644277 4282223924
0.0056944713 0.0051108953 -0.010972681 4281832499
0.0073991641 0.005948605 -0.011734729 4281701173
0.009098269 0.0067862719 -0.012496365 4281636914
0.010454223 0.0092110708 -0.014547803 4281441073
0.011622198 0.012429085 -0.017243057 4281765689
0.012768276 0.015646668 -0.019936878 4281370693
0.014069356 0.01807042 -0.021984704 4280391748
0.015713222 0.018907214 -0.022742575 4279023673
0.017533846 0.01895071 -0.022855794 4278504238
0.019539364 0.018201092 -0.022324873 4280263993
0.021925732 0.015865384 -0.020506397 4280588863
0.024899721 0.011150995 -0.016757652 4280783938
0.028679028 0.0032654349 -0.010436517 4281108298
0.032120571 -0.0030328166 -0.0054055592 4282150739
0.035208091 -0.0077443076 -0.0016636616 4282476373
-0.00032685697 -0.0045208586 -0.0051668016 4283858728
0.0011117086 -0.0020881593 -0.0072189691 4282943279
0.0026889294 -0.00045187213 -0.0086256824 4282356778
0.004097268 0.0019803289 -0.010675804 4282290479
0.0058102459 0.0028202981 -0.011436835 4281637934
0.0075176209 0.0036602207 -0.012197455 4282092853
0.0097173229 0.0021126922 -0.011026713 4281637423
0.011084259 0.0045442302 -0.013073942 4281766964
0.012263261 0.0077711958 -0.015763417 4281441073
0.013246223 0.011793345 -0.019094599 4280985134
0.014732406 0.013428275 -0.020495119 4281568064
0.01602798 0.015858451 -0.022537651 4280652359
0.01767163 0.016697513 -0.023293892 4280848963
0.019494697 0.016741129 -0.023407213 4280915264
0.022443943 0.012012977 -0.019666657 4280784194
0.025996931 0.0048999991 -0.01400169 4280717129
0.029791772 -0.0030068876 -0.0076977354 4281628243
0.032857254 -0.0077319909 -0.0039642742 4282345558
0.0027991161 -0.0027554426 -0.0090990402 4283989798
0.0042102784 -0.00031672232 -0.011144465 4283139628
0.0057654232 0.0013236403 -0.012546455 4282225199
0.0074727386 0.0021657385 -0.013305454 4282288949
0.0095062926 0.0014118385 -0.012779962 4282092853
0.011207849 0.0022539925 -0.013538456 4282224179
0.012218386 0.0062875636 -0.016863348 4281897268
0.013723798 0.0079271924 -0.018261908 4281309749
0.015218154 0.0095666014 -0.019659676 4281376304
0.016880982 0.010408172 -0.020415505 4281245489
0.018355981 0.012047336 -0.021811979 4281765179
0.02037476 0.011293616 -0.021285102 4282025535
0.023337096 0.0065527745 -0.017555099 4281827398
0.026902959 -0.00057948381 -0.011905503 4282478159
0.030324459 -0.0069131423 -0.0068992022 4282411093
0.03300596 -0.010056521 -0.0044563031 4282476119
0.0044808462 -0.0034181913 -0.010975289 4284184873
0.0060414523 -0.0017734068 -0.012374353 4282681139
0.0075910166 -0.00012873858 -0.013772694 4282746164
0.0094612539 -8.4608793e-05 -0.013889408 4282551088
0.010994211 0.0015597921 -0.015286548 4282224179
0.012344815 0.0040040947 -0.017323054 4281964079
0.013852969 0.0056480989 -0.018718503 4281505844
0.015703529 0.0056921113 -0.018833732 4280984879
0.017374478 0.0065360796 -0.019588504 4281376304
0.019221969 0.0065801814 -0.019703422 4281179188
0.021254182 0.005824592 -0.019179005 4281502784
0.02460479 -0.00052826945 -0.014181396 4281697349
0.027618065 -0.0052809343 -0.010464186 4280912204
0.030663729 -0.010032684 -0.0067489604 4282280278
0.032763101 -0.01078631 -0.0062285298 4282410584
0.0073830485 -0.00082257856 -0.015520973 4284248113
0.0092504621 -0.00077851955 -0.015637515 4283007028
0.010949217 6.7880377e-05 -0.016392626 4282745398
0.012471132 0.0017165076 -0.017785814 4282094129
0.014155969 0.0025627576 -0.018539926 4282092853
0.015835203 0.0034089461 -0.019293634 4281767218
0.017688215 0.0034530815 -0.019408965 4281440053
0.019905224 0.0018934123 -0.018248638 4280981054
0.02231776 -0.00046786107 -0.016451266 4281435974
0.025308989 -0.0052341362 -0.012742491 4282412623
0.027761914 -0.0075943023 -0.010947524 4282346579
0.030423902 -0.010755687 -0.0085163824 4281234524
0.0093712509 -0.0030769026 -0.016107863 4283922479
0.011241108 -0.0030327076 -0.016224498 4283204399
0.0127685 -0.0013796715 -0.017614769 4282225199
0.014458731 -0.00053115468 -0.018367628 4281832498
0.015966773 0.0011216402 -0.019756606 4281701429
0.017822392 0.0011658184 -0.019872114 4281636148
0.020223938 -0.0012023263 -0.018078974 4281306944
0.022826336 -0.0043740766 -0.015650777 4281502019
0.025637768 -0.0083492249 -0.012588024 4282477394
0.027905636 -0.00991181 -0.011433931 4282672724
0.013236709 -0.0052909041 -0.01681486 4283922734
0.014935054 -0.0044400049 -0.017566592 4283203378
0.016274765 -0.0019763233 -0.019587737 4281702194
0.017956465 -0.0011256216 -0.02033836 4281831223
0.020178474 -0.0026939632 -0.019184807 4281241664
0.022965193 -0.0066806497 -0.016128661 4282152524
0.025778927 -0.010666621 -0.013074142 4282672724
0.0162296 -0.00346555 -0.020691803 4282812210
0.017911263 -0.0026126839 -0.021440811 4282353208
0.020314939 -0.0049938653 -0.019657541 4282027574
0.023288548 -0.0097997766 -0.015976839 4282543438
0.016360834 -0.0057653608 -0.021164048 4284383773
0.018403433 -0.0065317564 -0.020648576 4283072054
0.020633116 -0.0081085935 -0.019502031 4282484789
0.023611695 -0.012927506 -0.015831321 4282937669
0.0072343498 0.002569139 0.038216442 4281291643
0.010311663 -0.0026520966 0.042828768 4279521689
0.0070337653 0.0017349832 0.036363207 4280112524
0.0093260556 0.00027181767 0.037589297 4279193759
0.011788137 -0.0019456726 0.039489657 4278407083
0.014589898 -0.0056717386 0.042738445 4279193503
0.0066797063 0.0016624313 0.033839814 4279391639
0.0088100284 0.00095163286 0.034389626 4279128224
0.010945626 0.00024101511 0.034939222 4278734759
0.013086446 -0.00046933815 0.035488531 4278865319
0.01539693 -0.0019361097 0.036710478 4279324828
0.018052444 -0.0049157832 0.039277297 4282536809
0.0064793974 0.000839727 0.03199508 4279390618
0.0086068064 0.00012671016 0.032543473 4278603433
0.01058054 0.00017287023 0.032419991 4278537133
0.012392417 0.00097804703 0.031625174 4278537133
0.021136269 -0.0026294868 0.034487016 4280833918
0.0040092543 0.001498552 0.028936045 4280506243
0.0061257631 0.00078296103 0.029483469 4278931873
0.0082475543 6.7649409e-05 0.030030603 4278668968
0.010374576 -0.00064744148 0.030577486 4278864809
0.012183681 0.00015987083 0.02978448 4278798763
0.013987131 0.00096713938 0.028991891 4278339253
0.015450858 0.0032963399 0.026860731 4279190443
0.0038121417 0.00068956055 0.027101247 4279587479
0.005772382 0.00073523261 0.02697848 4278931108
0.0077324435 0.0007810276 0.026855828 4278472363
0.010168731 -0.0014631385 0.028738404 4278471598
0.013447225 0.0016821586 0.025820317 4279127713
0.0033140108 0.001416659 0.023935318 4279128478
0.0051126704 0.0022277962 0.023145989 4278668968
0.0070617124 0.0022733472 0.023024032 4278537644
0.009328045 0.00078791752 0.024235707 4278734249
0.0014635623 -0.00095999986 0.023564436 4279718548
0.002966769 0.0013891757 0.021444974 4279651994
0.0047599077 0.0022023953 0.020657636 4278729149
0.0065474287 0.0030155778 0.019870721 4279386538
0.0084880069 0.0030610338 0.019749369 4279193503
-0.00068238378 -0.0018003089 0.021862095 4279325338
0.00097422302 -0.00021471828 0.020411327 4279718039
0.0071727782 0.0076658782 0.013288777 4278804883
-0.0032492876 -0.00031851605 0.018174157 4279586969
-0.0014530346 0.00049887225 0.017389594 4279455644
0.00048526376 0.00054388307 0.017268095 4278472364
0.0022730082 0.001361236 0.016484261 4278929578
0.0039020479 0.0029507484 0.015038615 4279647403
-0.005096674 -0.0026918091 0.017805457 4282796399
-0.0035791844 -0.00032298453 0.015699472 4279651993
-0.0014987141 -0.0010526851 0.016239211 4278996644
0.001926519 0.00136072 0.01401392 4280239514
0.003091 0.0052775815 0.010589913 4279458449
-0.0037667379 -0.0010953099 0.013891185 4280043673
-0.0018339828 -0.0010505095 0.013769969 4279520413
-0.00019646436 0.00054775923 0.012330083 4278731698
-0.00068439543 0.0013419744 0.0092133321 4280963459
0.047863998 -0.0068889055 0.014195625 4281754214
0.051318385 -0.012282133 0.018649949 4282470764
0.045901567 -0.0014352277 0.0071693067 4280180354
0.048900269 -0.0052855182 0.01031003 4279980945
0.052362025 -0.010693706 0.014752561 4282602598
0.04309199 0.0001030881 0.0035428121 4281622634
0.045003228 0.00014955923 0.003424562 4278801058
0.047990665 -0.0037118522 0.0065578376 4278997663
0.051441021 -0.0091355573 0.010989742 4279784084
0.042834483 -0.00064583682 0.0017574495 4281294703
0.044955432 -0.001383326 0.0022882321 4278735523
0.04794246 -0.005255607 0.0054134582 4279981199
0.051392272 -0.010694556 0.009834066 4282013038
0.043206297 -0.0037484942 0.0019177212 4279525003
0.045544952 -0.0052739624 0.0030937619 4279653779
0.048754856 -0.0099429246 0.0068575074 4281160828
0.041451544 -0.006117885 0.0015445207 4281229934
0.043577828 -0.0068596033 0.0020716577 4279785869
0.046346448 -0.0099656861 0.0045354064 4280833153
0.049136564 -0.013071205 0.0069978549 4281750644
0.044368289 -0.011560086 0.0035076677 4281029503
0.046722829 -0.013093935 0.0046762782 4280439689
0.049088009 -0.014627427 0.0058442294 4281947759
0.042183302 -0.012361554 0.0018374124 4281949288
0.044529676 -0.013899978 0.0030031982 4281553783
0.046886705 -0.015438115 0.0041684206 4280898179
0.048824511 -0.015390996 0.0040485277 4282013294
0.042342067 -0.014701299 0.0013332628 4282013549
0.044481501 -0.015449256 0.001854708 4282077808
0.046414003 -0.015402309 0.0017351108 4281749879
0.048561178 -0.016150029 0.0022561871 4280963968
0.052650921 -0.016850278 0.0026571765 4282471018
0.03762868 -0.013153018 -0.0021336724 4282144873
0.039752074 -0.013903685 -0.0016129599 4282013038
0.041674048 -0.013857116 -0.0017319962 4281946993
0.043805204 -0.014607532 -0.0012116446 4281947248
0.0455174 -0.013763896 -0.0019699617 4282078573
0.037178785 -0.013092343 -0.0045502344 4282144364
0.03929659 -0.013845327 -0.0040308 4282078064
0.041213065 -0.013798947 -0.004149538 4281946738
0.043338649 -0.014551635 -0.0036305038 4282013039
0.034423776 -0.011465688 -0.0081154611 4281948269
0.036528081 -0.012221279 -0.0075968849 4282208878
0.038637601 -0.012976639 -0.0070785554 4281946483
0.040752389 -0.013731888 -0.0065604886 4282274924
0.03227786 -0.012232304 -0.0097629167 4281097844
0.034376755 -0.012990246 -0.0092456574 4281947504
0.036480911 -0.013748004 -0.008728683 4282012018
0.038590297 -0.014505591 -0.0082119983 4282012528
0.040911399 -0.016066555 -0.0070608817 4282602598
0.032035477 -0.012948496 -0.011525068 4282469998
0.034329772 -0.014514622 -0.010375723 4280635019
0.036835723 -0.016886314 -0.0085935686 4282078064
0.032184213 -0.015276458 -0.012019653 4282273903
0.034282818 -0.016038807 -0.011505648 4281422969
0.036587566 -0.017608993 -0.010360157 4280507519
0.038699396 -0.018370965 -0.009846855 4282145384
0.03194204 -0.015987983 -0.013778349 4282208624
0.042055309 -0.018189225 -0.012477744 4281750388
0.043960206 -0.018143138 -0.012595775 4281946994
0.045864917 -0.01809701 -0.012713757 4282602854
0.049186818 -0.017907128 -0.015335798 4282209133
-0.031208374 -0.019546416 -0.015122365 4283055988
0.032617435 -0.019432899 -0.022638965 4282340204
0.034254268 -0.020072503 -0.024494408 4282733158
-0.010315865 -0.020443751 -0.031197594 4283124583
