# .PCD v0.7 - Point Cloud Data file format
VERSION 0.7
FIELDS x y z rgba
SIZE 4 4 4 4
TYPE F F F U
COUNT 1 1 1 1
WIDTH 969
HEIGHT 1
VIEWPOINT 0 0 0 1 0 0 0
POINTS 969
DATA ascii
0.016988896 -0.012745714 -0.0091996351 4289409059
0.018671095 -0.0118914 -0.009925887 4289539873
0.020726703 -0.01266739 -0.0093960725 4290194203
0.022595361 -0.012628147 -0.0094942143 4290062878
0.025243565 -0.015848979 -0.0070819929 4289800994
0.027913295 -0.019069266 -0.0046708323 4289473828
0.030604593 -0.022289051 -0.0022607679 4286399038
0.0089520589 -0.01194015 -0.01180122 4290326803
0.010813475 -0.011901481 -0.011899298 4289998619
0.012674719 -0.011862744 -0.011997312 4290586904
0.0145358 -0.011823939 -0.012095265 4291437328
0.016580716 -0.012602484 -0.011566637 4290848533
0.018444195 -0.012563504 -0.011664622 4290128668
0.020496957 -0.013341764 -0.011136314 4290063389
0.022747122 -0.014937082 -0.0099821333 4289997854
0.025007971 -0.01653217 -0.0088284351 4289735714
0.027872287 -0.020578381 -0.0057978462 4289409059
0.029962391 -0.021355605 -0.0052713109 4288690213
0.0087393746 -0.012605123 -0.013535663 4290260249
0.010422185 -0.011746765 -0.014258925 4290194714
0.012456417 -0.012527891 -0.0137315 4290586903
0.014133468 -0.011669518 -0.014454359 4291044373
0.016356766 -0.013270013 -0.013302147 4291109909
0.018404104 -0.014050639 -0.012775242 4291371793
0.019888595 -0.01237264 -0.014122456 4289474594
0.022130422 -0.013972571 -0.012971086 4289866273
0.024577759 -0.016391501 -0.01119592 4289605409
0.027436286 -0.020448696 -0.0081731621 4286530364
0.0063302964 -0.01166001 -0.016416823 4290264328
0.0081808046 -0.011621707 -0.01651443 4290063643
0.0098554194 -0.010761339 -0.017235704 4290914579
0.01170291 -0.010722959 -0.017333046 4289605664
0.013550244 -0.0106845 -0.017430317 4289932063
0.015765205 -0.012289535 -0.016280936 4289670433
0.017804258 -0.013072531 -0.015755238 4290978583
0.019469947 -0.012212086 -0.016475771 4289212454
0.02189821 -0.014638066 -0.014704511 4289800738
0.024537332 -0.017885132 -0.012311382 4289211433
0.0061208457 -0.012311623 -0.018141482 4289738519
0.0077955723 -0.011449248 -0.018861186 4289867804
0.0094647482 -0.010586927 -0.01958055 4291110674
0.0114851 -0.011372707 -0.019055663 4290390809
0.012967423 -0.0096863955 -0.020396432 4289605664
0.015357867 -0.01211984 -0.018628255 4289212453
0.017204799 -0.012081292 -0.018725432 4290128413
0.019430123 -0.013690352 -0.01757977 4290390044
0.021858126 -0.016122874 -0.015813388 4289669159
0.024496958 -0.019378655 -0.013426766 4286987324
0.0042339787 -0.013823273 -0.019144427 4289216534
0.0057413727 -0.012132426 -0.020483512 4288624678
0.0075835437 -0.012094345 -0.020580716 4289147683
0.0094255731 -0.012056196 -0.020677859 4289605664
0.011267461 -0.012017967 -0.020774931 4290979603
0.013109192 -0.011979715 -0.020871978 4291110418
0.015134573 -0.012767481 -0.020348918 4291109653
0.017165199 -0.013555055 -0.019826077 4291109653
0.019579537 -0.015994448 -0.018063907 4290193438
0.02220194 -0.019259365 -0.015682928 4289866019
0.024845891 -0.022523798 -0.01330306 4285940803
0.0041950122 -0.015296655 -0.020244829 4289215513
0.0057024136 -0.013601489 -0.021580681 4288689448
0.0073716566 -0.012734978 -0.022296915 4288427563
0.0092108846 -0.012696915 -0.022393931 4288231468
0.011228271 -0.013487166 -0.021872185 4288623913
0.012888931 -0.012620619 -0.022587808 4289932318
0.014911443 -0.013410632 -0.022066236 4290456088
0.016752809 -0.013372293 -0.02216319 4289866529
0.019350603 -0.016646499 -0.019787489 4289670435
0.021778136 -0.019092105 -0.018030871 4288099633
0.024610929 -0.023193376 -0.015039353 4286790973
0.0044907928 -0.018431466 -0.02010976 4289215513
0.006003648 -0.016731847 -0.021442723 4289148449
0.0076783001 -0.015863091 -0.022157643 4289147939
0.0093473867 -0.014994375 -0.022872217 4288820263
0.011189118 -0.014956256 -0.022969361 4288754984
0.012849763 -0.014087599 -0.023683403 4288427563
0.014872141 -0.014879797 -0.023163456 4289212453
0.016527072 -0.014011148 -0.023877114 4289539363
0.019121848 -0.017294107 -0.021507759 4289344289
0.021546409 -0.01974627 -0.01975592 4286071873
0.0049536899 -0.022407735 -0.019365016 4288691744
0.0063047111 -0.019870786 -0.021311104 4289082914
0.0079847798 -0.018999794 -0.022024723 4289344034
0.0094838142 -0.017296048 -0.023353651 4289540129
0.011328183 -0.017257903 -0.023450959 4289081893
0.012991525 -0.016387062 -0.024163548 4289147428
0.014832892 -0.016348854 -0.024260599 4289016358
0.016674139 -0.016310625 -0.024357628 4288754473
0.0190823 -0.018769754 -0.022609815 4288492333
0.0052490532 -0.025561763 -0.019244377 4289149214
0.006775558 -0.023853328 -0.020571597 4289475613
0.0082910657 -0.022145035 -0.021898249 4289278753
0.009970963 -0.02127184 -0.022610206 4288558888
0.011823401 -0.021233574 -0.022707973 4288558889
0.013314053 -0.019525601 -0.024033166 4288558888
0.015160769 -0.019487293 -0.024130512 4288362028
0.017007366 -0.01944899 -0.02422785 4288230959
0.019231766 -0.021079959 -0.023098528 4287576119
0.0050426871 -0.026212592 -0.020968584 4289149469
0.0063966066 -0.023662681 -0.022905167 4288559399
0.0082519501 -0.023624528 -0.023003215 4288363049
0.0099318251 -0.022749234 -0.0237136 4288558888
0.011962235 -0.023548028 -0.023199139 4288558888
0.01363641 -0.022672743 -0.02390914 4288755239
0.015305027 -0.021797486 -0.024618784 4288689703
0.017154261 -0.021759169 -0.024716293 4288165424
0.019003369 -0.021720784 -0.024813743 4286333248
0.0028111413 -0.026057588 -0.023202414 4288952609
0.0045022517 -0.02518012 -0.023911938 4288493864
0.0065274686 -0.025981443 -0.023399016 4288101164
0.0082128942 -0.02510396 -0.024108142 4288559399
0.010243289 -0.025905045 -0.023595395 4288232233
0.012101017 -0.025866766 -0.023693511 4288363049
0.013777897 -0.024989281 -0.024402052 4288428330
0.015265778 -0.023272781 -0.0257206 4288362283
0.017114952 -0.023234515 -0.025818139 4288295474
0.00429634 -0.025817793 -0.025626328 4287773488
0.0063187107 -0.02662136 -0.025114894 4288297003
0.0083463937 -0.027424773 -0.024603706 4288297514
0.010379381 -0.028228056 -0.024092708 4288232489
0.011883885 -0.026507016 -0.025409065 4288232233
0.013558008 -0.02562746 -0.026115865 4288035374
0.01522661 -0.024747981 -0.026822347 4288165679
0.016889639 -0.023868542 -0.027528554 4287510584
0.0096396208 -0.026337342 -0.02763097 4287381554
0.011133291 -0.024612229 -0.028943539 4288035374
0.012977153 -0.024574261 -0.02904094 4287969328
0.014820896 -0.024536273 -0.029138319 4287837493
0.012577228 -0.024353715 -0.03135062 4286725948
0.014598735 -0.025161464 -0.03084226 4289145133
0.0025855154 0.0076452661 0.047083039 4281762629
0.0035952106 0.012189174 0.042909645 4281568573
0.0081406608 0.0092667472 0.045415796 4278635054
0.0012979805 0.012100412 0.040497798 4281567554
0.0024446622 0.01590416 0.03701197 4281242429
0.0042089671 0.016696351 0.036233611 4280004403
0.0062955692 0.015983133 0.036808301 4279611958
0.0088875443 0.013012117 0.039411392 4278568499
0.012009382 0.0077838283 0.044041593 4281045059
-0.00052902102 0.0097554848 0.040118046 4281501764
0.00032287091 0.015080525 0.035289101 4280330293
0.0019288361 0.016629813 0.033837315 4280591158
0.0036849007 0.017424101 0.033061009 4281567553
0.005599238 0.017463433 0.032959815 4281632578
0.0076800287 0.016747979 0.033533312 4280785213
0.010104783 0.014523247 0.035455398 4280524603
0.012545638 0.012298869 0.037376732 4280719424
0.015002608 0.010074902 0.039297275 4280654143
0.01676549 0.010869848 0.038520999 4281111869
0.018522702 0.011664731 0.037745137 4281438268
0.021006145 0.0094415676 0.039664473 4282088519
0.024619929 0.0026922207 0.045624431 4281568063
-0.0016403869 0.013504395 0.034243096 4281175874
-2.8774142e-05 0.015058083 0.032794215 4280783939
0.0034834668 0.016650917 0.031244865 4278768164
0.0092173442 0.016769072 0.03094203 4280655164
0.011644311 0.014537906 0.032859229 4281046078
0.013737865 0.013820862 0.03343058 4280654909
0.015481643 0.014617572 0.032657005 4280589628
0.016859353 0.016927728 0.030539306 4281308983
0.018769279 0.016967578 0.030438801 4279027753
0.021607213 0.013224429 0.033698078 4279611958
0.025225535 0.0064557139 0.039643232 4279874864
0.029274777 -0.001824934 0.04692921 4278439214
-0.003453441 0.011169078 0.033869505 4281436228
-0.002445139 0.015765088 0.029735217 4280785214
-0.00053585321 0.015804088 0.029634122 4281046334
0.0013732463 0.01584317 0.029533101 4280393789
0.0032821298 0.015882341 0.029432161 4279681573
0.0050269812 0.016680827 0.028659839 4279620373
0.0067661852 0.017479295 0.027887888 4279745324
0.0088382512 0.016759494 0.028458647 4281046333
0.0110875 0.01528083 0.029700223 4280916284
0.013172723 0.014561465 0.030270405 4280916284
0.015085734 0.014601251 0.030169643 4280394044
0.016458079 0.016917789 0.028057164 4281177148
0.018179595 0.017716387 0.027286518 4281112889
0.020266615 0.016997399 0.027856862 4280915264
0.026175499 0.0087318625 0.035027172 4281045568
0.030240081 0.00042770244 0.04229451 4281371714
-0.0043943822 0.014200678 0.028697029 4280784704
-0.0032493547 0.018047815 0.025243793 4281045823
-0.0011981875 0.017324975 0.025813701 4281110848
0.00085820258 0.016602332 0.026383396 4281502019
0.0029198378 0.015879856 0.026952935 4280587589
0.0046591908 0.016680485 0.026182517 4280653123
0.0063929111 0.01748102 0.025412491 4281046589
0.0084593445 0.016758936 0.025981924 4280916029
0.010531031 0.016037026 0.026551198 4280916284
0.012433276 0.016076518 0.026450953 4280851259
0.014335304 0.016116092 0.026350783 4279938103
0.015876926 0.017677924 0.024912698 4280134453
0.01777304 0.017717553 0.024812974 4281828418
0.019854471 0.01699627 0.025381982 4281893444
0.02250585 0.013992453 0.027956458 4281567809
0.024987765 0.011749996 0.029861452 4281438013
0.028647907 0.0049431957 0.035775237 4280981819
0.033535168 -0.0064269174 0.045695245 4281241409
-0.0048844069 0.014967097 0.025551049 4281307708
-0.0015490279 0.017336002 0.023343809 4279287344
0.0023967847 0.016650001 0.023812003 4280979524
0.0042916238 0.01668903 0.023711912 4280914243
0.0061862469 0.016728135 0.023611896 4280981053
0.0082498193 0.016003834 0.024179867 4281111103
0.010146745 0.016043162 0.024079861 4281111359
0.012043439 0.016082579 0.023979936 4281046589
0.013762616 0.016885361 0.023212582 4280785213
0.017732218 0.016201233 0.023680555 4279944223
0.019628011 0.016240945 0.023580913 4280204835
0.024182558 0.013268458 0.026048968 4280264249
0.028412089 0.0041529406 0.033948652 4280915518
0.033491999 -0.0080127474 0.044510942 4281305923
-0.0062359497 0.010345556 0.027187569 4280388943
-0.0052240789 0.014980743 0.023082361 4281177149
-0.0036340654 0.016551422 0.021647599 4280526133
-0.0018996671 0.017356018 0.020880565 4280525623
0.0021959022 0.015901798 0.022014525 4281307198
0.0039242581 0.01670658 0.021247968 4281046333
0.0059797093 0.015979839 0.021814734 4281176894
0.0078713 0.01601897 0.021714944 4280981054
0.0097626671 0.016058212 0.021615252 4281112124
0.011479296 0.016863102 0.020849574 4280785214
0.013367504 0.016902419 0.020750158 4280654143
0.015615456 0.015410936 0.021982297 4280263994
0.017508663 0.015450539 0.02188275 4280134454
0.021670669 0.013999445 0.023014441 4279678259
0.024522901 0.010213338 0.026240585 4281045313
0.029144198 -0.00045840815 0.035450537 4281175618
0.034037679 -0.011893608 0.045321465 4281697348
-0.0081877783 0.0087798499 0.026148586 4280384608
-0.0070119202 0.012660066 0.022718012 4280915518
-0.0055635348 0.015003407 0.020620335 4279352114
-0.0038262755 0.015810134 0.019854698 4281502528
-0.0020946562 0.01661686 0.019089453 4282024004
-0.00021053851 0.016655499 0.018989801 4281633854
0.001673393 0.016694231 0.018890236 4280525623
0.0033935308 0.017500972 0.018125787 4281111868
0.00544063 0.016771955 0.018691346 4281177149
0.0073239654 0.016810952 0.018592015 4281178934
0.0090353042 0.017617786 0.017828234 4281178424
0.011089966 0.016889168 0.018393576 4280917048
0.01314982 0.016160751 0.018958714 4278504748
0.015394829 0.014664875 0.020187769 4281111104
0.017102577 0.015472004 0.019424375 4281307198
0.01899004 0.015511574 0.019325197 4280980544
0.021441482 0.013248889 0.02121713 4281111104
0.024862975 0.0071497597 0.02642596 4280980288
0.02987583 -0.0050869398 0.036939662 4281240898
0.034386732 -0.015019957 0.045459159 4281759568
-0.0089497492 0.011105755 0.021686606 4280453459
-0.0077873468 0.014996594 0.018264908 4280915519
-0.0060526878 0.015805358 0.017500976 4278965533
-0.0043236688 0.016614115 0.016737424 4280140573
-0.002444908 0.01665256 0.016637998 4278443804
-0.00056634098 0.016691113 0.016538661 4279158824
0.0011512116 0.017499955 0.015775885 4279810348
0.0028631315 0.018308735 0.015013518 4280851258
0.0049019083 0.017577367 0.015577887 4281112634
0.0069459304 0.016846159 0.016142089 4281177914
0.0088234767 0.016885133 0.01604314 4281176894
0.014814593 0.015462974 0.017071668 4278835228
0.016696736 0.015502376 0.016972728 4279417904
0.018763952 0.014772186 0.017536033 4280980544
0.021588422 0.010963742 0.020747349 4280784704
0.025584288 0.0025385991 0.027928796 4281111359
0.030413508 -0.0089631351 0.037754223 4281698113
-0.0092779174 0.011135619 0.019229276 4279735379
-0.0075322464 0.011946743 0.018466283 4281567044
-0.005942069 0.013530372 0.017041281 4282024513
-0.0043629706 0.01511387 0.015616935 4281567553
-0.0029502362 0.017469725 0.013531059 4280656439
-0.0012380034 0.018280523 0.012770183 4281047354
0.00062936544 0.018318946 0.012671513 4281179188
0.0024965331 0.018357443 0.012572916 4281114163
0.0046958998 0.016851587 0.013797539 4281047353
0.006737031 0.0161182 0.014360235 4280981563
0.008440122 0.016929241 0.013600165 4280656184
0.01013758 0.017740237 0.012840446 4281568829
0.012183517 0.017007215 0.013403084 4281308219
0.016291097 0.015541678 0.014527746 4280200244
0.018352725 0.014809212 0.015089733 4281177659
0.021547288 0.0094462484 0.019614071 4280981819
0.025923759 -0.00054622814 0.028098229 4281177149
0.03056404 -0.01130879 0.037238896 4282416194
-0.0088840872 0.0073001776 0.020084091 4280063053
-0.0072773919 0.0088884123 0.018661406 4278833443
-0.005681783 0.010476554 0.017239336 4281697604
-0.0042497665 0.012839204 0.015157305 4281958469
-0.0025237799 0.013652353 0.014397249 4282284359
-0.00096137822 0.015240109 0.012977153 4281893699
0.00075063854 0.016053146 0.012217971 4280655419
0.0022935793 0.017640637 0.010799082 4280721209
0.0046561286 0.015355987 0.01268056 4280655929
0.006528236 0.01539479 0.012581855 4281046844
0.0084001422 0.015433675 0.012483222 4279223083
0.0099232495 0.01702108 0.011065627 4280395828
0.011966318 0.016285835 0.011626797 4281763903
0.013655148 0.017098999 0.010869289 4281502784
0.015885688 0.015589954 0.012089396 4280786233
0.01812689 0.014081163 0.013309039 4281373499
0.021694049 0.0071549881 0.0191398 4281569593
0.026072338 -0.0028656125 0.027602706 4282416959
-0.0087791905 0.0050059725 0.01961047 4280715599
-0.0068757385 0.0050446652 0.019509543 4280261953
-0.0054217204 0.0074142385 0.017431119 4279413824
-0.0038317442 0.0090067312 0.016012687 4279417904
-0.0022528246 0.010599043 0.014594954 4280981819
-0.00068499893 0.012191201 0.013177861 4282155328
0.0011930317 0.012229847 0.013078636 4282219589
0.0029074997 0.013045279 0.012321002 4281437504
0.0047824159 0.013084067 0.012222088 4281111869
0.0064883605 0.01389944 0.011465068 4280654144
0.0081886351 0.014714794 0.010708421 4280329529
0.0098832697 0.015530108 0.0099521223 4279227675
0.015662909 0.014870884 0.010315217 4279354154
0.018271416 0.01180535 0.012846412 4281307198
0.022216342 0.0033074301 0.019976778 4281829693
0.026220843 -0.0051891729 0.027104134 4282156093
-0.0086744279 0.0027077217 0.019133758 4280388434
-0.0070623159 0.004304802 0.017717253 4280653634
-0.0053115711 0.0051226243 0.016959008 4280133434
-0.0035664812 0.0059404541 0.01620115 4280199734
-0.0018269941 0.006758241 0.015443644 4280460088
-0.00025100261 0.0083549842 0.014029355 4279939124
0.0016350895 0.0083938148 0.013929716 4279547954
0.0033576712 0.0092115439 0.013173322 4280135729
0.0050746277 0.010029241 0.012417288 4281763139
0.0064484552 0.012404339 0.010348471 4281698878
0.0083201528 0.012443243 0.010249869 4281242173
0.0096691176 0.014817933 0.00818252 4280655673
0.013395175 0.014895769 0.0079865195 4278572578
0.015622571 0.013377992 0.0092003057 4281045824
0.018785939 0.0079687089 0.013692095 4281241663
0.022738263 -0.00055296719 0.020804241 4282286909
0.025988199 -0.0059602736 0.025291605 4284315688
-0.01062005 0.0011480693 0.018098883 4279993949
-0.0090023354 0.0027495213 0.01668527 4280584784
-0.0072487667 0.0035694726 0.015928425 4280522564
-0.0055008382 0.0043894406 0.015171975 4280653378
-0.0036061555 0.004428165 0.01507167 4280656183
-0.0017116517 0.0044669919 0.014971455 4280525878
2.4870038e-05 0.0052870046 0.014215817 4280721719
0.0019162744 0.0053259674 0.014115914 4280657713
0.0036442354 0.0061460249 0.013360823 4280789040
0.0055325553 0.0061850864 0.013261205 4280921894
0.0070833117 0.0077859666 0.011851805 4280725798
0.0084515586 0.010167571 0.0097882412 4282223158
0.00980331 0.012548851 0.0077256346 4282611014
0.011669062 0.012587776 0.0076274537 4282610503
0.013714179 0.011846161 0.0081837159 4281633089
0.016129084 0.009543512 0.010048224 4281373499
0.019485109 0.0033386927 0.015182321 4281765689
0.023259833 -0.0044261394 0.02162209 4282874683
-0.010800853 0.00041092373 0.016308308 4280190299
-0.0090417564 0.0012331475 0.015552712 4280323664
-0.0072882622 0.0020552799 0.014797504 4280522564
-0.0055403858 0.0028774031 0.014042675 4280654398
-0.0036458373 0.0029161498 0.013942394 4280852533
-0.0017514452 0.0029549636 0.013842176 4281047863
0.00014273822 0.0029939078 0.013742068 4281047863
0.0020367503 0.0030329041 0.013642014 4280852533
0.0036042184 0.0046383459 0.012234816 4280788273
0.0053265095 0.0054605193 0.01148177 4281180720
0.0070431754 0.0062826406 0.010729067 4281639208
0.0087542012 0.0071047526 0.0099767428 4281966629
0.010459587 0.0079268236 0.0092247725 4281382168
0.012159325 0.0087489076 0.0084731234 4281314848
0.014032952 0.0087880976 0.0083746035 4281831733
0.016635247 0.0056963079 0.010886566 4282091579
0.019998856 -0.00052578375 0.016007289 4282614328
0.023593403 -0.0075295195 0.021778114 4284185894
-0.011829667 0.0043930747 0.010602344 4281769004
-0.0099456161 0.0044312961 0.010502387 4281114419
-0.0077681392 0.0028983187 0.011708199 4280459069
-0.005579941 0.0013656188 0.012913563 4280330038
-0.0033810288 -0.00016672909 0.014118384 4280459069
-0.0014813244 -0.00012779422 0.014017893 4280591923
0.00057589263 -0.00087425113 0.014569781 4280982583
0.0023175478 -4.9637631e-05 0.013817165 4281309494
0.0038904473 0.0015602112 0.012412969 4281244468
0.0054522827 0.0031699874 0.011009403 4281637678
0.007171616 0.0039943513 0.010258196 4282094894
0.0088853091 0.0048186854 0.0095073534 4282029869
0.010767378 0.0048578847 0.0094082626 4281898034
0.012825973 0.0041121319 0.0099605098 4281898799
0.014710382 0.0041515399 0.0098614171 4281833774
0.017323211 0.0010512937 0.012366329 4282028593
0.020512268 -0.0044030761 0.016822685 4282419254
-0.013422884 0.011557626 0.0023132572 4284181559
-0.010992825 0.0084436648 0.0048203762 4283723578
-0.008247681 0.0037545934 0.0086288564 4282357288
-0.006067872 0.0022174101 0.0098313615 4281049394
-0.0038773715 0.00068050809 0.011033419 4280654654
-0.0018310323 -6.8377703e-05 0.011584157 4280851514
0.0005358085 -0.0023922976 0.013436016 4281503803
0.002598092 -0.0031406656 0.013986053 4281766198
0.0041764528 -0.0015263166 0.012584781 4281766198
0.0055779442 0.00087528117 0.010533988 4282095149
0.007131435 0.0024893079 0.0091341734 4282030379
0.0091875419 0.0017411597 0.0096847974 4282224944
0.011074938 0.0017804913 0.009585443 4282356013
0.012962155 0.0018198807 0.0094861453 4282290988
0.014849171 0.0018593483 0.0093869185 4282159153
0.017646506 -0.0020366684 0.012534596 4282484534
0.020655662 -0.0067190463 0.016330073 4282745399
2.3014843e-05 -0.0015407428 0.010355335 4282227748
0.0022372678 -0.0030811857 0.011553045 4282354993
0.0041361973 -0.0030419808 0.011452813 4282682414
0.0060349405 -0.0030026808 0.01135266 4282354993
0.0077650622 -0.0021737553 0.010604134 4282160428
0.0094895363 -0.0013448484 0.0098559782 4282029359
0.011034496 0.00027351081 0.008459989 4282224179
0.012921609 0.00031290948 0.0083607044 4282094128
0.015167184 -0.0012263227 0.0095572611 4282550069
0.017969579 -0.005133057 0.012696496 4283073073
0.020798951 -0.0090391329 0.015834382 4284314414
-0.0037681088 0.0064134132 0.0015562675 4284508214
-0.0014344826 0.0040757675 0.0034001155 4284050743
0.0078930557 -0.0044787433 0.010120794 4282161448
0.0099624395 -0.0052310033 0.010667505 4282682414
0.011341728 -0.0028165206 0.0086278021 4282225198
0.01288107 -0.0011938717 0.007235406 4282617389
0.014947169 -0.0019459538 0.007782476 4282941748
0.017564461 -0.0050721522 0.010267654 4283725875
-0.00088630617 0.0089755412 -0.0029775174 4284573238
0.0011236072 0.0082196612 -0.0024295337 4284116024
0.003470026 0.0058760419 -0.00059102755 4283924009
0.011474974 -0.0051211976 0.0081443358 4284125459
0.013193533 -0.0042879116 0.0073998612 4283531564
0.01544413 -0.0058356794 0.0085896123 4283661103
0.017705373 -0.007383192 0.0097789001 4284248369
0.012976475 -0.0050027156 0.0056284866 4284646678
0.01558245 -0.0081466101 0.0081011904 4284314923
-0.029904492 0.0068472326 -0.013850177 4283983424
-0.012469314 -0.0035014842 0.04727162 4279389854
-0.01435741 -0.0058832038 0.046868488 4279979924
-0.013178661 -0.001271354 0.042734347 4278668458
-0.0053198114 -0.0011129994 0.042316597 4278929323
-0.0048297644 0.006544346 0.035505325 4280181628
-0.016250979 -0.0082689617 0.046462633 4282011253
-0.014790781 -0.0051722992 0.043677092 4278800039
-0.011663333 -0.00050831027 0.039449073 4279586204
-0.0098460242 0.00029520132 0.038675494 4279717528
-0.0076086 -0.001193475 0.039910458 4279519394
-0.0062283054 0.0019021109 0.037129559 4278929834
-0.017060637 -0.0052538449 0.041268852 4279717018
-0.01548573 -0.0029152315 0.039159 4278602924
-0.0098861977 -0.001264628 0.037510455 4278597569
-0.0068469346 0.0034112986 0.033297397 4278276523
-0.018692002 -0.0091696465 0.042201705 4280700808
-0.017613269 -0.0037496462 0.03742845 4278865318
-0.016049247 -0.0014047138 0.035324074 4278930598
-0.014100842 -0.001365684 0.035220332 4278603433
-0.012016252 -0.0020950232 0.03578309 4279254449
-0.010204546 -0.0012872927 0.035013132 4278597314
-0.0088238642 0.0018256176 0.032245174 4279977373
-0.019484349 -0.0061210273 0.037031829 4278865574
-0.018165473 -0.0022277981 0.033601239 4279453859
-0.016481481 -0.00064730644 0.032167409 4279319983
-0.014674947 0.00016228296 0.031399194 4279258019
-0.012465157 -0.0013401359 0.03262575 4278997154
-0.010383651 -0.002071619 0.033187114 4278734504
-0.0094308406 0.003361661 0.028432325 4278998429
-0.020025354 -0.0045921355 0.033209123 4278996643
-0.012777485 -0.0013447385 0.030141462 4279059884
-0.011118524 0.00023989007 0.028712513 4278669224
-0.022013236 -0.0061853053 0.032152034 4279324319
-0.02069122 -0.002270354 0.028737498 4278472363
-0.017083488 -0.00064281002 0.027207617 4279251388
-0.012953416 -0.0021154173 0.028325452 4279191209
-0.011019379 -0.0020764209 0.028222663 4278734504
-0.023761418 -0.0093331104 0.032416787 4281946739
-0.022665061 -0.0038521253 0.027687991 4278996388
-0.021106068 -0.0014813952 0.025603266 4278403769
-0.019307658 -0.00066562928 0.024840228 4280043929
-0.017384164 -0.00062715448 0.02473777 4279651994
-0.015460823 -0.00058856793 0.024635406 4279847579
-0.013401508 -0.0013270658 0.025193036 4278600373
-0.011614628 -0.00051108748 0.02443094 4279388834
-0.024638765 -0.0054334886 0.026638778 4279849108
-0.023193888 -0.0022765435 0.023899406 4278602923
-0.01960253 -0.00064087473 0.0223768 4278401474
-0.01768462 -0.00060250424 0.022274645 4278532289
-0.013985336 0.00025394745 0.021412272 4278730934
-0.012070626 0.00029257126 0.021310523 4279258019
-0.026261479 -0.009360265 0.027562898 4281814649
-0.025156334 -0.003848765 0.022856269 4278668714
-0.023722276 -0.0006833449 0.020123985 4278537133
-0.021809667 -0.00064529665 0.020021949 4278734504
-0.014296696 0.0002894979 0.018958051 4278603689
-0.027001739 -0.0062046703 0.022469478 4279651994
-0.025793076 -0.0014623534 0.018431045 4278537133
-0.022098511 -0.00060254894 0.01757158 4278536879
-0.020191628 -0.00056449696 0.017469937 4279062179
-0.018284887 -0.00052634254 0.017368384 4278733229
-0.016511526 0.00029569678 0.016611751 4278995879
-0.014607824 0.00033400021 0.016510515 4279521944
-0.028852541 -0.008564679 0.02207998 4280439434
-0.027624492 -0.0038090535 0.018050188 4278996898
-0.024410866 0.00019750558 0.014575143 4278398923
-0.020485852 -0.00051286258 0.015026513 4278925243
-0.018715151 0.00031118095 0.014271562 4279258274
-0.030486047 -0.012505884 0.022994036 4282733414
-0.02957537 -0.0053713536 0.01701369 4279389853
-0.028129928 -0.0021798704 0.014300139 4278865319
-0.026467383 -0.00056550652 0.012893206 4278798254
-0.024571408 -0.00052787922 0.01279199 4279387813
-0.02242564 -0.0020667054 0.013995589 4278598333
-0.020652164 -0.0012405366 0.01324204 4279189678
-0.019536283 0.003526438 0.009228399 4278996388
-0.030069545 -0.0037330184 0.013269722 4278537388
-0.026624944 -0.0012862552 0.01111332 4279389088
-0.024609648 -0.0020391904 0.011663146 4279388833
-0.022713941 -0.0020014606 0.011562025 4279650718
-0.021328863 0.0011979565 0.0088585336 4278537133
-0.031897739 -0.006078721 0.012889471 4278931109
-0.030449312 -0.002869932 0.010188671 4278734504
-0.026901793 -0.0012096576 0.0086873993 4278400964
-0.02489214 -0.0019648764 0.009235899 4278663103
-0.023251701 -0.00034205057 0.0078368112 4278468029
-0.022132564 0.0044509452 0.0038424286 4280241809
-0.03351444 -0.010018642 0.013803266 4282536299
-0.032157924 -0.0060058748 0.010459602 4278603434
-0.030714873 -0.0027885102 0.0077655902 4278472363
-0.028827239 -0.0027512871 0.0076646414 4278734504
-0.027059063 -0.0019190684 0.0069159837 4278272954
-0.025296461 -0.001086833 0.0061677196 4278598079
-0.023913808 0.0021297801 0.0034772661 4279191719
-0.022808094 0.0069355238 -0.00050665578 4282274158
-0.034311034 -0.005961271 0.0081378426 4279783574
-0.03286235 -0.0027352404 0.0054499353 4278799783
-0.031094033 -0.0019010734 0.004702725 4278995368
-0.029098146 -0.0026611108 0.0052485554 4279520923
-0.027216222 -0.0026238952 0.0051479912 4278800293
-0.025578443 -0.00099250302 0.0037554239 4278800294
-0.02457536 0.004623536 -0.00086590135 4279457429
-0.035924762 -0.0099048736 0.0090486808 4281815669
-0.034673516 -0.0050710365 0.0050758589 4278800293
-0.031359091 -0.0017996375 0.0022945961 4278463949
-0.029485352 -0.0017627012 0.0021943806 4278398923
-0.027492501 -0.0025248583 0.002738832 4278537389
-0.025982149 -9.0098009e-05 0.00070544053 4278800294
-0.036701158 -0.0058075991 0.0034117538 4279716763
-0.035252232 -0.002564311 0.0007367488 4278799274
-0.026751235 0.0032296274 -0.0042631384 4278538154
-0.039601825 -0.014615308 0.0082752602 4281290879
-0.038517483 -0.0081470944 0.0030352611 4279520924
-0.03705477 -0.0048950007 0.00036590779 4278865318
-0.033529256 -0.0032142252 -0.0011184374 4279127204
-0.031774826 -0.0023738462 -0.0018600472 4279585694
-0.030142345 -0.00072978437 -0.0032427683 4279323298
-0.028520867 0.00091413595 -0.0046247691 4279062178
-0.03917085 -0.0048116175 -0.0019293469 4279653269
-0.037513502 -0.0031631924 -0.003310496 4278995878
-0.03192563 -0.003053708 -0.0036098557 4279519904
-0.03029589 -0.0014054105 -0.0049891453 4278471598
-0.039207492 -0.0062993104 -0.0030406201 4279259803
-0.037550181 -0.0046465416 -0.0044185175 4278800548
-0.040512785 -0.012685759 -0.00022648787 4282798183
-0.039244127 -0.0077868002 -0.0041517429 4278931364
-0.037586853 -0.0061297016 -0.0055263946 4278471344
-0.035940554 -0.004472754 -0.0069003375 4278996643
-0.033862069 -0.0060568387 -0.005726032 4279128733
-0.032340366 -0.0035897195 -0.0077359723 4278996898
-0.031300068 0.0021178015 -0.012291422 4279521434
-0.040449731 -0.014998619 -0.0007112911 4282404464
-0.039075609 -0.010899156 -0.0039912509 4280045713
-0.037518207 -0.0084251845 -0.005998496 4279520668
-0.03586923 -0.0067638224 -0.0073693907 4280045968
-0.033788256 -0.0083522405 -0.0061984239 4280242828
-0.032490753 -0.0042537879 -0.0094739869 4279587223
-0.031685289 0.0030934382 -0.015287917 4281488249
-0.040586356 -0.015686048 -0.0024676602 4281683833
-0.039112326 -0.012390537 -0.0051052803 4280242829
-0.037344422 -0.011539414 -0.005839766 4279390109
-0.035474103 -0.011502922 -0.0059400806 4279193248
-0.033493184 -0.012280865 -0.005406634 4279979158
-0.032414183 -0.006542434 -0.009941509 4279914644
-0.045909185 -0.02056328 -0.00075155916 4282732905
-0.040623132 -0.017185889 -0.0035880189 4280438159
-0.039046556 -0.014698624 -0.0055866959 4280111504
-0.03727603 -0.013845293 -0.0063197082 4279783318
-0.035403121 -0.013808742 -0.0064201551 4279520668
-0.03364094 -0.012955349 -0.0071525509 4280241809
-0.032451063 -0.0080184862 -0.011044051 4280307853
-0.040859256 -0.017047288 -0.0059702247 4280896903
-0.038980879 -0.017010888 -0.0060711578 4279521688
-0.036997452 -0.017793367 -0.0055412771 4279717783
-0.035116524 -0.017756658 -0.0056421533 4279127969
-0.033567417 -0.015263103 -0.0076342477 4279979413
-0.032714538 -0.0078565916 -0.013407027 4280439179
-0.040895887 -0.018542413 -0.007087063 4280501654
-0.038915291 -0.019327246 -0.0065587526 4279652249
-0.037034418 -0.019290669 -0.0066597229 4279914389
-0.035045832 -0.020075105 -0.0061316621 4279717274
-0.033604503 -0.016753942 -0.0087478459 4279782553
-0.032638028 -0.010148962 -0.01387741 4280504458
-0.041032087 -0.019213846 -0.0088315606 4282275178
-0.039054409 -0.020000951 -0.008304677 4281029249
-0.03696635 -0.021611121 -0.0071505532 4280634763
-0.035082974 -0.021574428 -0.0072516073 4279717529
-0.033641569 -0.018244589 -0.0098613016 4280241553
-0.032901183 -0.0099759195 -0.016231988 4281290369
-0.037108306 -0.022284748 -0.0088962242 4282537319
-0.035012409 -0.023899011 -0.0077457 4281160064
-0.033568207 -0.020560484 -0.01034908 4280503439
-0.032485276 -0.01474621 -0.014827445 4280504969
-0.037355062 -0.022126118 -0.011262786 4281029249
-0.03548013 -0.022089589 -0.011363387 4281947504
-0.039368868 -0.022824893 -0.012899548 4282733158
-0.0413769 -0.02351895 -0.014533166 4280438414
-0.045339674 -0.023409769 -0.016683085 4281552763
0.029941134 -0.010563222 0.034086455 4285163308
0.029318549 -0.0098043457 0.030943878 4287587849
-0.016995449 0.010694621 0.0031620038 4284966704
-0.015277002 0.01152009 0.0024116868 4284901168
-0.019422904 0.012337482 -0.00044664275 4285033259
-0.01771256 0.013164869 -0.0011949735 4286016793
-0.016146325 0.014782446 -0.0025930023 4286343193
-0.014167406 0.014029471 -0.0020406507 4286408984
-0.012183212 0.013276761 -0.0014885366 4285949728
-0.0096069798 0.009364225 0.0016617873 4285294889
-0.0071531013 0.0062422752 0.0041612978 4285826054
-0.021306835 0.010828426 -0.001447848 4285098539
-0.019992746 0.014035324 -0.0041408958 4285754654
-0.018293362 0.014864655 -0.0048870193 4286411278
-0.016599566 0.015693972 -0.0056327749 4286343703
-0.014911376 0.016523318 -0.0063782018 4286408728
-0.012940966 0.015768113 -0.0058269389 4285951004
-0.010525376 0.012636615 -0.003331963 4285360934
-0.0080881715 0.0095056761 -0.00083811907 4285295654
-0.0062376335 0.0095435269 -0.00093606533 4285230119
0.020388015 -0.008989227 0.013397703 4285687843
-0.021604951 0.010946037 -0.0038415389 4285295654
-0.020163257 0.013366869 -0.0058807479 4285951513
-0.018330991 0.013403768 -0.0059781605 4285556773
-0.016775671 0.015029782 -0.0073691262 4285687844
-0.015090268 0.015861223 -0.0081127184 4285884703
-0.013410442 0.01669261 -0.0088559687 4285819679
-0.011296518 0.01514099 -0.007659778 4285623839
-0.0090225413 0.012795324 -0.0058178576 4285492769
-0.0070364401 0.012038605 -0.0052688764 4285493279
-0.0048903376 0.010487881 -0.0040741358 4285296163
-0.0027335063 0.0089374911 -0.0028799502 4285164584
0.0066742599 -0.00043666922 0.0044727288 4285557284
-0.023483057 0.0094420146 -0.0048393719 4285230119
-0.022163209 0.012666268 -0.0075198198 4285427488
-0.020466559 0.013499836 -0.0082626631 4286083348
-0.018775482 0.014333325 -0.0090051079 4286082074
-0.017366689 0.016760165 -0.011037495 4285885214
-0.015692234 0.017593579 -0.011778938 4285951003
-0.01359199 0.016037175 -0.010585319 4286213653
-0.011334501 0.013684625 -0.0087475041 4285754399
-0.0090608224 0.011332469 -0.0069104265 4285689374
-0.0073788017 0.012166353 -0.0076519568 4285624093
-0.0055477172 0.0122039 -0.0077488059 4285689628
-0.0038741902 0.01303781 -0.0084897382 4285754399
-0.0020461529 0.01307545 -0.0085863052 4286409239
-0.00021827221 0.01311318 -0.0086827986 4286408219
0.0021061003 0.010762658 -0.0068480317 4286015519
0.004614912 0.00761641 -0.0043704566 4285491749
0.017846212 -0.0096983733 0.0092870509 4285490728
-0.02403006 0.011171388 -0.0085115787 4285361699
-0.022590883 0.01360509 -0.010540977 4285558813
-0.020902462 0.014440583 -0.01128174 4285886489
-0.019084062 0.014477206 -0.011378415 4286082584
-0.017542381 0.016111614 -0.012762167 4286213399
-0.015729703 0.016148308 -0.012858395 4286278934
-0.01362969 0.014587568 -0.011668006 4286148373
-0.011226021 0.011429766 -0.0091919135 4285688863
-0.0090990961 0.0098698251 -0.0080028353 4285689629
-0.0075690448 0.011504451 -0.0093855588 4285689374
-0.0062046349 0.013937486 -0.011410354 4285820188
-0.0046993867 0.015571805 -0.012791611 4286345998
-0.0028850436 0.015609162 -0.012887457 4286408729
-0.00074532628 0.014049934 -0.011698723 4286474009
0.001074113 0.014087575 -0.011794703 4286343193
0.0030616075 0.013327064 -0.011248656 4285426468
0.0057381168 0.0093739852 -0.0081355283 4285361444
0.0091362596 0.0022289995 -0.0024570497 4285032749
-0.02483131 0.01452083 -0.013455711 4285493279
-0.023278352 0.016159473 -0.014836989 4285689373
-0.021338046 0.01539463 -0.014290962 4285689118
-0.019527923 0.015431056 -0.014387218 4285754909
-0.017856184 0.016268598 -0.015125312 4285820698
-0.015908111 0.015504206 -0.014579477 4285755419
-0.013667375 0.013138143 -0.012750559 4285689884
-0.011410467 0.010772571 -0.01092246 4285689883
-0.0094355941 0.010008954 -0.0103778 4285689884
-0.0079109818 0.011647858 -0.011757022 4285689628
-0.0065519586 0.01408725 -0.013776612 4286017304
-0.0052094311 0.016526459 -0.015795302 4285819678
-0.0034033656 0.016563656 -0.015890703 4285753888
-0.0012720302 0.014999865 -0.014704805 4285754144
0.000870049 0.01343636 -0.013519358 4285951004
0.0025183409 0.014274405 -0.014255472 4285623583
0.0050154105 0.011110708 -0.01179024 4285624094
0.0082284734 0.0047462601 -0.0067658182 4285426979
0.012190104 -0.0048181834 0.00081605976 4285425449
-0.026432071 0.011432899 -0.013156125 4285427489
-0.025122713 0.01468285 -0.015816614 4285690138
-0.0234452 0.015522359 -0.016553629 4286345743
-0.021640524 0.015558587 -0.01664966 4286148629
-0.019565064 0.013988404 -0.015464738 4285754653
-0.017893385 0.014828118 -0.016201202 4285689373
-0.015663687 0.012455208 -0.014376655 4285689629
-0.01356142 0.010885885 -0.013192924 4285624349
-0.011594757 0.010119889 -0.01264956 4285493024
-0.010069981 0.011762956 -0.014025601 4285623839
-0.008404471 0.012603009 -0.014761385 4285755419
-0.0068990514 0.014245948 -0.016136281 4286017048
-0.0054046735 0.015888682 -0.017510498 4286082328
-0.003761366 0.016728545 -0.018244911 4285885214
-0.0017983466 0.015962994 -0.017700965 4285753889
0.00016995519 0.015197659 -0.017157217 4285951514
0.0023116246 0.013629934 -0.015974976 4286083348
0.0049764886 0.0096548889 -0.012877496 4285558049
0.0081889778 0.0032730848 -0.0078660306 4285492004
0.012149826 -0.006317406 -0.00030359859 4285752868
-0.027215946 0.014817806 -0.018074818 4285624093
-0.025541112 0.015659368 -0.018810187 4286082328
-0.023741882 0.015695354 -0.018906027 4286147353
-0.021810085 0.014925929 -0.018362775 4286147353
-0.020008389 0.014962187 -0.018458582 4286148629
-0.018068697 0.014193172 -0.017915638 4285623329
-0.016123701 0.013424361 -0.017372904 4285558559
-0.013886265 0.01104521 -0.015553562 4285558813
-0.012217797 0.011887355 -0.016288057 4285624604
-0.010405891 0.01192428 -0.016384063 4285558559
-0.0088975951 0.013571454 -0.017755903 4285624093
-0.0070914328 0.013608435 -0.017851472 4285689628
-0.0055997744 0.015255449 -0.019222299 4286280974
-0.0039592534 0.016097447 -0.019954998 4286082329
-0.0021617115 0.016134536 -0.020049898 4286147608
0.00013165176 0.013757253 -0.018232977 4286213398
0.00227312 0.012185143 -0.017054003 4285951768
0.0052791163 0.0065898411 -0.012690663 4285623328
0.0086699575 -0.0006138552 -0.0070556421 4285556263
-0.028567497 0.010114864 -0.016499316 4285032493
-0.027127925 0.012574313 -0.018509394 4285754654
-0.025704809 0.015033567 -0.020518567 4285951003
-0.023908433 0.015069501 -0.020614251 4285951004
-0.021979541 0.014297878 -0.020072524 4286279443
-0.020045333 0.013526445 -0.019530941 4286017304
-0.018243883 0.013562763 -0.019626686 4285688864
-0.016442563 0.013599193 -0.019722339 4285558303
-0.014354371 0.012020869 -0.018544383 4285558814
-0.012547895 0.012057597 -0.018640164 4285624604
-0.010890499 0.012901699 -0.019372363 4285624349
-0.0092386976 0.013745787 -0.020104194 4285689884
-0.0072837025 0.012975475 -0.019563267 4285755164
-0.0056376308 0.013819611 -0.02029467 4285755164
-0.0038373247 0.013856655 -0.020389792 4285688864
-0.0020371825 0.013893766 -0.020484852 4285754399
-7.1913004e-05 0.013123976 -0.019944234 4285623584
0.0022346154 0.010740569 -0.018132867 4285623839
0.0054108128 0.004323218 -0.013145534 4285557283
-0.028969057 0.011100726 -0.019486966 4285360934
-0.027537625 0.013566567 -0.021491777 4286083094
-0.025995504 0.015222216 -0.022859581 4285622564
-0.024334542 0.016067913 -0.023590907 4285557028
-0.022413991 0.015293917 -0.02305031 4285623073
-0.020488136 0.014520178 -0.022509959 4285688863
-0.018556964 0.01374664 -0.021969819 4285754909
-0.016901951 0.01459256 -0.022700496 4285689884
-0.01482214 0.01300974 -0.021525335 4285558814
-0.013170108 0.013855798 -0.022255704 4285689629
-0.011225864 0.013082905 -0.021715974 4285755164
-0.0097311512 0.014738446 -0.023080627 4285820189
-0.0077844933 0.013965772 -0.022540895 4286016028
-0.0059895813 0.014002601 -0.022635812 4285819679
-0.0038752705 0.012420969 -0.021462044 4285689373
-0.0020752251 0.012458054 -0.021557115 4285689628
5.5097044e-05 0.010876976 -0.020384096 4285558558
0.0025320053 0.0076779537 -0.017943857 4285558048
0.0096309483 -0.0084261773 -0.005463657 4286147099
-0.030928928 0.010439759 -0.0210991 4285163819
-0.029370282 0.012099897 -0.022464747 4285624094
-0.027698278 0.012947729 -0.023195153 4286083603
-0.026158892 0.014607685 -0.024559623 4286082073
-0.02450072 0.015455445 -0.025289141 4286016283
-0.022583075 0.014679274 -0.024750048 4286016539
-0.020660114 0.013903247 -0.024211135 4286017049
-0.018869784 0.013939312 -0.02430631 4285688863
-0.016938921 0.013163691 -0.02376771 4285689884
-0.01514614 0.013200017 -0.023862857 4285624349
-0.013207369 0.012424717 -0.023324555 4285754909
-0.011709809 0.014084561 -0.02468618 4285885978
-0.0099201649 0.014121098 -0.024780951 4286278934
-0.0081306472 0.014157711 -0.024875663 4286213144
-0.0061842725 0.013382932 -0.024337489 4286082838
-0.0042326227 0.012608359 -0.023799522 4285820188
-0.002113238 0.011022532 -0.022629237 4285689374
1.6860664e-05 0.0094370842 -0.021459473 4285558558
0.0029970407 0.0037956536 -0.017128984 4285492004
0.0065268949 -0.0042785946 -0.010904077 4285425958
-0.031202771 0.010633523 -0.023437509 4285163818
-0.029649582 0.012297837 -0.024799585 4285492513
-0.02810739 0.013962077 -0.026161037 4285557793
-0.026322156 0.013997668 -0.026256219 4285951004
-0.024796505 0.015661715 -0.027616613 4286213399
-0.022752024 0.014069093 -0.02644638 4286148119
-0.02110232 0.014919044 -0.027173676 4285688863
-0.019182377 0.014140924 -0.026636198 4285689884
-0.017397739 0.014176955 -0.026731011 4285624349
-0.015326541 0.012585225 -0.025561858 4285624093
-0.013390675 0.011807701 -0.025025023 4285754654
-0.01189585 0.013471847 -0.026383314 4285820188
-0.010260507 0.014322052 -0.02710944 4286082329
-0.0084765479 0.014358526 -0.027203877 4286213654
-0.0063788518 0.01276779 -0.026035786 4286082074
-0.0045897216 0.012804521 -0.026130378 4285819934
-0.0024759993 0.01121431 -0.024963064 4285754909
0.00014374405 0.0071839262 -0.021903936 4285624349
0.0034617707 -9.9536031e-05 -0.016323661 4285493024
0.0069991127 -0.0081952801 -0.010115435 4285557538
-0.031001184 0.0075697638 -0.023242816 4285491239
-0.02956409 0.010055056 -0.025233453 4285688608
-0.028019197 0.01172369 -0.0265918 4285359659
-0.026231363 0.01175929 -0.026687153 4285360423
-0.024573326 0.012611365 -0.027413428 4285426214
-0.022788443 0.012647117 -0.027508467 4285558049
-0.021138802 0.013499217 -0.028234154 4285558304
-0.019494716 0.01435131 -0.028959461 4285624604
-0.017575078 0.013571085 -0.02842354 4285624349
-0.015793409 0.013607157 -0.028518118 4285689628
-0.013719857 0.012011258 -0.027352322 4285820953
-0.012379155 0.014495524 -0.029337075 4285819679
-0.010449164 0.013715869 -0.028801434 4285623074
-0.0088221878 0.014568152 -0.029525433 4285754399
-0.0065732747 0.012157155 -0.027730793 4285754143
-0.0049465597 0.013009591 -0.028454661 4285688353
-0.0025138557 0.0097834561 -0.026031699 4285688609
0.00010550022 0.005742209 -0.022980681 4285492513
0.0037584305 -0.0031920131 -0.016156958 4285492003
0.0069595799 -0.0096782409 -0.01122297 4287588869
-0.030918539 0.005316304 -0.023684487 4285491494
-0.029357228 0.0069894604 -0.025040569 4285622308
-0.027558532 0.007025186 -0.025136568 4285622308
-0.025759935 0.0070609953 -0.025232499 4285688354
-0.024220712 0.0087339673 -0.02658714 4285689118
-0.022560135 0.0095883403 -0.027311865 4285294888
-0.021040186 0.011261152 -0.028665386 4285361189
-0.019393452 0.012115454 -0.029389225 4285558814
-0.017752271 0.012969712 -0.030112714 4285558558
-0.01597343 0.013005713 -0.030207153 4285624093
-0.014048778 0.012223596 -0.029672991 4285623838
-0.012564801 0.013896113 -0.031024203 4286082328
-0.010940462 0.014750434 -0.031746566 4286214164
-0.0093216971 0.015604695 -0.032468528 4286017049
-0.0070811957 0.01318696 -0.030678287 4286149138
-0.0051436126 0.012405543 -0.030144479 4286083094
-0.0027139485 0.0091706496 -0.027727872 4285557538
0.00056223571 0.0018471945 -0.022174684 4285557794
0.0040548891 -0.0062929187 -0.015996624 4285819679
-0.030479919 0.00059592724 -0.022244126 4285491494
-0.028907742 0.002273608 -0.023597561 4285557029
-0.027098287 0.0023095198 -0.023694158 4285622564
-0.025415789 0.0031662863 -0.024418591 4285688099
-0.023738842 0.0040230341 -0.02514266 4285556519
-0.022332031 0.006521102 -0.027121663 4285556518
-0.020806644 0.008198319 -0.028472181 4285623073
-0.019292273 0.009875441 -0.029822093 4285360169
-0.015866984 0.010767931 -0.03063871 4285294889
-0.014085658 0.010804037 -0.030733243 4285492514
-0.012898915 0.014121538 -0.033334792 4285820698
-0.011128731 0.014157606 -0.033428587 4286279699
-0.0096667781 0.015834136 -0.034775291 4286082329
-0.0074319765 0.013409818 -0.032989658 4286214163
-0.0055000037 0.012626046 -0.032457165 4285623838
-0.0025894716 0.0069222543 -0.028168604 4285426978
0.00085373223 -0.001240639 -0.022004226 4285426213
0.0041835085 -0.0085824328 -0.016468424 4287849989
-0.030516244 -0.00084928796 -0.02332362 4285622819
-0.028822735 9.6932054e-06 -0.02404722 4285688609
-0.026886605 -0.00077735446 -0.023517458 4285557028
-0.025071941 -0.00074125454 -0.023614267 4285557028
-0.023386907 0.00011785887 -0.024337193 4285622563
-0.021839648 0.0017997082 -0.025685731 4285622563
-0.020438354 0.0043042507 -0.027659513 4285623074
-0.018915813 0.0059858169 -0.029006582 4285557539
-0.017263878 0.0068445802 -0.029727433 4285557538
-0.015331272 0.0060581714 -0.029197026 4285688863
-0.013830848 0.0077395961 -0.030542765 4285623329
-0.012787104 0.01188832 -0.033763297 4285294633
-0.011468127 0.014391685 -0.035732266 4285360423
-0.0098576024 0.015250115 -0.036450621 4285558049
-0.007782504 0.013641475 -0.035294391 4285558048
-0.0053778291 0.010388611 -0.032889534 4285493023
-0.0023029298 0.0038474407 -0.027987987 4285493024
0.0014747754 -0.0059813382 -0.020591527 4285491239
-0.030078243 -0.0055953041 -0.021902489 4285557028
-0.028616518 -0.0030836295 -0.023874978 4285622819
-0.026923168 -0.0022224411 -0.02459684 4285688609
-0.025235377 -0.0013612378 -0.025318388 4285491238
-0.023294192 -0.0021501742 -0.024790386 4285491239
-0.021612048 -0.0012888834 -0.025511485 4285557028
-0.020205259 0.0012222026 -0.027480669 4285557028
-0.018677294 0.0029082336 -0.028824832 4285557283
-0.017019976 0.0037692543 -0.029544361 4285491493
-0.015368212 0.0046302807 -0.03026351 4285491493
-0.013722017 0.0054912549 -0.030982316 4285622818
-0.01267536 0.0096508507 -0.034194909 4285819678
-0.011051171 0.01051159 -0.03491246 4285622819
-0.0094325393 0.011372289 -0.035629593 4285228589
-0.007349506 0.0097594522 -0.034477051 4285163563
-0.0047776178 0.0056736507 -0.031456143 4285294888
-0.0015303195 -0.0017090365 -0.025945332 4285294123
-0.029877689 -0.0087037012 -0.021741142 4285294123
-0.028410494 -0.0061853752 -0.023709103 4285754144
-0.026835743 -0.0044946531 -0.025052877 4285622818
-0.025145289 -0.0036312882 -0.025772914 4285557029
-0.023201574 -0.0044223163 -0.025246723 4285557028
-0.021384642 -0.0043859957 -0.025343522 4285557029
-0.019837525 -0.0026953686 -0.026685558 4285557029
-0.018301394 -0.0010049287 -0.028026909 4285557028
-0.016776253 0.00068538077 -0.029367607 4285491493
-0.01511912 0.0015487149 -0.030085467 4285557283
-0.013613254 0.0032388065 -0.03142501 4285622564
-0.012118392 0.0049288273 -0.032763932 4285688353
-0.010483362 0.0057918783 -0.033480421 4285556773
-0.0088539049 0.0066549461 -0.034196518 4285622564
-0.0069168061 0.0058646575 -0.033669323 4285622819
-0.0041778237 0.00094151497 -0.030035589 4285687843
-0.027962282 -0.010954757 -0.022306086 4285557029
-0.026624486 -0.0076005058 -0.024890432 4285491748
-0.025055289 -0.005905482 -0.026230611 4285425704
-0.023367729 -0.0050399145 -0.026948798 4285491238
-0.021553636 -0.0050036926 -0.027045477 4285556774
-0.019874454 -0.0041380757 -0.027763136 4285622819
-0.018200818 -0.0032725111 -0.028480377 4285622818
-0.016532745 -0.0024069641 -0.029197253 4285622818
-0.015156113 0.00011676736 -0.031154983 4285688354
-0.013504572 0.00098215602 -0.031870849 4285688099
-0.011710212 0.0010185186 -0.031966075 4285688099
-0.0097648725 0.00022604316 -0.031441081 4285688099
-0.0082756877 0.0019203778 -0.032776307 4285622308
-0.0061713308 0.00029931217 -0.031631455 4285687844
-0.0037377253 -0.0029790103 -0.02924763 4285622309
-0.00031063706 -0.011229075 -0.023147415 4285687844
-0.021326449 -0.0081113325 -0.026885457 4285294888
-0.019507147 -0.0080749206 -0.026982352 4285557284
-0.017825413 -0.007207063 -0.027698427 4285622818
-0.016149227 -0.0063392194 -0.028414138 4285688099
-0.014621496 -0.0046401061 -0.029748496 4285687843
-0.013104752 -0.0029411651 -0.031082161 4285753888
-0.011450663 -0.0020735115 -0.031796504 4285753889
-0.0096510872 -0.0020369925 -0.031891972 4285688353
-0.0078516379 -0.0020003691 -0.03198735 4285687843
-0.0058958456 -0.0027946364 -0.031464409 4285622053
-0.0031386986 -0.0077434089 -0.027851176 4285491493
0.00013667345 -0.015184058 -0.022385668 4285490728
-0.019140139 -0.012024633 -0.02621118 4285228843
-0.017587714 -0.01032088 -0.027543753 4285557284
-0.01604626 -0.0086173061 -0.028875634 4285688354
-0.014658637 -0.0060804319 -0.030824274 4285753633
-0.012996331 -0.0052105486 -0.03153751 4285819678
-0.011339575 -0.0043407232 -0.032250412 4285688098
-0.0095373839 -0.0043041566 -0.032346018 4285753888
-0.0078890324 -0.0034343284 -0.033058345 4285753634
-0.0056205243 -0.0058970954 -0.031303793 4285557028
-0.0025400966 -0.012525007 -0.026467565 4285557028
-0.012742497 -0.0083196862 -0.03138043 4285556263
-0.011080347 -0.0074476134 -0.032092016 4285688863
-0.0095746964 -0.0057401303 -0.033418529 4285622818
-0.0077727214 -0.0057035331 -0.033514097 4285622308
-0.005501762 -0.0081727682 -0.031764559 4285557028
-0.0022600889 -0.015653234 -0.026326563 4285818659
-0.010376811 -0.01307602 -0.030098498 4285359914
