# .PCD v0.7 - Point Cloud Data file format
VERSION 0.7
FIELDS x y z rgba
SIZE 4 4 4 4
TYPE F F F U
COUNT 1 1 1 1
WIDTH 966
HEIGHT 1
VIEWPOINT 0 0 0 1 0 0 0
POINTS 966
DATA ascii
-0.034911834 -0.012831434 -0.0039023678 4288820264
-0.033223029 -0.011192959 -0.0053253756 4289343268
-0.031084981 -0.012740775 -0.0041591567 4288950823
-0.029407237 -0.011102334 -0.0055812527 4288428329
-0.040190797 -0.018491536 -0.0014172317 4287575609
-0.038263634 -0.018446328 -0.0015468812 4287904558
-0.036550179 -0.016803185 -0.0029685069 4288165934
-0.034738153 -0.015959021 -0.003743453 4288492843
-0.033043928 -0.014316035 -0.0051636412 4288493353
-0.031015702 -0.015069406 -0.0046464461 4289212964
-0.029452968 -0.012627877 -0.0067108544 4288689959
-0.027786225 -0.010985221 -0.0081288861 4288232489
-0.041965954 -0.02167969 -0.0011382438 4286790209
-0.040134747 -0.020833278 -0.0019131415 4287575609
-0.038205013 -0.020788001 -0.0020429567 4288034609
-0.036488872 -0.019140394 -0.0034615691 4288035118
-0.034674212 -0.018293994 -0.0042350758 4288231724
-0.032977279 -0.01664665 -0.0056521827 4288428074
-0.031061471 -0.016601209 -0.005780695 4288754984
-0.029263407 -0.015754787 -0.0065528536 4289344034
-0.027350508 -0.015709193 -0.0066810083 4288297513
-0.02568388 -0.014062077 -0.0080957171 4288101929
-0.042109717 -0.022420812 -0.0029253904 4287705658
-0.040180068 -0.022375682 -0.0030553062 4287641144
-0.038250487 -0.022330433 -0.0031851283 4287838258
-0.036534373 -0.020678459 -0.0046004937 4288166444
-0.034610383 -0.020633096 -0.004729758 4288493609
-0.032798614 -0.019784452 -0.0055013523 4288362538
-0.03099237 -0.018935837 -0.0062724999 4288755239
-0.02907408 -0.01889023 -0.0064011011 4289147939
-0.027155891 -0.018844519 -0.0065296153 4288297513
-0.025360819 -0.017995797 -0.0072997361 4288035884
-0.023948524 -0.01473865 -0.009994071 4288101929
-0.022172689 -0.013890179 -0.01076275 4287840809
-0.042351805 -0.022351705 -0.005350953 4286725694
-0.040528946 -0.021501135 -0.0061220578 4287838004
-0.038503774 -0.022261562 -0.0056099207 4288165679
-0.036686487 -0.021410892 -0.006380477 4288297258
-0.034765374 -0.02136557 -0.0065095276 4288166444
-0.033068486 -0.019709542 -0.0079201777 4288559399
-0.031152979 -0.019664118 -0.0080486787 4288494119
-0.029237553 -0.019618589 -0.0081770932 4289148449
-0.027322229 -0.019572929 -0.0083054043 4287970604
-0.025407005 -0.019527165 -0.0084336279 4288297513
-0.023868907 -0.017066319 -0.010481595 4288101419
-0.022218835 -0.015410696 -0.011888581 4288166698
-0.020710874 -0.012950336 -0.013934358 4288101419
-0.018817842 -0.012904639 -0.014060752 4288952099
-0.017198041 -0.011249363 -0.015465505 4287971114
-0.03886063 -0.021376176 -0.0086678676 4287184694
-0.036945038 -0.021331109 -0.0087966416 4288558634
-0.034920223 -0.022093493 -0.0082859285 4288755238
-0.033114068 -0.021240657 -0.0090539325 4288493609
-0.031083979 -0.022002673 -0.0085433926 4288689703
-0.029283438 -0.021149736 -0.0093108453 4289147938
-0.027368259 -0.021104079 -0.0094391461 4288232234
-0.02557607 -0.020251054 -0.010205901 4288166444
-0.02391503 -0.018590951 -0.011610487 4288363049
-0.02213664 -0.01773808 -0.012376113 4288231723
-0.020756949 -0.014464116 -0.015055189 4288558888
-0.018730279 -0.015225405 -0.014543822 4289082403
-0.016971268 -0.01437266 -0.0153079 4288624934
-0.015357029 -0.012713069 -0.016708976 4288491823
-0.033383533 -0.021152195 -0.011462797 4287968819
-0.031359095 -0.021916516 -0.010953491 4288100143
-0.029329304 -0.022680642 -0.010444421 4288885033
-0.027534381 -0.021825511 -0.011209842 4288297004
-0.025744982 -0.020970417 -0.01197475 4288035118
-0.023961131 -0.020115379 -0.012739228 4288428584
-0.022054549 -0.020069605 -0.012866712 4288363049
-0.020410042 -0.018405315 -0.014266787 4288755238
-0.018509123 -0.018359464 -0.014393736 4289343779
-0.01660832 -0.018313497 -0.014520587 4288231724
-0.015403345 -0.014222331 -0.01782643 4287836474
-0.029492479 -0.023399591 -0.012213521 4288362028
-0.027700346 -0.022542413 -0.012977113 4288165934
-0.025668234 -0.023308368 -0.012469672 4288165934
-0.023881737 -0.022451092 -0.013232711 4288231724
-0.021972578 -0.022405248 -0.013360362 4288624934
-0.020325359 -0.02073659 -0.014757421 4288821029
-0.018288225 -0.021501975 -0.014249982 4288623403
-0.016654823 -0.019833412 -0.01564594 4288166698
-0.015310574 -0.016542597 -0.018309496 4286854979
-0.024178687 -0.022349918 -0.015629729 4287577393
-0.022146981 -0.023117868 -0.015123735 4288689959
-0.020240791 -0.023071995 -0.015251113 4289410079
-0.018201135 -0.023839526 -0.014745482 4288886819
-0.016565021 -0.022166546 -0.01613839 4287969838
-0.020548683 -0.022964405 -0.017642437 4289147683
-0.018781681 -0.022102889 -0.018400749 4288821283
-0.017156441 -0.020425847 -0.019789718 4288099889
-0.0090040304 0.0023838542 0.023938434 4282875703
-0.0070487857 0.0024313927 0.023808138 4283334704
-0.0047960356 0.00096165761 0.025022658 4283986483
-0.012413584 0.0083802529 0.01619561 4282483768
-0.011058893 0.011471106 0.013382677 4280792098
-0.0064811856 0.0077600386 0.016481044 4282095914
-0.0036418959 0.0032422896 0.020375973 4282941494
-0.014664631 0.008315254 0.013840647 4282026298
-0.013866398 0.014467996 0.0083549861 4281439544
-0.010649186 0.01761293 0.0054243971 4279491088
-0.0081648752 0.014606748 0.0079751387 4280208405
-0.0055075064 0.010838157 0.011193428 4281440564
-0.0026689321 0.0063073914 0.015078818 4281830459
4.5232475e-05 0.0025404133 0.018293492 4281634109
0.0023076236 0.0010626502 0.019501232 4282354228
0.0045807362 -0.00041480921 0.02070836 4284253723
-0.01567601 0.012133513 0.0080224983 4281308983
-0.014615487 0.016772393 0.0038871663 4280723758
-0.013014968 0.018348966 0.0024256445 4281829183
-0.011279564 0.019160073 0.0016326327 4281959489
-0.0092524812 0.018440656 0.0021750741 4280982073
-0.0070687458 0.016956296 0.0033845687 4281046334
-0.0044120327 0.013176933 0.0065949094 4280980799
-0.0018850639 0.010163371 0.0091365594 4281176384
0.00066346675 0.0071504489 0.011676854 4281176128
0.0029090941 0.0056680162 0.012882542 4281894464
0.0053303838 0.0034210589 0.014754049 4282874684
0.0076000988 0.0019393824 0.015958335 4283465264
0.0097100884 0.0012228191 0.016495876 4283790644
0.011825316 0.00050646998 0.017033136 4284445229
-0.017626066 0.010562712 0.0070205759 4281242173
-0.016686477 0.015982661 0.002227149 4280851259
-0.015083078 0.017563563 0.00076859724 4278832169
-0.013347607 0.018376812 -2.290681e-05 4278571304
-0.011471856 0.018422477 -0.0001478605 4278830894
-0.0053835139 0.016258173 0.0014744503 4280915774
-0.00334353 0.015537225 0.002014664 4280851259
-0.0012982786 0.014816504 0.002554602 4280590139
0.00075225532 0.014095962 0.0030942978 4281046334
0.003302753 0.011074573 0.0056281406 4280525879
0.0057071969 0.0088208113 0.007495949 4279098388
0.0082981288 0.0058006234 0.010027254 4280335648
0.010737538 0.0035478864 0.011892935 4281895739
0.013368867 0.0005288925 0.014421709 4282026298
0.015486211 -0.00018937141 0.014957365 4283860258
0.017608792 -0.00090743415 0.015492728 4284315944
0.019368693 -9.2139468e-05 0.014700746 4284706604
0.021122962 0.00072306395 0.01390918 4284443444
-0.019311652 0.0074522812 0.0073496476 4283920693
-0.01875177 0.015197787 0.0005702544 4281176128
-0.017145518 0.016783081 -0.00088534877 4280523839
-0.013536904 0.017643854 -0.0018001301 4279095328
-0.0077674761 0.017011471 -0.0015100092 4280524093
-0.0058923438 0.017057434 -0.0016346872 4280849984
-0.0043307319 0.018642336 -0.0030867257 4280720188
-0.0024613813 0.018688373 -0.0032108617 4280851259
-0.00059221685 0.018734504 -0.0033349139 4280069173
0.0039833635 0.014981311 -0.0002676649 4278834465
0.0063764155 0.01272082 0.0015961835 4279422750
0.0089586005 0.0096917935 0.0041216658 4279617568
0.012089483 0.0043566003 0.0086332057 4281959998
0.014901362 0.00056018494 0.011817735 4281764668
0.017196767 -0.0009290725 0.013014207 4281699899
0.01913508 -0.00088048354 0.012886129 4283922479
0.02107317 -0.00083181076 0.012758128 4283919163
-0.020547148 0.0128734 0.00024398882 4282810933
-0.019606747 0.018323723 -0.0045268661 4281372734
-0.017879281 0.019140944 -0.0053147417 4280848709
-0.015736554 0.017642081 -0.0041124704 4281045313
-0.013869084 0.017687451 -0.0042369398 4280784703
-0.012001764 0.017732944 -0.0043613105 4280654654
-0.009986151 0.017006747 -0.0038229306 4280914754
-0.0079652593 0.016280774 -0.0032848329 4280784448
-0.0062468648 0.017098345 -0.0040716049 4280719934
-0.0043774694 0.0171443 -0.0041958052 4280852279
-0.0026675835 0.017961871 -0.0049818582 4280785979
-0.00063920766 0.017236497 -0.0044439477 4280981563
0.0012296587 0.017282724 -0.0045678993 4281763394
0.0032658353 0.016557734 -0.004030366 4281633344
0.0054774731 0.015061677 -0.0028318525 4280851768
0.0078727379 0.012794822 -0.00097299274 4281503548
0.010635406 0.0089862086 0.0022066394 4281243449
0.013781816 0.0036362167 0.0067059454 4281177913
0.016422823 0.00060023554 0.0092212763 4280909653
-0.021830663 0.0074471384 0.0025644368 4282351423
-0.021385308 0.016010899 -0.0048459657 4281437504
-0.020056628 0.0191532 -0.0076185451 4278637093
-0.018199891 0.01919812 -0.0077424445 4279356448
-0.016062886 0.017694809 -0.0065430705 4280720954
-0.013915125 0.016191822 -0.005344288 4281176128
-0.012193598 0.017011367 -0.0061298641 4281111868
-0.010329284 0.017056886 -0.0062539591 4280849983
-0.0086162388 0.017876461 -0.0070388601 4280915008
-0.0069087818 0.018695951 -0.0078232829 4281045824
-0.005050391 0.018741649 -0.0079467427 4280915263
-0.0030329153 0.018013731 -0.0074097975 4280589628
-0.0010101572 0.017285995 -0.0068730917 4279156528
0.0006884411 0.018105716 -0.0076566641 4281242429
0.0025488362 0.01815185 -0.0077799684 4281567808
0.0047493577 0.016651165 -0.0065839496 4281111358
0.0069605559 0.015150875 -0.0053886166 4280329784
0.0098847449 0.010557737 -0.0015568929 4280981819
0.012841396 0.005965434 0.0022727754 4280717129
-0.022781543 0.011364073 -0.0031855195 4281829439
-0.021694783 0.01606866 -0.0072742533 4280656183
-0.020236701 0.018443041 -0.0093796141 4278371128
-0.018382829 0.018487893 -0.009503318 4278963238
-0.014104042 0.015472755 -0.0071112271 4281046589
-0.012385294 0.016294435 -0.0078950515 4281243194
-0.010672141 0.017116059 -0.0086783655 4280981053
-0.0089645907 0.017937634 -0.0094612464 4280850494
-0.0071088895 0.017983161 -0.0095846048 4280980799
-0.0052533448 0.018028803 -0.0097078625 4280980288
-0.0033979714 0.018074516 -0.0098310569 4281046079
-0.0012189373 0.016568713 -0.0086370921 4278505003
0.0096611902 0.0098204799 -0.0033344091 4281046079
0.012792818 0.004439624 0.0011432162 4280386904
-0.024705805 0.0098151267 -0.0041733943 4281829694
-0.023602325 0.014533069 -0.0082536181 4280917304
-0.021872066 0.015356619 -0.0090369508 4281111358
-0.020282019 0.016958818 -0.01047855 4281697858
-0.018428281 0.017003678 -0.010602235 4281632579
-0.016574677 0.017048631 -0.010725841 4280851004
-0.014435623 0.015536789 -0.0095329788 4280851003
-0.012722377 0.016360477 -0.010314773 4281242173
-0.010866497 0.016405828 -0.010438276 4281177149
-0.0093126856 0.018007819 -0.011877032 4281176638
-0.0076162294 0.018831424 -0.012657458 4281175874
-0.0059253797 0.019654978 -0.013437454 4280718403
-0.0039218813 0.018922362 -0.012902819 4281436993
-0.0017512739 0.01741197 -0.011711479 4281306689
0.00010092556 0.017457798 -0.011834313 4280981308
0.0019529387 0.017503738 -0.011957057 4280265014
0.0039747804 0.016771983 -0.011423332 4280459834
0.0065200403 0.013707243 -0.0089212591 4280914754
0.0097886324 0.0075325053 -0.0037964918 4280849218
0.01310055 0.0013588816 0.0013255104 4280194378
-0.025383305 0.012216762 -0.0085750297 4281176128
-0.024164051 0.016166482 -0.011987173 4280198969
-0.022444755 0.016991958 -0.012768151 4279221299
-0.020731039 0.017817412 -0.013548668 4280655163
-0.018885601 0.017862078 -0.013671799 4280590649
-0.015052401 0.017171074 -0.013261226 4280785978
-0.013059206 0.016435556 -0.012727875 4281176893
-0.011357062 0.017261256 -0.013507233 4281046588
-0.0093587153 0.016526066 -0.01297407 4281177149
-0.0079695508 0.018912572 -0.015064582 4281371968
-0.0061278641 0.018957879 -0.015186915 4278446099
-0.0042863339 0.019003268 -0.015309175 4278377248
-0.0021214187 0.01748842 -0.014120741 4280916538
-0.00011029094 0.016754035 -0.013588067 4280785978
0.0019061193 0.016019814 -0.013055641 4280591158
0.0040977001 0.014505923 -0.011868751 4280851769
0.0068179518 0.010652617 -0.0087187318 4280850749
0.010091327 0.0044605415 -0.0036071767 4280653634
-0.026551638 0.0059799235 -0.005617918 4283265343
-0.025681134 0.012290789 -0.010992214 4281173833
-0.024338074 0.015468087 -0.013740012 4281175363
-0.022753354 0.017078761 -0.015174856 4279221299
-0.01736556 0.017995439 -0.016198805 4278375209
-0.015383307 0.017257366 -0.015666423 4280785213
-0.013541136 0.017302264 -0.015789101 4280785979
-0.011550996 0.016564585 -0.015257098 4280981309
-0.0097064115 0.016609769 -0.015379772 4281111613
-0.0080154985 0.017437596 -0.016156593 4280265269
-0.0044915006 0.018310692 -0.017055051 4278637094
-0.0024912804 0.017573778 -0.016523335 4278636583
-0.00032135099 0.01605479 -0.015338393 4280916538
0.0015249923 0.0161006 -0.015460752 4280916284
0.0040506348 0.013017844 -0.012970403 4280720188
0.007115595 0.007589452 -0.0085224509 4280587334
-0.026473504 0.0036892258 -0.0060778479 4283004733
-0.025473624 0.0092321448 -0.010784941 4281109829
-0.023996007 0.011632971 -0.012872378 4281632069
-0.022666551 0.014818754 -0.015612718 4281501508
-0.02109012 0.016433708 -0.017043682 4281306688
-0.019387554 0.017263401 -0.017820183 4281045823
-0.0174108 0.016522869 -0.017289087 4280980798
-0.015713949 0.017352637 -0.018065048 4280653889
-0.013877343 0.017397422 -0.018187338 4280785213
-0.01189284 0.016657393 -0.017656529 4280720699
-0.009903051 0.015917633 -0.017126039 4280199224
-0.0082149282 0.016747575 -0.017901056 4281437248
-0.0065324083 0.01757751 -0.018675677 4281372734
-0.0046965629 0.017622773 -0.018797552 4281306944
-0.0025375932 0.016099002 -0.017615162 4279091758
-0.00036791712 0.014575683 -0.016433423 4280915518
0.0016453862 0.013837088 -0.015904061 4280458559
0.0045129582 0.0091770198 -0.012117198 4280261699
0.0075854659 0.0037336275 -0.0076811044 4279671119
-0.026025053 -0.00096850283 -0.0045817541 4282743103
-0.024887763 0.0038023517 -0.0086254552 4281176383
-0.023396477 0.0062100329 -0.010708962 4280849729
-0.022053286 0.0094048698 -0.013443735 4280785469
-0.020597626 0.011811892 -0.015524712 4281371458
-0.019021332 0.013431307 -0.016952354 4281501508
-0.017176427 0.013476077 -0.01707536 4281111104
-0.015474185 0.014308117 -0.017850012 4280653634
-0.013922773 0.015927281 -0.019275803 4280850494
-0.01223442 0.016759198 -0.020049371 4280849984
-0.010250263 0.016017128 -0.019520123 4278505003
-0.0084142238 0.016062189 -0.019642161 4278830129
-0.006734468 0.016894188 -0.020414941 4280850493
-0.0049014762 0.01693939 -0.02053662 4281176639
-0.003068611 0.016984668 -0.020658229 4280263993
-0.00090733916 0.015456717 -0.019479141 4280004148
0.0014316365 0.013142619 -0.017650615 4280523329
0.0046354085 0.006896399 -0.012573394 4280587079
-0.026070785 -0.0024841279 -0.005703988 4282415429
-0.024680976 0.00072030164 -0.0084355865 4281697349
-0.023055319 0.002344925 -0.0098635359 4281437759
-0.021703839 0.0055486504 -0.012592411 4281045568
-0.020105656 0.0071728714 -0.014018407 4281503038
-0.018655486 0.009586364 -0.016094036 4281177659
-0.016802549 0.0096313283 -0.01621758 4281699134
-0.015519612 0.012833845 -0.018941544 4281371203
-0.013823003 0.013668034 -0.019714125 4281240644
-0.012427803 0.01608067 -0.021785807 4281175874
-0.010597184 0.016125504 -0.021907557 4280524093
-0.0070924535 0.017004471 -0.022800021 4279484968
-0.0054237917 0.017838534 -0.023570402 4278572068
-0.0034377053 0.017094672 -0.023042571 4279224360
-0.0011179149 0.014773469 -0.0212177 4280655164
0.0018857867 0.0092976764 -0.01679978 4280652868
0.0050970539 0.0030342266 -0.011735993 4279800403
-0.026116509 -0.0039994903 -0.0068260254 4282219333
-0.024726573 -0.00078636035 -0.0095511694 4281370693
-0.022972137 5.0753355e-05 -0.010326474 4281371969
-0.021354791 0.0016796663 -0.011750608 4281241664
-0.019882668 0.0041001104 -0.013822931 4281176639
-0.018290058 0.0057286583 -0.01524524 4280719678
-0.016568765 0.0065654106 -0.016018007 4281178169
-0.014853049 0.0074021332 -0.016790321 4280655929
-0.013433151 0.0098217987 -0.018858876 4280589628
-0.011881873 0.01144973 -0.020278066 4281110849
-0.010341607 0.013077509 -0.021696515 4281044549
-0.008659102 0.013913844 -0.022466306 4280719168
-0.0072941631 0.016332563 -0.024530906 4279546934
-0.0057869852 0.0179598 -0.025946876 4278830129
-0.0039679632 0.018004719 -0.026067579 4280589884
-0.001164183 0.01330376 -0.022305772 4280719679
0.0018389151 0.0078127235 -0.017899124 4280652613
0.0052191094 0.00074100122 -0.012201522 4280188003
-0.026408799 -0.0039262455 -0.0092442632 4281565258
-0.024772171 -0.0022927839 -0.010666576 4280847433
-0.023017809 -0.0014535058 -0.011440266 4281371203
-0.02140047 0.00017976016 -0.012861164 4281437503
-0.019659951 0.0010189209 -0.01363377 4281437503
-0.017925009 0.0018580854 -0.014405901 4281242429
-0.01633523 0.0034909621 -0.015824681 4280851258
-0.01461415 0.004330039 -0.016595773 4281046334
-0.013043676 0.0059626848 -0.018013088 4281176639
-0.011484228 0.0075951889 -0.01942965 4281568574
-0.0099358074 0.0092274956 -0.02084535 4281045569
-0.0085516125 0.011653109 -0.02290646 4281110338
-0.0071838722 0.014078375 -0.024966363 4281632068
-0.0056739599 0.015710067 -0.02637933 4281371714
-0.0035296008 0.014168549 -0.02520889 4280523328
-0.0008822754 0.010247877 -0.022102747 4280587843
-0.026454374 -0.0054367715 -0.01036272 4281761864
-0.024691816 -0.0045952396 -0.01113543 4281174089
-0.02306347 -0.0029575266 -0.012553882 4281371203
-0.021314748 -0.0021160878 -0.013325491 4281502529
-0.01970569 -0.00047855638 -0.014742518 4281372478
-0.017833985 -0.00043326803 -0.014867408 4281241918
-0.016101956 0.00040809251 -0.01563766 4280981563
-0.014233232 0.00045355409 -0.015762171 4281437759
-0.012799583 0.0028865822 -0.01782196 4281371714
-0.011086989 0.0037278049 -0.018590668 4281306688
-0.0095303841 0.0053646229 -0.020003708 4281306944
-0.0079848245 0.0070013646 -0.021415945 4280784959
-0.0067619905 0.010229021 -0.02411614 4280916794
-0.0052438974 0.011865204 -0.025526393 4281047353
-0.0030916482 0.010319585 -0.024359744 4281698113
-0.00043663383 0.0063882191 -0.021262201 4281435973
-0.024359841 -0.0084987879 -0.010317788 4283591999
-0.022723347 -0.0068564648 -0.011733579 4282088263
-0.021229155 -0.0044160355 -0.013792923 4281827909
-0.01948335 -0.0035724016 -0.014562653 4281502274
-0.01760634 -0.0035269698 -0.014687887 4281045058
-0.015868936 -0.0026832763 -0.015456934 4281240898
-0.014279295 -0.0010415856 -0.016869154 4281176128
-0.012845587 0.001397986 -0.018924085 4281371459
-0.010985408 0.0014434233 -0.01904789 4281371968
-0.0092757307 0.0022868179 -0.019814737 4281306689
-0.0077247098 0.0039279889 -0.021224072 4281372989
-0.0063404962 0.0063667502 -0.023275414 4281177149
-0.0046557188 0.0072098356 -0.02404038 4280848709
-0.0023316219 0.0048625153 -0.022235282 4281044549
8.6501241e-06 0.0025156513 -0.020431135 4281042253
-0.022512119 -0.0099677276 -0.011565715 4283528249
-0.020881198 -0.0083210785 -0.012977821 4282284868
-0.019127294 -0.0074750874 -0.013746484 4281697349
-0.017378952 -0.0066290889 -0.014514673 4281305413
-0.01577558 -0.0049828421 -0.01592467 4281305668
-0.01418322 -0.0033367118 -0.017333895 4281436484
-0.01260186 -0.0016907584 -0.018742243 4281240898
-0.010883942 -0.00084509701 -0.019508105 4281241663
-0.0090213157 -0.00079948455 -0.019631986 4281241409
-0.0073118433 4.6212226e-05 -0.020397179 4281438014
-0.0059193969 0.0024916437 -0.022444189 4281437503
-0.0042265207 0.0033371504 -0.023208119 4281045058
-0.0022168979 0.0025829766 -0.022689944 4281239369
0.00012575835 0.0002296716 -0.02089086 4280976209
-0.015543003 -0.0080889715 -0.015754875 4282219334
-0.01408726 -0.0056359461 -0.017801676 4281435208
-0.012358394 -0.0047879573 -0.018566735 4281369163
-0.010487612 -0.0047422582 -0.018691242 4281436739
-0.0087671727 -0.0038942555 -0.019455578 4281242428
-0.0072052479 -0.0022441559 -0.020859201 4281437758
-0.0056543425 -0.00059417076 -0.02226205 4281371969
-0.0039560869 0.0002535861 -0.023024689 4281175108
-0.002102308 0.0002993457 -0.023147712 4281174344
-0.00024868548 0.00034520961 -0.023270644 4280322134
-0.013991423 -0.0079393825 -0.018272497 4282085458
-0.012549326 -0.0054800836 -0.020313483 4281237584
-0.010681391 -0.00543446 -0.020437805 4281173578
-0.0088135675 -0.0053887563 -0.020562056 4281307709
-0.0069459006 -0.0053429473 -0.02068622 4281371968
-0.0053895339 -0.003688545 -0.022086177 4281240899
-0.0036859065 -0.002838444 -0.022847602 4281240643
-0.0021488518 -0.0011843313 -0.024246136 4281109063
-0.00062284619 0.00046966411 -0.0256439 4279080539
-0.0090100542 -0.0060764952 -0.022305075 4281174344
-0.0072980151 -0.0052242903 -0.023065574 4281175619
-0.005436033 -0.005178526 -0.023189289 4281240899
-0.0037324503 -0.0043262718 -0.023949113 4281176383
-0.002356343 -0.0018615145 -0.025980379 4280716873
-0.0054825172 -0.0066682911 -0.024292246 4280645728
-0.0036207959 -0.0066224718 -0.024415895 4280715088
-0.002402775 -0.0033426285 -0.027076909 4280974423
0.029180907 -0.0044011725 0.023154879 4280045458
0.031345978 -0.0051133269 0.02369103 4279652759
0.033315845 -0.0050634621 0.023561226 4281485954
0.035894804 -0.0072987182 0.025428073 4281419398
0.026201695 -0.0022092778 0.01879237 4281554548
0.028545395 -0.0036881678 0.019992381 4280176274
0.030306943 -0.0028746296 0.019198958 4279454624
0.03401605 -0.0020116344 0.018277314 4278334919
0.039798044 -0.0087862434 0.023992231 4281224833
0.023060933 0.00077180564 0.013781238 4282080614
0.02557499 -0.0014783945 0.015642412 4279848599
0.027910307 -0.0029618721 0.016839797 4279520159
0.029663667 -0.0021463074 0.016048498 4279453349
0.031611606 -0.0020969715 0.015920158 4278862768
0.033356361 -0.0012815166 0.015129581 4278599864
0.038079247 -0.0042464286 0.017521372 4278994603
0.04087887 -0.0072601316 0.020039821 4278406318
0.044127613 -0.011804796 0.023880066 4279390108
0.023011051 -0.00078303739 0.012630222 4280176274
0.025332771 -0.0022712629 0.013825158 4279717274
0.027275629 -0.0022222083 0.013697037 4278602414
0.0309605 -0.0013555698 0.012780154 4279977374
0.032697111 -0.00053811818 0.01199175 4280240789
0.035044841 -0.0020252671 0.013185285 4279519139
0.03698656 -0.0019758698 0.013057515 4278274738
0.039561212 -0.0042305915 0.01491027 4279062179
0.043006897 -0.0095567135 0.019401882 4278931109
0.020650312 -0.00084469654 0.010286953 4279523218
0.024706736 -0.0015180614 0.010691725 4278799274
0.026836038 -0.0022398848 0.011223797 4278863534
0.030309819 -0.00060078129 0.0096499883 4278268873
0.034583151 -0.0020434763 0.010713518 4278401219
0.039299227 -0.0050257687 0.0130929 4279192993
0.042955324 -0.011137411 0.018231796 4280636294
0.018300734 -0.00089708529 0.0079497062 4279066514
0.020414189 -0.0016216822 0.0084809847 4278736289
0.02234371 -0.0015731212 0.0083536282 4278931109
0.024464905 -0.0022973511 0.0088845231 4278537133
0.026202105 -0.0014757477 0.0080991555 4278930344
0.02793365 -0.00065419637 0.0073142275 4278865063
0.029659547 0.00016732141 0.0065296777 4278994349
0.031582542 0.00021613017 0.0064030588 4278666674
0.033916257 -0.0012801401 0.0075910762 4279061414
0.036260605 -0.0027760025 0.0087784212 4278930599
0.039670087 -0.0081336368 0.013249762 4279127458
0.043117344 -0.013490194 0.017718632 4281881713
0.018067636 -0.0016671829 0.0061485227 4278801568
0.019991823 -0.0016188249 0.006021468 4278538154
0.021915808 -0.0015703887 0.0058944877 4278668459
0.027489208 -0.000649672 0.0048578195 4279192484
0.029409625 -0.00060102716 0.0047312956 4278865319
0.031532496 -0.001327062 0.0052607097 4278865829
0.033865988 -0.0028276909 0.0064455066 4278668203
0.036626339 -0.0058772489 0.0089406408 4278668459
0.040251508 -0.012024581 0.014055641 4281619064
0.015732236 -0.0017034356 0.0038220603 4278408358
0.017651089 -0.0016552694 0.0036953148 4278865318
0.019383416 -0.00082967058 0.002913327 4278799783
0.024935514 9.2444941e-05 0.001879504 4278725834
0.027045079 -0.00063627213 0.0024080519 4278463949
0.029159844 -0.001364775 0.0029363185 4278667438
0.031887688 -0.0044240234 0.0054270048 4278602668
0.034021042 -0.0051519051 0.0059541594 4278537133
0.036783732 -0.008210131 0.0084426515 4279323808
0.040200219 -0.013598047 0.012890903 4281881969
0.015321516 -0.0016824324 0.0013751145 4278736033
0.017234832 -0.0016344246 0.0012487192 4278603689
0.019147925 -0.0015863273 0.0011224095 4278799019
0.021249786 -0.0023176447 0.0016496778 4278535603
0.022781849 -0.00071043521 0.00021664053 4279322278
0.024691619 -0.00066218525 9.072572e-05 4279322278
0.028910205 -0.0021239277 0.0011447454 4278798509
0.031634964 -0.0051919539 0.0036291694 4278799529
0.034175947 -0.0074802507 0.0054597538 4278537134
0.03735695 -0.012105173 0.0092461817 4278996133
0.040570296 -0.016729167 0.013030486 4281160063
0.042962387 -0.018236734 0.014205091 4282340969
0.04493288 -0.018186377 0.014075598 4282406758
0.012825079 -0.00091828033 -0.0015917569 4278408868
0.014730319 -0.00087056309 -0.0017176829 4279390109
0.016635366 -0.00082275644 -0.0018435251 4278669223
0.018540218 -0.00077486783 -0.0019692928 4278668203
0.022349335 -0.00067886338 -0.0022206083 4278994094
0.02425357 -0.00063074008 -0.0023461469 4279847324
0.026157618 -0.00058255717 -0.0024716291 4279191208
0.031179912 -0.0051739654 0.0011836616 4279192993
0.034125544 -0.0090314802 0.0043114638 4278800038
0.037513934 -0.014450677 0.0087388512 4280570759
0.012420528 -0.00087709911 -0.0040242327 4278342314
0.014139555 -4.5396388e-05 -0.0048006354 4278800294
0.016036347 2.2035092e-06 -0.0049259337 4278734759
0.018119037 -0.00073407032 -0.0044006477 4278734758
0.022108622 -0.0014221184 -0.0040011276 4278333899
0.024010055 -0.0013740677 -0.0041264836 4278400198
0.025911294 -0.0013259631 -0.0042517828 4278270148
0.028011993 -0.0020613484 -0.0037274398 4278994604
0.030725144 -0.0051470837 -0.0012551853 4279061668
0.034075148 -0.010582516 0.0031633163 4279520923
0.037462942 -0.016016958 0.0075794272 4280833409
0.011660494 0.00074571371 -0.0077488702 4278668204
0.013549216 0.0007930249 -0.0078737 4279061414
0.015437745 0.00084042549 -0.007998446 4278734758
0.017512105 0.00010181405 -0.0074742679 4278866084
0.019402988 0.00014943443 -0.0075990492 4278603179
0.021676585 -0.0013747923 -0.0064267861 4278603178
0.025468208 -0.0012789071 -0.0066767074 4278472108
0.027563326 -0.002016671 -0.0061535831 4278930854
0.030675329 -0.006682626 -0.0023918701 4279127458
0.034229815 -0.012918968 0.0026629837 4280766598
0.037619732 -0.018368542 0.0070675965 4282077809
0.01107882 0.0015976932 -0.010812671 4279323554
0.013139822 0.00085637532 -0.010289369 4278996133
0.021244854 -0.0013185944 -0.0088458052 4279258784
0.022941127 -0.00048276223 -0.0096171359 4278931108
0.025025427 -0.0012230054 -0.0090950103 4278668203
0.027514033 -0.0035389327 -0.0072804443 4278537388
0.031030037 -0.0097936923 -0.0022360878 4279586968
0.034384333 -0.015259524 0.0021595377 4281226108
0.037153333 -0.018361123 0.0046152743 4282143853
0.010675341 0.0016722325 -0.013220454 4279585183
0.012730733 0.00092861243 -0.012698389 4279584163
0.018739752 -0.00051056594 -0.011779337 4278331859
0.020813406 -0.0012534056 -0.01125824 4279256233
0.022698253 -0.0012057982 -0.011382523 4278668714
0.024976455 -0.0027385131 -0.010216882 4278668714
0.027664244 -0.005851089 -0.0077624219 4279258784
0.031384513 -0.012913281 -0.0020865435 4281160573
0.034743637 -0.018394213 0.0022973809 4282209643
0.0085775405 0.0009161178 -0.014853299 4279453858
0.010272138 0.0017557628 -0.015621654 4278271678
0.012141533 0.0018025674 -0.015745223 4279321769
0.014376946 0.00026404485 -0.014580271 4278732718
0.016437225 -0.00048147514 -0.014060033 4278537389
0.02038227 -0.0011793785 -0.013664063 4279257254
0.022455566 -0.0019243322 -0.013144504 4278602923
0.02512417 -0.0050461674 -0.010695303 4278668714
0.028412513 -0.01054429 -0.0063180812 4278864553
0.031738684 -0.016041348 -0.001943347 4280306579
0.0046155825 0.00011820905 -0.016359221 4278608278
0.0066575408 -0.00063037872 -0.015839711 4278866848
0.0083549917 0.00021142513 -0.016606703 4279389344
0.01396282 0.00035185367 -0.01697737 4279977374
0.016017482 -0.00039599463 -0.016458385 4279584928
0.018077426 -0.0011436641 -0.015939642 4278929833
0.019951418 -0.00109642 -0.016063273 4278471344
0.022213019 -0.0026382897 -0.014903102 4278734504
0.025468409 -0.0081525519 -0.010535079 4279062178
0.028761595 -0.01366576 -0.0061695515 4281618554
0.032294661 -0.019972358 -0.0011650827 4281290113
0.034642369 -0.021511767 -1.0376796e-05 4281618808
0.0365858 -0.021462318 -0.00013825111 4282602088
0.0021983981 0.00096672401 -0.019270046 4278936208
0.0060936958 0.00026203319 -0.018874906 4279062433
0.0077829659 0.0011057705 -0.01963977 4278536879
0.0094666183 0.0019495003 -0.020404236 4278275249
0.013548993 0.00044849887 -0.019367853 4278333899
0.015598074 -0.00030166656 -0.018850114 4278795958
0.019711964 -0.0018013623 -0.017815506 4278601140
0.022358298 -0.0049412735 -0.015377846 4278996643
0.025615819 -0.010470716 -0.011021285 4281028229
0.028911136 -0.015999084 -0.0066672005 4282339439
0.0058743656 -0.00043131784 -0.020620156 4279978649
0.0077356249 -0.00038489886 -0.020743322 4278668204
0.0092417672 0.0012603719 -0.022145884 4278996388
0.011097252 0.0013068262 -0.022268534 4279192229
0.013318375 -0.00024516322 -0.021112379 4278928814
0.015364558 -0.00099758245 -0.020596072 4279713703
0.017416 -0.0017497987 -0.02008006 4279191208
0.019472703 -0.0025017876 -0.019564325 4279061923
0.022697233 -0.0080473945 -0.015216978 4278668969
0.025959589 -0.013591912 -0.0108721 4279718038
0.029060565 -0.018336585 -0.0071679442 4282274668
0.0034580901 0.00043717586 -0.02351629 4279847323
0.0053112432 0.00048329309 -0.023638994 4279453859
0.0073389187 -0.00027210079 -0.02312333 4278662849
0.0090170726 0.00057579018 -0.023884164 4278726089
0.010869734 0.00062213652 -0.024006657 4279256234
0.012905061 -0.00013282336 -0.023491319 4279127458
0.014945649 -0.00088756718 -0.022976266 4278602668
0.017179757 -0.0024434067 -0.021824071 4278733738
0.019424565 -0.0039988877 -0.02067259 4278537133
0.023035899 -0.01116199 -0.015062461 4279324063
0.026106693 -0.015920565 -0.011366074 4281553274
0.0012250692 0.00051547028 -0.025766389 4278538153
0.003072843 0.00056134723 -0.025888817 4279388324
0.0050923526 -0.00019657612 -0.025374265 4278664379
0.008792527 -0.00010426529 -0.025619097 4278594764
0.012674831 -0.00081520714 -0.025227498 4278928304
0.01452706 -0.00076871738 -0.025349848 4278405808
0.016755499 -0.0023290273 -0.024200568 4278602669
0.019376449 -0.0054957839 -0.021780703 4278733484
0.02298706 -0.012678476 -0.016185068 4279455133
0.026253708 -0.018253418 -0.011863085 4281880693
-0.014179558 -0.0086333835 -0.020020947 4281423224
-0.012595464 -0.0069743507 -0.02141981 4280246653
0.0008456856 0.0006486252 -0.028132662 4279455134
0.0028570145 -0.00011174195 -0.027619308 4278929323
0.0047017932 -6.5850094e-05 -0.027741471 4279454878
0.0067209601 -0.00082586147 -0.027228517 4278800549
0.0085681528 -0.00077973492 -0.027350709 4279192483
0.012079366 0.00011846237 -0.028229434 4278996388
0.01429417 -0.0014466885 -0.027082521 4278340529
0.016707778 -0.0038170395 -0.025302116 4278995624
0.019710056 -0.0086036623 -0.021620691 4279389344
0.023131803 -0.015000302 -0.01667377 4280307088
0.026008032 -0.018979555 -0.01363054 4280702338
-0.014367539 -0.0093228463 -0.021765964 4280830349
-0.012930736 -0.006850672 -0.023796864 4279521434
-0.011215791 -0.0059963688 -0.024556125 4279718039
-0.0093563758 -0.0059509138 -0.024679851 4279719313
-0.0073443726 -0.0067140283 -0.024168521 4279785104
0.00079923123 -0.00082599185 -0.029224366 4278996388
0.0063251108 -0.0006886255 -0.029590365 4279455899
0.0081667602 -0.00064265914 -0.029712206 4279062944
0.0098283589 0.00021136738 -0.03046708 4279126948
0.011666976 0.00025740825 -0.030588608 4278274483
0.013876118 -0.0013122018 -0.029444605 4278733738
0.016660109 -0.0053048553 -0.02640352 4279127459
0.019661859 -0.010104557 -0.02273177 4280701063
0.022502534 -0.014095674 -0.019694345 4281946993
0.032091543 -0.021978723 -0.013876793 4282470763
-0.014413569 -0.010818858 -0.022873599 4280372113
-0.012832187 -0.0091512362 -0.024265852 4279258784
-0.011261806 -0.0074837422 -0.025657341 4279520924
-0.0094025321 -0.0074382657 -0.025781039 4279455898
-0.00769604 -0.0065818774 -0.026537962 4279324829
-0.0058397427 -0.006536277 -0.026661316 4278932893
-0.0041416883 -0.0056798868 -0.027417522 4279720333
-0.0010893494 -0.0023460481 -0.030193793 4279261334
0.00075279176 -0.0023004543 -0.030315952 4278930853
0.0024258196 -0.0014442932 -0.031070208 4278602924
0.011437461 -0.00040487386 -0.032309912 4278536624
0.014014162 -0.0035989918 -0.029906707 4278864808
0.016800441 -0.0076025408 -0.026873836 4279390109
0.019995093 -0.013225103 -0.02258121 4281683833
0.022453934 -0.015607309 -0.020813368 4282602600
-0.031793956 -0.022531532 -0.015119627 4282668390
-0.014317866 -0.013127992 -0.023348715 4279979414
-0.012878194 -0.01064276 -0.025370153 4279586458
-0.011160638 -0.0097841267 -0.026126346 4279586714
-0.0092987604 -0.0097386027 -0.02625023 4279390109
-0.0075896159 -0.0088799316 -0.027005754 4278996898
-0.0058860406 -0.008021336 -0.027760791 4279258529
-0.0041880235 -0.0071627814 -0.028515384 4279455133
-0.0026563331 -0.0054914309 -0.029900733 4279455899
-0.00080872327 -0.0054457979 -0.030023327 4279586458
0.0007063821 -0.0037747119 -0.031407394 4279784083
0.0023793727 -0.0029164217 -0.032160062 4279195034
0.0040468052 -0.002058195 -0.032912314 4279062689
0.011208087 -0.0010626167 -0.03402793 4278865573
0.013966911 -0.0050777672 -0.03100143 4279128734
0.016940668 -0.0099043697 -0.027347296 4281357178
0.020137459 -0.015542089 -0.023066115 4282275689
-0.035865292 -0.022510687 -0.0172567 4281549194
-0.014222253 -0.015441314 -0.023826862 4279717273
-0.012491044 -0.014580244 -0.024582474 4279521178
-0.010765392 -0.013719263 -0.025337607 4279520923
-0.0091951042 -0.012043037 -0.026722526 4278603434
-0.0077883601 -0.0095517738 -0.028736768 4279193504
-0.0062428042 -0.0078759715 -0.030119907 4279258528
-0.0043923035 -0.0078304652 -0.030242842 4279127459
-0.0025419444 -0.0077848667 -0.030365692 4278929834
-0.00069171935 -0.0077391751 -0.030488465 4278995368
0.00082611293 -0.0060636373 -0.031869527 4278275503
0.002332963 -0.0043883584 -0.033249777 4278996133
0.0040003434 -0.0035279561 -0.034000404 4280569993
0.0056621432 -0.0026675966 -0.034750663 4280243084
0.00731837 -0.0018073376 -0.035500452 4278866338
0.00932841 -0.0025761556 -0.034993269 4278538409
0.011708558 -0.0049737208 -0.033230178 4278931363
0.014660217 -0.0098139578 -0.029584376 4278342568
0.017832167 -0.01546768 -0.025312904 4280768639
0.020279713 -0.017863277 -0.02355413 4282210408
-0.015866183 -0.018622033 -0.023553539 4281159044
-0.014126759 -0.017758757 -0.024308132 4279978393
-0.012392886 -0.01689552 -0.025062285 4279846814
-0.010664579 -0.016032252 -0.02581602 4279585694
-0.0092413202 -0.013534218 -0.027826557 4279389854
-0.0076820254 -0.011853813 -0.029207515 4279717529
-0.005978547 -0.010990912 -0.029959345 4279258274
-0.0041227341 -0.010945311 -0.030082656 4278799529
-0.0024276599 -0.01008242 -0.030833779 4279061668
-0.00041151047 -0.010853793 -0.030329013 4279258529
0.0011118054 -0.0091738617 -0.031707201 4279389598
0.002792865 -0.008311023 -0.032457251 4279519903
0.0042968839 -0.0066313921 -0.033834025 4279389853
0.0059640929 -0.0057687815 -0.034582995 4278407594
0.0076257214 -0.0049062222 -0.035331536 4279325084
0.0094613954 -0.0048604272 -0.035452999 4279718293
0.011661619 -0.0064478116 -0.034321446 4280045713
0.014612772 -0.011301124 -0.030685319 4281619319
0.017596364 -0.016153576 -0.027051222 4281882988
0.019850418 -0.017739415 -0.025923081 4282014823
-0.014172893 -0.019260561 -0.025420062 4281028229
-0.012439083 -0.018395185 -0.026172619 4280107934
-0.010857794 -0.016710086 -0.027551953 4280174488
-0.0092874914 -0.015025209 -0.028930446 4279389089
-0.0075757802 -0.014160077 -0.029681316 4278734249
-0.0058696344 -0.013294917 -0.030431768 4278734249
-0.0040112212 -0.013249256 -0.030555256 4279454878
-0.0023134798 -0.012384176 -0.031304978 4279520668
-0.00029478967 -0.013157669 -0.030802002 4279323809
0.0013972372 -0.012292538 -0.031551205 4279520668
0.0029150173 -0.010608329 -0.032925744 4279651228
0.0045931786 -0.0097433524 -0.033673964 4279323553
0.0062657967 -0.0088784536 -0.03442169 4278931364
0.0081096739 -0.0088325581 -0.034543775 4278538154
0.0099533945 -0.0087865703 -0.034665775 4278274484
0.012161523 -0.010378178 -0.033537954 4278733484
0.014750354 -0.013606911 -0.03116142 4282405738
0.022971086 -0.016694017 -0.029156772 4281619319
0.025635153 -0.019920496 -0.026784934 4282471529
-0.0251134 -0.023501052 -0.02389802 4283059814
-0.013206139 -0.015785091 -0.030411785 4281094528
-0.01105085 -0.017383439 -0.029284572 4280765579
-0.009184029 -0.017337853 -0.029408829 4278996133
-0.0071649924 -0.018113924 -0.028907795 4279979923
-0.005605787 -0.016424809 -0.030282201 4279651739
-0.0037420541 -0.016379053 -0.030406071 4279781279
-0.0025203601 -0.013047096 -0.033028677 4279389599
-0.00050456077 -0.013822881 -0.032527156 4279782553
0.0011847243 -0.012955669 -0.033274576 4279848089
0.0030370578 -0.012909834 -0.033397421 4279454878
0.0047179163 -0.012042681 -0.034144178 4278668459
0.0065672621 -0.011996757 -0.034266703 4278668714
0.008239679 -0.011129579 -0.035012797 4278996644
0.010086045 -0.011083579 -0.035135012 4279520668
0.012296662 -0.012679487 -0.034010597 4280831624
-0.0073636174 -0.018785104 -0.030638328 4282014568
-0.0058071092 -0.017091732 -0.032009341 4280633999
-0.0039462075 -0.017046064 -0.032133035 4280108954
-0.0022458434 -0.016176559 -0.03287977 4279978904
-0.00022476912 -0.016954472 -0.032380201 4279585694
0.0014698878 -0.016084915 -0.033126414 4279847578
0.003158994 -0.015215508 -0.033872187 4278799018
0.0048425421 -0.01434614 -0.034617528 4279323809
0.0065205172 -0.013476826 -0.03536243 4278799784
0.0083696246 -0.01343086 -0.035484903 4279652504
0.010218598 -0.013384813 -0.035607308 4279652504
0.012431696 -0.014984997 -0.034486353 4281159808
-0.003834933 -0.019360436 -0.032613359 4281357944
-0.0021318868 -0.018488787 -0.033358656 4279849110
-0.00027135015 -0.018442972 -0.033482209 4279651229
0.0014232844 -0.017571298 -0.034226842 4279847069
0.0032808483 -0.01752538 -0.034350071 4278798253
0.0047958568 -0.015828215 -0.035714749 4279389088
0.0066477358 -0.015782297 -0.035837494 4279390363
0.0083228201 -0.014910823 -0.036580548 4279718039
0.010351054 -0.015690215 -0.036082759 4279587733
0.012202501 -0.015644064 -0.036205295 4281488758
-0.015204731 -0.020295205 -0.033593498 4282209133
0.0013767108 -0.019057548 -0.035327181 4280899708
0.00306575 -0.018183833 -0.036069751 4280241044
0.0045780912 -0.016482433 -0.037431058 4279847833
0.0062532872 -0.015608851 -0.038172629 4279260058
0.0080994815 -0.015563021 -0.038294956 4278867359
0.010124855 -0.016344741 -0.037798584 4280440709
0.012155496 -0.017126171 -0.037302516 4282078319
-0.015391529 -0.020952493 -0.035314791 4281487484
-0.0098165907 -0.020816991 -0.035686329 4282406759
0.0026824698 -0.018007802 -0.038403839 4282014823
0.0043604895 -0.017132122 -0.039144091 4280372878
0.006206736 -0.017086389 -0.039266497 4279456154
0.0078763515 -0.016210791 -0.040006019 4279325338
0.0098988265 -0.016994728 -0.039511122 4280767618
-0.010011707 -0.021470148 -0.03740377 4281554805
-0.0030717701 -0.018791476 -0.039747447 4282406758
0.011697911 -0.01842632 -0.040727183 4281358965
-0.010355845 -0.021284027 -0.039733671 4281685364
0.013312243 -0.019023919 -0.042556606 4282143088
-0.010401402 -0.022763075 -0.040828742 4281881969
-0.0014799237 -0.020863649 -0.04267057 4281881458
0.014921039 -0.019617245 -0.044382393 4282471274
-0.010894153 -0.021724503 -0.04376144 4282341224
0.012701511 0.01184313 0.05410184 4285951513
0.014539562 0.012617858 0.053273097 4286342684
0.017069407 0.010491284 0.055224791 4286211614
0.0098107904 0.013817575 0.04957027 4285754398
0.011638135 0.014594179 0.048743837 4285754143
0.013631374 0.01464317 0.048611395 4285819168
0.015624397 0.014692236 0.048479043 4285951004
0.017794184 0.014013954 0.04903996 4285754654
0.020867921 0.0096990019 0.053065702 4285557793
0.0072746053 0.014354941 0.046438269 4285427234
0.0090966895 0.015133552 0.045613766 4286148883
0.01125069 0.014452454 0.046173938 4286082583
0.013238378 0.014501352 0.046041898 4285884958
0.015051603 0.015280012 0.045218185 4285753889
0.016859129 0.016058624 0.044394918 4285951258
0.019020341 0.015378065 0.044954874 4285689118
0.021369144 0.013968237 0.046205766 4285624094
0.024098821 0.011099882 0.048838131 4285558559
0.026662171 0.008961495 0.050778277 4285427234
0.028860442 0.0082821958 0.051336028 4285097518
0.0052368194 0.012709461 0.045388296 4285230119
0.0067352429 0.014954552 0.043183453 4285558813
0.0087151155 0.0150031 0.043051817 4285755419
0.010526039 0.015783794 0.042229734 4286280209
0.012331277 0.016564392 0.041408144 4286082583
0.014305018 0.016613066 0.041277118 4286016793
0.016455397 0.015930012 0.041836135 4285886233
0.018610984 0.015247136 0.042394921 4285689119
0.020771772 0.014564522 0.042953387 4285689884
0.022752695 0.01461371 0.042822145 4285755419
0.024921127 0.013931442 0.043380223 4285689118
0.026523262 0.015443809 0.041870855 4286476048
0.028693907 0.014761776 0.042428911 4286343449
0.031457528 0.011885876 0.045052797 4286278169
0.0043849275 0.014784925 0.040759087 4285427234
0.0060330555 0.016301949 0.039249286 4285689373
0.0081678405 0.015616 0.039807469 4285557283
0.010139212 0.015664473 0.03967651 4285491748
0.012110345 0.015713014 0.039545611 4285688864
0.013907142 0.016495723 0.038726293 4285623329
0.016051896 0.015810385 0.039284095 4285623838
0.017842785 0.016593121 0.038465291 4285689883
0.019992508 0.015908092 0.0390229 4285623838
0.021592475 0.017424636 0.037516832 4285754398
0.023932122 0.016006105 0.038762026 4286082839
0.025711119 0.016788878 0.037944265 4285688098
0.028063856 0.015370816 0.039188705 4285687844
0.030231349 0.014686629 0.039745435 4286016283
0.032801181 0.012535699 0.041675717 4285884958
0.035789676 0.008918466 0.044978417 4285361444
0.0028342605 0.010941273 0.041780695 4285163818
0.003854543 0.015409328 0.037521929 4286082839
0.0058207884 0.015457522 0.037391186 4286279443
0.0079526752 0.014769342 0.03794796 4286082073
0.0099212006 0.014817774 0.037817203 4285820444
0.011718184 0.015602615 0.036999457 4285623838
0.013683535 0.015651159 0.036869049 4285558813
0.015825391 0.014963593 0.037425444 4285493278
0.017613515 0.01574849 0.036608487 4285558814
0.019578151 0.015797276 0.036478326 4285624094
0.021172695 0.017318133 0.034975834 4285754909
0.022943757 0.018102869 0.034160204 4286214419
0.024709135 0.018887516 0.033344992 4286148118
0.027048029 0.017464798 0.034587145 4286016793
0.029397555 0.016042382 0.035828695 4286148119
0.031956218 0.013884686 0.037754819 4285951768
0.034933388 0.010256309 0.041050203 4285492258
0.0023121238 0.011566183 0.038543142 4285558049
0.0034848675 0.015308399 0.034980834 4286016028
0.0054455474 0.015356489 0.034850486 4286147863
0.0074059963 0.015404671 0.034720227 4286082328
0.0095347613 0.014714371 0.035275698 4286214419
0.011668749 0.014024224 0.035830908 4285623583
0.013286047 0.015549719 0.034329936 4285558558
0.0154223 0.014859878 0.034885108 4285558814
0.017025538 0.016385142 0.033385232 4285558814
0.019164026 0.015695523 0.03394039 4285623838
0.020753175 0.017220628 0.032441579 4285689118
0.022518747 0.01800748 0.031627916 4286083093
0.024659254 0.017318115 0.032183155 4286213399
0.026997901 0.015891049 0.033422098 4286344724
0.029151447 0.015202239 0.033976577 4286344979
0.031508654 0.013775747 0.035214446 4285754653
0.034681089 0.0093985721 0.039185606 4285426724
-0.00033089519 0.012897521 0.034761436 4285360933
0.0014752373 0.013686527 0.033946007 4286148884
0.0031154379 0.015216459 0.032446474 4285819423
0.0066939965 0.016794197 0.030818192 4285622308
0.0089801401 0.015360661 0.032056853 4285819934
0.011105761 0.014668226 0.032610998 4285754908
0.013062723 0.014716625 0.032481194 4285624348
0.015196063 0.014024548 0.03303495 4285558813
0.016796611 0.015554164 0.031538539 4285624349
0.018568084 0.01634321 0.030726003 4285689629
0.020149104 0.017872509 0.029231003 4285688608
0.02228149 0.017180759 0.029785087 4285688608
0.024419077 0.016489234 0.030338896 4285622819
0.026561849 0.015797876 0.030892463 4285819934
0.029101118 0.013626594 0.032810137 4285623074
0.031854831 0.010715755 0.035408899 4285558049
0.035635494 0.0041057616 0.041415647 4285295654
-0.00084391236 0.013551526 0.031544805 4285558049
0.00095399469 0.014342587 0.030731523 4285821464
0.0025860295 0.015876729 0.029235801 4286147608
0.0045328587 0.015924528 0.029106418 4286147608
0.0063138083 0.01671543 0.028294524 4286082584
0.0082574934 0.016763337 0.028165488 4286017049
0.01037205 0.016068485 0.028718775 4285689629
0.012491837 0.015373833 0.029271765 4285624093
0.01496993 0.013193879 0.031188251 4285624094
0.016388498 0.015470542 0.029013561 4285688864
0.018154517 0.016261619 0.028203068 4286345999
0.019914828 0.01705265 0.027393026 4286147609
0.02223175 0.015616216 0.02862685 4286213399
0.024559326 0.014180083 0.02986007 4285688863
0.026704654 0.013486676 0.030411823 4285558304
0.029050738 0.012051214 0.031643897 4285624348
0.032002389 0.0083894711 0.034916647 4285361188
-0.00089244545 0.01198256 0.030383175 4285557539
0.00059054792 0.014266621 0.028208522 4285426468
0.0023773015 0.01505968 0.027397746 4285557538
0.0041584224 0.015852712 0.026587429 4285819933
0.0060994774 0.0159005 0.026458522 4285885469
0.0083769411 0.014458124 0.027691273 4285557538
0.010323003 0.014506221 0.027562169 4285689884
0.012442596 0.013809424 0.028113583 4285689883
0.014390945 0.01385776 0.027984468 4285690139
0.015980661 0.015395895 0.026495298 4285885979
0.017377339 0.017678678 0.024327012 4286016793
0.019311383 0.017726928 0.024199041 4286148374
0.021619923 0.016285896 0.02543023 4286016538
0.02412916 0.014100682 0.027340094 4285820443
0.026268885 0.013404995 0.027890628 4285623838
0.029195853 0.0097316206 0.031156899 4285493023
0.032744475 0.0038259141 0.036457844 4285493024
-0.00063175708 0.0089185834 0.030581905 4286670614
0.0006994158 0.011956934 0.027731879 4286015263
0.0023287684 0.013499796 0.026242869 4285491494
0.0041098297 0.014295027 0.02543419 4285360424
0.0063818097 0.012848061 0.026663994 4285492514
0.0083279833 0.012896102 0.026534839 4285558303
0.010273926 0.012944229 0.026405772 4285558813
0.011872277 0.014486797 0.024919169 4285624604
0.013812341 0.014534958 0.024790617 4285689629
0.01539392 0.016077325 0.023305213 4286280719
0.017146252 0.016872514 0.022498934 4285621798
0.021195747 0.016222149 0.022921382 4285688098
0.023509234 0.014777005 0.024149099 4285754399
0.026218809 0.011838842 0.026731225 4285623328
0.029340781 0.0074079521 0.030666819 4285492259
0.03368412 -0.0015014242 0.038663477 4285360679
0.00096542388 0.0088933595 0.027930537 4286473753
0.0026002228 0.010440771 0.02644437 4286474774
0.0042239502 0.011987979 0.024959063 4286475283
0.0064983889 0.010536753 0.026185496 4286148884
0.0084471554 0.010584872 0.02605618 4285558303
0.010224819 0.011382524 0.025249587 4285427233
0.011649579 0.013678879 0.023089005 4285558813
0.013234131 0.015225597 0.021606648 4285558558
0.014807574 0.016772151 0.020125045 4286018069
0.016915269 0.016070969 0.020674285 4286213398
0.018659167 0.016868271 0.019870218 4286278424
0.020959049 0.015418358 0.021095542 4286344723
0.023079641 0.014717788 0.021644073 4286411023
0.025976062 0.011021867 0.024896106 4285557283
0.029680923 0.0043313745 0.030849459 4285492004
0.0028714091 0.0073732547 0.026639661 4286342683
0.0046632439 0.0081732012 0.025833497 4286211869
0.0066148192 0.0082213245 0.025703946 4286146588
0.0082299709 0.0097729005 0.024222611 4286080798
