# .PCD v0.7 - Point Cloud Data file format
VERSION 0.7
FIELDS x y z rgba
SIZE 4 4 4 4
TYPE F F F U
COUNT 1 1 1 1
WIDTH 966
HEIGHT 1
VIEWPOINT 0 0 0 1 0 0 0
POINTS 966
DATA ascii
-0.028221443 -0.017994223 -0.0045104432 4287970094
-0.02643209 -0.017146192 -0.0052625658 4288035373
-0.024648286 -0.016298175 -0.0060142837 4287904558
-0.023365896 -0.012221292 -0.0093222857 4287708719
-0.035474949 -0.022919649 -0.0026329271 4286987323
-0.033340808 -0.024498597 -0.0014695651 4288622893
-0.031637058 -0.022838568 -0.0028601489 4288361519
-0.029944289 -0.021178614 -0.0042500412 4288035118
-0.028146751 -0.020328337 -0.00500111 4287904558
-0.026354767 -0.019478099 -0.0057517923 4287970093
-0.024689496 -0.017818429 -0.0071397601 4287970093
-0.023159143 -0.015349451 -0.009164568 4287772979
-0.021771841 -0.012071424 -0.011825725 4287183674
-0.035830028 -0.022016784 -0.0056791455 4285875268
-0.033704311 -0.023600316 -0.00451848 4289930533
-0.031788271 -0.023559779 -0.004631876 4288034099
-0.02998529 -0.022707313 -0.0053818016 4287904049
-0.028187845 -0.021854896 -0.0061312746 4288035118
-0.026395939 -0.021002481 -0.0068803355 4288231723
-0.02473069 -0.019338455 -0.0082650688 4288035118
-0.023076452 -0.017674539 -0.0096491333 4288231214
-0.02168633 -0.014387757 -0.012304001 4287641144
-0.030139185 -0.023421876 -0.007148392 4287510583
-0.028344542 -0.022567349 -0.0078960899 4287903794
-0.026437093 -0.022526659 -0.0080087297 4288231214
-0.024650801 -0.021672094 -0.0087557733 4288623913
-0.022993866 -0.020003758 -0.010136757 4288820009
-0.026478235 -0.024050634 -0.009136972 4288230959
-0.024813034 -0.022377957 -0.010515279 4288950313
-0.023282554 -0.01988947 -0.012525614 4288754473
-0.025096074 -0.022261126 -0.012902746 4286137408
-0.02344732 -0.020584358 -0.014276787 4287510839
-0.023859166 -0.019634204 -0.017283646 4286856253
-0.010867842 0.0060070567 0.023236442 4282678079
-0.0090752542 0.0068124775 0.022452446 4282417213
-0.0064229667 0.0030385423 0.025690604 4282808384
-0.0035966635 -0.00149782 0.029597405 4284311354
-0.013660669 0.0090093017 0.018188285 4282156604
-0.012713894 0.014409643 0.013392566 4278576404
-0.01081536 0.014451016 0.013281101 4280267309
-0.0083403364 0.011430863 0.015844453 4281050923
-0.005256176 0.005349936 0.021080723 4282027573
-0.0022782162 3.5371631e-05 0.025646126 4283201593
-0.016020369 0.0097353365 0.015160916 4281961019
-0.015062258 0.015151098 0.010375799 4281177403
-0.013587818 0.017495263 0.008262597 4280068153
-0.011847131 0.018303927 0.0074848915 4280720954
-0.0070611686 0.01301351 0.011932825 4280330038
-0.0039669052 0.006915478 0.017155642 4281306943
-0.0011337921 0.002353346 0.021042803 4281568318
0.001731813 -0.0022079851 0.024928123 4282681138
-0.018363252 0.010475203 0.012142558 4282156093
-0.017260667 0.015136324 0.0080341464 4280916283
-0.015783295 0.017487045 0.0059255185 4280135219
-0.01418383 0.019067597 0.0044837436 4281763394
-0.012171481 0.018338583 0.0050395168 4281632578
-0.010297887 0.018379543 0.004929617 4281241408
-0.0078373849 0.015341766 0.0074809669 4280589373
-0.005654268 0.013843898 0.0087008523 4281111104
-0.0026993677 0.0084983818 0.01324508 4281045058
0.00013852119 0.0039233863 0.01712233 4281894463
0.0028512329 0.00011864863 0.0203331 4283267128
-0.020561676 0.010456504 0.0097979959 4282286653
-0.019578185 0.015903141 0.0050338982 4281046589
-0.017967541 0.017488096 0.0035945545 4280524858
-0.016367938 0.019072913 0.0021559368 4278896684
-0.014502313 0.019113488 0.0020463443 4279547699
-0.012636844 0.019154169 0.0019368432 4279808309
-0.01062756 0.01842301 0.0024912548 4279677493
-0.0084662959 0.016920209 0.0037091137 4278896684
-0.0062943026 0.015417691 0.0049264552 4280653888
-0.0038073063 0.01237205 0.0074699102 4280653889
-0.0016084313 0.010870319 0.0086858217 4281045569
0.00075873733 0.0085973069 0.010564227 4281045058
0.0033023506 0.0055532083 0.013104588 4282089793
0.0060305819 0.0017381292 0.016306518 4282416958
0.0086200908 -0.0013048183 0.018844372 4283398453
0.010894194 -0.0028043827 0.020056255 4284511018
-0.022998538 0.011996247 0.0061328057 4282548283
-0.021878872 0.016683687 0.0020426516 4281437504
-0.020270824 0.018272884 0.00060657831 4281110338
-0.01840777 0.018313203 0.00049699144 4281045569
-0.016680602 0.019127928 -0.0002752007 4280394044
-0.015097503 0.020716872 -0.0017095221 4278765104
-0.013101865 0.019983143 -0.0011559934 4278374189
-0.0088014379 0.016968198 0.0012745182 4280394044
-0.0067845061 0.016235251 0.0018270295 4280915518
-0.0047622919 0.015502516 0.0023793038 4280850749
-0.0031992272 0.017091624 0.00094660511 4280980289
-0.0014896989 0.017906778 0.00017605303 4280135219
0.00069494545 0.016400632 0.0013896814 4280136748
0.0038681328 0.010252554 0.0065694349 4281244468
0.0072503611 0.0033318959 0.01240767 4281504824
0.010176115 -0.001266798 0.016260751 4282809913
0.012107514 -0.0012235604 0.016148208 4283596844
-0.024802629 0.0096703861 0.0057889633 4282744379
-0.023913141 0.01592464 0.00038385671 4279616293
-0.020702396 0.019111495 -0.0024815327 4279352113
-0.018847644 0.019151654 -0.0025906204 4280915264
-0.017128725 0.019968417 -0.0033607581 4281110593
-0.015276976 0.020008706 -0.0034695226 4280914753
-0.013425384 0.02004911 -0.0035781902 4280980289
-0.011286229 0.018536966 -0.0023655356 4280915008
-0.0092829317 0.017801452 -0.0018139087 4280850239
-0.007274352 0.017066147 -0.001262523 4280785214
-0.0055645257 0.017883282 -0.0020316257 4280720444
-0.0038603246 0.018700399 -0.0028003217 4280915773
-0.0023192316 0.020293541 -0.0042284527 4279419944
-0.00014840811 0.018782686 -0.0030172127 4279289384
0.0025218353 0.014944542 0.00017193984 4279549483
0.005715996 0.0087796021 0.0053376043 4279614764
0.008448422 0.0049430393 0.0085232733 4281763393
0.011036806 0.0018828493 0.01104841 4281764413
0.013299152 0.00037455186 0.01225462 4284053039
-0.026731439 0.0081194341 0.0047820555 4282678844
-0.025819689 0.014391486 -0.00061150547 4281503549
-0.024577457 0.01832607 -0.004022134 4278374954
-0.022980202 0.019923609 -0.0054511321 4279808309
-0.019021358 0.018446021 -0.0043491744 4280719933
-0.017169602 0.018486224 -0.0044580032 4281176129
-0.015456323 0.019305114 -0.0052260631 4281111104
-0.013466522 0.018566925 -0.0046754102 4280980289
-0.011615209 0.018607419 -0.0047839903 4281110593
-0.0096175298 0.017869566 -0.0042336029 4280980289
-0.0080623031 0.019467089 -0.0056595453 4280849983
-0.006214194 0.019507792 -0.0057677268 4280328764
-0.0045209453 0.020326871 -0.0065341466 4280329274
-0.0026758984 0.020367719 -0.0066419956 4281436993
-0.00035063177 0.01807427 -0.0047756187 4281502273
0.0018279105 0.016559392 -0.0035680223 4280003894
0.0043483004 0.013488807 -0.0010455092 4280134199
0.0068902671 0.010418791 0.0014758087 4280523585
0.009624809 0.0065714661 0.0046533262 4280523074
0.012386359 0.0027248431 0.0078293467 4280717383
0.015174896 -0.001121074 0.011003868 4279998793
0.017273769 -0.0018555149 0.011549134 4283133000
0.019195981 -0.0018121414 0.011437383 4283918653
0.020748779 -0.00021354482 0.010012498 4284639029
-0.02889308 0.0081313215 0.0024574441 4282938944
-0.027726084 0.012858678 -0.001606621 4281111613
-0.026347991 0.016023181 -0.0043513626 4280459578
-0.024742462 0.017625194 -0.0057777325 4281110083
-0.023020558 0.018446025 -0.0065449984 4281567554
-0.021043979 0.017704941 -0.0059955055 4280850748
-0.019194938 0.017744984 -0.0061042486 4280785213
-0.017346032 0.017785121 -0.0062129134 4281045824
-0.015497271 0.017825376 -0.0063214819 4281111359
-0.013648659 0.017865706 -0.0064299791 4280849984
-0.011656463 0.01712551 -0.0058809994 4280849984
-0.010098353 0.018727284 -0.007303922 4280980544
-0.0084021091 0.019548409 -0.0080690458 4280850239
-0.0067114606 0.020369489 -0.0088337827 4280849984
-0.002717644 0.018890176 -0.0077357241 4280004148
-0.0003926754 0.016590189 -0.0058741812 4280785979
0.001460053 0.016631421 -0.0059823226 4280785724
0.0036436245 0.015112381 -0.0047781887 4279808308
0.005837895 0.013593622 -0.0035745697 4280393278
0.0085557029 0.0097350534 -0.00040414603 4280392513
0.011474185 0.0050971657 0.0034203837 4280522308
0.014425099 0.00046011433 0.0072431052 4279932238
-0.030702259 0.0058020912 0.0021114815 4283003713
-0.02974876 0.012109686 -0.0032588954 4280980033
-0.028123952 0.01371621 -0.0046832869 4280914499
-0.026510146 0.015322644 -0.0061069941 4279090993
-0.024907358 0.016928922 -0.0075299186 4279938359
-0.023315582 0.018535055 -0.0089521296 4279938359
-0.021344651 0.017791681 -0.0084039122 4279222319
-0.019501191 0.017831601 -0.0085123312 4278765614
-0.017793369 0.018654641 -0.0092769023 4280915518
-0.015952908 0.018694717 -0.0093849786 4280850238
-0.014112581 0.018734861 -0.0094929952 4281176384
-0.012272429 0.01877515 -0.0096008945 4281175874
-0.010725208 0.0203811 -0.011019975 4281175874
-0.0088907853 0.020421438 -0.011127403 4281241409
-0.0067528337 0.018896516 -0.0099241473 4281175874
-0.0049133077 0.018937174 -0.010031726 4280133434
-0.0029166639 0.018195383 -0.0094842575 4278374189
0.0010924414 0.016712416 -0.0083900578 4278962728
0.0032703504 0.015188858 -0.0071887784 4278959669
0.0056271031 0.012883388 -0.0053337635 4280915008
0.0081708878 0.0097960923 -0.0028254078 4280325703
0.011257052 0.0043628104 0.0016438346 4279147603
-0.030856401 0.0050801635 0.00033944217 4282480964
-0.029672522 0.0098338835 -0.0037063169 4281762119
-0.028283227 0.013015948 -0.0064388569 4281109574
-0.026550345 0.013841208 -0.0072037308 4280198458
-0.025196683 0.017022688 -0.0099339653 4280134709
-0.023228541 0.016276974 -0.0093872789 4280136749
-0.021515075 0.017102089 -0.010150731 4279419943
-0.019674473 0.017141953 -0.010258976 4280459834
-0.018240348 0.019537527 -0.012331069 4280784959
-0.016270008 0.018792287 -0.011784195 4280915519
-0.014435261 0.018832345 -0.011891858 4280981054
-0.012744274 0.019657481 -0.012653612 4279482673
-0.0089319274 0.018953066 -0.012214374 4280264503
-0.0067942217 0.01742379 -0.011014327 4280392513
-0.0049548075 0.017464433 -0.011121908 4280588098
-0.0031155571 0.01750518 -0.011229398 4280784448
-0.0012764707 0.017546006 -0.011336815 4280719424
0.00088775158 0.01601775 -0.010138075 4280848963
0.0033934563 0.012920713 -0.0076341005 4280914243
0.0057526529 0.010608707 -0.0057840431 4281044039
-0.030669603 0.0019993316 0.00053371396 4282350148
-0.029363751 0.0059784818 -0.0028485253 4281370948
-0.027847141 0.0083816536 -0.0049210801 4281044803
-0.02646875 0.011572309 -0.0076464266 4281501510
-0.025112279 0.014762603 -0.010370403 4281435973
-0.023396041 0.015589844 -0.011132485 4280784449
-0.021685395 0.016417142 -0.011894181 4280719424
-0.019980304 0.017244376 -0.012655431 4280719168
-0.018416181 0.018858943 -0.014069307 4280524093
-0.016448751 0.018111467 -0.013523876 4280785724
-0.014476027 0.017364215 -0.012978671 4280917304
-0.009271048 0.019059062 -0.014605609 4279747619
-0.0051507503 0.016778942 -0.012863844 4281110593
-0.0033143386 0.016819619 -0.012971172 4280718913
-0.0014780909 0.016860388 -0.013078419 4280261444
0.00084578246 0.014540907 -0.011231266 4280392004
0.0035164505 0.010648433 -0.0080824811 4281239369
0.0062141418 0.0067566615 -0.0049351966 4280320604
-0.030369494 -0.0018800087 0.0013744566 4283329094
-0.02882278 0.00053027086 -0.00069515058 4281370184
-0.027292512 0.0029402748 -0.0027636588 4281175109
-0.025900424 0.0061399397 -0.0054833451 4280979268
-0.024779119 0.010918837 -0.0095058009 4281370438
-0.023054786 0.011748442 -0.010266732 4281239624
-0.021725688 0.01494706 -0.012982481 4280457539
-0.020153273 0.016566064 -0.014393683 4280522818
-0.018727221 0.018974535 -0.016455598 4280719678
-0.016627371 0.017435234 -0.015260159 4280654908
-0.014657553 0.016685735 -0.014716408 4280654909
-0.012969423 0.017515182 -0.015474747 4280721464
-0.011286892 0.018344652 -0.016232729 4281046333
-0.005346559 0.016097974 -0.014602355 4280980544
-0.003670074 0.016927656 -0.015359649 4280653633
-0.0013599247 0.014601238 -0.013516617 4280784449
0.00096636266 0.012275308 -0.011674508 4280849984
0.0039698705 0.0067941919 -0.0072345836 4279608388
-0.030296706 -0.0041877255 0.00090352865 4283263814
-0.028747238 -0.0017708559 -0.0011613946 4281043273
-0.026976354 -0.00093841366 -0.0019237063 4281240134
-0.025454327 0.0014780555 -0.0039867973 4280978758
-0.024073154 0.0046862736 -0.0066993153 4280979523
-0.022713874 0.0078941565 -0.0094104446 4280718914
-0.021376502 0.011101661 -0.012120213 4281239623
-0.019928493 0.013517044 -0.014178643 4280587589
-0.018632211 0.016723875 -0.016885836 4280457539
-0.016805869 0.016763639 -0.016993091 4280785213
-0.01483896 0.016011853 -0.016450739 4279092269
-0.01301017 0.016051851 -0.016557999 4281306943
-0.011473864 0.017675012 -0.01796349 4281697859
-0.0097996965 0.018506516 -0.018719256 4281371458
-0.0078279227 0.017755281 -0.018176936 4280850238
-0.00569655 0.016212899 -0.016986148 4280524093
-0.00339742 0.013879657 -0.015147434 4280849984
-0.0014016405 0.013129201 -0.014606262 4280849984
0.0014117956 0.0084233135 -0.010824345 4280457283
-0.030337453 -0.0057052057 -0.00021992321 4283002949
-0.028671794 -0.0040761633 -0.0016306575 4280912968
-0.027136024 -0.0016529355 -0.0036898339 4281305668
-0.0253735 -0.00081838667 -0.0044499566 4281305414
-0.023989502 0.0023986027 -0.0071561765 4281174853
-0.022373311 0.0040270351 -0.0085636592 4281175364
-0.02115744 0.0080375075 -0.01191598 4281502528
-0.019703932 0.01045946 -0.013969867 4281175874
-0.018402096 0.013675127 -0.016670916 4281371203
-0.01684631 0.015302744 -0.018074557 4281308729
-0.015301529 0.016930148 -0.019477449 4280005679
-0.013481047 0.016969997 -0.019584201 4278897194
-0.011660695 0.017009925 -0.019690882 4279548719
-0.0099893138 0.017843548 -0.020444868 4279353134
-0.0080204457 0.017090071 -0.019903997 4278766379
-0.005737789 0.014749788 -0.018069202 4280720188
-0.0032819584 0.01161653 -0.015588383 4281372479
-0.00080458075 0.0084839091 -0.013108776 4281041998
-0.030264817 -0.0080189817 -0.00069533754 4282872389
-0.028712567 -0.0055890372 -0.0027506875 4281043784
-0.027176756 -0.0031592865 -0.0048050247 4281370438
-0.025414318 -0.0023225732 -0.0055635334 4281435719
-0.023781702 -0.00068949535 -0.0069688717 4281305668
-0.022033107 0.00014716201 -0.0077263885 4281240134
-0.020549484 0.0025761742 -0.0097772898 4281371714
-0.019082323 0.0050050151 -0.011827162 4281110593
-0.01776677 0.0082296804 -0.014522559 4280717639
-0.016473114 0.011453958 -0.017216602 4281242428
-0.015201382 0.014677882 -0.019909266 4281046078
-0.013808221 0.017105442 -0.021954469 4280720443
-0.012139477 0.017941143 -0.022706788 4279417649
-0.010178804 0.017185163 -0.022167092 4278766123
-0.007909894 0.014837999 -0.020336449 4280916284
-0.0054706186 0.01169559 -0.01786118 4281372734
-0.0030097216 0.0085537303 -0.015387124 4280979778
-0.02863729 -0.0079003535 -0.0032244751 4281892169
-0.027217485 -0.0046654213 -0.0059200558 4281696584
-0.025455125 -0.0038265185 -0.0066769347 4281240133
-0.023822524 -0.0021891091 -0.0080790557 4281370694
-0.02194709 -0.0021487214 -0.0081895208 4281370949
-0.020590346 0.0010852702 -0.010881004 4281305668
-0.018990774 0.0027223006 -0.012280936 4281370693
-0.017402213 0.0043591559 -0.013680094 4281305159
-0.016100287 0.0075923353 -0.016368151 4281305414
-0.014960788 0.011623239 -0.019699508 4281503039
-0.013705395 0.014855586 -0.022384696 4281436993
-0.012033988 0.015693471 -0.023135517 4281111104
-0.010070778 0.014935408 -0.022597631 4280654143
-0.007799454 0.012581771 -0.020771975 4281176129
-0.0052036569 0.0086328071 -0.017659441 4281240644
-0.0027377158 0.0054824185 -0.01519217 4278758474
-0.028330162 -0.011817491 -0.0024123152 4283461694
-0.026783407 -0.0093744798 -0.0044576279 4282218569
-0.025131658 -0.0077324174 -0.0058577303 4281565769
-0.023490917 -0.0060905144 -0.0072570504 4281304904
-0.021861169 -0.0044487566 -0.0086556561 4281370693
-0.020372029 -0.0020065084 -0.01069722 4281435973
-0.01903164 0.0012359656 -0.013381256 4281240388
-0.017308064 0.0020767339 -0.014133846 4281306178
-0.015727811 0.0037179273 -0.01552924 4281176128
-0.014299031 0.0061592162 -0.017566919 4281177659
-0.0131731 0.010200825 -0.020889318 4280460089
-0.011636794 0.011841336 -0.022281928 4281241919
-0.0098142251 0.011881404 -0.022388671 4281110594
-0.0073864087 0.0087212231 -0.019925736 4280913223
-0.0049369559 0.0055616032 -0.017464008 4278885718
-0.024808537 -0.011651176 -0.0050479709 4281826633
-0.023407817 -0.0083990432 -0.0077293538 4281696074
-0.02190217 -0.0059500858 -0.0097671002 4281826888
-0.020542517 -0.00269859 -0.012445881 4281500743
-0.018940244 -0.0010528192 -0.013839524 4281566534
-0.017348979 0.00059278123 -0.015232395 4280914498
-0.015631042 0.0014356971 -0.015982969 4280979778
-0.014059089 0.0030811653 -0.017374568 4281111103
-0.012498159 0.0047264118 -0.018765427 4281110593
-0.011094086 0.0071739387 -0.020796703 4281568319
-0.0092607588 0.0072142202 -0.020904096 4281176128
-0.0071249902 0.0056500826 -0.019729784 4280253539
-0.021943159 -0.0074511999 -0.010878384 4282547264
-0.020324461 -0.005800819 -0.012269836 4281958979
-0.018716764 -0.0041506207 -0.013660525 4281174343
-0.017120078 -0.0025005098 -0.015050528 4280849219
-0.015534386 -0.00085058995 -0.016439777 4281240133
-0.01381937 -5.4612756e-06 -0.017188486 4281306178
-0.012109928 0.00083969161 -0.017936837 4281371459
-0.010406055 0.0016847793 -0.018684741 4281175363
-0.0087077618 0.0025298428 -0.01943225 4281174598
-0.0065613836 0.00096160732 -0.01826185 4280649554
-0.020365451 -0.0072973976 -0.013377753 4282610504
-0.018625647 -0.0064498717 -0.01412654 4280651083
-0.017026238 -0.0047954349 -0.015513462 4280977994
-0.015300278 -0.0039479444 -0.016261313 4281174853
-0.01386046 -0.0014868546 -0.018285124 4281305668
-0.012008067 -0.0014463626 -0.018393785 4281240388
-0.010447279 0.00020770356 -0.019778164 4281370949
-0.0087490454 0.0010549296 -0.020524062 4281305414
-0.017202083 -0.0054761125 -0.017253328 4280974169
-0.015478905 -0.0046265703 -0.017999375 4281107534
-0.013621069 -0.0045860652 -0.018108435 4281239623
-0.012049261 -0.0029275799 -0.019490283 4281305669
-0.010342799 -0.002078047 -0.02023516 4281370693
-0.0086419061 -0.0012286138 -0.020979617 4281175109
-0.015657395 -0.0053006569 -0.019734075 4280646749
-0.013662234 -0.0060714222 -0.019208008 4281106769
-0.011947539 -0.0052197026 -0.019951802 4281305414
-0.010384031 -0.0035569193 -0.021329915 4281305414
-0.0086831897 -0.0027053077 -0.022072751 4281239623
-0.010279685 -0.0058488827 -0.021791436 4280910418
-0.0088727325 -0.0033686422 -0.023798643 4279733084
0.030654311 -0.0054686572 0.019093955 4282080614
0.032599874 -0.0054242909 0.01898119 4280177548
0.034947291 -0.0069255736 0.020186311 4281160319
0.027698934 -0.0031977268 0.014762735 4280112269
0.029435493 -0.0023785792 0.013993124 4279128734
0.031166434 -0.0015595071 0.013223877 4279125674
0.027268246 -0.0031926343 0.012303449 4278538919
0.028999336 -0.0023713931 0.011535726 4279062434
0.039660677 -0.0060364679 0.014254993 4280502673
0.04307919 -0.01143062 0.018728318 4281487228
0.01669202 -0.00105666 0.0084427539 4279328908
0.024536572 -0.0016629938 0.0086528379 4281161339
0.026452407 -0.0016194228 0.0085417088 4279194268
0.030283451 -0.0015320983 0.0083196349 4279256999
0.031796932 7.0465729e-05 0.0069005666 4280240533
0.033706494 0.00011416338 0.0067900028 4279256489
0.035822108 -0.00062136911 0.0073332787 4278402748
0.038151912 -0.0021358673 0.0085298344 4279323299
0.040915765 -0.0052083423 0.011032709 4279062178
0.044129983 -0.0098383799 0.014840918 4281028993
0.016468734 -0.001808526 0.006653592 4278997408
0.024301976 -0.0024173465 0.0068627512 4278866339
0.02621498 -0.0023738313 0.0067517944 4278603944
0.030040421 -0.0022866204 0.0065300558 4278467263
0.033661492 -0.0014176294 0.0056562452 4278864044
0.035570733 -0.0013738647 0.005545754 4278601904
0.03768871 -0.0021114554 0.0060873246 4278406574
0.040023521 -0.0036301399 0.0072803972 4278865829
0.043226428 -0.0082735168 0.011079551 4278275758
0.015887626 -0.00098741055 0.0035636886 4278668969
0.017790504 -0.00094446726 0.0034530647 4278996388
0.019693181 -0.00090141967 0.0033425339 4278997153
0.021782786 -0.0016423408 0.0038836827 4278931618
0.023497939 -0.00081513263 0.0031216582 4279193249
0.025207445 1.203455e-05 0.0023600254 4278800039
0.027106583 5.5298209e-05 0.0022499203 4279126694
0.037643492 -0.0036452422 0.0049521029 4278865829
0.040189683 -0.0059517501 0.0067921625 4278669479
0.043394864 -0.010608187 0.010581526 4278997408
0.013940677 -0.0025550928 0.0025457204 4278541213
0.015843645 -0.0025122073 0.0024350476 4279061413
0.017564796 -0.0016829055 0.0016741268 4278668969
0.0192803 -0.00085360929 0.00091355247 4278472108
0.023263782 -0.0015537757 0.0013432014 4278727618
0.024970524 -0.00072445162 0.00058330456 4278924988
0.026671648 0.00010478869 -0.00017616223 4278865318
0.028763019 -0.00063800067 0.00036346866 4278800038
0.031060249 -0.0021665357 0.0015521171 4278472619
0.033164777 -0.0029088827 0.0020910897 4278341038
0.035274528 -0.0036510555 0.0026298021 4278865574
0.0378071 -0.0059645232 0.0044657895 4278931108
0.040778764 -0.0098488657 0.0075980695 4280701574
0.04399161 -0.01451816 0.011377241 4282208623
0.013544545 -0.0025023315 0.00011916179 4279324318
0.01526311 -0.0016709864 -0.00064004865 4278865573
0.017339207 -0.0024167486 -0.00010148017 4278669224
0.018867679 -0.00079692714 -0.0015087875 4278471088
0.022650316 -0.00071115233 -0.0017283865 4279187128
0.024348885 0.00012012944 -0.0024861444 4278596803
0.028322779 -0.00058196299 -0.0020572813 4278733994
0.030614361 -0.0021149535 -0.0008715922 4278406574
0.032916628 -0.003647672 0.00031357282 4278668969
0.035435542 -0.0059680054 0.0021454124 4278603433
0.038179316 -0.0090758493 0.004623537 4278669479
0.041156016 -0.012970982 0.0077474285 4282012018
0.044159688 -0.016865462 0.01086979 4282405739
0.01125659 -0.0024832226 -0.0021906323 4279195544
0.012972586 -0.0016498473 -0.0029481417 4278801058
0.01486177 -0.0016073082 -0.0030580387 4278472619
0.016750738 -0.0015646517 -0.0031678346 4278799274
0.018639542 -0.0015219413 -0.0032775765 4278468539
0.020341188 -0.00068853982 -0.0040340666 4279585949
0.0222269 -0.00064575672 -0.0041435244 4278996389
0.023920015 0.00018756837 -0.0048993556 4278929324
0.025997691 -0.0005599428 -0.0043622064 4278863788
0.02808062 -0.0013073497 -0.0038252971 4279060394
0.030369282 -0.0028447434 -0.0026426581 4278537389
0.032465376 -0.0035916381 -0.0021064291 4278537899
0.035390511 -0.007498973 0.0010122685 4279324829
0.038551293 -0.012195747 0.004775011 4281357179
0.041533045 -0.016101671 0.0078905169 4281816434
0.0086386427 -0.00086857378 -0.0057866531 4278739603
0.010346644 -3.3311546e-05 -0.006542162 4279522709
0.012225017 8.918345e-06 -0.0066514816 4278735269
0.014281943 -0.00074169785 -0.0061150817 4278341549
0.016344115 -0.0014921259 -0.0055789365 4278865064
0.01992359 -0.0006141495 -0.0064428868 4278665909
0.021614149 0.00022120774 -0.0071970196 4279912348
0.023683704 -0.00052874908 -0.0066610789 4278470069
0.02783858 -0.0020281151 -0.0055899667 4278864553
0.030124336 -0.0035700053 -0.004410373 4278668969
0.032623939 -0.0059039695 -0.0025871324 4278734249
0.035963185 -0.011406768 0.0018114774 4278405553
0.038923025 -0.015324125 0.0049201362 4281422713
0.041275866 -0.016864238 0.006096025 4281816435
0.0080839843 1.087971e-05 -0.0088353045 4278476699
0.0097837746 0.00084813312 -0.0095887212 4278866338
0.0116539 0.00089017488 -0.0096975612 4278538919
0.013523839 0.00093227252 -0.0098063461 4278538153
0.015574992 0.00017942302 -0.0092711728 4278734504
0.019319408 0.00026413985 -0.0094886944 4278399943
0.021191329 0.00030661188 -0.009597349 4278532034
0.025324553 -0.0011978038 -0.0085282894 4278339508
0.027596712 -0.0027443664 -0.007351222 4278930853
0.030079938 -0.0050852969 -0.0055319266 4278734758
0.032985494 -0.0090149455 -0.0024283268 4280438669
0.036123827 -0.013738384 0.001316228 4281159808
0.039085999 -0.017666575 0.0044166707 4280045968
0.041441336 -0.019211005 0.0055891667 4282143089
0.0054970682 0.00165933 -0.012408482 4278409379
0.0075297281 0.00090353005 -0.011874115 4278930599
0.009048149 0.002540227 -0.013268216 4279454113
0.01312349 0.00102924 -0.012199698 4279519139
0.015169024 0.00027406588 -0.01166583 4279127458
0.017035805 0.00031625479 -0.011774309 4278669223
0.018902384 0.00035851449 -0.011882722 4278341294
0.025280669 -0.0027020369 -0.0096416734 4278668968
0.027947851 -0.0058467407 -0.0071851769 4278603943
0.030636564 -0.008990908 -0.0047298954 4279653013
0.033549868 -0.012931221 -0.001634792 4281880693
0.036284357 -0.016074181 0.00081788469 4281946739
0.03862343 -0.0176234 0.0019880435 4279979924
0.040973127 -0.019172255 0.0031576045 4279717274
0.0054545254 0.00016850233 -0.013512015 4278406573
0.0073166266 0.0002101697 -0.013620531 4279454114
0.010512874 0.0026923735 -0.015760278 4278532033
0.016440608 0.0012190789 -0.014802578 4278668969
0.018485658 0.00046180002 -0.01427016 4278669224
0.020535931 -0.00029522181 -0.013738016 4278603433
0.022783577 -0.0018512234 -0.01256612 4278603434
0.025431626 -0.0050051725 -0.010115055 4278734503
0.028298743 -0.0089575574 -0.0070254542 4279456410
0.031393096 -0.013708258 -0.003297843 4281291134
0.034113891 -0.016860345 -0.0008508428 4281946484
0.036444806 -0.01841419 0.00031649321 4281946738
0.038577951 -0.019168871 0.00084416801 4282274668
0.0012009963 0.0010008849 -0.01631861 4278738839
0.0030551553 0.0010421891 -0.016426802 4278733484
0.0049091801 0.0010835882 -0.016534911 4279127204
0.0086167082 0.0011666026 -0.016750935 4279324063
0.01029446 0.0020099413 -0.017498184 4278538153
0.011966586 0.0028532743 -0.018245094 4278535858
0.016213641 0.00053204969 -0.016543258 4278668203
0.0182558 -0.00022742897 -0.016012331 4278734504
0.020303234 -0.00098676793 -0.01548162 4278537643
0.02293206 -0.0041498495 -0.013035969 4278735014
0.025972031 -0.0089150323 -0.0093149617 4280112013
0.02884692 -0.012878176 -0.0062339306 4281815413
0.031948954 -0.017641768 -0.0025164648 4282274159
0.034068793 -0.018399082 -0.0019897483 4282078319
0.036193848 -0.019156208 -0.0014632838 4282341478
-0.00085472316 0.00028005429 -0.01794743 4278476699
0.00083465874 0.0011254288 -0.018694114 4278998939
0.0026832893 0.0011666138 -0.01880198 4278996644
0.0046993047 0.00040375441 -0.018271528 4278471853
0.010251895 0.0005281698 -0.018594991 4279193249
0.01174558 0.0021774806 -0.019977877 4279258529
0.013771631 0.0014152993 -0.019447749 4278864809
0.016170651 -0.00095413439 -0.017643308 4278406318
0.018399239 -0.0025194669 -0.016476836 4278668969
0.020827793 -0.0048880493 -0.014674049 4278472363
0.023464456 -0.0080597466 -0.012235304 4278406318
0.026512094 -0.012837775 -0.0085244812 4281618553
0.029394731 -0.016811607 -0.0054519642 4282208369
0.031904027 -0.019178132 -0.0036536218 4282142833
0.03382086 -0.019134384 -0.0037646932 4282012528
-0.0013746247 0.0012178663 -0.020955361 4278602924
0.00046861172 0.001258811 -0.021063002 4279454624
0.0024764463 0.0004935544 -0.020533795 4278734503
0.0043220893 0.00053471513 -0.020641455 4278472108
0.0098580718 0.00065871514 -0.020963982 4278270913
0.011703074 0.00070018694 -0.021071363 4278401729
0.016127713 -0.0024401359 -0.018743228 4278668203
0.01816956 -0.0032040142 -0.018215545 4278799784
0.023804523 -0.011176774 -0.012079382 4278800039
0.026857167 -0.015967807 -0.0083785132 4281618808
0.029350094 -0.018341264 -0.0065841638 4282077554
0.031258889 -0.018297795 -0.0066948412 4282078064
-0.0014163256 -0.00025691092 -0.022047041 4279257508
0.00042679161 -0.00021599233 -0.022154693 4279258528
0.0022697672 -0.00017496757 -0.022262255 4278865828
0.0041125938 -0.00013388693 -0.022369763 4278603943
0.0062955245 -0.0017093997 -0.021207504 4278603944
0.0096401051 -1.0114163e-05 -0.022691825 4278796468
0.011482298 3.1277537e-05 -0.022799056 4278601393
0.013505317 -0.00073532946 -0.022271989 4278930088
0.015901074 -0.0031179208 -0.020477068 4278930854
0.018499389 -0.0063080685 -0.018049149 4278866338
0.021497555 -0.011113478 -0.014354948 4280701318
0.023952551 -0.013494508 -0.012563307 4280766344
0.026812844 -0.017490719 -0.0095057301 4279454879
0.029108196 -0.019062994 -0.0083494857 4281946738
-0.020447377 -0.01028992 -0.01559312 4282993769
-0.019235745 -0.0061925668 -0.018880554 4279915409
-0.0039271191 0.0014710184 -0.025566993 4279061923
-0.0017764121 -0.00010999478 -0.024406329 4278733229
0.0059131458 -0.0015673675 -0.023568749 4278800549
0.0074099824 9.4799325e-05 -0.024942251 4278866084
0.0092468113 0.00013597496 -0.025049239 4278735013
0.011261679 -0.00063311681 -0.024523405 4278800294
0.013462774 -0.0022122897 -0.023365224 4278800039
0.015858248 -0.004601432 -0.021575147 4278669223
0.018642604 -0.0086104488 -0.018521391 4280308620
0.021643043 -0.013428894 -0.014837036 4281487994
0.024100468 -0.015816409 -0.013050391 4281684854
0.026379488 -0.017393474 -0.011896479 4281553273
0.028471984 -0.018160377 -0.011374759 4280242573
-0.020488314 -0.011785899 -0.016700596 4282009978
-0.019144561 -0.0084912302 -0.019346138 4279062688
-0.017553352 -0.0068239458 -0.020722907 4279456409
-0.015835743 -0.0059702192 -0.021465428 4279391383
-0.013843492 -0.0067432299 -0.02094081 4280181118
-0.005954437 0.00077789277 -0.027177373 4278407848
-0.0041248351 0.00081830472 -0.027284389 4278995879
0.0051910207 0.00020895526 -0.027186725 4278471088
0.0071952045 -0.00056271814 -0.026662009 4278668969
0.0090292022 -0.00052162074 -0.026768845 4278538409
0.011041217 -0.0012930203 -0.026244435 4278538154
0.013420269 -0.0036890935 -0.024458347 4278800549
0.016182646 -0.0077095553 -0.021411445 4281356668
0.01934465 -0.01335407 -0.017104687 4281880693
0.022166468 -0.017373089 -0.01406116 4282012274
0.024248272 -0.018142503 -0.013540578 4281750389
0.026140906 -0.018099595 -0.013650461 4282602344
0.032425582 -0.02040647 -0.012090567 4282013039
0.034325667 -0.02036315 -0.012200702 4282668134
-0.040128961 -0.021883696 -0.01024912 4282534513
-0.020658392 -0.0124659 -0.018440317 4281551999
-0.019053474 -0.010794096 -0.019814759 4279062688
-0.017459556 -0.0091223661 -0.021188509 4279521434
-0.015876621 -0.0074508321 -0.022561502 4279324829
-0.014164656 -0.0065949196 -0.023302054 4279325338
-0.012458246 -0.0057390686 -0.024042161 4279786379
-0.007674247 -0.0015410539 -0.027522393 4278276524
-0.0061491802 0.00012979656 -0.028891562 4279717529
-0.0023367032 -0.00060454383 -0.028474553 4279127458
-0.0005074814 -0.00056398474 -0.028581429 4278932128
0.0013215765 -0.00052332133 -0.028688217 4278407083
0.0029832721 0.00033232197 -0.029425127 4278405298
0.0046393722 0.0011879858 -0.030161683 4278799273
0.0066352487 0.00041388534 -0.029638069 4278800038
0.0089871511 -0.0019894764 -0.027855361 4278669223
0.011533312 -0.005207153 -0.025443971 4278603689
0.014281876 -0.0092389239 -0.022404427 4279194013
0.016873911 -0.012455426 -0.019995602 4280898434
0.01967375 -0.016485879 -0.016958917 4281619319
0.022122666 -0.018886764 -0.015181559 4281946739
0.024012662 -0.018844005 -0.015291354 4282209389
0.037448652 -0.019357154 -0.015430825 4281946739
0.039766818 -0.020941757 -0.014285367 4282339948
-0.022062343 -0.017271662 -0.016912032 4282663798
-0.020570114 -0.014777281 -0.018915128 4280503948
-0.018962484 -0.013101067 -0.020286499 4278932384
-0.017231308 -0.012242835 -0.021026693 4279259804
-0.015780207 -0.0097490316 -0.023027137 4279259803
-0.014065579 -0.0088909371 -0.023766194 4279324318
-0.012499217 -0.0072151832 -0.025134888 4279062179
-0.010798432 -0.00635722 -0.025873005 4278931619
-0.0092513338 -0.0046817418 -0.02724039 4278472874
-0.0077152699 -0.0030063754 -0.028607104 4279520414
-0.0063437894 -0.0005137343 -0.030602451 4278865319
-0.00071061403 -0.0012099985 -0.030293444 4278406063
0.00095116347 -0.00035220943 -0.031028846 4278405808
0.0042580366 0.0013631284 -0.032498423 4278602414
0.0065935105 -0.0010472853 -0.030719645 4278996133
0.0089451522 -0.00345721 -0.028941788 4278996898
0.011669002 -0.0075004809 -0.02590893 4279389599
0.014600635 -0.012359915 -0.022249777 4281094019
0.017564714 -0.017218539 -0.018592525 4281880693
0.020002633 -0.019626271 -0.016819427 4281946483
0.021890007 -0.019583672 -0.016929146 4282078574
-0.02235591 -0.017133176 -0.019282635 4282010234
-0.020610981 -0.016272685 -0.02002218 4280242319
-0.019135129 -0.013772096 -0.022019368 4278932384
-0.017272241 -0.013731766 -0.022128936 4279521689
-0.015683886 -0.012051411 -0.023495864 4279324573
-0.013966601 -0.011191108 -0.024233481 4279259039
-0.012540173 -0.0086911302 -0.026227493 4278996898
-0.010839432 -0.0078310259 -0.026964018 4278472619
-0.0076054633 -0.0052911695 -0.029063789 4278274994
-0.0060776621 -0.0036116103 -0.030426698 4279519649
-0.0047171116 -0.0011126194 -0.032416508 4279258783
0.0045562685 -0.0017297883 -0.032321472 4279192994
0.0067243651 -0.0033274479 -0.031174468 4278865574
0.0094289482 -0.0073821247 -0.028148631 4280307088
0.012338534 -0.012255172 -0.024498008 4281290113
0.015099876 -0.016308408 -0.021475354 4280896904
0.017704815 -0.019542079 -0.01908024 4279716508
0.019772932 -0.020318551 -0.018563874 4281355904
-0.02252296 -0.017808247 -0.021018922 4282010743
-0.020651825 -0.017767943 -0.021129131 4280242829
-0.019175924 -0.015260869 -0.023121504 4278997408
-0.01731316 -0.015220564 -0.023231082 4279063199
-0.015724808 -0.013535866 -0.024594788 4279521434
-0.013727851 -0.014317544 -0.024076955 4279324573
-0.012153331 -0.012632988 -0.025439654 4278865574
-0.010589808 -0.010948556 -0.026801696 4278931108
-0.0091852993 -0.0084424317 -0.028789429 4278734758
-0.0076464862 -0.0067583583 -0.030149886 4278538154
-0.0061186776 -0.0050744666 -0.031509578 4278734249
-0.0047580451 -0.0025690105 -0.033494599 4278931364
-0.00325495 -0.00088549219 -0.034852721 4279586713
-0.0014396459 -0.00084530376 -0.034958832 4278604708
0.00037553161 -0.00080504827 -0.03506488 4278407594
0.0025246665 -0.0024076216 -0.033920176 4278735014
0.0046845302 -0.0040099202 -0.032775998 4278931364
0.0072000995 -0.0072546033 -0.030382371 4278997408
0.0097372308 -0.010498657 -0.027989963 4280963714
0.012295946 -0.013742208 -0.025598723 4281816179
0.014876254 -0.016985212 -0.023208693 4281881458
0.017111458 -0.018585477 -0.022068648 4281750388
0.019357361 -0.020185385 -0.020929214 4281881204
0.021425202 -0.020964004 -0.020414419 4280897669
-0.019085042 -0.017573863 -0.023597706 4281028994
-0.017219689 -0.017533507 -0.023707438 4279782809
-0.015765708 -0.01502014 -0.025693577 4278930598
-0.013908729 -0.014979772 -0.025802676 4278537389
-0.012051877 -0.014939322 -0.025911704 4279258784
-0.010485619 -0.013250563 -0.027270662 4279258783
-0.0089303777 -0.011561867 -0.028628917 4279127714
-0.0075367913 -0.0090494128 -0.030611135 4278800038
-0.0056994483 -0.0090090157 -0.030718742 4278734759
-0.0043305829 -0.0064968979 -0.032699428 4278538409
-0.0028193444 -0.0048088124 -0.034054846 4278996898
-0.0014806315 -0.0022972189 -0.036033593 4279062944
0.00049871951 -0.0030806856 -0.035515767 4278735014
0.0024833679 -0.0038639484 -0.034998193 4278669479
0.0049824193 -0.0071177799 -0.032610111 4278669989
0.0076754838 -0.01119456 -0.029599827 4280767619
0.010570727 -0.016094172 -0.025967773 4281684854
0.012786977 -0.017699325 -0.024830014 4281881459
0.014833383 -0.018480835 -0.02431576 4281881714
0.016518526 -0.017615618 -0.025047321 4282668134
0.02307187 -0.021605117 -0.022261325 4281421948
-0.019389015 -0.017411256 -0.025949623 4278607259
-0.017260607 -0.019024136 -0.024810944 4281422458
-0.015806567 -0.016504282 -0.026792271 4279061158
-0.013949711 -0.016463952 -0.026901389 4279128479
-0.012092967 -0.016423516 -0.027010418 4279063199
-0.010526717 -0.014730414 -0.028366152 4278801058
-0.0091193691 -0.012211202 -0.030344458 4278472363
-0.0075778067 -0.010518468 -0.031698618 4278472109
-0.005740568 -0.010478109 -0.031806245 4278472619
-0.0025428236 -0.0079191318 -0.033889111 4278472874
0.00045760721 -0.0045346757 -0.036592063 4278538408
0.002609022 -0.0061459504 -0.035453994 4278932128
0.0051104426 -0.0094084349 -0.033072516 4280636293
0.0079782084 -0.014321806 -0.029448617 4281553783
0.010353163 -0.016757393 -0.027691558 4281815414
0.012388721 -0.017541487 -0.027178336 4281684343
0.014429554 -0.018325334 -0.026665399 4282602854
0.025998354 -0.019724069 -0.026074797 4282143344
-0.019429669 -0.018897368 -0.027049795 4281162613
-0.015710425 -0.01881692 -0.027268603 4282470763
-0.013990659 -0.017947977 -0.02799999 4281880183
-0.012134042 -0.017907567 -0.028109029 4279194014
-0.010712914 -0.015381655 -0.030083392 4278931364
-0.0091603622 -0.013684455 -0.031435061 4278864808
-0.0076187849 -0.011987403 -0.032786015 4279193504
-0.0054751188 -0.013603618 -0.031651031 4278866084
-0.0037886724 -0.012734883 -0.032380074 4278997153
-0.0022665039 -0.01103795 -0.033729743 4279128478
-0.0012396276 -0.0068568718 -0.036941186 4278997409
0.00058069825 -0.0068165977 -0.037047606 4278866084
0.0025677383 -0.0076042041 -0.036533438 4281226109
0.0052384213 -0.0117034 -0.033538036 4281684854
0.0077638179 -0.014973966 -0.031164428 4281946739
0.010310799 -0.018244019 -0.028791983 4281881203
0.012168474 -0.018202536 -0.028900307 4282471784
0.027822495 -0.021177543 -0.027290393 4282405738
-0.012317423 -0.018560775 -0.029827863 4280701829
-0.01089894 -0.016028428 -0.031797253 4279980944
-0.0093490854 -0.014326986 -0.033145569 4279259294
-0.0075092465 -0.014286694 -0.033253439 4278668968
-0.0055162758 -0.015076793 -0.032741562 4279193759
-0.0038298815 -0.014205903 -0.033469006 4279259803
-0.0023076981 -0.012504663 -0.034815475 4278866338
-0.0011192486 -0.0091430368 -0.037399679 4279456409
0.00053961575 -0.0082725259 -0.03812534 4279718549
0.0028601065 -0.010722693 -0.036374953 4280767363
0.0053662956 -0.01400252 -0.034006707 4281815669
0.0075496137 -0.015621706 -0.032876894 4281815669
0.0095686913 -0.016410567 -0.032366056 4282012783
-0.02175647 -0.019409763 -0.030998901 4282470509
-0.015928954 -0.020955844 -0.030087728 4282993513
-0.011229806 -0.015837945 -0.034126386 4282602088
-0.0093899444 -0.015797785 -0.03423436 4281160064
-0.0072493255 -0.017422905 -0.033105757 4280242318
-0.0054042488 -0.017382462 -0.033213906 4279194779
-0.0037151873 -0.016509365 -0.033939913 4279063198
-0.0021902472 -0.01480381 -0.035283312 4279521688
-0.00083762407 -0.012265915 -0.037243646 4279587733
0.00082663447 -0.01139312 -0.037968021 4279587989
0.0029855371 -0.013017362 -0.036840133 4280309129
0.0054941028 -0.016305877 -0.034478519 4281553783
0.0075077415 -0.017097168 -0.033969071 4282012784
-0.02192536 -0.020053551 -0.032711901 4281422204
-0.0071399808 -0.01973284 -0.033581071 4280503949
-0.0052923039 -0.019692358 -0.033689387 4279390874
-0.0037563592 -0.017982338 -0.035030294 4278997153
-0.0022314116 -0.016272472 -0.036370493 4278932129
-0.00055621564 -0.015397318 -0.037094008 4278865828
0.00094946474 -0.01368773 -0.038432967 4279521689
0.0031108856 -0.015316304 -0.037308488 4280374664
0.0052830502 -0.016944615 -0.036184538 4280636294
0.0074659362 -0.018572545 -0.035061188 4280766853
-0.022479814 -0.018180422 -0.036270499 4281355905
-0.016420569 -0.021410903 -0.034131777 4281619829
-0.0074816719 -0.019535944 -0.035904635 4282536808
-0.0039532557 -0.018618302 -0.036735315 4281490289
-0.0024310052 -0.016904127 -0.038072187 4279914134
-0.0005973652 -0.016863778 -0.03817955 4279390619
0.0010722503 -0.015986593 -0.038901065 4279914898
0.0030695498 -0.016782815 -0.038394056 4281094783
0.009093307 -0.019170422 -0.036874551 4280767874
-0.016734365 -0.021208797 -0.036453564 4281881459
-0.0061394498 -0.018450852 -0.038942683 4282602599
-0.0027888268 -0.016692389 -0.040383521 4281619319
-0.00096070021 -0.016652197 -0.040490594 4280896139
0.00086728483 -0.016611902 -0.040597577 4280504458
0.0026951581 -0.01657155 -0.040704507 4282537063
-0.017184518 -0.020156162 -0.039381478 4281684598
-0.0061802045 -0.019916994 -0.040028024 4281881969
-0.0011626929 -0.017272972 -0.042183958 4282275179
-0.0066794753 -0.01885259 -0.042943448 4282209644
0.012289844 -0.021822022 -0.041577671 4281554294
-0.017810624 -0.01970363 -0.043989364 4282537319
-0.0068727508 -0.019466335 -0.044632323 4281620084
0.011708453 -0.020755446 -0.044485409 4281488759
-0.01812325 -0.019464226 -0.046283547 4282274669
0.018509597 0.011306282 0.051171452 4285557283
0.019788891 0.014286917 0.048297688 4286279699
0.021587379 0.015065107 0.047492962 4286146843
0.023929618 0.013641246 0.048755948 4286147099
0.014653094 0.0088830087 0.050909076 4285032493
0.015613131 0.0133457 0.046663955 4285361699
0.017414816 0.014125954 0.045860596 4285951514
0.019033194 0.015642453 0.044369854 4285623073
0.020820759 0.016422588 0.04356746 4285491494
0.022785738 0.016466498 0.043452907 4285754399
0.025493629 0.013566121 0.04608766 4285623329
0.028600082 0.0091941636 0.050095599 4285492514
0.01144781 0.012409516 0.045033254 4284966703
0.012913845 0.01466918 0.042857952 4285295908
0.014707558 0.015451442 0.042056605 4285558304
0.017020151 0.014018018 0.043314703 4285952279
0.018277936 0.01701577 0.040455192 4285885979
0.020054594 0.017797876 0.039655074 4285754399
0.022008583 0.017841585 0.039541196 4285754143
0.024333775 0.016408816 0.040798765 4285951769
0.026858039 0.014238119 0.042741358 4285558049
0.02978076 0.010591535 0.046053804 4285493024
0.0099035352 0.01749279 0.037693396 4285295398
0.011853173 0.017536018 0.037579481 4285426978
0.013974637 0.016838558 0.038150504 4285558048
0.016101323 0.016141266 0.038721342 4285820698
0.017523155 0.018406838 0.036553662 4286083093
0.019649342 0.017709736 0.037124604 4286017048
0.021780729 0.017012846 0.037695311 4286017304
0.02391731 0.016316108 0.038265813 4285689118
0.026059076 0.015619591 0.038836021 4285558558
0.028206035 0.014923289 0.039405994 4285558813
0.030939668 0.012006273 0.042026542 4285558814
0.032908581 0.012050757 0.041912116 4285295144
0.0082373023 0.014398452 0.038016483 4285360423
0.0095262602 0.017414074 0.035167895 4286147609
0.01147034 0.017457213 0.035054334 4286148629
0.013414182 0.01750043 0.034940846 4285688864
0.015532531 0.016800828 0.035510518 4285622818
0.017123729 0.018329941 0.034031171 4285689628
0.019244313 0.017630573 0.034600854 4285689628
0.021370091 0.0169314 0.035170276 4285623838
0.023686677 0.015489768 0.036421917 4285623838
0.026013896 0.014048409 0.037673034 4285624093
0.027969651 0.014092475 0.037559286 4285689629
0.029925123 0.01413662 0.037445616 4285689628
0.031290881 0.01640809 0.035286512 4286410514
0.033436894 0.015709829 0.035855107 4286278168
0.035790019 0.014269441 0.037105005 4286212634
0.039586283 0.0076337811 0.043123804 4285885213
0.0063988492 0.012040839 0.037651643 4285295144
0.0077017769 0.015065461 0.034808692 4285885724
0.0093156919 0.016599119 0.033331022 4286081819
0.011087716 0.017387461 0.03253581 4286083094
0.013369888 0.015940264 0.033785969 4286017303
0.015488066 0.015238516 0.034354061 4285688863
0.017256677 0.016027011 0.033559293 4285558303
0.019379817 0.015325539 0.034127217 4285623838
0.021325327 0.015369162 0.034013905 4285624094
0.023456156 0.01466804 0.034581512 4285624094
0.025403872 0.014711883 0.034468196 4285623838
0.027160384 0.015500501 0.03367443 4285754909
0.028717473 0.017033737 0.032200702 4285820188
0.030459858 0.017822243 0.031407833 4285688608
0.03259486 0.017121539 0.031975511 4285688354
0.034936883 0.01567661 0.033222798 4285885468
0.037698708 0.012743138 0.035829015 4285688608
0.041103892 0.0075771958 0.040472753 4285557539
0.0036052167 0.014164865 0.033199258 4285558304
0.0055497289 0.014207788 0.033085503 4285820953
0.0073303133 0.014998313 0.032291342 4285754143
0.0089387819 0.016536303 0.030817222 4285425448
0.010874473 0.016579296 0.030704182 4285491238
0.01298181 0.01587506 0.031271234 4285754143
0.015443578 0.013676472 0.033197805 4285820189
0.017034821 0.015214365 0.031724982 4285689119
0.018975027 0.015257824 0.031611945 4285624093
0.020549461 0.016795579 0.030140199 4285624093
0.02304022 0.014597956 0.032065317 4285558558
0.024794199 0.01538866 0.031273283 4285623838
0.026733436 0.015432432 0.031160552 4285689374
0.028478764 0.016223129 0.030369088 4286083604
0.030218422 0.017013736 0.02957806 4286017558
0.032350548 0.016310867 0.030144271 4285754398
0.034487829 0.015608158 0.030710291 4285754909
0.037039362 0.013412476 0.032632224 4286018069
0.039814159 0.010470673 0.035231285 4285427234
0.0019277856 0.01106254 0.033517182 4285098029
0.0030868202 0.014854614 0.030007061 4285558304
0.0048621073 0.015647128 0.029214777 4285624093
0.0064680949 0.017189343 0.027743984 4286016793
0.0083957165 0.017232098 0.027631365 4286213654
0.010492228 0.016525347 0.028197441 4286082839
0.012937583 0.014319815 0.030120008 4286017303
0.015399061 0.012114683 0.032041747 4285820443
0.017167591 0.012907602 0.031250268 4285624093
0.018570468 0.015199162 0.029103298 4285623838
0.020139486 0.016741127 0.027635157 4285558303
0.022253655 0.016035326 0.028200541 4285623583
0.02437301 0.015329711 0.028765675 4285623583
0.02611585 0.016122468 0.027975999 4285689374
0.028046578 0.016166128 0.027863823 4285754908
0.029977061 0.016209885 0.027751736 4286083094
0.031907298 0.01625368 0.027639698 4285951513
0.034039006 0.015548736 0.028204396 4286148883
0.036789268 0.012597611 0.030798376 4285755164
0.039768197 0.0088983253 0.034067489 4285426978
0.0032013431 0.012549687 0.029535078 4285622564
0.0046575665 0.014848348 0.027389463 4285426214
0.0062608346 0.01639488 0.025922075 4285754909
0.0080193132 0.017189432 0.025132563 4286017813
0.010110199 0.016480427 0.025697308 4286149393
0.012378074 0.015019894 0.026938636 4285820954
0.014656603 0.013559736 0.02817937 4285689883
0.016414195 0.014354616 0.027390169 4285624093
0.018166125 0.015149437 0.026601348 4285623583
0.019729719 0.016695738 0.02513676 4285886488
0.021838278 0.015987646 0.025700863 4286082583
0.023952052 0.01527971 0.026264761 4286148119
0.026261814 0.013820753 0.02750404 4285885978
0.028001651 0.014615715 0.026716236 4285624093
0.029735811 0.015410628 0.025928818 4285624348
0.031663232 0.015454397 0.025816966 4285559069
0.033993751 0.01399621 0.027055267 4285493278
0.036948077 0.010285404 0.030317672 4285361953
0.04034353 0.0050734691 0.034928072 4285427489
0.0036318973 0.0087322798 0.030412033 4286343194
0.0049355477 0.011791838 0.027594956 4286409748
0.0062172115 0.014851019 0.024779253 4285492004
0.0081418902 0.014893774 0.024666855 4285426468
0.010066353 0.014936607 0.024554534 4285558558
0.012333982 0.013471734 0.02579266 4285624349
0.014263451 0.013514858 0.025680179 4285624603
0.016015559 0.014311861 0.024892893 4285689883
0.017582133 0.015862472 0.02343135 4285754909
0.019502759 0.01590566 0.02331958 4285885978
0.021423139 0.015948929 0.023207888 4285951513
0.023343287 0.015992261 0.02309626 4286017304
0.025453955 0.015282203 0.023658743 4286083093
0.02776324 0.013818938 0.02489494 4285689374
0.029494643 0.014616046 0.024109282 4285558558
0.031618163 0.013906471 0.024671238 4285493534
0.034150086 0.011690738 0.026579747 4285427744
0.037515387 0.0064627901 0.031180523 4285427998
0.0040620491 0.0049020387 0.031279486 4286539289
0.005373992 0.0079705454 0.028468437 4286277403
0.0066639632 0.011038661 0.025658738 4286476559
0.0084304959 0.011837786 0.024872018 4285689118
0.010022469 0.013393037 0.023411948 4285558559
0.011603348 0.014948096 0.021952648 4285559068
0.013173118 0.01650304 0.02049401 4285624348
0.014731772 0.018057786 0.019036135 4285689629
0.01681871 0.017344732 0.019598171 4285820699
0.018910863 0.016631875 0.020159964 4285885724
0.021008238 0.015919171 0.020721553 4285425194
0.02273488 0.016718138 0.019937627 4285425193
0.025027893 0.015250083 0.02117149 4285623328
0.027138144 0.014537949 0.021732461 4285623839
0.029253587 0.01382602 0.022293199 4285558559
0.03157308 0.012358783 0.023525683 4285427743
0.034709357 0.0078703277 0.02744483 4285164328
0.00711032 0.0072134454 0.02652871 4286277403
0.0087188482 0.0087733809 0.025070878 4286146589
0.010316275 0.010333108 0.023613798 4285950238
0.011731029 0.012650941 0.021485442 4285359914
0.013129242 0.014968518 0.019358139 4285493023
0.014687926 0.016527634 0.017903505 4285624093
0.016594969 0.016570482 0.017792499 4286018323
0.018501773 0.016613409 0.017681567 4286411279
0.020593546 0.015898447 0.018241828 4286082329
