# .PCD v0.7 - Point Cloud Data file format
VERSION 0.7
FIELDS x y z rgba
SIZE 4 4 4 4
TYPE F F F U
COUNT 1 1 1 1
WIDTH 969
HEIGHT 1
VIEWPOINT 0 0 0 1 0 0 0
POINTS 969
DATA ascii
0.025233589 -0.0057672551 0.015547504 4290196243
0.027515702 -0.007288442 0.016748212 4289999383
0.029993922 -0.0095909359 0.018602479 4290259994
0.032300077 -0.011111448 0.019801943 4289474338
0.034998663 -0.0141946 0.022308413 4288950569
0.03771881 -0.017277233 0.024813708 4288295728
0.017378002 0.0019792523 0.0068964437 4288430623
0.02920863 -0.0080032926 0.014848617 4289674513
0.031691827 -0.010312156 0.0166978 4290980114
0.034191087 -0.012620531 0.018546104 4290716953
0.036900014 -0.015712107 0.021045581 4288033588
0.033574782 -0.011814654 0.015447428 4291044884
0.036275223 -0.014915131 0.017940916 4289212198
0.039193414 -0.018800775 0.021083463 4286986813
0.03295885 -0.010995444 0.01235853 4289802269
0.035457388 -0.013316895 0.014197269 4289931808
0.038364306 -0.017213674 0.017332375 4289081129
0.034833424 -0.012491122 0.011113821 4290261013
0.037339628 -0.014818881 0.012947328 4289474849
0.034016512 -0.010859787 0.0073946416 4290130454
0.036707625 -0.013986571 0.0098693091 4289539619
0.039420232 -0.017112795 0.012342831 4289275948
0.033393405 -0.010005349 0.0043324586 4289933593
0.035880044 -0.012346556 0.0061573386 4289474593
0.038581461 -0.015481737 0.0086250324 4290062623
0.035248898 -0.011485615 0.0031005582 4290261014
0.037743218 -0.01383314 0.0049201972 4288558634
0.040857643 -0.018569682 0.0086646229 4288950569
0.034618124 -0.010611342 5.3560361e-05 4291243784
0.037104048 -0.012965625 0.0018688728 4290652693
0.039807335 -0.016118117 0.0043235216 4289407274
0.036663756 -0.012885742 -0.00053393608 4290784273
0.039160103 -0.015246291 0.0012759767 4289082148
0.042080373 -0.019207966 0.0043620025 4288558123
0.044614337 -0.021567527 0.0061698454 4287378748
0.03602533 -0.011993908 -0.0035673594 4289345053
0.038312107 -0.013558192 -0.0023988658 4289605919
0.041221142 -0.017531004 0.00067971973 4289866784
0.037866831 -0.013462878 -0.0047898702 4289803034
0.039954863 -0.014226235 -0.0042601228 4289212453
0.042874202 -0.018209683 -0.0011901716 4286202178
0.037019782 -0.011744016 -0.0084418999 4289607703
0.039096825 -0.012509776 -0.0079132114 4289473828
0.042211369 -0.017311603 -0.0042171944 4290257954
0.03885033 -0.013204216 -0.0096571166 4288493098
0.041548952 -0.01640033 -0.00723447 4287772214
0.039214872 -0.016329141 -0.0095063969 4287905068
0.041712292 -0.01872234 -0.0077207694 4287510583
0.039375648 -0.018648796 -0.0099908365 4287578923
0.041463003 -0.019420894 -0.0094675953 4286987834
0.0029012263 0.010164935 0.045188028 4281633088
0.0044126511 0.012442386 0.043026049 4280851258
0.0060586333 0.013974315 0.041548613 4279744304
0.0081550479 0.013270522 0.042121843 4279810349
0.010100119 0.013312066 0.042011674 4278898213
0.013637871 0.005902892 0.048731811 4281762373
-0.011221055 0.010551466 0.042757228 4281959743
-0.010047015 0.015079519 0.038547426 4280069174
-0.0083779432 0.016615631 0.037071351 4278636839
-0.0059117265 0.013664858 0.039692804 4280068663
-0.0038361549 0.012957858 0.040265158 4281175874
-0.0018954799 0.012998732 0.040154815 4280784448
-0.00038360804 0.015282528 0.037997581 4280850238
0.0012573004 0.016818589 0.036523506 4280460089
0.003183797 0.01685947 0.036414191 4281371968
0.0051100999 0.016900456 0.036304969 4281371969
0.0071899816 0.016194148 0.036877524 4279547443
0.0092751086 0.015488012 0.037449908 4280654654
0.01248005 0.0095512643 0.04279184 4281370949
-0.014677461 0.0059066098 0.04455198 4281371969
-0.013706755 0.011948915 0.038985599 4281438779
-0.012273964 0.014989825 0.036148392 4281309238
-0.01073394 0.017280268 0.033994049 4280851768
-0.0089466088 0.018070469 0.033203334 4278965279
-0.0067609474 0.016610669 0.034456614 4279223594
-0.0048392937 0.016651073 0.034347296 4281110848
-0.0029178113 0.016691571 0.034238063 4281045824
-0.0012821704 0.018231792 0.032767452 4280589884
0.0024006963 0.019062737 0.031869642 4279287853
0.0044642389 0.018353814 0.032441445 4281111104
0.0066867769 0.016895523 0.033693176 4281045569
0.0087635443 0.016187096 0.034264386 4280264249
0.011482231 0.012481036 0.037554532 4280784959
0.015523061 0.0027804989 0.046280336 4281174854
-0.016088106 0.00053224526 0.04690456 4282346833
-0.015565313 0.0096024591 0.038627639 4280784703
-0.014613364 0.0156618 0.033075325 4280655673
-0.012820348 0.016454121 0.032285772 4281568064
-0.011032917 0.017246364 0.031496637 4281958468
-0.0089873821 0.016534207 0.032067351 4281568064
-0.0070711412 0.016574388 0.03195826 4280981819
-0.0051550753 0.016614696 0.031849276 4280523583
-0.0033792034 0.017407132 0.031061126 4280784703
-0.0016089827 0.018199543 0.030273365 4280523584
0.00030110776 0.018240036 0.030164951 4280525624
0.0020627975 0.019032476 0.029377829 4278506789
0.0039697811 0.01907309 0.029269733 4278376738
0.0085650906 0.01539612 0.032445434 4279352115
0.011121526 0.012430748 0.035049528 4280263229
0.014185041 0.0072112102 0.039686494 4280913734
0.01860287 -0.0040195994 0.049744345 4280718149
-0.015893072 -0.0025590491 0.047092501 4282673489
-0.015485171 0.0072920676 0.038155984 4281304394
-0.014777441 0.014878204 0.031259276 4280718914
-0.013113566 0.016427105 0.029793125 4279092523
-0.0092917718 0.016506998 0.029575372 4278962728
-0.0054706261 0.016587308 0.029357975 4280850493
-0.0035602972 0.0166276 0.029249398 4280850494
-0.0016501695 0.016668001 0.029140912 4280588864
0.0002598092 0.016708491 0.029032506 4280523073
0.0020214245 0.017503144 0.02824703 4280329018
0.0039282814 0.017543795 0.028138967 4280069174
0.0058349594 0.017584508 0.028030965 4280525369
0.0078977644 0.016871465 0.028599769 4280981309
0.01012484 0.015404793 0.029844882 4280653379
0.012686171 0.012430912 0.032442309 4280718659
0.016749501 0.0026742239 0.041124858 4281174854
0.021050625 -0.0078344848 0.050479576 4281370695
-0.015284326 0.0042208564 0.038358394 4281434699
-0.014817834 0.013342442 0.030123632 4280586823
-0.013406567 0.016409123 0.027307168 4279025969
-0.0095959492 0.016488807 0.027090065 4279488284
-0.007825356 0.017285367 0.026305277 4280786233
-0.0059231669 0.017325422 0.026197113 4280981053
-0.003881216 0.016609116 0.026765086 4280981054
-0.0018340126 0.015893066 0.02733279 4280980544
7.3097646e-05 0.015933527 0.027224567 4281176384
0.001980029 0.015974091 0.027116437 4280980289
0.0038867593 0.016014738 0.027008381 4281110848
0.0057933182 0.016055485 0.026900413 4281046078
0.0076996759 0.016096326 0.026792528 4281306944
0.0096058249 0.01613727 0.026684735 4281371714
0.01135008 0.016934222 0.025902225 4281436228
0.014897428 0.009416379 0.032541104 4281306178
0.019334793 -0.0018793587 0.042549402 4282612544
-0.015083715 0.001141198 0.038554553 4282216530
-0.014734734 0.011047998 0.029663581 4281111359
-0.013699364 0.016400194 0.024827823 4280981054
-0.011928525 0.017198713 0.024044544 4280849984
-0.0098999105 0.01647968 0.024611389 4280393024
-0.0081348307 0.017278282 0.023828588 4281046334
-0.0062382221 0.017318228 0.023720745 4281242428
-0.004341796 0.017358279 0.023612995 4281111614
-0.0023029298 0.01663989 0.024179574 4281046078
-0.00011349469 0.015163193 0.025420057 4280915518
0.0017905831 0.015203713 0.025312101 4280980799
0.0036944747 0.015244329 0.025204228 4280981054
0.0055981949 0.015285028 0.025096426 4281111614
0.01082316 0.017682126 0.02275401 4278964514
0.013704136 0.01317458 0.02668513 4281764413
0.01795435 0.0026037153 0.035997462 4282220099
0.021771103 -0.0056916047 0.043287419 4282481984
-0.015004065 -0.0011857972 0.038070623 4281497173
-0.014651772 0.008749526 0.029200485 4281240898
-0.013739575 0.014878133 0.023702327 4280850494
-0.011968814 0.015678836 0.022920676 4280915264
-0.010203645 0.016479516 0.022139413 4280915263
-0.0084441081 0.01728026 0.021358529 4278897194
-0.0046622232 0.017360045 0.021143587 4280135219
-0.0026289895 0.016639331 0.021708922 4281307964
-0.0004452467 0.015158216 0.022946469 4281177658
0.0014532432 0.015198631 0.02283884 4281046078
0.0033515766 0.015239151 0.022731299 4280916539
0.0052497163 0.015279749 0.022623831 4280720698
0.0071476623 0.015320452 0.022516452 4279614254
0.0087276846 0.016881978 0.02106574 4279940654
0.013004631 0.014682839 0.022866191 4279420454
0.016741887 0.0063617416 0.030142812 4282155839
0.02036906 -0.0011977982 0.036744997 4284376889
-0.014445521 0.0056836586 0.029406464 4279866703
-0.013779804 0.013356341 0.022577034 4280914243
-0.012395654 0.016448831 0.01978159 4280785468
-0.010507178 0.016488431 0.019674081 4281111359
-0.0029548407 0.016647803 0.019244881 4280199989
-0.00092197955 0.015925074 0.019808674 4281046078
0.0012640804 0.014439711 0.021042973 4280915263
0.003008917 0.01524291 0.020265052 4280785978
0.00632561 0.017611867 0.018040076 4281437759
0.0083684325 0.016889842 0.018603669 4282024003
0.010254987 0.016930496 0.01849708 4281894208
0.012798339 0.013921475 0.021069761 4281634109
0.015363269 0.010913011 0.023641288 4281503549
0.019137658 0.0025688782 0.030898063 4282025533
0.022799268 -0.0050116843 0.037482239 4283658043
-0.014116172 0.0018438138 0.030276721 4280124508
-0.013567898 0.010303935 0.022792654 4280914499
-0.012435786 0.014936058 0.018662974 4280981819
-0.010810472 0.016506294 0.017215438 4280393788
-0.0087934881 0.015780626 0.017778203 4281436228
-0.0070451312 0.016585568 0.01700132 4281371458
-0.0053023882 0.017390499 0.016224835 4279612724
-0.0034228563 0.017430333 0.016118148 4280916028
-0.0013983548 0.016705254 0.016680799 4280916284
0.00092713535 0.014450448 0.018581413 4281046334
0.0025158823 0.016020628 0.017136484 4280915773
0.0044001713 0.016060973 0.017029833 4279027753
0.0098904073 0.016947215 0.016042031 4279159334
0.012099579 0.015458627 0.017272195 4280007464
0.014319442 0.013970317 0.018501863 4281438269
0.017907068 0.0063663404 0.02507397 4281503294
0.021721274 -0.0020008273 0.032310784 4282090814
-0.013910465 -0.0012411457 0.030468585 4279863644
-0.013356242 0.0072430931 0.023001965 4280649554
-0.012475938 0.013423564 0.017544568 4281437503
-0.0091021955 0.015805194 0.015324927 4279286833
-0.0070855618 0.015077448 0.015886173 4280655164
-0.0054825246 0.01665196 0.014443349 4280460343
-0.0036058277 0.016691728 0.014336821 4279352878
-0.0018743798 0.017498827 0.013562758 4280915773
0.00014703721 0.016771613 0.014124056 4280850749
0.0018726885 0.017578794 0.013350476 4281046589
0.0042056888 0.01531777 0.01524601 4281111869
0.0057750046 0.016892144 0.013805531 4279939889
0.0081266984 0.014631713 0.015700147 4278702374
0.0098488778 0.015439196 0.014927042 4280331313
0.01222194 0.013179468 0.016820563 4281046333
0.013943739 0.013987137 0.016047621 4281242429
0.017016485 0.0086612478 0.020605152 4281568573
0.020644017 0.0010364037 0.027158896 4282482494
0.024150714 -0.0058205947 0.033043724 4282417468
-0.013828207 -0.0035647396 0.029986991 4278947939
-0.013144836 0.004173832 0.023205051 4280324173
-0.012258738 0.010371821 0.017760295 4281697604
-0.011022195 0.01425997 0.014318495 4280001343
-0.0091424361 0.014299521 0.014211583 4278374189
-0.0072628297 0.014339177 0.014104758 4278702374
-0.0037887022 0.01595773 0.012558977 4280330549
-0.0020600408 0.016766941 0.011786685 4281242174
-0.00018927455 0.016806835 0.011680678 4280654654
0.0018317997 0.016077535 0.012240452 4280981818
0.0041645095 0.013809985 0.014131167 4280982329
0.0060456321 0.013850389 0.014024788 4280914499
0.0082438365 0.01235267 0.015248979 4281044804
0.010130033 0.012393376 0.015142454 4281370693
0.012180112 0.011665178 0.015700946 4281175874
0.014068641 0.011706108 0.015594419 4281114164
0.016635038 0.0086716469 0.018146567 4280726054
0.020084172 0.0017936919 0.024020029 4281834538
-0.012933649 0.001096053 0.023401914 4279798874
-0.0121704 0.0080835763 0.017304394 4281370694
-0.011193663 0.013526468 0.012540119 4281176894
-0.0095848888 0.015109567 0.011103319 4280916028
-0.0075767972 0.014377309 0.01166184 4280851258
-0.0057029277 0.01441695 0.011555421 4281177149
-0.0035447404 0.0129134 0.012778261 4281111358
-0.0019556731 0.014496548 0.011342855 4280980288
6.5378845e-05 0.013764983 0.011900952 4280916283
0.0019413084 0.013805086 0.011794724 4280981564
0.0042764321 0.011531057 0.013680461 4280916283
0.0061601624 0.011571521 0.013573938 4281635894
0.0085194185 0.0092982035 0.015458457 4280984623
0.01057224 0.0085678119 0.016015124 4281574183
0.012794316 0.0070664473 0.017234877 4282031144
0.014693618 0.0071076304 0.017127758 4281834793
0.017270543 0.0040646791 0.019672848 4282289203
0.020385556 -0.0012906995 0.024205452 4284052784
-0.011825059 0.0042429864 0.018172938 4279993439
-0.011102438 0.011249403 0.012092368 4281828928
-0.0097589679 0.014384931 0.0093317823 4281828419
-0.0077537969 0.013650453 0.0098888688 4281567554
-0.0054644234 0.011368407 0.01177198 4281568319
-0.0033010542 0.0098606683 0.012991265 4280591923
-0.0015616342 0.010674493 0.012221611 4281116458
0.00046740472 0.009940926 0.012777646 4281185309
0.0023513734 0.0099812169 0.012670978 4281053984
0.004694365 0.0077008121 0.014551421 4280987428
0.006741941 0.0069679599 0.015106643 4281636404
0.0087947622 0.006235294 0.01566162 4281702959
0.011014074 0.0047293995 0.016878288 4281963059
0.012916192 0.0047705416 0.016770937 4282226984
0.015151441 0.0032652374 0.017986815 4282029358
0.017736167 0.00021374226 0.020525008 4282094129
0.020686701 -0.004383523 0.024384568 4282811699
-0.011865579 0.0027184878 0.017045658 4279863134
-0.011011347 0.008968316 0.01164157 4280199224
-0.0096650496 0.012112627 0.0088872882 4278832423
-0.0075206719 0.010599915 0.010104263 4279350583
-0.0052261613 0.0083114412 0.011982237 4279416884
-0.0029154643 0.0060234126 0.013859366 4280397104
-0.0013127998 0.0076156016 0.012429673 4281441329
0.00086907297 0.0061040632 0.013644875 4281376304
0.0027610883 0.0061445087 0.013537738 4281639719
0.0051119328 0.0038578026 0.015412863 4281377323
0.0070117563 0.0038986355 0.015305448 4281573419
0.00906986 0.0031638686 0.015858561 4281703213
0.011133201 0.002429368 0.016411416 4282029104
0.013201818 0.0016950537 0.016964028 4282487084
0.015442267 0.00018550456 0.018176384 4282421293
0.018032089 -0.002874583 0.020707836 4282681394
0.020471416 -0.0051587634 0.022578498 4283269169
-0.011906095 0.0011942275 0.015918555 4280255068
-0.010658041 0.0051262975 0.012508406 4279997009
-0.0090357028 0.0067227762 0.011080544 4279868233
-0.0070145614 0.0059842821 0.011633498 4280067133
-0.0048488043 0.0044677425 0.012846158 4280655419
-0.0028143525 0.0037297308 0.013398505 4280852533
-0.0012089834 0.00532634 0.011971894 4281180464
0.00097535551 0.0038105045 0.013183729 4281245998
0.0031704158 0.0022950191 0.014394974 4281506354
0.0053761899 0.000779856 0.015605757 4281636404
0.0071256831 0.0015986636 0.014839067 4281767219
0.0091863051 0.0008618366 0.015390398 4282289714
0.011091098 0.00090297125 0.015282843 4282551089
0.013159513 0.0001665093 0.015833877 4282942258
0.015399754 -0.0013474133 0.017043006 4282876213
0.017989226 -0.0044162255 0.019568017 4283464754
-0.011946607 -0.00032977015 0.014791646 4279602013
-0.010436188 0.0020520035 0.012707082 4279866449
-0.0086745881 0.0028724447 0.011940726 4279868489
-0.0067820325 0.0029124226 0.011833201 4279999814
-0.0048896261 0.0029524807 0.011725747 4281175874
-0.0029973686 0.0029926542 0.011618392 4281112634
-0.0012499988 0.0038132649 0.010853117 4281113908
0.00093409419 0.0022930652 0.012061737 4281375029
0.0029787421 0.0015534181 0.012612132 4281310258
0.0053344518 -0.00074630789 0.014477331 4281376813
0.0070838705 7.4716285e-05 0.013712288 4281701939
0.0093026534 -0.0014443174 0.014919186 4282616624
0.011210039 -0.0014030952 0.014811508 4282617643
0.013444781 -0.0029215775 0.016017655 4282747439
0.015690215 -0.0044397842 0.017223306 4283268659
0.01811555 -0.0067373673 0.01908497 4283988524
-0.010345623 -0.00024796277 0.012242325 4279865429
-0.0085813701 0.00057471916 0.01147744 4279998029
-0.0066862255 0.00061475672 0.011369772 4280194633
-0.0047912188 0.00065486506 0.011262166 4280717639
-0.0028963834 0.00069511496 0.011154678 4281305923
-0.0011463538 0.001517918 0.010390914 4281241409
0.00089284778 0.00077586621 0.010939923 4281307199
0.0030874088 -0.00074830838 0.01214476 4282354484
0.0051398799 -0.0014899019 0.012693221 4282616879
0.0071976036 -0.0022312496 0.013241407 4282878253
0.0094188675 -0.0037545636 0.014444947 4282813739
0.011489853 -0.0044954438 0.014992521 4283140139
0.01340238 -0.0044540297 0.014884614 4283662124
-0.010386158 -0.0017670766 0.011119038 4279538009
-0.0086219832 -0.00094222836 0.010355764 4279866193
-0.006590534 -0.0016870163 0.010903305 4279801423
-0.0048321001 -0.00086206384 0.010140526 4280194634
-0.0027955025 -0.0016065482 0.010687918 4280912714
-0.001042828 -0.00078150257 0.0099256253 4280913734
0.00099889189 -0.001525661 0.010472888 4281045313
0.0030459017 -0.0022696052 0.011019924 4282811954
0.0049454197 -0.002228884 0.010912446 4283923498
0.006844759 -0.0021880362 0.010805076 4284447269
-0.010557618 -0.0024988297 0.0093420316 4279538009
-0.0087962486 -0.0016718451 0.008580545 4279146329
-0.0070404671 -0.00084482506 0.007819416 4279342933
-0.0040298402 -0.025409307 -0.025573481 4282216529
-0.024083227 -0.0083006797 0.042182479 4282732903
-0.022216205 -0.0074965907 0.041396357 4281552763
-0.020354751 -0.0066925148 0.040610634 4281552763
-0.018268447 -0.0074153421 0.041170482 4280306068
-0.029955827 -0.010770157 0.042024232 4282339694
-0.028382253 -0.007666233 0.039223611 4281880694
-0.026726339 -0.0053284653 0.037095875 4279911584
-0.023354206 -0.0014193766 0.03351482 4278994603
-0.021407675 -0.001379367 0.033403412 4279782809
-0.019230943 -0.0028705411 0.034634009 4278278308
-0.032263931 -0.010090194 0.038954817 4280045458
-0.030786213 -0.0062093837 0.035490096 4278734503
-0.029132921 -0.0038652383 0.03336728 4279257508
-0.025554918 -0.0014816187 0.031134235 4278532034
-0.021897696 0.00013386458 0.029572984 4280043929
-0.033902463 -0.01478963 0.040577356 4282340459
-0.032783855 -0.0078158816 0.03444387 4279127969
-0.031319648 -0.003924422 0.030988017 4278275759
-0.029578548 -0.0023443028 0.029539345 4278733484
-0.027744308 -0.0015345495 0.028759805 4279324063
-0.025915619 -0.00072480552 0.027980657 4279258783
-0.024092499 8.4988773e-05 0.027201874 4278339508
-0.022162616 0.00012468919 0.027091442 4279781534
-0.020232856 0.00016449578 0.026981091 4278470068
-0.033942632 -0.016375866 0.03940428 4282274923
-0.032727774 -0.010155037 0.033952553 4281291644
-0.03145799 -0.0047075134 0.029170478 4278603689
-0.026062369 -0.0014993045 0.026170095 4278995624
-0.022202786 -0.001420049 0.02594913 4278404789
-0.020273168 -0.001380235 0.025838798 4279388324
-0.034169059 -0.016412079 0.036899902 4281750643
-0.032767657 -0.011723502 0.032792635 4281487994
-0.031596214 -0.0054859808 0.027356433 4279128478
-0.022355169 -0.0021900479 0.024142386 4278799784
-0.020543359 -0.0013759248 0.02336771 4278471853
-0.034209117 -0.017993333 0.035730515 4281488249
-0.032615945 -0.014845582 0.032960884 4281356923
-0.031537287 -0.007813612 0.026873456 4279259548
-0.030305278 -0.0023362264 0.022116333 4278472619
-0.028695628 3.3326447e-05 0.020015514 4279061923
-0.026782326 7.2481111e-05 0.019905878 4278931618
-0.024650276 -0.0014416631 0.021122755 4278931364
-0.02261959 -0.0021788031 0.021676023 4278735014
-0.020698439 -0.0021391734 0.021566167 4278603688
-0.018895019 -0.0013229009 0.020793693 4279454624
-0.034342188 -0.01879514 0.033898786 4281684088
-0.032655939 -0.016417844 0.031798162 4281422713
-0.031576935 -0.009366231 0.025725266 4280243849
-0.030445881 -0.0030945763 0.020317374 4278669223
-0.02883894 -0.00071851537 0.018221576 4278538409
-0.026928507 -0.00067945197 0.018112078 4278472619
-0.024908822 -0.001419099 0.018664282 4278537388
-0.023107968 -0.00060094893 0.017893389 4278731188
-0.021427505 0.00099596754 0.016461633 4279912604
-0.019405428 0.00025671162 0.017013956 4279127714
-0.017498288 0.00029630959 0.016905095 4278344864
-0.034382187 -0.020373652 0.032731429 4281815668
-0.032600239 -0.018771172 0.031296447 4281487993
-0.031419747 -0.012481159 0.025898503 4281094783
-0.030282963 -0.006191886 0.020503178 4278931619
-0.02877441 -0.0030280333 0.017751627 4278472109
-0.026861411 -0.0029888842 0.017642006 4278668969
-0.019680418 0.00029231049 0.014566338 4279453603
-0.017778866 0.00033180416 0.014457801 4278933404
-0.034607995 -0.020384818 0.030245647 4282077809
-0.032735914 -0.019561514 0.029473335 4281619574
-0.031557858 -0.013254151 0.024088506 4281160319
-0.030221336 -0.0085142851 0.020023892 4278932128
-0.028813802 -0.0045583192 0.016619973 4278603179
-0.025206704 -0.0029135048 0.015084101 4278406828
-0.023523476 -0.0013078917 0.01365852 4278800803
-0.019837741 -0.00044622459 0.01278328 4278863533
-0.018059205 0.00037620589 0.012017173 4279520159
-0.034647875 -0.021958416 0.02908192 4282471019
-0.032871477 -0.020347282 0.027653683 4281357943
-0.031400952 -0.01637939 0.024254045 4280832643
-0.030361876 -0.0092696398 0.018227145 4280111503
-0.028853189 -0.0060883388 0.015488517 4279257763
-0.025355473 -0.0036537759 0.013299133 4279191974
-0.023674995 -0.00204386 0.011876944 4279455643
-0.021890871 -0.0012193862 0.011111949 4278996388
-0.019994944 -0.0011801217 0.011003652 4279061159
-0.018099129 -0.0011407398 0.010895448 4279192484
-0.035058934 -0.020380082 0.025294036 4281354118
-0.033102442 -0.02034054 0.025181554 4279457174
-0.031342518 -0.018725254 0.023757588 4281290879
-0.03019939 -0.01238359 0.018400647 4280637059
-0.028892566 -0.0076180976 0.014357255 4278931618
-0.025722411 -0.0028142314 0.010207267 4278271678
-0.018379122 -0.0010826923 0.0084648347 4279127459
-0.016489029 -0.0010433141 0.0083570452 4278864809
-0.0034038574 2.2185966e-05 0.0069516962 4278804883
-0.033333179 -0.020324791 0.022716012 4281880693
-0.031382371 -0.020285252 0.022603942 4281422204
-0.030138042 -0.014716109 0.017913949 4280963714
-0.029035579 -0.0083577335 0.012572343 4279062943
-0.02765771 -0.0043695811 0.0091944393 4278866085
-0.020543527 -0.0010548662 0.006148464 4278799274
-0.018658888 -0.0010157116 0.0060409037 4278668458
-0.016774371 -0.00097646192 0.0059334207 4278472108
-0.008970391 -0.0023968387 0.0068086716 4278345628
-0.007353723 -0.00077855773 0.0053973817 4278998174
-0.0058871321 0.0016287602 0.003334932 4279719059
-0.004437007 0.0040357746 0.0012735242 4280179333
-0.0025699213 0.0040755272 0.0011676776 4281163633
-0.033754509 -0.018715655 0.018951707 4282077809
-0.031912882 -0.017884174 0.018187739 4281356924
-0.030076787 -0.017052712 0.017424155 4280636295
-0.028867733 -0.011468875 0.012747539 4279849874
-0.027696893 -0.0058857463 0.0080732405 4278735013
-0.026455261 -0.0010952149 0.0040531363 4278669479
-0.024575889 -0.0010565203 0.003945617 4278538664
-0.022811104 -0.00022585504 0.0031865374 4278800549
-0.020700265 -0.001770569 0.0043822909 4278800549
-0.018938407 -0.00093978085 0.0036235896 4278800039
-0.016936839 -0.0016922988 0.0041675642 4278668714
-0.015055303 -0.0016529877 0.0040603438 4278800293
-0.011292625 -0.0015740525 0.003846166 4278473893
-0.0078029968 8.8067725e-05 0.0023315614 4279849619
-0.0321486 -0.017844109 0.015740661 4282012273
-0.030217253 -0.017804846 0.015629794 4281356924
-0.028907154 -0.013000046 0.011615232 4281159808
-0.027629815 -0.0081958501 0.0076026712 4279521689
-0.026276298 -0.0041863155 0.0042423834 4278537899
-0.02461502 -0.0025593955 0.0028342665 4278406828
-0.022850316 -0.0017265547 0.0020768081 4278603434
-0.019337565 -6.0973689e-05 0.0005631675 4278859454
-0.017466951 -2.2014603e-05 0.00045647658 4278994858
-0.015345823 -0.0015704799 0.0016486289 4279128224
-0.013341963 -0.0023249313 0.0021910784 4278472108
-0.011463542 -0.0022854768 0.0020841905 4278865318
-0.0095852576 -0.0022459179 0.0019773911 4278668714
-0.0078433119 -0.0014126506 0.0012218959 4279914133
-0.032286074 -0.01859154 0.013949493 4282143088
-0.030357599 -0.018552333 0.013838794 4281618809
-0.028843094 -0.0153274 0.011132168 4280831623
-0.02756286 -0.01051004 0.0071290815 4279586458
-0.026206475 -0.0064895554 0.0037767047 4278734758
-0.024542503 -0.0048582619 0.0023716348 4278537899
-0.019496754 -0.00076102652 -0.0011912272 4278399943
-0.017628998 -0.00072212331 -0.001297751 4278269383
-0.015636098 -0.0014790483 -0.00075641461 4279061158
-0.013509907 -0.0030316673 0.00043229153 4278800038
-0.011634346 -0.0029922687 0.00032557035 4278668968
-0.0078836158 -0.0029131547 0.00011238968 4278537133
-0.035904769 -0.02260758 0.01497526 4282602088
-0.03232545 -0.020133115 0.01280947 4282339948
-0.030397132 -0.02009391 0.012698781 4279912858
-0.028779142 -0.017658852 0.010645997 4279651228
-0.027495988 -0.01282841 0.0066524739 4280832388
-0.026136748 -0.0087969508 0.0033079516 4278997664
-0.024581674 -0.0063628256 0.0012590361 4278471088
-0.022928726 -0.0047272407 -0.00014212867 4278864553
-0.021286774 -0.0030918103 -0.0015425347 4280242064
-0.019775573 -0.00065820478 -0.00358873 4278734504
-0.015926138 -0.0013787057 -0.0031548673 4279323043
-0.01367772 -0.003733851 -0.0013230569 4278799529
-0.011805013 -0.0036945287 -0.00142963 4278734504
-0.0095323473 -0.0060489951 0.00040100305 4278341039
-0.00778782 -0.0052113682 -0.00035137264 4280962694
-0.036313854 -0.020951493 0.011244876 4282667878
-0.034388255 -0.02091258 0.011134167 4282667879
-0.032462735 -0.02087355 0.011023551 4281882224
-0.030637927 -0.020033604 0.010267078 4281027719
-0.028818648 -0.019193642 0.0095110144 4281356160
-0.027641397 -0.013549402 0.004881483 4281290879
-0.026502352 -0.0079058735 0.00025426829 4279195289
-0.025066942 -0.0046647759 -0.002434718 4278733484
-0.021559935 -0.0029865075 -0.0039385357 4278667948
-0.019814756 -0.0021473244 -0.0046898779 4280044183
-0.017952714 -0.0021085422 -0.0047960784 4278733483
-0.013973266 -0.0036312062 -0.0037194048 4278668204
-0.012236718 -0.0027918164 -0.0044698957 4278668203
-0.0099725313 -0.0051529566 -0.0026436723 4278602668
-0.0079641901 -0.0059134765 -0.002106118 4281946994
-0.030979067 -0.019161344 0.0071975957 4282078063
-0.029064756 -0.019122288 0.00708781 4281487229
-0.027574621 -0.015871651 0.0044020051 4281487484
-0.026541352 -0.009409979 -0.00085800327 4279522709
-0.025440276 -0.0037518553 -0.0054717204 4278866083
-0.016255323 -0.0027560946 -0.0066461023 4278864043
-0.014524177 -0.0019147359 -0.0073947441 4278668459
-0.012668066 -0.0018757805 -0.0075003859 4278733738
-0.010412343 -0.0042436719 -0.0056784777 4279390619
-0.0082763806 -0.0058088284 -0.0044997754 4282080103
-0.03131986 -0.018275823 0.0041379943 4282602598
-0.02941386 -0.018236963 0.0040286663 4281554039
-0.027719893 -0.016587842 0.0026345653 4281095039
-0.026471652 -0.011718848 -0.0013278471 4280832644
-0.025479015 -0.005240499 -0.0065725483 4278867104
-0.024187624 -0.001177622 -0.0098887859 4278342059
-0.018520534 -0.0018672477 -0.0095638428 4278274994
-0.016794797 -0.0010239463 -0.010310649 4278864808
-0.014946867 -0.00098525733 -0.010415895 4278799783
-0.013099052 -0.00094646215 -0.010521053 4278537133
-0.010718614 -0.0041255467 -0.0080626458 4279718038
-0.029556245 -0.018952917 0.0022612661 4281684854
-0.027547289 -0.019721244 0.0027929873 4281226109
-0.026076153 -0.016453421 0.00012122584 4281291644
-0.02540639 -0.0075361049 -0.007032698 4278998939
-0.024226211 -0.0026552007 -0.010981421 4278735014
-0.022611581 -0.0010029562 -0.012367385 4278735524
-0.020649377 -0.0017716549 -0.01183255 4278800804
-0.018804081 -0.0017332435 -0.011937812 4278604199
-0.017208818 -8.1084669e-05 -0.013322433 4278865573
-0.015369188 -4.256703e-05 -0.013427204 4278668968
-0.013399269 -0.0008106716 -0.01289249 4278537643
-0.011157759 -0.0031918958 -0.011079513 4279192993
-0.0090358965 -0.004766101 -0.0099064214 4282275943
-0.029595375 -0.020473752 0.0011366026 4282209135
-0.027480762 -0.022053652 0.0023059226 4281749368
-0.026006829 -0.018777095 -0.00035956688 4281095040
-0.025111262 -0.011454381 -0.0062181791 4279849108
-0.024150759 -0.0049417866 -0.011435163 4278603688
-0.022533439 -0.0032851566 -0.012818068 4278734249
-0.020807631 -0.002437735 -0.013561826 4278407084
-0.017622493 0.00087512285 -0.016324421 4278268874
-0.015535902 -0.00070446543 -0.01515284 4279188149
-0.013699234 -0.00066592172 -0.015257377 4279389088
-0.011463467 -0.0030538514 -0.013448881 4279193249
-0.0093472898 -0.0046324637 -0.012278719 4280765579
-0.029737569 -0.021182699 -0.00062569091 4282404719
-0.027731735 -0.021955477 -9.6970703e-05 4281486719
-0.026154641 -0.019481851 -0.0021182713 4280176783
-0.025150187 -0.01295111 -0.007324988 4279326358
-0.024189372 -0.0064211246 -0.012529101 4278669223
-0.022572078 -0.0047601499 -0.013908783 4278668204
-0.020965755 -0.0030992664 -0.015287736 4278603434
-0.017661244 -0.00058902614 -0.017407088 4278794173
-0.015574899 -0.0021729656 -0.016238715 4278268873
-0.011635903 -0.0037178844 -0.015175609 4279520413
-0.028299708 -0.019407054 -0.0044012964 4281882734
-0.026519261 -0.018554645 -0.005145316 4281160573
-0.025077913 -0.01526127 -0.0077959755 4280833154
-0.024114054 -0.0087138889 -0.012987338 4278997408
-0.022610694 -0.0062349392 -0.014999349 4278537898
-0.019164942 -0.0045314711 -0.016480044 4279127204
-0.017699976 -0.0020530075 -0.018489631 4279521433
-0.011675261 -0.0051906034 -0.016264586 4279259294
-0.0098336414 -0.005151784 -0.016369278 4278604198
-0.028655715 -0.018468633 -0.0074205752 4281750388
-0.026775114 -0.018430093 -0.0075283013 4281291388
-0.025005724 -0.01757561 -0.0082699815 4280701828
-0.024038844 -0.011010751 -0.013448682 4280243593
-0.022765867 -0.0068938378 -0.016723523 4279128224
-0.017738696 -0.0035167709 -0.019572016 4279194014
-0.015907746 -0.0034784805 -0.019676326 4278931874
-0.013946727 -0.0042555332 -0.019147601 4278537899
-0.011980388 -0.0050323512 -0.018619088 4278340783
-0.010144331 -0.0049936753 -0.018723482 4278997153
-0.0084467381 -0.0041396357 -0.019460291 4279919488
-0.028800104 -0.019153172 -0.009164542 4282143854
-0.026922368 -0.01911469 -0.0092720995 4281619318
-0.024933644 -0.019894095 -0.0087471269 4281553528
-0.023622327 -0.015765646 -0.012016196 4281094783
-0.022571363 -0.010001833 -0.016547926 4279653268
-0.021320101 -0.0058743935 -0.01981339 4278603689
-0.016201369 -0.0033067521 -0.022021672 4278469559
-0.012152422 -0.0056828102 -0.020335784 4278734758
-0.010454755 -0.0048267245 -0.021071076 4278669733
-0.0269612 -0.020614972 -0.01038155 4282012274
-0.02508368 -0.020576421 -0.010489041 4281356669
-0.023661211 -0.017257262 -0.013119215 4281356924
-0.022842899 -0.0098381452 -0.01890076 4280307598
-0.021716114 -0.0048799068 -0.022788281 4278538409
-0.016367394 -0.0039460119 -0.023730498 4278406573
-0.014284834 -0.0055474173 -0.022574725 4278866338
-0.012589872 -0.0046892744 -0.023308376 4278735268
-0.010764938 -0.0046508713 -0.023412166 4278931619
-0.0088019036 -0.0054319799 -0.022886518 4278800549
-0.0065516792 -0.0078519126 -0.02110287 4280833153
-0.027432974 -0.018825483 -0.014008489 4282667879
-0.025344566 -0.02043183 -0.012856878 4281422969
-0.023700077 -0.018748721 -0.014222123 4281422714
-0.022648584 -0.0129545 -0.018731348 4280898433
-0.02163526 -0.0071610231 -0.023238285 4278669734
-0.020294588 -0.0038345642 -0.025857119 4278801313
-0.018477526 -0.0037967209 -0.025960753 4278801824
-0.016405992 -0.005402769 -0.024807697 4278867103
-0.014323682 -0.0070085619 -0.023655159 4279194013
-0.012230605 -0.008613958 -0.02250318 4278276269
-0.0085647888 -0.0085367141 -0.022711594 4278603178
-0.006450288 -0.010141412 -0.021560576 4280700553
-0.0040378422 -0.01338907 -0.019155402 4282405228
-0.027687911 -0.018667545 -0.016366864 4282862444
-0.025716089 -0.019453898 -0.015845742 4280243084
-0.023852542 -0.019415531 -0.015952356 4280897924
-0.022687159 -0.014430569 -0.019822866 4280897668
-0.021435436 -0.01027058 -0.023064233 4280111249
-0.019967444 -0.0077596111 -0.025049942 4279127968
-0.01814235 -0.0077216011 -0.025154034 4278735014
-0.01423255 -0.0092936242 -0.024108907 4278602669
-0.012402326 -0.0092552165 -0.024213078 4278930343
-0.010301434 -0.010864723 -0.023064714 4279126439
-0.0081897676 -0.012473952 -0.021916851 4279716253
-0.0060673505 -0.014082819 -0.02076957 4280109463
-0.0039341673 -0.015691418 -0.019622799 4280832643
-0.029692609 -0.019365547 -0.017985983 4283059559
-0.02586557 -0.020116076 -0.017572831 4281423478
-0.023891296 -0.020904463 -0.017053397 4280766853
-0.022376847 -0.018386243 -0.019037098 4280241554
-0.021235809 -0.013388738 -0.022896467 4279979669
-0.019640617 -0.011697596 -0.024252258 4279455898
-0.018056374 -0.010006654 -0.025607329 4279324573
-0.015974443 -0.01162122 -0.02446134 4279127968
-0.014141515 -0.011582891 -0.024565766 4278930854
-0.012043465 -0.013196955 -0.023420498 4278471344
-0.0099346526 -0.014810668 -0.022275828 4279126949
-0.0078150705 -0.016424056 -0.021131694 4279913369
-0.0058254823 -0.017211119 -0.020612385 4279847833
-0.0038305968 -0.017997889 -0.020093318 4280242829
-0.026236489 -0.019116113 -0.020545408 4281947758
-0.024270579 -0.019906817 -0.020027157 4281684344
-0.022764247 -0.017382264 -0.022005575 4281356924
-0.021274298 -0.014858006 -0.023982948 4279849108
-0.01967911 -0.013162566 -0.025335554 4279652504
-0.017970499 -0.012295865 -0.02606377 4279914388
-0.015886087 -0.013914729 -0.024921149 4279913623
-0.014050558 -0.013876351 -0.025025725 4279848344
-0.012082577 -0.014666343 -0.024507023 4279717019
-0.0099739917 -0.016284443 -0.023365587 4279782044
-0.0078546517 -0.017902192 -0.02222467 4280371603
-0.0057245493 -0.019519674 -0.021084262 4280438158
-0.0038705245 -0.01948045 -0.021189552 4280700044
-0.03534304 -0.022447489 -0.019861327 4281224068
-0.024536032 -0.019726934 -0.022368498 4281553783
-0.022918917 -0.018026955 -0.023719251 4281095040
-0.021312758 -0.016327117 -0.025069315 4279849618
-0.019717585 -0.014627332 -0.026418697 4279718038
-0.018009041 -0.013758489 -0.027145322 4280045203
-0.016051915 -0.014551048 -0.026627813 4279848599
-0.01395968 -0.016174084 -0.025488773 4280110739
-0.011856679 -0.017796746 -0.024350315 4279979158
-0.009878099 -0.018588569 -0.023833813 4279847324
-0.0078941956 -0.019380184 -0.023317542 4279388323
-0.0059049651 -0.020171624 -0.022801455 4280436628
-0.0039104149 -0.020962818 -0.022285644 4280830603
-0.0024948791 -0.018432612 -0.024253288 4281356413
-0.037521884 -0.021468401 -0.022718422 4282274159
-0.024687834 -0.020371424 -0.024082234 4282012528
-0.023073453 -0.018667178 -0.025429625 4281553784
-0.021351192 -0.017796095 -0.026155585 4279456154
-0.01975603 -0.016092001 -0.027501773 4280176528
-0.017923273 -0.016053915 -0.027606364 4280176019
-0.016090613 -0.01601577 -0.027710907 4279914134
-0.013998605 -0.017643169 -0.026575089 4279914643
-0.012028262 -0.018437451 -0.02605981 4280437904
-0.010052588 -0.019231522 -0.025544766 4280306579
-0.008209452 -0.019192746 -0.0256496 4281225343
-0.0059446469 -0.021651689 -0.023895852 4281029249
-0.003950268 -0.02244509 -0.023381665 4282012528
-0.024839491 -0.021011423 -0.025792653 4282405738
-0.02311179 -0.020138178 -0.026517402 4281619064
-0.021270815 -0.020100161 -0.026622642 4280044949
-0.019551434 -0.019226884 -0.027346766 4279782809
-0.017837591 -0.018353581 -0.028070543 4279978649
-0.016002327 -0.018315386 -0.028175239 4280567954
-0.014167164 -0.018277099 -0.028279856 4279717529
-0.012199711 -0.019073674 -0.027765997 4281424244
-0.010226917 -0.019870028 -0.027252432 4282014569
-0.0039900914 -0.02392723 -0.024477594 4280966519
-0.02315009 -0.02160907 -0.027605101 4281814394
-0.021309242 -0.021571092 -0.02771036 4280633744
-0.01971139 -0.01985829 -0.029050287 4280701574
-0.017876152 -0.019820217 -0.029155068 4281881459
-0.016041011 -0.019782037 -0.029259764 4282012273
-0.014076356 -0.020580977 -0.028747454 4282340713
-0.021466307 -0.022202322 -0.029413886 4282079594
-0.023342505 -0.023708718 -0.030394703 4281423988
-0.0045384914 -0.025849368 -0.029603735 4281687403
-0.0045779496 -0.027324617 -0.030694582 4281883499
-0.025821798 -0.022452146 -0.035518244 4281487994
-0.025859486 -0.023909474 -0.036595933 4282144108
0.025069878 -0.0080734696 0.037541632 4286278678
0.020428263 -0.0067069493 0.021433847 4284903974
0.015481159 -0.0051945886 0.015431934 4284903719
0.007120572 0.0041973125 0.0030495154 4287654913
0.0088313743 0.0050242357 0.0022916482 4286347273
0.010536559 0.0058511104 0.0015341514 4285558303
0.012402438 0.0058915932 0.0014289361 4285295398
0.013930067 0.0075048227 2.0280946e-05 4285361189
0.015446655 0.0091178399 -0.0013876576 4285885469
0.016952157 0.010730764 -0.0027949363 4286277659
0.018623792 0.011557354 -0.0035502119 4286277659
0.021009438 0.0092395879 -0.0017005596 4285819168
0.024506941 0.0022061784 0.0040541468 4285425448
0.028238513 -0.0056120493 0.010456983 4286738444
-0.00099740922 0.0056933183 -0.00024084887 4285100579
0.00041414797 0.0080998316 -0.0022998345 4285425194
0.0019618645 0.0097172763 -0.0037068175 4285359914
0.0038092732 0.0097570103 -0.0038112523 4285360424
0.0056565106 0.0097968224 -0.0039156126 4285295653
0.007503584 0.0098367166 -0.004019904 4285427488
0.0095140263 0.0090881009 -0.0034736786 4285493278
0.011197224 0.0099167693 -0.0042282511 4285689628
0.01287479 0.010745423 -0.0049824277 4285754909
0.014375076 0.012362426 -0.0063862288 4286017304
0.016038701 0.013190979 -0.0071395421 4286016794
0.017696708 0.01401945 -0.0078924363 4286147609
0.019888625 0.012483085 -0.0066963704 4286147863
0.023004048 0.0070061106 -0.0022540172 4285556774
0.027083725 -0.0024106652 0.0054324139 4285490984
-0.0036214367 0.0081195068 -0.004486707 4285033769
-0.0019208193 0.0089500658 -0.0052411426 4285164583
-0.0005255416 0.0113628 -0.007294408 4286081818
0.0010058507 0.012984211 -0.0086971978 4286211868
0.0028368309 0.013023576 -0.0088007106 4286213909
0.0048256516 0.012272144 -0.0082550095 4285689119
0.0068197623 0.011520905 -0.0077095442 4285624604
0.0088191405 0.01076984 -0.0071642594 4285624348
0.010657601 0.010809712 -0.0072679417 4285689628
0.012326978 0.011640387 -0.0080200983 4285886233
0.013819121 0.013261577 -0.009420204 4285490983
0.015474558 0.014092093 -0.010171394 4285622309
0.017124362 0.014922587 -0.010922271 4285885469
0.019307896 0.013381688 -0.009728956 4285885978
0.022049651 0.0094700046 -0.0065929294 4285623584
0.025744468 0.0016074236 -0.00022031413 4285426468
-0.0070794001 0.0049749445 -0.0040734354 4284901168
-0.0059342571 0.0089814719 -0.0074208518 4285230373
-0.0043833703 0.01060741 -0.0088217724 4285558813
-0.0025493354 0.010646559 -0.008925667 4285623838
-0.0011648834 0.013065575 -0.010973492 4285885724
0.00050815195 0.013897924 -0.011724598 4286082583
0.0023308471 0.013937099 -0.011827653 4286148118
0.0043113381 0.013183301 -0.011283101 4285951768
0.0062971264 0.012429668 -0.010738736 4285689628
0.0082881749 0.011676261 -0.010194656 4285623838
0.010118373 0.011715962 -0.010297866 4285689374
0.011779547 0.012548601 -0.011047899 4286214418
0.012920432 0.015759563 -0.013737876 4285885469
0.014562212 0.016591938 -0.014486702 4285622308
0.0163754 0.016631613 -0.014588699 4285688353
0.018907286 0.013500957 -0.012105439 4285820189
0.021278314 0.011163322 -0.010269458 4285623584
0.024591252 0.0048636701 -0.0052043237 4285426468
0.028323218 -0.0030197743 0.0011501345 4286411024
-0.0071193725 0.0034918915 -0.0051700287 4285098283
-0.0062572323 0.0091005191 -0.0098031266 4285427489
-0.004711777 0.01073065 -0.011200469 4285821464
-0.0028833076 0.010769671 -0.011304057 4285885723
-0.0012047514 0.011604255 -0.012053981 4285556773
0.00016330928 0.014029508 -0.014095917 4285622563
0.0019804388 0.014068564 -0.014198661 4285819933
0.0039553121 0.013312442 -0.013655422 4285820189
0.0059354827 0.012556551 -0.013112394 4285689118
0.0079209283 0.011800854 -0.012569612 4285623839
0.009579502 0.01263552 -0.01331795 4285689629
0.01123248 0.013470145 -0.014065918 4286149393
0.012536839 0.015894672 -0.016103849 4286082329
0.014347382 0.015934201 -0.016205765 4286147609
0.016334705 0.015178895 -0.015662748 4286016538
0.018506937 0.013629077 -0.014475305 4286082328
0.020689867 0.012079557 -0.013288412 4285688863
0.023623869 0.007351622 -0.00952446 4285623074
0.026965939 0.0010352749 -0.0044738119 4285491748
-0.0070205182 0.0012111571 -0.0056211287 4285229608
-0.0061553717 0.0068351068 -0.010243084 4285163564
-0.005039949 0.010862861 -0.013572607 4285427233
-0.0032170564 0.010901751 -0.013675889 4286017303
-0.001693666 0.012535935 -0.015068624 4285951003
-2.8900802e-05 0.013372449 -0.015816046 4285951513
0.001630269 0.014208971 -0.016563125 4286017303
0.0037573949 0.012653081 -0.01537684 4286017813
0.0055740997 0.012692319 -0.015479416 4285623838
0.0075539201 0.011934327 -0.014937922 4285624094
0.0092070326 0.012771012 -0.01568437 4285624349
0.011023253 0.012810482 -0.015786739 4285624093
0.012496412 0.014444346 -0.017176149 4285754909
0.01448103 0.013686748 -0.016634636 4286017558
0.016294032 0.013726385 -0.016736649 4285952023
0.018286437 0.012969149 -0.016195506 4285689118
0.020101808 0.013008995 -0.016297532 4285624603
0.022657134 0.0098615177 -0.013828373 4285558813
0.02579727 0.0043242574 -0.0094325058 4285492513
-0.0061950833 0.0053655393 -0.011329699 4285295909
-0.0053678714 0.011003939 -0.015938116 4285295908
-0.0038443506 0.012642434 -0.017327741 4285689118
-0.0020325929 0.012681181 -0.01743032 4286082839
-0.00022097677 0.012720013 -0.017532829 4286082328
0.0015904903 0.012758924 -0.017635267 4286017048
0.0037173852 0.01119869 -0.016452184 4285755163
0.0055339858 0.011237903 -0.016554771 4285623838
0.0075136498 0.010477707 -0.0160149 4285624094
0.0091667175 0.01131657 -0.016759731 4285493023
0.01081416 0.012155412 -0.017504171 4285492769
0.012627393 0.012194896 -0.017606311 4285624349
0.014440469 0.012234448 -0.017708391 4285689629
0.016430184 0.011474883 -0.017168779 4285755164
0.017886534 0.013112964 -0.018553844 4285754909
0.019514143 0.013951747 -0.01929689 4285624094
0.021321081 0.01399147 -0.019398401 4285558813
0.024253979 0.0092374906 -0.015653746 4285493023
0.028171353 0.00048971921 -0.0087065045 4285557538
-0.0054072775 0.0095497984 -0.017013315 4284966704
-0.0041774511 0.012796668 -0.019683121 4285493279
-0.002371259 0.012835296 -0.019785386 4285624093
-0.00026061386 0.01127019 -0.018604813 4285689883
0.0017057583 0.010507213 -0.018065965 4285689883
0.0033619404 0.0113481 -0.018809596 4285624094
0.0051729903 0.011387182 -0.018911878 4285623839
0.0069838762 0.011426346 -0.019014088 4285558558
0.0086287335 0.012267204 -0.019756841 4285624094
0.010605201 0.011504924 -0.019218285 4285624349
0.012415618 0.011544319 -0.019320291 4285558559
0.01422587 0.011583803 -0.019422216 4285689629
0.015859194 0.012424739 -0.020164074 4285754908
0.017307438 0.01406694 -0.021545425 4285886233
0.019109048 0.014106439 -0.021646714 4286147863
0.020910472 0.014146017 -0.021747928 4286082073
0.023462243 0.010981109 -0.019291431 4285622564
0.026987284 0.0038113315 -0.013639817 4285491238
0.030947179 -0.0049593383 -0.0067127096 4285622308
-0.0051585324 0.0064873472 -0.016807884 4285032239
-0.0043635219 0.012155602 -0.021391837 4285427743
-0.0025601536 0.012194151 -0.021493955 4285624604
-0.00045246631 0.010624629 -0.020316439 4285624348
0.0015110001 0.0098594539 -0.019779086 4285689883
0.0030067638 0.011506362 -0.02116039 4285755163
0.0046518743 0.012349216 -0.021901686 4285820954
0.0064545125 0.012388194 -0.022003433 4285689374
0.0082569793 0.012427257 -0.022105109 4285624094
0.0098907501 0.013270104 -0.022845585 4285689884
0.012032732 0.011701928 -0.021669559 4285624093
0.013663478 0.012544887 -0.022409735 4285754908
0.015465304 0.012584249 -0.022511143 4285754653
0.016908139 0.014230696 -0.023889022 4286213653
0.018886358 0.01346661 -0.023351859 4286081564
0.020500116 0.014309539 -0.024090897 4286213654
0.022671007 0.012742372 -0.022916144 4286344468
0.02561368 0.0079625174 -0.019191382 4285556774
-0.0047659948 0.00260989 -0.01597009 4285097774
-0.0042559877 0.0099063385 -0.02182023 4285362208
-0.0027489215 0.011557559 -0.02319916 4285624603
-0.00079634786 0.010789871 -0.022662876 4285624349
0.0010066256 0.010828571 -0.022764856 4285689373
0.002494216 0.012479691 -0.024142519 4286017048
0.0039707944 0.014130613 -0.025519455 4286082073
0.0059254989 0.013363315 -0.024983041 4286016538
0.0077197105 0.01340217 -0.02508427 4285688864
0.0095137805 0.013441129 -0.025185412 4285689628
0.011478901 0.012674285 -0.024649415 4285624094
0.013623208 0.011101829 -0.023476658 4285754653
0.015248314 0.011946885 -0.024214869 4285951769
0.016867809 0.01279196 -0.024952734 4285490983
0.018481739 0.013636934 -0.0256902 4285556518
0.020459622 0.012870753 -0.025154637 4285688098
0.022255279 0.012910234 -0.025255507 4286214164
0.025001861 0.0089226142 -0.022176126 4285622563
0.028354287 0.0025195107 -0.017190548 4285557284
-0.0041485578 0.0076529328 -0.02225169 4285229354
-0.0029375404 0.01092555 -0.024901045 4285558813
-0.0011399835 0.010964038 -0.025002791 4285755674
0.00081226975 0.010194205 -0.024468003 4285754909
0.002297163 0.011849595 -0.025842302 4286082583
0.0039313138 0.012696536 -0.026579771 4286147863
0.005722858 0.012735242 -0.026680917 4286082073
0.0076799616 0.011965888 -0.026146205 4286017559
0.0091370866 0.013620971 -0.027518645 4285689373
0.011096597 0.012851829 -0.026983947 4285689373
0.013061389 0.01208288 -0.026449488 4285689374
0.015031472 0.011314118 -0.025915274 4286214418
0.016827531 0.011353416 -0.02601631 4286082839
0.018441424 0.012200518 -0.026752193 4285688099
0.020049714 0.013047574 -0.027487703 4285622564
0.021839842 0.013086947 -0.027588252 4285819933
0.024200305 0.010703495 -0.025785474 4285754653
0.027541265 0.0042827614 -0.020812208 4285623328
0.031316712 -0.003751982 -0.014573071 4285556774
-0.0042696893 -0.0035619661 -0.015593881 4285295144
-0.0038945898 0.0045845732 -0.022050945 4285623329
-0.0029767007 0.0094873868 -0.025964418 4285492768
-0.0014833584 0.011147073 -0.027336074 4285821208
0.00046328455 0.010374961 -0.026802642 4285754398
0.0021002442 0.011224018 -0.027538747 4285490983
0.0035714209 0.012883561 -0.028908975 4285622564
0.0053574294 0.012922114 -0.029009834 4286017049
0.0071432814 0.012960756 -0.029110614 4285754398
0.0089289919 0.012999499 -0.029211313 4285689628
0.010714561 0.013038294 -0.029311959 4285624093
0.01284758 0.011456845 -0.028145045 4285623583
0.014461756 0.012305977 -0.028879445 4286083604
0.016428806 0.011535035 -0.028346624 4286082073
0.017855279 0.013194175 -0.029713914 4286016538
0.019824728 0.012423394 -0.029181078 4285951259
0.021612085 0.012462644 -0.029281516 4286082583
0.023779444 0.010882415 -0.028116263 4285689118
0.026728772 0.0060635731 -0.024420889 4285624094
0.030297138 -0.0011835378 -0.01882975 4285558559
0.034112468 -0.0092391614 -0.012608908 4285623074
-0.0040218607 -0.0066606505 -0.015415246 4285097774
-0.0033477545 -0.000118047 -0.020589227 4285557793
-0.0027172714 0.0064236578 -0.025760636 4285229354
-0.0016744584 0.010526167 -0.029029474 4285624349
-4.0136278e-05 0.011377299 -0.029763926 4286083603
0.0015886202 0.012228349 -0.030497957 4285885724
0.0032117963 0.013079366 -0.031231616 4285688353
0.0048293993 0.013930349 -0.031964894 4285820189
0.0067725927 0.013156315 -0.031432636 4286017814
0.0083844736 0.014007321 -0.032165483 4285624094
0.010332808 0.013233555 -0.031633399 4285624604
0.012286432 0.012459962 -0.031101566 4285624349
0.014068872 0.012498831 -0.031201936 4285689883
0.015672006 0.013349952 -0.031934064 4285820954
0.017451428 0.013388893 -0.032034155 4286280718
0.019599892 0.011803741 -0.030871179 4286280463
0.021571785 0.01103084 -0.03034009 4285886233
0.023358874 0.011070143 -0.030440472 4285689373
0.026109591 0.0070499778 -0.027385522 4285558559
0.029473707 0.00059495866 -0.022439355 4285492258
0.033673845 -0.009106257 -0.014972527 4285360678
0.036733575 -0.013935559 -0.011292907 4286606354
-0.0042055696 -0.0073224688 -0.017139517 4284900914
-0.0032408237 -0.0023927484 -0.021036362 4285031983
-0.0029057115 0.0057964809 -0.02745888 4285426724
-0.0020173714 0.010724805 -0.031351294 4285361444
-0.00069783628 0.013207732 -0.033346966 4285886233
0.00091999024 0.014060752 -0.034078822 4286082329
0.0026923567 0.014098899 -0.034178991 4286082329
0.0046273768 0.013322378 -0.033647913 4286017049
