# .PCD v0.7 - Point Cloud Data file format
VERSION 0.7
FIELDS x y z rgba
SIZE 4 4 4 4
TYPE F F F U
COUNT 1 1 1 1
WIDTH 974
HEIGHT 1
VIEWPOINT 0 0 0 1 0 0 0
POINTS 974
DATA ascii
-0.016493518 -0.0095624998 -0.0066164089 4289605918
-0.014604717 -0.0095237792 -0.0067212163 4290062623
-0.012716051 -0.0094849523 -0.006825936 4290782233
-0.011096746 -0.0078381207 -0.0082137026 4289604644
-0.009488482 -0.0061913868 -0.0096007623 4289866784
-0.0074709952 -0.0069563398 -0.009063377 4289932063
-0.0051626489 -0.0093286559 -0.0072439909 4290913304
-0.0028380975 -0.011700597 -0.0054253954 4289997599
-0.00079386681 -0.012464676 -0.0048892563 4289736223
0.0006518811 -0.010014078 -0.0069159735 4290128413
0.0023884699 -0.0091708079 -0.0076607363 4289605664
0.0041194707 -0.008327594 -0.0084050708 4290979603
0.0061631128 -0.0090913251 -0.0078686317 4291175953
0.0077265501 -0.0074446658 -0.0092525762 4290979348
0.0094434768 -0.0066014873 -0.0099959429 4290848788
0.010987535 -0.0049550338 -0.011378747 4289410079
0.013370521 -0.0073249107 -0.0095627541 4289933593
0.015078805 -0.006481667 -0.010305461 4289216789
-0.032618456 -0.018678404 -0.0010087339 4287576119
-0.030913614 -0.017026724 -0.0023989566 4288099634
-0.029434465 -0.013761693 -0.0050714305 4288296238
-0.027867109 -0.011303631 -0.0071012918 4288165168
-0.026090581 -0.010458991 -0.0078477878 4288688683
-0.024088554 -0.011227418 -0.0073118825 4288950568
-0.022317678 -0.010382667 -0.0080578979 4288754475
-0.020552348 -0.0095379259 -0.0088035269 4288034608
-0.018668886 -0.0094995573 -0.0089082168 4288557869
-0.016785547 -0.0094610471 -0.0090127932 4289342759
-0.014773194 -0.010228707 -0.0084770499 4290978074
-0.013282921 -0.0077713793 -0.010501934 4290193183
-0.011539962 -0.0069265049 -0.011245959 4290455069
-0.0098025724 -0.0060816752 -0.011989549 4290651163
-0.0076507106 -0.0076549957 -0.010813776 4290781978
-0.0054881051 -0.0092279725 -0.0096385824 4290978583
-0.0034602135 -0.0099946819 -0.0091032349 4289801248
-0.0015752017 -0.0099553373 -0.009207312 4289801503
0.00015877932 -0.0091100801 -0.0099503435 4289736223
0.0018871725 -0.0082648667 -0.010693014 4290193949
0.0036099702 -0.0074196747 -0.011435304 4289604898
0.0054862201 -0.0073801475 -0.011538628 4289539619
0.0072005391 -0.0065348977 -0.012280351 4290193949
0.0090737566 -0.0064952606 -0.012383378 4291044884
0.011114039 -0.0072610183 -0.011848127 4289735968
0.013159603 -0.0080265598 -0.011313162 4289735969
0.015210412 -0.0087918937 -0.010778415 4289867038
0.017091133 -0.0087517668 -0.01088161 4290259739
0.01879359 -0.0079063205 -0.011622276 4290129944
0.020309664 -0.0062557189 -0.013000033 4289541149
0.021814689 -0.0046053231 -0.014377086 4289215004
0.023494914 -0.0037601618 -0.015116391 4289084444
-0.030847486 -0.019361729 -0.0028856213 4287771958
-0.029365543 -0.016087959 -0.0055518262 4288100144
-0.027795445 -0.013623376 -0.0075769816 4288231469
-0.026016276 -0.012776459 -0.0083220517 4288231469
-0.024011727 -0.013547079 -0.007787874 4288754728
-0.022120018 -0.013508747 -0.0078931749 4288820008
-0.020470247 -0.011853079 -0.0092766294 4288492844
-0.018584203 -0.01181465 -0.0093814582 4288688174
-0.016824625 -0.010967644 -0.010125003 4287576118
-0.011848293 -0.0068099629 -0.013630025 4288557359
-0.010116413 -0.0059630917 -0.014371714 4290127139
-0.0079702362 -0.0075408677 -0.013198912 4289734693
-0.0059559867 -0.0083101457 -0.012664499 4289865763
-0.0040818378 -0.0082711363 -0.012768058 4289800483
-0.0020596907 -0.009040121 -0.012233913 4289539364
-0.00018309802 -0.0090008629 -0.012337459 4289866273
0.0015397742 -0.0081535494 -0.013078259 4290586138
0.0032570809 -0.0073063029 -0.013818642 4289604898
0.0049688071 -0.006459103 -0.014558664 4289081128
0.0069983453 -0.0072274106 -0.014024614 4289408803
0.0090331733 -0.0079955356 -0.013490804 4289670689
0.01090613 -0.0079558305 -0.013593763 4290390299
0.012778938 -0.0079160314 -0.013696643 4289408803
0.014651567 -0.0078761643 -0.013799458 4289605154
0.016699366 -0.0086437352 -0.013266079 4289735969
0.018396348 -0.0077961991 -0.014004885 4289343779
0.01990702 -0.0061414335 -0.015379103 4290259738
0.021406643 -0.0044868374 -0.01675267 4290849298
0.023267567 -0.0044468418 -0.016854564 4290195223
0.025506109 -0.0060211299 -0.015685704 4288822303
0.027755335 -0.00759512 -0.014517381 4288692763
-0.032797068 -0.020927913 -0.0039069345 4287379258
-0.0309905 -0.020078698 -0.0046521658 4287641143
-0.02918946 -0.019229453 -0.0053969864 4288034608
-0.027613897 -0.016758204 -0.0074176686 4287969583
-0.025716696 -0.01672001 -0.0075234585 4288231469
-0.023819588 -0.016681708 -0.0076291636 4288885799
-0.021804444 -0.017454108 -0.0070971251 4289081893
-0.020267371 -0.014983218 -0.0091152797 4288688938
-0.018376026 -0.01494469 -0.0092204092 4288557359
-0.016737387 -0.01328469 -0.010599871 4288361008
-0.014722686 -0.014056666 -0.010067488 4288557359
-0.013229616 -0.011586241 -0.012082878 4288426033
-0.011618536 -0.0099264933 -0.013460577 4287380024
-0.0062808767 -0.0081894565 -0.015044326 4288884523
-0.0045576096 -0.0073403027 -0.015783718 4290062113
-0.0026918948 -0.0073013799 -0.015886743 4289801248
-0.00067550689 -0.0080725215 -0.015353862 4290128923
0.001192674 -0.0080333725 -0.015456895 4290389534
0.0029044822 -0.0071841097 -0.016195396 4290781978
0.0046107024 -0.006334818 -0.016933484 4290127903
0.0066346526 -0.0071054716 -0.016400773 4289735459
0.0086638778 -0.0078759063 -0.015868276 4290848023
0.010698371 -0.0086461343 -0.015335999 4290455578
0.012568362 -0.0086064124 -0.015438735 4289474339
0.014438182 -0.0085666338 -0.015541419 4289735969
0.016307846 -0.0085267741 -0.015644031 4289932319
0.01817733 -0.0084868455 -0.01574658 4289539618
0.019685328 -0.0068278173 -0.017117454 4291044374
0.021182247 -0.0051688757 -0.018487686 4291045139
0.023040384 -0.0051289918 -0.018589467 4290848788
0.02565366 -0.0083264448 -0.01615615 4290717463
0.027713858 -0.0090954602 -0.015624791 4289997343
0.029973604 -0.010673591 -0.0144602 4289604643
0.032440983 -0.013060564 -0.0126629 4286136644
-0.032937154 -0.021642432 -0.0056718728 4287510073
-0.031133391 -0.0207911 -0.006415341 4287837494
-0.029335171 -0.019939765 -0.0071584135 4287772978
-0.027542483 -0.019088376 -0.0079011312 4288035373
-0.025755327 -0.018237021 -0.0086434074 4288231469
-0.023743004 -0.019011784 -0.0081129195 4288297004
-0.021843407 -0.018973341 -0.0082186954 4288820263
-0.020185519 -0.017308859 -0.0095961262 4288558633
-0.018291578 -0.017270306 -0.0097014206 4288558633
-0.016523998 -0.016418789 -0.010442195 4288361774
-0.014504045 -0.017192859 -0.0099117318 4288492589
-0.012873825 -0.015528489 -0.011287364 4288426798
-0.01125459 -0.013864275 -0.012662263 4288099889
-0.0095092468 -0.013012814 -0.013401507 4288099889
-0.0077694729 -0.012161351 -0.014140356 4288949803
-0.0060352832 -0.011309871 -0.014878874 4288687918
-0.0044519231 -0.0096459938 -0.016251484 4286202433
-0.0025835782 -0.009607045 -0.016354678 4286202178
-0.00071537495 -0.0095680039 -0.016457792 4287248953
0.0011526793 -0.0095288809 -0.016560836 4289604133
0.0027082786 -0.0078652222 -0.017931651 4290258719
0.0045706108 -0.0078260275 -0.018034237 4290520348
0.0062711909 -0.0069746021 -0.018770419 4290586394
0.0084591433 -0.0085594328 -0.017605713 4290782488
0.010156721 -0.0077079553 -0.018341569 4289539618
0.012018442 -0.0076684477 -0.018443882 4289801248
0.013880014 -0.007628859 -0.018546123 4289932064
0.016091801 -0.0092128236 -0.017382532 4289604899
0.017780587 -0.0083612241 -0.018117679 4290324764
0.01946377 -0.0075096572 -0.018852456 4289277734
0.020958006 -0.005846465 -0.020219348 4289212198
0.022999406 -0.0066182418 -0.019688705 4290651929
0.025234826 -0.0082014035 -0.01852612 4290651418
0.027672432 -0.010595668 -0.016732108 4289343013
0.030126177 -0.012989594 -0.014938912 4289473318
-0.033077095 -0.022352384 -0.0074334415 4287379259
-0.031380575 -0.020683454 -0.0088103842 4287641143
-0.029373609 -0.021460894 -0.0082814237 4287969328
-0.02758101 -0.020607328 -0.0090225227 4288035118
-0.025568783 -0.021384453 -0.0084937019 4287904304
-0.023781814 -0.020530788 -0.0092343306 4288624169
-0.022000384 -0.019677155 -0.0099745169 4289082149
-0.020345233 -0.018008422 -0.01134861 4288231468
-0.018454153 -0.017969923 -0.011453741 4288427818
-0.016437002 -0.018746335 -0.010924813 4288493099
-0.014414512 -0.019522538 -0.010396109 4288427053
-0.012649957 -0.01866873 -0.011134974 4288492589
-0.010756608 -0.018629769 -0.011239924 4288231469
-0.0090004504 -0.017775925 -0.011978169 4288427053
-0.0072498769 -0.016922031 -0.012716058 4289211689
-0.005504854 -0.016068216 -0.013453538 4288753708
-0.0040558577 -0.013585174 -0.015456475 4288426544
-0.0024753734 -0.011916894 -0.0168257 4288949548
-0.00075522065 -0.011063294 -0.017561583 4289734694
0.0011127219 -0.011024185 -0.017664628 4288426799
0.0026683286 -0.0093561914 -0.019032232 4288426798
0.004371725 -0.0085026529 -0.01976705 4288557869
0.006231077 -0.0084634405 -0.019869413 4289081128
0.0082545653 -0.0092384517 -0.019339822 4289408293
0.0099493638 -0.0083848229 -0.020073965 4289343014
0.011638582 -0.0075312853 -0.020807708 4289474084
0.013667032 -0.0083058802 -0.020278232 4289604899
0.015700765 -0.0090803513 -0.019748967 4289997599
0.017384082 -0.0082266731 -0.020482263 4290913559
0.018881254 -0.0065592099 -0.021846132 4289343268
0.020733938 -0.0065195486 -0.021947691 4288820009
0.022772469 -0.007293582 -0.021418514 4289212453
0.02500499 -0.0088811833 -0.020259008 4289212198
0.027439632 -0.011282092 -0.018469704 4289408294
0.030084535 -0.014496216 -0.016050961 4289669158
-0.031523153 -0.021384578 -0.010565232 4286987323
-0.029626202 -0.02134664 -0.010671195 4288295983
-0.027729329 -0.021308606 -0.010777081 4287510838
-0.025720011 -0.02208792 -0.010249749 4288034608
-0.023705356 -0.022867061 -0.0097225895 4288623658
-0.022157215 -0.020376461 -0.011727014 4288231214
-0.020384133 -0.019520732 -0.012465059 4288231214
-0.018493187 -0.019482246 -0.012570192 4288492589
-0.016350094 -0.02107805 -0.011410513 4288165679
-0.014325075 -0.021856386 -0.010883565 4288034864
-0.012426306 -0.021817444 -0.010988913 4288362284
-0.010796215 -0.020144342 -0.012358 4288100398
-0.0090401359 -0.019288331 -0.013094637 4289016614
-0.0072896183 -0.018432295 -0.013830935 4289343779
-0.0054022223 -0.018393168 -0.013935341 4288689448
-0.0038052723 -0.016720364 -0.015302307 4288688938
-0.0020714551 -0.015864436 -0.016037431 4289277989
-0.00049382448 -0.014191788 -0.017403223 4289016103
0.0013794452 -0.014152579 -0.017506571 4288885288
0.0029404983 -0.012480146 -0.018871276 4288885288
0.0044905394 -0.010807871 -0.020235321 4288950824
0.0063524991 -0.010768635 -0.020337848 4288492588
0.0082143471 -0.010729341 -0.020440327 4288427309
0.0099090934 -0.009873556 -0.021172872 4289015849
0.011598274 -0.0090178754 -0.021905025 4289277479
0.013454221 -0.0089784646 -0.022006998 4289146663
0.015310012 -0.008938984 -0.022108911 4289604899
0.016632296 -0.0064510312 -0.024099335 4290390043
0.01829914 -0.0055955416 -0.024830049 4290978328
0.020143576 -0.0055560702 -0.024931166 4290520348
0.022359766 -0.007148481 -0.023774069 4290782744
0.024775282 -0.009556409 -0.02198861 4290847769
0.027398326 -0.012779794 -0.019575175 4289146408
0.030236997 -0.016818438 -0.016534267 4288361008
-0.025758646 -0.023606535 -0.011370884 4286987579
-0.023974564 -0.022748636 -0.012108102 4288230449
-0.022313923 -0.021071212 -0.013476148 4288165169
-0.020543639 -0.020213343 -0.014212486 4288165169
-0.018408842 -0.02181383 -0.013055613 4288230704
-0.016263276 -0.023413938 -0.011899294 4288361519
-0.014364518 -0.023375103 -0.01200472 4288165168
-0.012597382 -0.02251691 -0.012740522 4288362283
-0.010970034 -0.020839557 -0.014106269 4288231723
-0.008942835 -0.021619722 -0.013580829 4289540129
-0.0071896538 -0.020761501 -0.014315625 4288689449
-0.0052996501 -0.020722363 -0.014420209 4288689449
-0.0037000179 -0.019045122 -0.015784156 4288885799
-0.001815699 -0.0190059 -0.015888274 4288951078
-8.2075596e-05 -0.018147722 -0.01662172 4288754984
0.0016459748 -0.017289553 -0.017354779 4288558634
0.0032124594 -0.015612635 -0.01871662 4288362284
0.0047679469 -0.013935909 -0.020077756 4288558634
0.0067966729 -0.014715242 -0.019551808 4288493098
0.0085024238 -0.013857215 -0.020283395 4289016103
0.010202587 -0.012999233 -0.02101462 4289604899
0.011897162 -0.012141282 -0.021745475 4289081384
0.013758451 -0.012101782 -0.021847764 4288623403
0.015269563 -0.010425481 -0.023206148 4289015848
0.016591929 -0.0079310331 -0.025191773 4289146664
0.018078297 -0.0062551815 -0.026548671 4289408293
0.020103119 -0.0070339656 -0.026022039 4289932063
0.022133216 -0.0078126136 -0.025495684 4290324764
0.024545781 -0.010227209 -0.023714874 4289800738
0.027357072 -0.014277387 -0.020680567 4289211944
0.03000138 -0.017509 -0.018274726 4288164914
-0.02070301 -0.020901483 -0.015956542 4286595133
-0.018694483 -0.021684753 -0.015432079 4288426033
-0.016554594 -0.023289386 -0.014278634 4288360753
-0.014661402 -0.023250703 -0.01438378 4288099633
-0.012768328 -0.023211904 -0.014488829 4288034353
-0.011009529 -0.022351626 -0.015222499 4288623914
-0.0089825168 -0.023133997 -0.01469868 4289213219
-0.0072293952 -0.022273634 -0.015431885 4288427819
-0.0053395182 -0.022234509 -0.01553647 4288820518
-0.003739886 -0.02055292 -0.0168972 4289082404
-0.0015601292 -0.022155968 -0.015745398 4288297003
0.00017886609 -0.021295475 -0.016477583 4288297259
0.0020655096 -0.021256052 -0.016581718 4288166188
0.0034842491 -0.018753752 -0.018568264 4288231469
0.0052038133 -0.017893463 -0.019299155 4288362283
0.0070791766 -0.017854013 -0.019402472 4288689449
0.0086262152 -0.016172931 -0.02075986 4289277989
0.010495849 -0.016133418 -0.020862726 4289016103
0.01219584 -0.015273235 -0.02159231 4288493099
0.014062464 -0.015233636 -0.0216949 4289016360
0.015229136 -0.011911845 -0.024303291 4288820009
0.016551599 -0.009410914 -0.026284123 4288885289
0.018218383 -0.0085511375 -0.027011661 4288754474
0.020062685 -0.0085117519 -0.027112832 4288427309
0.021906838 -0.0084722983 -0.027213942 4288885034
0.023939356 -0.0092530213 -0.026689293 4289211688
0.026933417 -0.014134528 -0.023037007 4289342248
0.029765911 -0.018195115 -0.020011902 4286987324
-0.013201926 -0.022255074 -0.017488306 4287248953
-0.011183128 -0.023039913 -0.01696573 4288361264
-0.0088853315 -0.025471572 -0.015189441 4288754473
-0.00712955 -0.024609026 -0.01592122 4288362283
-0.005379349 -0.023746476 -0.016652601 4289212964
-0.003634721 -0.022883888 -0.017383635 4288689449
-0.0014524832 -0.024491251 -0.016235201 4288296748
0.00028918684 -0.023628609 -0.016965913 4288165933
0.0020252764 -0.022765966 -0.017696302 4288165933
0.0035999492 -0.021080256 -0.019052142 4288296748
0.0053221881 -0.020217763 -0.01978159 4288689704
0.0073614717 -0.021001272 -0.019259477 4288951334
0.0089139789 -0.019315796 -0.020613926 4288623914
0.010788955 -0.01927622 -0.020717124 4288427053
0.012155414 -0.016768081 -0.02269573 4288427053
0.014194116 -0.017551288 -0.022173354 4288427053
0.015713446 -0.01586622 -0.02352576 4288623658
0.017399371 -0.01500395 -0.024252808 4288623658
0.018899374 -0.013319087 -0.025604073 4288885544
0.020388387 -0.011634476 -0.026954675 4289081383
0.022052132 -0.010772444 -0.027680404 4288754474
0.023898751 -0.01073292 -0.027781637 4288623148
0.026701197 -0.014805174 -0.024762968 4288230194
0.029530622 -0.018876733 -0.021745766 4288557104
-0.0091985613 -0.025336372 -0.017559351 4286333759
-0.0075878054 -0.023646116 -0.018914456 4288688683
-0.0057036057 -0.023607124 -0.019018736 4288950314
-0.0038195178 -0.023568071 -0.019122964 4288099888
-0.0016402304 -0.025179863 -0.017977599 4288100144
9.8668039e-05 -0.024315082 -0.018706605 4288100399
0.0018319935 -0.023450391 -0.01943521 4288100654
0.0035597607 -0.022585712 -0.02016343 4288362283
0.0052819625 -0.021721063 -0.020891277 4289212964
0.0071598217 -0.021681612 -0.020994773 4288754728
0.0088736117 -0.020816991 -0.021722047 4288427563
0.010581791 -0.019952342 -0.022448981 4288230958
0.012284413 -0.019087808 -0.023175532 4288230958
0.013981469 -0.018223295 -0.023901703 4288231469
0.015672952 -0.017358851 -0.024627533 4288296748
0.017358832 -0.016494438 -0.025352992 4288231469
0.019399695 -0.017279593 -0.024832211 4288297004
0.020896859 -0.015590422 -0.026180089 4288427819
0.022568755 -0.014726128 -0.026904646 4288427308
0.02423504 -0.013861891 -0.02762885 4288034354
0.026660286 -0.01629586 -0.025863273 4286529599
-0.0022706091 -0.023381103 -0.021586141 4286595133
-0.00024200976 -0.024169566 -0.021066943 4287248953
0.0014858469 -0.023302848 -0.02179366 4288099889
0.0033638775 -0.023263587 -0.021897305 4288622893
0.0050833076 -0.022396846 -0.02262341 4288557613
0.0069583654 -0.022357496 -0.022726782 4288492844
0.0088332817 -0.022318052 -0.022830073 4288100399
0.010874681 -0.023105763 -0.02231122 4288035118
0.01241336 -0.021411765 -0.023658458 4288231723
0.013941042 -0.019717949 -0.025004981 4288231469
0.015807264 -0.019678406 -0.025107583 4288165933
0.017673343 -0.019638805 -0.025210133 4288100398
0.019719474 -0.020426067 -0.024691284 4288035118
0.021222137 -0.018732538 -0.026036251 4288231468
0.022899434 -0.017865963 -0.026759503 4288165933
0.024571151 -0.016999433 -0.027482465 4287838004
0.0031681433 -0.023936965 -0.023627866 4287183674
0.0047263801 -0.022238541 -0.02497321 4288688174
0.0064347908 -0.021369826 -0.025697075 4288034354
0.0084652975 -0.022160051 -0.025179315 4287903794
0.010501117 -0.022950081 -0.024661785 4288165933
0.012203686 -0.022081271 -0.025385167 4288427563
0.013900675 -0.02121247 -0.026108162 4288165933
0.015592098 -0.020343762 -0.026830833 4288231723
0.017455362 -0.02030425 -0.026933249 4288231469
0.019498654 -0.02109378 -0.026415879 4288362284
0.021364354 -0.021054104 -0.026518345 4288100909
0.023044348 -0.020185357 -0.027240179 4288165679
0.024530478 -0.018487718 -0.028581012 4287641654
0.010294348 -0.023617197 -0.026386932 4286660923
0.011994168 -0.022746306 -0.027108578 4287118903
0.014032274 -0.023538355 -0.026592705 4288099888
0.015551738 -0.021836055 -0.027932366 4288165679
0.017769657 -0.023459259 -0.026798254 4288231214
0.019458085 -0.022588342 -0.027519075 4288427563
0.021140918 -0.021717494 -0.028239556 4288427563
0.022632644 -0.020015439 -0.029577516 4288688939
0.024301626 -0.019144766 -0.030297145 4287902774
0.01330442 -0.02170028 -0.030165266 4286202688
0.015162244 -0.021661051 -0.030267507 4288361264
0.017551877 -0.024122352 -0.028519643 4288361263
0.019417576 -0.024082806 -0.028622206 4288753963
0.020917647 -0.022376426 -0.029957479 4289081129
0.022406727 -0.020670142 -0.031292118 4288557358
0.024072975 -0.019797402 -0.032010026 4286594623
0.021624766 -0.018813815 -0.034847349 4287575353
0.019370802 0.0016498975 0.034037188 4282020179
0.015004665 0.010666205 0.023573298 4280582489
0.016246796 0.01374553 0.020780215 4281501253
0.020961113 0.010029728 0.02392751 4279023418
0.01327879 0.016738202 0.015728243 4280653889
0.014836073 0.018302135 0.014283509 4280263483
0.016903751 0.01758074 0.01484958 4279219769
0.018976659 0.01685955 0.015415438 4279025203
0.021413356 0.014615284 0.01732059 4279352624
0.024412163 0.010086784 0.021233711 4281307964
0.011172228 0.015937582 0.014038536 4280254048
0.014110506 0.019838035 0.010487158 4281111104
0.015993364 0.019878153 0.010383807 4281763139
0.018052511 0.019154485 0.010948798 4281372224
0.019937664 0.019194826 0.010845449 4280721464
0.022368409 0.01694398 0.012746155 4281177149
0.024630591 0.015457287 0.013978171 4281111104
0.027090833 0.013207231 0.015877377 4280718149
0.029377036 0.011721216 0.017108196 4280913988
0.031866722 0.0094719641 0.019005919 4281109829
0.033785865 0.0095134806 0.018901035 4282414663
0.036299534 0.0072648786 0.020797547 4281503039
0.039432183 0.0027267225 0.024694063 4282154053
0.010468811 0.017480724 0.010245979 4280718914
0.012018159 0.019053157 0.0088080969 4278698549
0.01389841 0.019093141 0.0087048281 4280137004
0.015778437 0.019133218 0.0086016469 4280072488
0.017481819 0.0199394 0.0078318585 4279874353
0.021417275 0.019253895 0.0082925148 4280459834
0.023481049 0.01852842 0.0088558421 4280850239
0.025550038 0.017803129 0.0094189383 4280719934
0.0274342 0.017843775 0.0093158856 4280719424
0.029510915 0.017118793 0.0098786652 4280851259
0.033481769 0.016434923 0.010338103 4280005424
0.036375023 0.012648351 0.013561705 4279741498
0.039702445 0.0073315408 0.018114258 4279480123
0.043893069 -0.0010460094 0.025325038 4281241153
0.0091929808 0.01285371 0.011896141 4279861858
0.010096863 0.017504621 0.0077978447 4280327234
0.011808999 0.018312927 0.0070290137 4280131393
0.013515465 0.019121252 0.0062605161 4280329274
0.016911484 0.020737693 0.0047247168 4278635309
0.018780112 0.02077771 0.0046222955 4280068664
0.021012172 0.019281581 0.0058494527 4280849983
0.02307035 0.018553775 0.0064115245 4280719678
0.025321014 0.017058205 0.0076377839 4280719934
0.027012393 0.017866727 0.0068705752 4280589884
0.028890833 0.017907325 0.0067678895 4280720699
0.030378178 0.019483667 0.0053372039 4281371968
0.032448858 0.018756486 0.0058988594 4281046334
0.034524754 0.018029526 0.0064602327 4278702629
0.037420094 0.014232175 0.0096757095 4281177659
0.041167505 0.007365156 0.015543512 4281372223
0.045172572 -0.00026826188 0.02207198 4281240389
0.0086637288 0.013644325 0.0087804142 4280321879
0.0095596984 0.018308189 0.0046922676 4280587843
0.011431761 0.018347938 0.004589403 4280980034
0.01330363 0.01838778 0.0044866223 4281045313
0.015001707 0.019198153 0.0037203098 4281241409
0.016694121 0.020008489 0.0029543706 4280980289
0.018559933 0.020048454 0.0028521104 4280850238
0.0206073 0.019318193 0.0034130563 4280784958
0.022659868 0.018588137 0.0039737867 4280589118
0.024717674 0.017858274 0.0045342892 4280653888
0.026590802 0.01789869 0.0044318447 4280393789
0.030141033 0.018749744 0.0035647659 4280198968
0.032010756 0.018790308 0.0034626725 4281371714
0.034281872 0.017291136 0.0046848906 4281372479
0.036767095 0.015022498 0.0065685101 4280852534
0.040093295 0.0096751768 0.011098644 4281177660
0.044293039 0.0012499485 0.018273421 4281372224
0.0078095272 0.015994046 0.0043493789 4280323664
0.0091882646 0.018352233 0.0022590088 4280849729
0.010886677 0.019164637 0.001494172 4279483949
0.014613681 0.019244052 0.0012895958 4280067898
0.01647687 0.019283887 0.0011874223 4280980288
0.018339865 0.019323777 0.0010853047 4280915264
0.020202659 0.019363772 0.0009832785 4280784703
0.022249646 0.018631417 0.0015427042 4280849728
0.024301864 0.01789926 0.0021019017 4280915009
0.026169464 0.017939571 0.001999771 4280980033
0.02765169 0.019524429 0.00057582674 4278634799
0.029318117 0.020336963 -0.00018672436 4278635309
0.031374916 0.019605141 0.00037247431 4279614254
0.033637643 0.018101498 0.001591906 4278634544
0.036317915 0.015054103 0.0041315388 4279026989
0.040050492 0.0081475209 0.009971112 4280719423
0.044876121 -0.0026173862 0.019108385 4280912969
0.0066933185 0.010575276 0.0066483617 4279535714
0.0072811022 0.016815688 0.0012566354 4280784959
0.010509975 0.019219771 -0.00093057926 4278703394
0.014225878 0.019298982 -0.0011345277 4278635818
0.015907347 0.020113461 -0.0018966261 4280915008
0.017762072 0.020153195 -0.0019982744 4280458048
0.019798234 0.019418366 -0.0014399186 4280524094
0.021839626 0.018683728 -0.00088179007 4280784703
0.023699194 0.018723805 -0.000983526 4280849729
0.025558539 0.018763926 -0.0010852143 4281045313
0.027032636 0.020352978 -0.002505481 4281110338
0.028886139 0.020393137 -0.0026067307 4280588863
0.030937351 0.019659065 -0.002048875 4280132414
0.033194453 0.018150896 -0.00083232392 4280589373
0.036275737 0.013546297 0.0030186528 4280458048
0.040213786 0.0058459509 0.0095023243 4280391748
0.045250006 -0.0057234904 0.019275364 4280457028
0.0053739697 0.015279468 0.00025449856 4280454479
0.0065904707 0.018427957 -0.0024856692 4279938359
0.0084460676 0.018467277 -0.0025876854 4281306688
0.010301493 0.018506702 -0.0026896121 4281502274
0.012156717 0.018546209 -0.0027914671 4279808818
0.013838336 0.019362811 -0.0035520038 4279808054
0.015514292 0.020179406 -0.0043122228 4280850494
0.01754237 0.019442089 -0.0037550619 4280850238
0.019575655 0.018705022 -0.0031981589 4280981053
0.021614172 0.017968137 -0.0026414879 4281046333
0.023470931 0.018008161 -0.0027430635 4281111103
0.025137722 0.018824909 -0.00350245 4281176129
0.026798896 0.019641608 -0.0042614713 4280915264
0.028454401 0.020458285 -0.0050201835 4280914244
0.030697927 0.018945392 -0.0038061673 4280457284
0.0329521 0.017432857 -0.0025927145 4280457794
0.036233552 0.012038695 0.0019059167 4280327488
0.040583 0.0027639326 0.00968746 4280457028
0.04583241 -0.0096144043 0.020092929 4280261444
0.0046945736 0.016900923 -0.0034818025 4280847433
0.0079101324 0.019317642 -0.0056587197 4279742264
0.0097572803 0.019356899 -0.0057601854 4281306433
0.011604242 0.019396227 -0.0058615878 4281241664
0.013451017 0.019435633 -0.0059629176 4280068664
0.015121505 0.020254273 -0.006721165 4280589884
0.017143957 0.019514713 -0.0061653368 4280720699
0.019171663 0.01877534 -0.005609747 4280785723
0.02102036 0.018815119 -0.0057109371 4280721209
0.022681899 0.019633859 -0.006468473 4280981564
0.030656435 0.017457657 -0.0049042506 4280653634
0.032910421 0.015940744 -0.0036940223 4280653378
0.036597885 0.0089742448 0.0021043972 4280653633
0.04136391 -0.0018835915 0.01117711 4280653889
0.046205744 -0.012739711 0.020245735 4280979270
0.0044947714 0.016195025 -0.0052361405 4280979779
0.0058603361 0.01857907 -0.007306518 4281242429
0.0077048391 0.018618185 -0.0074079055 4279417139
0.0092134401 0.020220354 -0.0088209016 4278373934
0.011052132 0.020259503 -0.0089218514 4278373169
0.015080988 0.018775452 -0.0078127151 4280589119
0.017103285 0.018033713 -0.0072584935 4280654399
0.019130841 0.017292153 -0.0067045074 4280719678
0.020795263 0.018113069 -0.007460637 4280655419
0.022454061 0.018933933 -0.0082164118 4280850749
0.024486423 0.018192727 -0.007662504 4280199989
0.026331723 0.018232632 -0.0077633616 4280134454
0.030219436 0.017531838 -0.0073106484 4280394553
0.033069238 0.013668008 -0.0041410797 4280980033
0.03736838 0.0043397732 0.0036044449 4280848964
0.042350248 -0.007329016 0.013307801 4280979268
0.003857173 0.0083995778 -0.00099170569 4281691994
0.0046143532 0.013926059 -0.0056777089 4281370183
0.0059827119 0.016316712 -0.0077433959 4281697604
0.0074996576 0.017923314 -0.0091536995 4281502274
0.0090055466 0.019529819 -0.010563372 4280849984
0.010670893 0.020352539 -0.011318234 4280654143
0.012677103 0.019608114 -0.010764861 4280849984
0.014688566 0.018863846 -0.01021167 4280784194
0.016883932 0.017336361 -0.0090051237 4280588609
0.018545821 0.018159326 -0.0097595584 4280589118
0.020386167 0.018198926 -0.0098602921 4279807288
0.021852657 0.019805152 -0.011267388 4279938613
0.023876749 0.019061524 -0.010714613 4281567298
0.025713786 0.019101266 -0.010815009 4281633089
0.027940601 0.017574918 -0.0096098408 4280981309
0.029584967 0.018397931 -0.010363005 4281242684
0.033027522 0.012174118 -0.0052436977 4280981053
0.037732132 0.0012538694 0.003787162 4281176383
0.04271844 -0.010447532 0.013466071 4281109573
0.0039736405 0.0061111227 -0.001447403 4284051253
0.0050529987 0.010080893 -0.0048161326 4281570104
0.0065918788 0.011692278 -0.0062245214 4281245489
0.0081197321 0.01330347 -0.0076322006 4281243194
0.0093010068 0.016486268 -0.010344485 4281567044
0.010801286 0.01809711 -0.011750548 4281827653
0.012636863 0.0181363 -0.011851251 4281174853
0.01482407 0.016604166 -0.010647492 4280587589
0.016664721 0.016643614 -0.010748358 4280261188
0.018505171 0.016683143 -0.010849151 4280130884
0.02016139 0.01750822 -0.011601625 4280327999
0.021625184 0.019118752 -0.01300534 4278373934
0.023456886 0.019158307 -0.013105493 4280070703
0.025288418 0.019197937 -0.013205584 4280395573
0.027119763 0.019237619 -0.01330562 4279612469
0.02934619 0.017706912 -0.012103578 4278895154
0.033186153 0.009895321 -0.0056953039 4280849473
0.038501784 -0.0034106774 0.0052649388 4281045059
0.043086387 -0.0135745 0.013618031 4281370694
0.0040899813 0.0038185809 -0.0019061909 4283724344
0.0053317696 0.0070110876 -0.0046155653 4281243448
0.0070383623 0.0078387633 -0.0053696753 4281244978
0.0085743517 0.0094545409 -0.0067746118 4281115184
0.010099292 0.011070147 -0.008178819 4280854063
0.01161319 0.012685606 -0.0095824283 4281179189
0.013289146 0.013512984 -0.010334594 4280657459
0.015135311 0.013552487 -0.010435808 4281046333
0.016802736 0.014379835 -0.011187393 4280849219
0.018464543 0.015207149 -0.011938604 4280718659
0.020120725 0.016034417 -0.012689453 4280391748
0.021397837 0.018436901 -0.014739937 4280196418
0.023226745 0.018476404 -0.014839932 4279547188
0.024863325 0.01930346 -0.015589553 4279221809
0.026884012 0.018555582 -0.015039759 4279155253
0.029305093 0.016233068 -0.013191408 4280915264
0.033344686 0.0076123364 -0.0061499989 4281045313
0.038255885 -0.0041561313 0.0034845823 4281110593
0.042631172 -0.01356117 0.01116796 4281370185
0.0042062178 0.0015219059 -0.002368032 4283267638
0.0056103021 0.0039328132 -0.0044212546 4281570359
0.0073222741 0.0047627911 -0.0051740389 4281375794
0.0090286434 0.0055927131 -0.0059264693 4281049139
0.010561764 0.0072128344 -0.0073279142 4281179954
0.012254164 0.0080426987 -0.0080794748 4281244978
0.013940945 0.0088724829 -0.0088306237 4281440564
0.015797898 0.0089121871 -0.0089324526 4281571889
0.017476156 0.0097419657 -0.0096830018 4281636914
0.018786356 0.012151547 -0.01173057 4281440054
0.020263992 0.013770955 -0.013128624 4281438523
0.021917254 0.014600398 -0.013877658 4281828673
0.023564845 0.015429851 -0.014626353 4281828164
0.025206834 0.016259205 -0.015374657 4281175363
0.02664841 0.017878089 -0.016770547 4280718914
0.029264025 0.014759414 -0.014279097 4280783683
0.033503093 0.0053252075 -0.006607756 4280914498
0.038618989 -0.0072654104 0.003650049 4280914243
0.042381898 -0.0143283 0.0093718031 4281889364
0.0043223426 -0.00077891909 -0.002832935 4282810423
0.0057292283 0.0016385354 -0.004881436 4281897778
0.0074438602 0.0024707802 -0.0056328056 4282028594
0.0088232011 0.0048878249 -0.0076796617 4281375284
0.010688737 0.004927475 -0.007782137 4281374774
0.012213528 0.0065518841 -0.0091798939 4281114928
0.014246292 0.00579926 -0.0086343922 4281244978
0.015757114 0.0074235499 -0.010031248 4281440053
0.017792217 0.0066711847 -0.0094857961 4281440564
0.019107968 0.0090873763 -0.011528791 4281505588
0.020774931 0.009919256 -0.012277063 4281506608
0.022436291 0.010751056 -0.013024924 4281571123
0.024092019 0.011582809 -0.013772421 4281376814
0.025742143 0.012414495 -0.014519572 4280200753
0.02738665 0.013246119 -0.015266372 4281046079
0.030012809 0.010118991 -0.012781996 4281043784
0.034261964 0.00065879524 -0.0051305247 4280978759
0.038576089 -0.0087999422 0.0025174331 4280977739
0.041721523 -0.013507699 0.0062875329 4282148698
0.0044383705 -0.0030838773 -0.0033008903 4282876213
0.0061667189 -0.0022493033 -0.0040514315 4281898798
0.0077274144 -0.00062008947 -0.0054480936 4281897778
0.0091122389 0.0018036719 -0.0074904431 4281507373
0.010815613 0.0026379824 -0.0082394127 4281311023
0.012343146 0.0042667687 -0.0096340515 4281310513
0.014205515 0.0043064915 -0.0097362483 4281571124
0.016067691 0.0043462962 -0.0098383734 4281700919
0.01792971 0.0043861791 -0.0099404268 4281440819
0.019429319 0.0060147289 -0.01133334 4281374773
0.021101706 0.0068488531 -0.012080259 4281375284
0.022768483 0.0076829474 -0.012826805 4281571889
0.024618879 0.0077228788 -0.012928003 4281571889
0.026085146 0.0093509965 -0.014318879 4280984369
0.027929731 0.0093909372 -0.014419659 4280852024
0.030958548 0.0046673305 -0.010652976 4281047098
0.035020344 -0.0040248642 -0.0036660251 4281307453
0.038938873 -0.011921867 0.0026734897 4281435719
0.0045543015 -0.0053930311 -0.0037718683 4284509998
0.0061260089 -0.0037592491 -0.0051660053 4283007794
0.0078487098 -0.0029225424 -0.0059145661 4282615859
0.009565793 -0.0020858776 -0.0066627646 4281571123
0.011109814 -0.00045243651 -0.0080551961 4281506610
0.012642816 0.0011808015 -0.0094469246 4281963059
0.014337622 0.0020172745 -0.010193688 4282029103
0.015851215 0.0036503151 -0.011584267 4281833008
0.017710395 0.0036901236 -0.011686177 4281964079
0.019388378 0.0045264736 -0.012431844 4281897268
0.021244481 0.0045663677 -0.012533473 4281831479
0.022913955 0.0054026805 -0.013278569 4281440054
0.024577789 0.0062389337 -0.014023307 4281504823
0.026236013 0.0070751663 -0.01476774 4281308984
0.028667115 0.0047266278 -0.012939355 4281308984
0.031903692 -0.00080596469 -0.0085399989 4281438778
0.035778269 -0.0087257475 -0.0022142392 4281568319
0.038895875 -0.013460368 0.0015379451 4281691994
0.0081318617 -0.0060282005 -0.0057408474 4283989033
0.010019004 -0.0059882179 -0.0058446033 4283007794
0.011571214 -0.0043503083 -0.0072342316 4282225199
0.013452582 -0.0043102661 -0.0073375348 4282224688
0.014815293 -0.0018737046 -0.0093688481 4282485044
0.016161524 0.00056255981 -0.011399142 4282029104
0.017669514 0.0021999069 -0.012786139 4282093364
0.019528449 0.0022397805 -0.012887982 4281962039
0.021387182 0.0022797231 -0.01298976 4281572143
0.023059331 0.0031182542 -0.013733402 4281571379
0.024914987 0.0031582695 -0.013834908 4281440819
0.026770473 0.0031983312 -0.01393637 4281439543
0.029209472 0.00084343366 -0.012113246 4281309749
0.032256402 -0.0039059008 -0.0083669601 4281699388
0.035735749 -0.010250979 -0.0033399956 4281239879
0.015119866 -0.0049766144 -0.0091945333 4283987759
0.016647078 -0.0033345846 -0.010579422 4283464244
0.018163271 -0.0016927747 -0.011963618 4282745398
0.019849345 -0.00085194595 -0.012706544 4282419508
0.021713421 -0.00081190281 -0.012808627 4281897779
0.023390986 2.8895214e-05 -0.01355097 4281897523
0.025251977 6.903708e-05 -0.013652761 4281377323
0.027112819 0.00010921061 -0.013754518 4281636404
0.029556975 -0.0022521066 -0.011936587 4281766708
0.03241168 -0.0062139584 -0.0088399826 4282092344
0.035693258 -0.011776017 -0.0044656126 4282349128
0.020350859 -0.004755131 -0.01189242 4283857453
0.021855861 -0.0031090612 -0.013272673 4282811443
0.02372241 -0.0030689249 -0.013374859 4282550834
0.025399752 -0.0022259131 -0.014115551 4281833264
0.027263217 -0.0021856902 -0.014217457 4281833008
0.029515393 -0.0037507853 -0.013042759 4281767218
0.032566875 -0.0085261986 -0.0093160933 4281503549
0.03545092 -0.01249832 -0.0062290868 4282542163
0.027413525 -0.0044847606 -0.014683477 4283921459
0.029668212 -0.0060541919 -0.013512166 4283530289
0.032721989 -0.010842705 -0.009795282 4282415938
0.032679968 -0.012356319 -0.010912477 4283721794
-0.00039161742 0.0035704337 0.035608787 4282276198
0.0023066252 -0.00016751699 0.038882144 4279587734
0.0045833886 -0.0016377475 0.040125385 4279390618
0.0070230812 -0.0038632508 0.042044144 4281094018
0.0090140551 -0.003821576 0.041934304 4282339439
-0.00043318421 0.0019948334 0.034445684 4280373899
0.0018244684 0.0005197525 0.035686687 4278931363
0.003644444 0.0013186596 0.03490328 4278602923
0.010016277 -0.00083091296 0.036600381 4278532544
0.014779568 -0.0045357328 0.039752342 4281093764
-0.00076265633 0.0019398574 0.031936184 4279914643
0.001342617 0.0012204684 0.032501079 4278471853
0.0033037588 0.0012613572 0.03239277 4278340274
0.0055689588 -0.00021770597 0.033630289 4279519904
0.0075351521 -0.00017651543 0.033521838 4279650974
0.0095011443 -0.00013522804 0.033413477 4279124654
0.011146359 0.0014258586 0.03196035 4279124909
0.012943484 0.0022269785 0.031180186 4278932129
0.014237747 0.0053072814 0.028384067 4279130009
-0.0010919198 0.001893945 0.02943329 4278931873
0.0010077283 0.0011722203 0.029996933 4278865574
0.0050707385 0.00049170107 0.030452268 4278467263
0.0070286468 0.00053273328 0.030344291 4279715998
0.0088288411 0.0013359506 0.029565463 4279651228
0.01078362 0.0013771039 0.029457795 4278470069
0.011923432 0.0052282028 0.025996976 4279194015
-0.0015647933 0.0026215594 0.026267033 4278735014
0.00052650273 0.0018975325 0.026829489 4278734504
0.002623044 0.0011737365 0.027391747 4278734248
0.010741182 0.0090200808 0.020164229 4279194013
-0.0035507828 0.0010219608 0.025223564 4281684853
-0.0016060024 0.0010623392 0.02511603 4278931619
0.0004850924 0.00033616833 0.025676912 4278537899
0.0024322346 0.00037680753 0.025569402 4278735524
0.0045311376 -0.00034901686 0.026129991 4278669989
0.0082725361 0.00049928948 0.025247371 4278537898
0.0095784664 0.003605878 0.022469882 4278276779
-0.0038738698 0.0010010209 0.022738721 4280897413
-0.0019346625 0.0010412838 0.022631494 4278669479
0.0061295703 -0.00033401512 0.023536049 4278472618
0.0080733001 -0.00029315241 0.023428947 4278800038
0.0090565011 0.0043593235 0.019326132 4278539173
-0.0040557906 0.00021785125 0.020925935 4278931109
-0.0022630915 0.0010291673 0.020153634 4278472363
0.0077168867 -0.0003100913 0.020949416 4279258784
0.0086948946 0.0043553077 0.016856609 4278540194
-0.0064475685 0.00094607286 0.017895639 4281160319
-0.0045193657 0.00098603405 0.017788967 4278996643
-0.00051710755 0.00029299781 0.018239405 4279256998
0.0012642741 0.001106523 0.017469462 4278799529
0.006889075 0.0020008981 0.016487857 4278930599
0.0075338259 0.0082249753 0.011080011 4278672283
-0.0067643896 0.0009521693 0.01543044 4280635784
-0.0049825832 0.0017675329 0.014661905 4278996388
0.00092514604 0.0011121891 0.015005521 4279587223
0.0031505227 -0.00039811991 0.016222656 4279127458
0.0062189922 0.0035588015 0.012703872 4278473128
-0.0088629015 0.00014980137 0.013738872 4283059558
-0.0068049282 -0.00058824942 0.014293301 4280831369
-0.0050231814 0.00022929162 0.013526383 4279323809
0.0050780848 0.0074664652 0.0069539631 4279195544
-0.0067074671 -0.0029083295 0.013815467 4283058794
-0.0049230754 -0.0020885291 0.013050031 4280503183
-0.0031442791 -0.0012687659 0.012284966 4280700299
-0.0010788143 -0.0020085005 0.012837622 4280764559
0.000843063 -0.0019683456 0.012731539 4279255723
0.0027647763 -0.0019280864 0.012625545 4279191973
0.0037603974 0.0027898643 0.0085703852 4279324319
0.004409112 0.0090663172 0.0032009457 4279523729
0.0027236044 -0.0034679798 0.011488842 4282076534
0.0037194639 0.0012630578 0.0074433489 4279849109
-0.039523017 -0.019771354 -0.013790355 4283058794
0.019296363 -0.021599429 -0.039236441 4281946483
-0.029885922 0.012345934 0.041695151 4285164329
-0.028136376 0.013876276 0.040211897 4285885723
-0.026180062 0.013915265 0.040102523 4285884958
-0.023665722 0.01022663 0.043425445 4285950749
-0.031887099 0.01073412 0.040643718 4284966703
-0.030648954 0.016008306 0.035736941 4285361443
-0.028918535 0.017542619 0.034258053 4286082839
-0.027199149 0.019076847 0.032779802 4285820189
-0.024932928 0.016872272 0.034726381 4286147864
-0.022536177 0.013920479 0.037356801 4286083094
-0.019766659 0.0087263472 0.04203964 4285492258
-0.017557859 0.0072709695 0.043298598 4285426978
-0.032529898 0.013662318 0.035379801 4285492514
-0.030894548 0.015951164 0.033219907 4285820954
-0.02916963 0.017489795 0.031744525 4285557283
-0.027346946 0.018278308 0.03095323 4285622820
-0.025306802 0.017566986 0.031528704 4285754398
-0.023147076 0.016105991 0.032787051 4285754654
-0.02085961 0.01389554 0.034727778 4285558558
-0.018795315 0.01318505 0.035302158 4285558814
-0.016725715 0.01247479 0.035876337 4285427488
-0.014525671 0.011015104 0.037132729 4285427488
-0.012698509 0.011804495 0.036341764 4285492513
-0.010876965 0.012593877 0.035551194 4285753378
-0.0089277066 0.012633774 0.035442989 4285687589
-0.032870408 0.014360096 0.032182034 4285558303
-0.031139951 0.015903108 0.030709503 4285952024
-0.029526517 0.018198159 0.02855582 4286017303
-0.027712099 0.01898871 0.027766619 4285885979
-0.025791798 0.019027159 0.027659385 4285952023
-0.023643248 0.017561629 0.028915092 4285952024
-0.021483913 0.016096435 0.030170282 4285558303
-0.019553099 0.016135439 0.030062715 4285558813
-0.01750005 0.01542262 0.030636242 4285558813
-0.015566811 0.015461907 0.030528715 4285624093
-0.01376155 0.01625308 0.029740548 4286082073
-0.012092441 0.017795932 0.028272312 4286146844
-0.010167856 0.017835349 0.028165488 4286081309
-0.0075634196 0.014116844 0.031459872 4285490729
-0.001283139 0.0014213156 0.042803805 4285164074
-0.035041619 0.014278593 0.029782956 4285427743
-0.033411585 0.016580302 0.02763303 4285558813
-0.031385131 0.015864033 0.028205812 4285689374
-0.029777139 0.018165611 0.026057269 4286083604
-0.027859587 0.018203899 0.02595011 4286083604
-0.025830746 0.017487977 0.026523052 4286149393
-0.02356831 0.015263867 0.028455362 4285755164
-0.021757089 0.016056873 0.027668208 4285558303
-0.019951448 0.016849905 0.026881458 4285558303
-0.017906785 0.016134806 0.027453817 4285689374
-0.015981857 0.01617391 0.027346745 4285886234
-0.01444038 0.018475048 0.025202572 4285622818
-0.012654439 0.019268107 0.024417242 4285622819
-0.01074088 0.019307315 0.024311047 4285820188
-0.0084196478 0.017085258 0.026240794 4285623328
-0.005943574 0.01410987 0.028848149 4285492768
-0.0028802976 0.0081203673 0.034167588 4285295653
0.00037052482 0.0013781954 0.040162869 4284967213
-0.035470922 0.015757848 0.02592383 4285427744
-0.033650909 0.016552601 0.025137268 4285558814
-0.031733278 0.016590677 0.025029944 4285689629
-0.029921647 0.017385442 0.024244059 4285623584
-0.028115593 0.01818021 0.02345857 4285623329
-0.025981054 0.016705591 0.024708537 4285558048
-0.023949802 0.015987668 0.025279827 4285558304
-0.022030041 0.016026359 0.025172807 4285558303
-0.020349484 0.017577812 0.023710055 4285558304
-0.018313188 0.016860366 0.024281265 4285623583
-0.016396578 0.016899344 0.024174685 4286018324
-0.014735535 0.018450685 0.022713302 4285885978
-0.013085552 0.020001922 0.021252617 4285622818
-0.011047143 0.019284952 0.021824038 4285754399
-0.0088675581 0.017812233 0.023072226 4286083604
-0.0065386295 0.01558388 0.024996776 4285295398
-0.003628172 0.01033254 0.029627239 4284900913
-0.037524514 0.01494034 0.024217803 4285031984
-0.035802148 0.016496029 0.022755306 4285820953
-0.033990402 0.017292764 0.021970868 4286082584
-0.031874869 0.015813045 0.023218403 4285951513
-0.030066062 0.016609948 0.022434302 4286017559
-0.028262816 0.01740687 0.021650603 4285623584
-0.026131257 0.015927825 0.022897502 4285558304
-0.024102941 0.0152077 0.023467295 4285558559
-0.022186052 0.015246347 0.02336045 4285558304
-0.02050823 0.016802099 0.021901147 4285558304
-0.018474858 0.016082417 0.022470912 4285623584
-0.016686045 0.016879726 0.021688521 4285755419
-0.014902823 0.017677028 0.020906519 4286083348
-0.0131252 0.018474322 0.020124905 4285951514
-0.011220083 0.018513396 0.020019207 4286082328
-0.0091793016 0.017794412 0.020588966 4285754653
-0.0065790191 0.014043212 0.023859441 4285164074
-0.037752308 0.014926478 0.021731542 4285623839
-0.036035437 0.016486447 0.0202726 4285820699
-0.034229245 0.017285317 0.019490059 4285885979
-0.032325547 0.017323144 0.019383539 4286017559
-0.030421939 0.017361064 0.019277092 4286149139
-0.028626975 0.018160015 0.018495478 4285689374
-0.026392601 0.015915547 0.020414786 4285623584
-0.024369936 0.015193161 0.020983305 4285558558
-0.022458639 0.015231702 0.020876776 4285624094
-0.020786297 0.016791716 0.019421011 4285623583
-0.018880729 0.016830385 0.019314976 4285689629
-0.016975287 0.016869154 0.019209029 4285689374
-0.014814805 0.01538701 0.0204516 4285623584
-0.013164859 0.016947005 0.018997399 4285688864
-0.011259887 0.016986102 0.018891728 4285558304
-0.0092192814 0.016264942 0.019459892 4285492769
-0.0064809173 0.011742543 0.023395928 4285361444
-0.0035687909 0.0064606555 0.028003745 4285098538
-0.039610166 0.012593919 0.021382634 4285098539
-0.038074721 0.015685063 0.018577496 4285886489
-0.036268525 0.016485937 0.017796511 4285688863
-0.034467869 0.017286845 0.017015949 4285491238
-0.032569773 0.017324552 0.016909733 4285622820
-0.030671764 0.01736239 0.016803624 4285754654
-0.028773885 0.017400332 0.0166976 4285754909
-0.026764926 0.016675368 0.01726518 4285623584
-0.024636708 0.015187621 0.018505951 4285558559
-0.022847652 0.015989028 0.017726503 4285623838
-0.021183524 0.017553251 0.016274432 4285689118
-0.01940836 0.018354569 0.015495976 4286149394
-0.017389148 0.017630383 0.016063403 4286148884
-0.015109535 0.015380971 0.017975852 4285754653
-0.013204537 0.015419971 0.017870106 4285558049
-0.011299688 0.015459064 0.017764442 4285558813
-0.0089878514 0.013210682 0.0196753 4285493279
-0.006244503 0.0086753163 0.02360139 4285230119
-0.0398321 0.012591679 0.018904559 4285295909
-0.038207274 0.014925916 0.016778996 4285952279
-0.036501389 0.016494427 0.015327151 4286083093
-0.034606066 0.016531974 0.015221016 4285820188
-0.032916732 0.018100426 0.013770222 4285754654
-0.030921381 0.017372783 0.014336783 4286149138
-0.029029094 0.017410625 0.014231077 4285689373
-0.026803527 0.01515292 0.0161412 4285623839
-0.025017139 0.015956305 0.015363482 4285624093
-0.023003176 0.015229516 0.015929354 4285689628
-0.021461114 0.017563146 0.013809198 4285820699
-0.019569445 0.01760155 0.013703953 4286083348
-0.017677914 0.017640069 0.013598802 4286017559
-0.015659034 0.016913742 0.014164749 4286083094
-0.013765063 0.016952548 0.01405964 4285689884
-0.011605386 0.015461903 0.015295972 4285558813
-0.0090279765 0.011677397 0.018543415 4285427488
-0.0061467066 0.0063642282 0.023130264 4285230119
-0.040053818 0.0125985 0.016433097 4285295908
-0.038434424 0.014939129 0.014312726 4285427744
-0.036636598 0.015744276 0.013535423 4285952534
-0.034844313 0.01654939 0.012758564 4286083094
-0.032954689 0.016586963 0.01265285 4285951513
-0.030959535 0.015857138 0.013217807 4286018068
-0.028959043 0.015127495 0.013782597 4285623839
-0.027064282 0.015165526 0.013676859 4285558558
-0.025055829 0.014436306 0.014241328 4285624094
-0.023158595 0.014474623 0.014135624 4285689628
-0.021380723 0.015280247 0.013360159 4285754653
-0.019608445 0.01608593 0.012585061 4285491493
-0.017841753 0.016891576 0.0118104 4285557283
-0.016080648 0.017697219 0.011036133 4285820188
-0.014064841 0.016968835 0.011600699 4285624094
-0.011777978 0.014706727 0.013503239 4285427489
-0.0089324974 0.0093774796 0.018080644 4285229864
-0.0059107244 0.0032822564 0.023324847 4285031984
-0.039999515 0.01030439 0.015977608 4285360678
-0.038282722 0.011881765 0.014531477 4285361189
-0.036576927 0.013459019 0.01308611 4285426469
-0.034982238 0.015806004 0.010972109 4285426468
-0.033095486 0.015843522 0.010866556 4285492258
-0.031103257 0.015111465 0.011430068 4285558558
-0.029105697 0.014379632 0.011993375 4285624349
-0.027213804 0.014417607 0.011887798 4285624093
-0.025322031 0.014455689 0.011782307 4285558303
-0.023430374 0.014493886 0.011676911 4285755419
-0.021658048 0.015301611 0.010903394 4286149139
-0.019891303 0.016109325 0.01013026 4285557283
-0.018005487 0.01614774 0.010025438 4285491748
-0.016119823 0.016186282 0.00992072 4285623329
-0.014234304 0.016224906 0.009816071 4285755418
-0.011817638 0.013187058 0.012381399 4285361443
-0.0089727007 0.0078425407 0.016947538 4285164074
-0.0060897842 0.002498867 0.021511693 4285098028
-0.039945319 0.0080062058 0.015519035 4285425703
-0.038131237 0.0088158958 0.014744022 4285491748
-0.036517367 0.011169693 0.012633711 4285622819
-0.034919936 0.013523288 0.010524414 4285689374
-0.033030603 0.013560882 0.010418734 4285492514
-0.031141367 0.013598567 0.010313131 4285492514
-0.029252231 0.01363636 0.010207614 4285558558
-0.027474176 0.014446035 0.009435134 4285624349
-0.025587995 0.014484026 0.0093299691 4285624348
-0.02393477 0.016065411 0.0078913718 4285623838
-0.022054281 0.01610351 0.0077866912 4286018323
-0.02041766 0.017684836 0.0063491482 4286017304
-0.018418301 0.016951557 0.0069112517 4285952279
-0.016413629 0.016218457 0.0074731931 4286083604
-0.014273614 0.014714241 0.0087008681 4285755163
-0.01172455 0.010896346 0.011925607 4285361188
-0.0088774078 0.0055365711 0.016480375 4285492514
-0.039707586 0.0041553229 0.016390506 4285425194
-0.037885424 0.0049673468 0.015616647 4285425703
-0.036263347 0.0073278267 0.013510776 4285622309
-0.034557726 0.0089139659 0.01207192 4285622309
-0.032760371 0.0097258724 0.011299727 4285622564
-0.030863091 0.0097637214 0.011193676 4285885724
-0.029074121 0.010575695 0.01042213 4285754399
-0.027401611 0.012161672 0.0089854915 4285557539
-0.025626484 0.012973595 0.0082148798 4285492004
