# .PCD v0.7 - Point Cloud Data file format
VERSION 0.7
FIELDS x y z rgba
SIZE 4 4 4 4
TYPE F F F U
COUNT 1 1 1 1
WIDTH 962
HEIGHT 1
VIEWPOINT 0 0 0 1 0 0 0
POINTS 962
DATA ascii
-0.0031958967 0.015580093 0.024123076 4281112123
-0.00061027706 0.012573602 0.02667111 4281045313
0.0027027428 0.0065158736 0.031885784 4281242173
0.0065966174 -0.0018294957 0.039098278 4281438269
0.010731995 -0.0109361 0.046973653 4282613054
-0.02946363 0.0119029 0.026033454 4280849474
-0.028107453 0.015011841 0.023239277 4280458559
-0.026773226 0.018120395 0.02044661 4280720699
-0.025178906 0.019696506 0.018990727 4281370948
-0.023020666 0.01820877 0.020205474 4280979014
-0.020851698 0.016721351 0.021419648 4280587079
-0.018522851 0.014468534 0.023300281 4280914499
-0.016785428 0.015279146 0.022512227 4280914498
-0.014899001 0.015324036 0.022391353 4281045314
-0.013012767 0.01536903 0.022270571 4280979778
-0.011126697 0.015414117 0.022149872 4280654654
-0.0092408285 0.015459293 0.022029255 4278375719
-0.0059743598 0.017845942 0.019790607 4279613999
-0.0015256032 0.014875701 0.022213167 4280916028
0.0019495636 0.0080350395 0.028081208 4281437504
0.0060108453 -0.0010996237 0.035941839 4281502784
0.0099553019 -0.009467571 0.043133326 4283402788
-0.031016842 0.0080336761 0.027028918 4281888088
-0.03017246 0.014225164 0.021573698 4280979778
-0.027094364 0.018154742 0.018000197 4279353133
-0.022921938 0.015938533 0.019757371 4279741754
-0.020896915 0.015214922 0.020302456 4281174853
-0.01871749 0.013723547 0.021512758 4280914244
-0.017134696 0.015304176 0.02006118 4280653634
-0.015253842 0.015348954 0.019940682 4280980034
-0.013687745 0.01692945 0.018490296 4281044804
-0.011652678 0.016206523 0.019035146 4280980289
-0.0097750947 0.016251521 0.018915072 4280328764
-0.006188646 0.01710934 0.018010853 4278895663
-0.0039725602 0.015619585 0.019219439 4278502964
-0.0015722141 0.013362845 0.021091303 4281307708
0.0022549108 0.0049678832 0.028272361 4281242684
0.0061416402 -0.0034255069 0.035449632 4282353463
-0.031711794 0.010360904 0.022571724 4281630028
-0.030349799 0.01348733 0.019790083 4281176128
-0.028874286 0.015842883 0.017674688 4278503983
-0.027277093 0.017427685 0.016225042 4278829619
-0.023397788 0.016745431 0.016649254 4280784449
-0.021381125 0.016019451 0.01719326 4280979524
-0.019359186 0.015293704 0.017737009 4281044804
-0.017483726 0.015338248 0.017616775 4280979779
-0.015762933 0.016152946 0.016833119 4281045058
-0.01389055 0.016197627 0.016713237 4281111358
-0.012018338 0.016242413 0.016593449 4280850238
-0.0099836439 0.015517468 0.017136749 4281436740
-0.0081090778 0.015562484 0.01701694 4280522308
-0.0062347054 0.015607616 0.016897228 4280065603
-0.004189685 0.014883148 0.017440114 4280457283
-0.0012717322 0.010311067 0.021294298 4280915519
0.002383709 0.0026618168 0.027795063 4281373499
0.0062722936 -0.0057554608 0.034954414 4282291243
-0.032276187 0.011937415 0.01879438 4280850238
-0.030527007 0.012754103 0.018009886 4280264503
-0.029054165 0.015116135 0.015899533 4281371203
-0.027321599 0.015932666 0.01511628 4281566789
-0.025735453 0.017521722 0.013670629 4281240899
-0.023442622 0.015248241 0.015538905 4280980288
-0.021572411 0.015292482 0.015418872 4280980288
-0.019553386 0.014564482 0.015961183 4280980544
-0.017984197 0.01615352 0.014516976 4280915264
-0.016117193 0.016197989 0.014397377 4280849729
-0.014407523 0.017014703 0.013616135 4280588864
-0.0083203465 0.014832942 0.015242267 4280590393
-0.0064487979 0.01487801 0.015122743 4280915008
-0.0042359382 0.013379483 0.016325062 4280850748
-0.0011450201 0.0080226064 0.02083027 4281047863
0.0028647408 -0.0011917725 0.028635798 4281831478
-0.033821028 0.0080627985 0.019785076 4282152269
-0.032710209 0.012756666 0.015692033 4280915009
-0.029233906 0.014394009 0.014127802 4279089208
-0.027780205 0.016762225 0.012023617 4279806778
-0.02620222 0.018355427 0.010581788 4278895408
-0.02420485 0.017624555 0.011123732 4279026224
-0.022055987 0.016119326 0.012326228 4280785214
-0.020194247 0.016163478 0.012206821 4280849984
-0.018332645 0.016207723 0.012087496 4280720189
-0.016625568 0.01702646 0.011307972 4280850493
-0.014609955 0.016296523 0.011849118 4279873334
-0.010887958 0.016385691 0.01161107 4278966809
-0.0069987103 0.015701117 0.012032821 4281372223
-0.0046235621 0.013424112 0.013891667 4280785978
-0.0010184646 0.0057300255 0.020363193 4281243448
0.0029931068 -0.0035104044 0.028149189 4281769003
-0.034246728 0.0088824574 0.016682427 4281825868
-0.03288424 0.012034928 0.013920125 4280978504
-0.031146094 0.01285574 0.013139602 4281044294
-0.029413529 0.013676526 0.012359517 4279219769
-0.027824525 0.015274281 0.010920102 4279024184
-0.024392765 0.016915584 0.0093624583 4280394044
-0.022393022 0.016182696 0.0099027082 4280849984
-0.020387992 0.01545004 0.0104427 4280785213
-0.018529244 0.015494233 0.010323572 4280719933
-0.016824953 0.016315086 0.0095458487 4279613488
-0.014969252 0.016359394 0.0094270529 4281372224
-0.01311373 0.016403807 0.0093083484 4281567299
-0.011095926 0.015671952 0.0098478934 4280851769
-0.0092380345 0.015716618 0.0097291851 4280135219
-0.0075482205 0.016537605 0.0089527424 4281046589
-0.0048403069 0.012701483 0.012122589 4281046843
-0.0012387037 0.0049855597 0.018578148 4281438523
0.0029452816 -0.0050571281 0.027002227 4281770024
-0.034291018 0.0073773153 0.015566116 4281303373
-0.032928415 0.010538492 0.012810283 4280587334
-0.031190339 0.011361478 0.012031385 4281499979
-0.029457852 0.012184439 0.011252924 4281761609
-0.027868845 0.013786549 0.0098167462 4281696328
-0.026009623 0.013830347 0.0096972818 4281240134
-0.024437215 0.015432237 0.0082623772 4280587844
-0.022583738 0.015476102 0.0081434343 4280588609
-0.020730402 0.015520072 0.0080245798 4280849984
-0.018725716 0.01478534 0.0085630566 4281176128
-0.017024219 0.015608309 0.007787134 4278636074
-0.015171356 0.015652554 0.0076685245 4279352113
-0.013318673 0.015696919 0.0075500174 4280981564
-0.01146616 0.015741346 0.0074315737 4281177149
-0.009944059 0.017342886 0.0060004438 4280005679
-0.0077616647 0.015830504 0.0071949507 4280786744
-0.0048863739 0.011205101 0.011012943 4281176638
-0.00076572597 0.0011325125 0.019419946 4281633343
-0.034208361 0.0050908644 0.015107187 4280911693
-0.032713242 0.0074793287 0.013014678 4280129864
-0.031102195 0.0090860501 0.011580209 4280130629
-0.029367048 0.0099112578 0.010803202 4279674689
-0.027499646 0.0099551398 0.010683131 4279609409
-0.025632385 0.0099991243 0.010563149 4281044804
-0.024051841 0.011605626 0.0091309361 4281501764
-0.022336319 0.012430793 0.0083555011 4281502274
-0.020626385 0.013255941 0.007580515 4281437760
-0.018770613 0.013300071 0.0074615795 4280718403
-0.017069176 0.014125226 0.0066872919 4281110593
-0.015530214 0.015731236 0.0052581085 4278505003
-0.013683088 0.015775451 0.0051399465 4279419689
-0.009989351 0.015864162 0.0049038711 4279418669
-0.0078072175 0.014347447 0.0060951719 4281046844
-0.0044209808 0.0073673502 0.01186674 4281177149
-0.00063956529 -0.0011723917 0.018943731 4281374263
-0.034125824 0.0028003063 0.014645214 4281301589
-0.032498326 0.0044116694 0.01321285 4281042508
-0.030881841 0.0060229115 0.011781223 4280390729
-0.02900628 0.0060668848 0.011660554 4280391494
-0.027130846 0.0061109625 0.011539973 4279935044
-0.025255553 0.0061551463 0.011419483 4279998539
-0.023810051 0.0085494909 0.0093354844 4279933259
-0.022089146 0.0093769599 0.0085613243 4280066878
-0.020522512 0.010987693 0.0071333954 4280979269
-0.018815517 0.011815039 0.0063602831 4281696328
-0.01696001 0.01185927 0.0062414464 4282152779
-0.015261516 0.012686627 0.0054690326 4282218058
-0.013568617 0.013514003 0.0046970183 4281697094
-0.01204358 0.015124174 0.0032721548 4280913988
-0.010199636 0.015168516 0.0031543444 4280849729
-0.0075173527 0.011299049 0.0063014738 4280719933
-0.0039559826 0.003516797 0.01271097 4281373244
-0.00034041703 -0.0042640623 0.01911707 4283005243
-0.034170244 0.0012915879 0.013526251 4281039959
-0.032672293 0.0036931355 0.011443321 4280651083
-0.030661751 0.0029512849 0.011976019 4280390474
-0.028915856 0.0037810896 0.011201555 4280586568
-0.027037844 0.0038252361 0.011080814 4280130374
-0.025159962 0.0038694758 0.010960153 4279934789
-0.023568526 0.0054849312 0.0095337108 4280325703
-0.021842245 0.0063147172 0.008760836 4280065348
-0.020270146 0.0079298746 0.0073358263 4280261189
-0.018406473 0.0079742111 0.0072164 4280129353
-0.016542934 0.0080186296 0.0070970464 4279934788
-0.014993086 0.0096336026 0.0056736441 4279805504
-0.013294786 0.010463223 0.0049029347 4281632323
-0.01176431 0.012077941 0.003480928 4282479689
-0.0097501129 0.011337357 0.004014344 4281826889
-0.007395409 0.0090271551 0.0058501633 4281567044
-0.0038320944 0.0012231935 0.012243347 4282024259
-0.034214646 -0.00021689385 0.012407463 4280583509
-0.032457694 0.00061514787 0.011633759 4280453968
-0.030706305 0.001447143 0.010860473 4280129609
-0.028690651 0.00070335902 0.011391315 4280260168
-0.026807319 0.0007476192 0.011270225 4280260168
-0.024924133 0.00079198368 0.011149226 4280260168
-0.023470338 0.0031996313 0.0090743676 4280130374
-0.021741409 0.00403166 0.0083029466 4280585803
-0.020166591 0.00565123 0.0068809981 4280455244
-0.018149056 0.0049081072 0.0074121789 4280389709
-0.016280212 0.0049526542 0.0072924853 4279932748
-0.014568225 0.0057846885 0.006522452 4279802188
-0.012861818 0.0066166855 0.0057528471 4279803208
-0.011161029 0.00744869 0.0049836333 4279997518
-0.0093010068 0.007493427 0.004864804 4279607624
-0.006770879 0.0043897182 0.0073450403 4280846669
-0.0040488914 0.00049956702 0.010473534 4281305158
-0.03552562 -0.005720716 0.014665093 4282018138
-0.034259051 -0.0017251112 0.011288873 4280190553
-0.032502171 -0.00089091808 0.010516774 4280322899
-0.03061872 -0.00084686838 0.010395517 4280062799
-0.028870258 -1.2641773e-05 0.009624131 4279606094
-0.026989784 3.1556934e-05 0.0095032295 4280064073
-0.025249749 0.00086581334 0.0087325564 4280259658
-0.02365832 0.0024899747 0.0073125907 4280456263
-0.021786433 0.0025342871 0.0071924748 4280716363
-0.019914687 0.0025787037 0.0070724487 4280585294
-0.017891921 0.0018335339 0.0076016756 4279998539
-0.016325556 0.0034574606 0.0061836625 4280259403
-0.014613621 0.0042916723 0.0054152524 4279736908
-0.012747936 0.0043363404 0.0052959081 4280063563
-0.010882407 0.0043811109 0.0051766541 4279802954
-0.0090170577 0.0044259746 0.0050574839 4279606093
-0.0066493899 0.0021030214 0.0068827528 4280322899
-0.034556698 -0.0016482119 0.0088722017 4279404643
-0.032805339 -0.00081197359 0.0081020752 4278557278
-0.030795403 -0.0015603658 0.0086299563 4279800149
-0.02891494 -0.0015162863 0.0085089663 4279408979
-0.027034607 -0.0014720783 0.0083880816 4279669843
-0.025434881 0.00015650876 0.0069707315 4280062799
-0.023703214 0.00099284388 0.0062022894 4280127823
-0.02197713 0.001829166 0.0054342938 4280258639
-0.020108223 0.0018734969 0.0053144363 4280258894
-0.018088371 0.0011260975 0.0058422447 4280128844
-0.016370885 0.001962496 0.0050750095 4280194124
-0.014502451 0.0020071529 0.004955431 4280390474
-0.012793437 0.0028435346 0.0041888752 4279346249
-0.010766037 0.0020967051 0.0047164913 4279802698
-0.0088980868 0.0021416377 0.0045971596 4279933258
-0.0066954419 0.00060368888 0.0057709077 4279865429
-0.02389098 0.0002901908 0.0044457046 4279668569
-0.022167671 0.0011285935 0.0036794841 4279994968
-0.020301633 0.0011728853 0.0035598311 4279929689
-0.018284678 0.00042322278 0.0040861936 4279864919
-0.016416207 0.00046776049 0.0039665238 4280065603
-0.014704384 0.0013063084 0.0032013501 4279477064
-0.012998141 0.0021448191 0.0024366053 4279869253
-0.011297509 0.0029833261 0.0016722423 4280064584
-0.0092731714 0.0022342894 0.002198542 4279147858
-0.0070762113 0.00069186464 0.0033694254 4278948449
-0.018329874 -0.0010712855 0.0029778681 4279274849
-0.016615227 -0.00023059547 0.0022140574 4279412293
-0.01474975 -0.00018603913 0.0020946469 4279021634
-0.013202712 0.0014507193 0.00068768486 4279346759
-0.011342987 0.0014953297 0.00056878477 4279737928
-0.0093188211 0.00074408948 0.0010934584 4278689114
-0.013088964 -0.00083533488 0.00022658706 4278426974
-0.011226639 -0.00079065375 0.00010752492 4279341658
-0.0090354383 -0.0023420304 0.0012722206 4279536735
0.010339126 -0.0037885606 -0.0076342579 4284573748
-0.0018655956 -0.0025415216 0.010530495 4281619319
-0.0022580326 -0.0024711899 0.008116615 4279850129
-0.00037445128 -0.0024255365 0.0079965405 4279585183
0.0015089512 -0.0023797899 0.0078765498 4278863279
0.0033921674 -0.0023339521 0.007756643 4279383223
0.0056426823 -0.0038702767 0.0089277616 4281023129
0.0080902949 -0.0061971853 0.01074355 4281942913
-0.037272364 -0.010391802 0.01383063 4281618553
-0.035107214 2.6904047e-05 0.0051670913 4279062944
-0.033366814 0.00086507015 0.0043992954 4279979924
-0.031367965 0.00011423416 0.0049262671 4279520158
-0.029229078 -0.0014307778 0.0060999747 4278472619
-0.0046984479 -0.001643857 0.0051844455 4279197839
-0.0024773628 -0.0031855181 0.0063539241 4279126949
-0.00059660524 -0.0031399261 0.0062340358 4279061669
0.0028024465 -0.0014618691 0.0047064153 4278465478
0.0050445646 -0.003002679 0.0058748075 4278333134
0.007297352 -0.0045431517 0.0070425784 4279517609
0.0095608681 -0.0060833311 0.0082097668 4279847324
0.01030045 -0.0012786537 0.0042295353 4281812353
-0.037680078 -0.0095237065 0.010762475 4280242573
-0.036649533 -0.0039016455 0.0061175255 4279259549
-0.031544175 -0.00058354065 0.0031723669 4278534584
-0.029408269 -0.0021330062 0.0043430044 4280174998
-0.027673759 -0.0012924708 0.003577454 4279064218
-0.025804706 -0.0012484249 0.003457373 4278346649
-0.0050847009 -0.0015533715 0.0027850536 4279457428
-0.0030420274 -0.0023038276 0.0033087218 4279126183
-0.0011695325 -0.0022584498 0.0031893486 4279126439
0.00052461028 -0.0014174301 0.0024274625 4279388068
0.0023940355 -0.0013719499 0.0023084157 4279387303
0.0087573752 -0.0044163261 0.0045193108 4279192228
0.0098699182 -0.0011893231 0.0018329076 4280111249
-0.038208388 -0.0078432541 0.0070595201 4279193503
-0.037188433 -0.0022062343 0.0024265661 4278930853
-0.029721927 -0.0020318702 0.0019456767 4278339508
-0.02398058 -0.0026985686 0.0022291807 4278406319
-0.022111926 -0.0026543494 0.0021092589 4278472363
-0.020688016 -0.00021460094 6.0733408e-05 4278538408
-0.0051307753 -0.0030498952 0.0016753008 4279063454
-0.0032609329 -0.0030046832 0.0015560216 4278864044
0.00012202561 -0.001318533 3.5738572e-05 4279321769
0.0021667331 -0.0020708703 0.00055784173 4280371859
0.0040331632 -0.0020253975 0.00043903571 4279585439
0.0062718987 -0.0035749264 0.0016012164 4278469814
0.0079544485 -0.0027317051 0.00084191561 4279060648
0.009439677 -0.0010911357 -0.00055707991 4279914898
-0.038615245 -0.006946465 0.0040127197 4278865828
-0.035491906 -0.0028534867 0.00055710226 4279324319
-0.03362808 -0.002810007 0.00043702684 4278931363
-0.031632558 -0.0035674535 0.0009593498 4278863789
-0.029900782 -0.0027227569 0.00019711908 4278929834
-0.028037306 -0.0026789736 7.7297911e-05 4278930343
-0.02603399 -0.0034359153 0.00059935823 4278800039
-0.024025358 -0.0041926 0.0011211764 4278932129
-0.022156838 -0.0041483846 0.001001263 4278799273
-0.020732854 -0.0017021168 -0.0010424191 4279716764
-0.019174471 -5.6777149e-05 -0.0024438491 4278273973
-0.017627113 0.0015884656 -0.0038445238 4280569738
-0.015621901 0.00083214045 -0.0033220854 4280504203
-0.0073810369 -0.0029909965 -0.00059507508 4278410909
-0.0056864619 -0.0021458995 -0.0013539642 4279194524
-0.0038248822 -0.0021008905 -0.001472719 4278603178
-0.00010224432 -0.0020106174 -0.0017099977 4278401219
0.0017588362 -0.0019653812 -0.001828542 4278598333
0.0038031936 -0.0027198326 -0.001307983 4278400198
0.0073410049 -0.0018291771 -0.0021837205 4279127713
0.0090097338 -0.00098400936 -0.0029405169 4280504714
-0.040536731 -0.0084901871 0.0030212239 4280177293
-0.03926345 -0.0044294707 -0.00030709896 4278931364
-0.03380109 -0.0034961384 -0.0013085464 4279062433
-0.031808481 -0.0042558704 -0.00078761298 4278665399
-0.02835606 -0.0025622454 -0.0023080884 4278995878
-0.026358381 -0.0033214986 -0.0017872863 4278538409
-0.024498008 -0.0032775924 -0.0019067628 4278865319
-0.022783127 -0.0024306793 -0.002665963 4278799784
-0.019520871 6.5781176e-05 -0.0048226342 4278663359
-0.01767192 0.00010982342 -0.004941076 4278269638
-0.013815515 -0.00060438737 -0.0045386944 4279256999
-0.0077610165 -0.002878001 -0.0029782318 4279258783
-0.005902119 -0.0028331578 -0.0030968897 4278800038
-0.0042158887 -0.0019860063 -0.0038535679 4278799783
-0.0023600161 -0.0019410625 -0.0039719027 4278668968
-0.00032635033 -0.0026981346 -0.0034524221 4278537898
0.0054340065 -0.0033643227 -0.003170019 4278340784
0.0069167912 -0.0017151963 -0.0045625232 4279390364
0.0085800961 -0.00086805224 -0.0053173322 4281621104
-0.041881207 -0.01406231 0.0052307742 4282339948
-0.040934693 -0.0075731417 -1.1305325e-05 4278866083
-0.039669394 -0.0035017636 -0.003331041 4278735014
-0.03397394 -0.0041777547 -0.0030506998 4278272189
-0.028674539 -0.002436664 -0.0046868343 4278537898
-0.026542656 -0.0040033907 -0.0035287086 4278538409
-0.024827689 -0.0031544548 -0.0042864103 4278799784
-0.021118496 -0.003066605 -0.0045243911 4278930599
-0.019414812 -0.0022176169 -0.0052811299 4279062689
-0.017716713 -0.001368627 -0.0060374867 4278339253
-0.016180344 0.00028508157 -0.0074308868 4278534838
-0.014019497 -0.0012802724 -0.0062741125 4278930854
-0.012009494 -0.0020406581 -0.0057550836 4278800293
-0.0098299161 -0.0036053658 -0.0045993589 4278603179
-0.0083077326 -0.0019516423 -0.0059915893 4278800038
-0.006626837 -0.0011024885 -0.0067464188 4278603179
-0.0049515367 -0.0002534464 -0.0075007956 4278537898
-0.00072818995 -0.0025768746 -0.0058275647 4278931618
0.0013051406 -0.0033360589 -0.0053096265 4279128480
0.0029770732 -0.0024867672 -0.0060635433 4278735269
0.0048294514 -0.0024416 -0.0061814263 4278472108
0.0064928904 -0.0015923716 -0.0069346968 4279390874
-0.041214239 -0.0074507454 -0.0023956038 4278669224
-0.039712731 -0.004984214 -0.0044305474 4278735014
-0.037980728 -0.004133461 -0.0051882882 4279063709
-0.036128089 -0.0040903911 -0.0053077554 4278800548
-0.034146659 -0.0048548048 -0.0047894651 4279454878
-0.032554757 -0.0031963363 -0.0061839428 4278996134
-0.030839507 -0.0023455173 -0.0069402661 4278866083
-0.029129811 -0.0014947355 -0.007696161 4278538409
-0.027006336 -0.0030660331 -0.0065407492 4278603944
-0.025299601 -0.0022151098 -0.0072962996 4278603433
-0.021459032 -0.002934806 -0.0068967808 4279060649
-0.019760847 -0.0020838082 -0.0076515749 4279259548
-0.017914854 -0.0020398553 -0.0077698398 4278734759
-0.0162251 -0.001188837 -0.008523928 4278799784
-0.014064498 -0.0027585365 -0.0073703658 4278341294
-0.012216218 -0.0027142465 -0.0074885692 4278866084
-0.010203846 -0.0034766719 -0.0069712531 4278668714
-0.008687079 -0.0018187016 -0.0083599556 4278471853
-0.0068419799 -0.0017742049 -0.0084777437 4278930089
-0.0033273399 -0.0008784961 -0.0093478225 4278267088
0.00089797378 -0.0032082666 -0.0076794736 4279910818
0.0025644377 -0.0023569167 -0.0084314868 4278669224
0.0044112876 -0.0023118928 -0.0085490253 4278406829
0.0062579885 -0.0022668 -0.0086665004 4279127968
0.008295916 -0.0030278098 -0.0081502218 4281488503
-0.041021708 -0.01055956 -0.0022262987 4280241553
-0.039635379 -0.007276413 -0.0048933187 4279520924
-0.038024131 -0.005613544 -0.0062860288 4279585694
-0.036423858 -0.0039507579 -0.007677976 4279258784
-0.034319226 -0.0055272942 -0.0065248488 4279521178
-0.032730054 -0.0038645454 -0.0079159178 4280111249
-0.030749038 -0.0046309521 -0.0073990747 4279522198
-0.02917368 -0.0029683597 -0.008789055 4278735778
-0.027190182 -0.0037344974 -0.0082722176 4278604708
-0.025628656 -0.0020720027 -0.0096611381 4278539173
-0.020106576 -0.0019411333 -0.010015372 4278731188
-0.018266149 -0.0018973257 -0.010133289 4278730933
-0.014426962 -0.0026184991 -0.0097347554 4278799273
-0.012745693 -0.0017653443 -0.010486562 4278930854
-0.010741659 -0.0025301035 -0.0099703763 4278734249
-0.0090661198 -0.0016769171 -0.010721691 4278471853
-0.007226564 -0.0016325787 -0.010839142 4278930089
0.0021521226 -0.0022182111 -0.010792792 4278668969
0.0039934516 -0.0021733306 -0.010909986 4278668714
0.0062118843 -0.0037451014 -0.0097626913 4278931109
0.010098636 -0.0044630393 -0.0093655679 4281096824
-0.04247348 -0.015344635 -0.00067147054 4281749624
-0.041183077 -0.011240248 -0.003968698 4279848344
-0.039558139 -0.0095727649 -0.00535917 4279717528
-0.037944183 -0.0079054972 -0.0067488272 4279585439
-0.036089089 -0.0078623621 -0.0068684462 4279192739
-0.034362871 -0.0070072031 -0.0076224376 4278471089
-0.032642219 -0.0061519975 -0.0083760135 4278536623
-0.029354472 -0.003630003 -0.010515697 4279914899
-0.027513523 -0.0035866983 -0.010634031 4280832644
-0.0256727 -0.0035432875 -0.010752277 4280766598
-0.024122182 -0.0018766075 -0.01213726 4279194779
-0.022287052 -0.0018331185 -0.012254981 4278275504
-0.018617168 -0.0017458834 -0.012490205 4278731188
-0.016626477 -0.0025134776 -0.011974964 4278602159
-0.014789157 -0.0024695564 -0.012092546 4279061413
-0.013113372 -0.0016143471 -0.012842447 4278799528
-0.011279061 -0.0015703365 -0.012959715 4278799783
-0.0057769939 -0.0014377721 -0.013311051 4279520923
-0.0039432719 -0.001393415 -0.013428012 4278865828
-0.00027628243 -0.001304511 -0.013661755 4278864043
0.0017401055 -0.0020706374 -0.013147524 4278537643
0.0037617683 -0.0028365217 -0.012633614 4278537899
0.006165795 -0.0052232444 -0.010858769 4278800294
0.0098583475 -0.0051329825 -0.011093592 4279126948
0.011310935 -0.0034671128 -0.012471093 4278403769
0.013151348 -0.0034219548 -0.012588006 4279058863
0.014789477 -0.0025665555 -0.013334613 4280437139
0.016626835 -0.0025213659 -0.013451254 4280045968
0.018464051 -0.0024761204 -0.013567841 4282143089
-0.042632166 -0.016031578 -0.0024187453 4281224068
-0.041108657 -0.013545139 -0.0044406736 4279456663
-0.039481003 -0.011873316 -0.005828063 4279456154
-0.037741072 -0.011015839 -0.0065815253 4279586714
-0.036006667 -0.010158433 -0.0073345155 4279324319
-0.034277808 -0.0093010291 -0.0080870502 4278800039
-0.032423064 -0.0092577226 -0.0082065128 4278668459
-0.030702576 -0.0084002968 -0.0089583471 4278930598
-0.028987642 -0.0075428728 -0.0097098053 4278734248
-0.027278259 -0.0066855196 -0.010460787 4279061668
-0.025574423 -0.0058281934 -0.011211332 4278471853
-0.024021171 -0.0041571595 -0.012593227 4279979669
-0.022331186 -0.0032999068 -0.01334277 4280897668
-0.02019538 -0.0048836228 -0.012197532 4280963459
-0.018355183 -0.004839831 -0.012315443 4279390873
-0.016671032 -0.0039824881 -0.013064371 4278538664
-0.015151046 -0.0023117252 -0.014443815 4278669734
-0.013319418 -0.0022678804 -0.014560986 4278603688
-0.011487931 -0.0022239424 -0.014678078 4278603688
-0.0059943274 -0.0020916462 -0.01502892 4279189933
-0.0041634217 -0.0020473991 -0.015145734 4279323299
-0.0025102869 -0.0011901204 -0.01589217 4279192228
0.0015114397 -0.0027270075 -0.014866401 4278865574
0.0033444464 -0.0026824027 -0.014983119 4278931109
0.0055542886 -0.0042631477 -0.013841726 4279127203
0.007392399 -0.0042182654 -0.013958655 4278668969
0.0092303604 -0.0041733515 -0.014075547 4278405299
0.012507059 -0.0024583843 -0.015565772 4278269638
0.014339097 -0.002413407 -0.015682135 4278927539
0.016375758 -0.003180733 -0.015170455 4279782809
0.018417671 -0.0039477907 -0.014659075 4278931619
0.02109547 -0.0071512004 -0.012265101 4280308874
-0.042790711 -0.016713915 -0.0041626785 4281355394
-0.041152108 -0.015037622 -0.0055476362 4279522198
-0.039403986 -0.014177958 -0.0063000647 4279718803
-0.037415002 -0.01495114 -0.0057889167 4279455898
-0.035672504 -0.014091383 -0.0065408163 4279455388
-0.034192842 -0.011599006 -0.0085547436 4278472108
-0.032466881 -0.010739418 -0.0093054175 4279061924
-0.030880541 -0.0090636248 -0.010686547 4279127714
-0.028894771 -0.0098364092 -0.010174766 4278865574
-0.027182747 -0.0089767873 -0.01092435 4278865319
-0.025334015 -0.0089332173 -0.011043124 4278865319
-0.023775321 -0.0072577391 -0.012422152 4278341548
-0.018246561 -0.0071265455 -0.01277669 4278275758
-0.016559727 -0.0062669804 -0.013524182 4278473129
-0.014878452 -0.0054074526 -0.014271248 4278670499
-0.013041511 -0.0053634923 -0.014388768 4278735268
-0.011368677 -0.0045039337 -0.015135191 4278669734
-0.0098681077 -0.0028291047 -0.016509952 4278669734
0.0010999665 -0.0025639012 -0.017209617 4278865574
0.0029274449 -0.002519466 -0.01732601 4278603944
0.0047547892 -0.0024749488 -0.017442331 4278603434
0.0084089711 -0.0023857225 -0.017674787 4278602159
0.010039248 -0.0015263557 -0.018417802 4279388578
0.01206252 -0.002296282 -0.017907035 4279583144
0.01612483 -0.0038355179 -0.016886329 4279324063
0.018371344 -0.0054193158 -0.015750207 4279194014
0.021258935 -0.0094457883 -0.012736689 4279063454
0.024599202 -0.015100088 -0.0084731858 4280767363
-0.042834129 -0.018210562 -0.0052727386 4281487739
-0.041077845 -0.017348651 -0.0060241651 4279390619
-0.039327074 -0.016486766 -0.0067751575 4279652503
-0.037335567 -0.017262068 -0.0062657939 4279718548
-0.035716284 -0.015581554 -0.0076460317 4279325594
-0.034107987 -0.013901148 -0.0090255272 4278735014
-0.03237937 -0.013039336 -0.0097747631 4278996899
-0.030522276 -0.012995895 -0.009894317 4279127968
-0.028665289 -0.012952348 -0.010013785 4278866339
-0.026947878 -0.012090483 -0.010762064 4278800039
-0.025093827 -0.012046808 -0.010881197 4279062179
-0.023529701 -0.01036681 -0.012257384 4279061924
-0.021828946 -0.0095050428 -0.013004372 4278931108
-0.01983311 -0.010279234 -0.012494536 4279324063
-0.017831929 -0.011053239 -0.011984922 4278668458
-0.015981235 -0.01100916 -0.012103477 4278930599
-0.011413448 -0.0059705097 -0.016222769 4278865828
-0.009912841 -0.0042913519 -0.017594311 4279586713
-0.008253932 -0.003429858 -0.018338084 4279194525
-0.0064285025 -0.0033858735 -0.018454643 4278736289
-0.0011333302 -0.0024361424 -0.019430218 4278603688
0.001054652 -0.004026318 -0.018294053 4278341804
0.0026964024 -0.0031647775 -0.019036388 4278538154
0.0045209378 -0.0031203683 -0.019152559 4278472874
0.0081695169 -0.0030313358 -0.019384703 4279190444
0.0097970739 -0.0021698549 -0.020125996 4279259549
0.012016714 -0.0037588514 -0.018991545 4278931873
0.014045104 -0.0045307837 -0.018482687 4278669224
0.016488053 -0.0069358423 -0.01672459 4278734249
0.018532418 -0.0077072708 -0.016216666 4278865828
0.021632373 -0.012561089 -0.012587009 4278997153
0.024764769 -0.017414132 -0.0089593511 4281029503
-0.04629704 -0.022256311 -0.0042524384 4282730864
-0.044527061 -0.021392142 -0.0050033042 4281750133
-0.04299245 -0.018886041 -0.0070115123 4281161594
-0.04135659 -0.017201174 -0.0083898678 4279456663
-0.039611336 -0.016337255 -0.0091388971 4279915153
-0.037625466 -0.017114868 -0.0086307917 4279915664
-0.035885841 -0.016250845 -0.0093792826 4279783573
-0.034151748 -0.015386823 -0.010127397 4278800293
-0.032423194 -0.01452286 -0.010875028 4278997153
-0.030566238 -0.014479423 -0.010994574 4279062944
-0.028709378 -0.014435891 -0.01111404 4278865828
-0.027131412 -0.012751504 -0.012488017 4279389853
-0.025280211 -0.012707915 -0.01260698 4279258784
-0.023718793 -0.011023659 -0.013979778 4279062178
-0.021873277 -0.01097998 -0.014098208 4279324829
-0.019877605 -0.011756364 -0.013589988 4278996644
-0.01772365 -0.013352624 -0.01245557 4278865573
-0.015870333 -0.013308512 -0.012574313 4279062179
-0.014175586 -0.012444362 -0.013319043 4278734248
-0.012808673 -0.0099404678 -0.015315177 4278406574
-0.0099575594 -0.0057534073 -0.018678529 4278276013
-0.0066453367 -0.0040261783 -0.020162534 4278406828
-0.0048228726 -0.0039821975 -0.020278854 4279192739
-0.0030005574 -0.0039381366 -0.020395104 4279388833
-0.0011783913 -0.0038940199 -0.020511299 4279192228
0.00082650781 -0.0046692332 -0.020002887 4278864554
0.0024655238 -0.0038055666 -0.020743491 4278735015
0.0040989593 -0.0029420536 -0.021483678 4278603944
0.0055358112 -0.0012594406 -0.022847435 4278668714
0.0189007 -0.010818211 -0.01606332 4279062178
0.021795616 -0.014866347 -0.013066446 4279063454
0.024930239 -0.019732328 -0.0094486717 4281752174
-0.048222434 -0.023802079 -0.005245137 4279977629
-0.039654747 -0.017824885 -0.01024225 4281685619
-0.037792083 -0.017781753 -0.010362489 4279916428
-0.036055245 -0.016915601 -0.011109246 4279129244
-0.034067035 -0.017695185 -0.010602722 4278537643
-0.032467008 -0.016006216 -0.011975169 4279193503
-0.030476283 -0.016785484 -0.011468688 4278866848
-0.028616838 -0.01674192 -0.011588344 4279259549
-0.026896819 -0.01587569 -0.012333592 4279194015
-0.025324389 -0.014187011 -0.013703922 4279062688
-0.023762967 -0.012498438 -0.015073506 4279586714
-0.021917567 -0.012454784 -0.015191946 4279324829
-0.019771881 -0.014055708 -0.01406032 4278603433
-0.017768368 -0.014833979 -0.013554147 4279062433
-0.015915178 -0.014789905 -0.013672911 4278997154
-0.014537171 -0.012279348 -0.015664997 4278865573
-0.012853451 -0.011413239 -0.016407361 4278603178
-0.011339076 -0.0097251842 -0.017773412 4278865828
-0.0096692368 -0.0088591864 -0.018514799 4278931364
-0.008004941 -0.0079932939 -0.019255739 4278734758
-0.0063462108 -0.0071274517 -0.019996261 4278538153
-0.0028681159 -0.0062175756 -0.020852812 4278277289
-0.00086323917 -0.0069949804 -0.020346105 4278668204
0.00096412748 -0.0069506904 -0.020462595 4278800038
0.0026058406 -0.0060848817 -0.02120175 4279062944
0.0042419806 -0.005219101 -0.021940546 4278998174
0.0056816041 -0.0035321303 -0.02330129 4278800803
0.015577748 -0.0065941997 -0.021392478 4278603434
0.018647075 -0.011474954 -0.017780358 4278931618
0.021958761 -0.017175769 -0.01354905 4280504203
-0.05025151 -0.024521977 -0.0068639684 4282798438
-0.034239203 -0.018357668 -0.012330769 4280900984
-0.032641895 -0.016664468 -0.013699768 4280636804
-0.030654084 -0.017445996 -0.013194734 4280569993
-0.028660938 -0.018227315 -0.01268998 4280307344
-0.026801724 -0.01818366 -0.012809547 4279717018
-0.025226571 -0.016490581 -0.014176827 4279324063
-0.023662414 -0.01479762 -0.01554337 4279979669
-0.02181441 -0.014753958 -0.015662016 4279520158
-0.019816391 -0.015534716 -0.015157169 4278930854
-0.017813057 -0.016315179 -0.014652612 4279389853
-0.016115546 -0.015446771 -0.015394395 4279390108
-0.014581881 -0.013754079 -0.016758645 4278275503
-0.012898199 -0.012885842 -0.017499425 4278800039
-0.011056386 -0.012841752 -0.017617246 4278996899
-0.0093811229 -0.011973529 -0.018357351 4278996899
-0.0078805834 -0.010281305 -0.019719239 4279127713
-0.0060473159 -0.010237185 -0.019836342 4278865829
-0.0043887571 -0.009369134 -0.020575203 4278669224
-0.0025584698 -0.0093249483 -0.020692009 4278472109
-0.00054831803 -0.01010445 -0.020187298 4278668714
0.0011016652 -0.0092363702 -0.020925436 4278342824
0.0056364238 -0.0049855281 -0.024379028 4278668968
0.0070651099 -0.0032944549 -0.025735823 4279192993
0.0086790696 -0.0024268832 -0.026471468 4278997664
0.010685496 -0.0032060817 -0.025966151 4278801314
0.012898929 -0.0048082508 -0.024841065 4278735269
0.015327506 -0.0072333394 -0.023096697 4278866084
0.018600814 -0.012950329 -0.01887436 4278669989
0.021911956 -0.018666402 -0.014654359 4281095804
-0.028705005 -0.019712554 -0.0137915 4282733414
-0.026706718 -0.020495864 -0.013288572 4281422714
-0.025128845 -0.018798372 -0.014652867 4280110483
-0.023417316 -0.017927857 -0.015394229 4279717018
-0.021563996 -0.017884079 -0.015513225 4279126949
-0.019710802 -0.017840186 -0.015632123 4279257764
-0.017857708 -0.017796233 -0.015750969 4279258529
-0.01616025 -0.016925676 -0.01649115 4278864299
-0.012781993 -0.015184671 -0.017970307 4278997154
-0.010937557 -0.01514056 -0.018088328 4279258784
-0.0090932548 -0.015096381 -0.018206287 4279258784
-0.0075872391 -0.013399744 -0.019565266 4279062434
-0.0057486296 -0.013355557 -0.019682752 4279127968
-0.0042591989 -0.011659102 -0.021040585 4278406828
-0.002603516 -0.010788913 -0.021777622 4278866339
-0.00095341355 -0.0099187605 -0.022514233 4279062688
0.0010564402 -0.010700409 -0.022011092 4278997664
0.0027008355 -0.0098302625 -0.022747239 4278735014
0.0045277625 -0.0097859101 -0.022863647 4279390364
0.0061637163 -0.0089158388 -0.023599161 4279192739
0.0076005906 -0.0072202133 -0.024953311 4279061158
0.0090264678 -0.0055248393 -0.026306672 4278275503
0.010640301 -0.0046551395 -0.027040655 4278472619
0.012651876 -0.0054363096 -0.026537297 4279127968
0.015077457 -0.0078679686 -0.024797646 4279325084
0.018347524 -0.013600357 -0.020586427 4279914898
0.021865226 -0.020156935 -0.0157596 4278732463
-0.03618592 -0.021371083 -0.014413757 4281160319
-0.021461114 -0.020193817 -0.015991135 4281094783
-0.019605301 -0.020149913 -0.01611024 4281421948
-0.01790233 -0.019277168 -0.016849244 4280045459
-0.016049467 -0.019233162 -0.016968029 4279061669
-0.014513053 -0.017531764 -0.018326027 4279258019
-0.012826733 -0.016659176 -0.019063788 4279389853
-0.011145979 -0.015786614 -0.019801108 4279323298
-0.0093045011 -0.015742507 -0.019918891 4279454369
-0.0076321438 -0.014870007 -0.020655574 4279128223
-0.0059653819 -0.013997544 -0.021391829 4278603944
-0.0043041781 -0.013125096 -0.022127712 4278276268
-0.00264851 -0.012252768 -0.022863155 4279390619
-0.00081855804 -0.012208564 -0.022979924 4279259804
0.0011938661 -0.012992358 -0.022478586 4279063199
0.002840966 -0.012120022 -0.023213329 4279128479
0.0046705157 -0.012075662 -0.023329945 4279062944
0.0063091889 -0.011203404 -0.024064055 4279128224
0.0079422891 -0.010331194 -0.024797743 4278603179
0.0095698237 -0.0094590466 -0.025531096 4278538154
0.01119177 -0.0085870177 -0.02626401 4279127458
0.013211362 -0.0093702143 -0.025762813 4279324064
0.015440516 -0.01098078 -0.024645189 4279521433
0.018508464 -0.015900798 -0.021062167 4280701573
-0.038211513 -0.022067409 -0.016015334 4281684344
-0.021652747 -0.020845652 -0.017709589 4281751153
-0.017794251 -0.021588873 -0.017329039 4280967028
-0.015938796 -0.02154481 -0.017447999 4281686128
-0.01439961 -0.019839106 -0.018802943 4279650719
-0.012710638 -0.01896425 -0.019539306 4280241809
-0.011027209 -0.018089488 -0.020275211 4279519649
-0.0091831163 -0.018045373 -0.020393202 4279192994
-0.0075080767 -0.017170675 -0.021128466 4278668459
-0.0058386028 -0.016296001 -0.021863297 4279062179
-0.0043490976 -0.014590947 -0.023214737 4279062688
-0.0023392588 -0.015377198 -0.022714945 4279325084
-0.00068378448 -0.014502591 -0.023448752 4278997409
0.0013312176 -0.015288587 -0.022949191 4279194013
0.0029809996 -0.014413996 -0.023682548 4279194013
0.0048131868 -0.0143696 -0.023799354 4279390363
0.0064545572 -0.013495156 -0.024532055 4279324573
0.0080903769 -0.01262077 -0.025264347 4279193504
0.0099167228 -0.01257637 -0.025380673 4279390108
0.011544123 -0.01170206 -0.026112331 4279127969
0.013367467 -0.011657618 -0.026228381 4279455644
0.015394904 -0.012442783 -0.025729293 4280111504
0.018462367 -0.017375868 -0.022155957 4281947249
-0.017991439 -0.022238603 -0.019045478 4281752173
-0.011071973 -0.019563766 -0.02136852 4281880949
-0.0092279688 -0.019519689 -0.02148653 4280832644
-0.0075529665 -0.018642828 -0.022220181 4280046478
-0.0060551167 -0.016933404 -0.023568979 4279980178
-0.0042196363 -0.016889321 -0.023686288 4279586458
-0.0023842901 -0.016845156 -0.02380353 4278996898
-0.00054907799 -0.01680091 -0.023920694 4279390363
0.0014684796 -0.017589018 -0.023422984 4279259039
0.0029357895 -0.015879912 -0.024769595 4279521434
0.0047679022 -0.015835568 -0.024886435 4279521433
0.0062186718 -0.01412682 -0.026231883 4279390363
0.0080450773 -0.014082467 -0.02634825 4279521433
0.010067374 -0.014870148 -0.025850611 4279259548
0.011697501 -0.013993686 -0.026580894 4279718293
0.013523482 -0.013949199 -0.026697127 4279586714
0.015757687 -0.015568373 -0.025586395 4280111248
0.018416375 -0.018850867 -0.023249699 4282406759
-0.040634144 -0.021731066 -0.020563478 4281814904
-0.024316061 -0.019673068 -0.022864943 4281422714
-0.018188469 -0.022883883 -0.020758612 4282013548
-0.0092727765 -0.020993883 -0.022579772 4282013038
-0.0057568699 -0.020070799 -0.023429586 4281882733
-0.0037417859 -0.020861361 -0.022933504 4281095038
-0.0020753443 -0.019982366 -0.023664868 4279520158
-0.00041445345 -0.01910343 -0.024395829 4279585184
0.0012408793 -0.018224578 -0.025126396 4279062179
0.0027055442 -0.016511263 -0.026469653 4279848344
0.0045348555 -0.016467014 -0.026586333 4279717019
0.0061734989 -0.015588395 -0.027315704 4279586714
0.0081930906 -0.016378393 -0.026819574 4279652504
0.010022007 -0.01633401 -0.026936119 4279456154
0.011652127 -0.015455408 -0.027664809 4279325084
0.013276681 -0.014576891 -0.028393107 4279389853
0.015507951 -0.016200518 -0.027285447 4280570249
-0.02435986 -0.021142565 -0.023954777 4280045204
-0.018537775 -0.022687249 -0.023082046 4282668134
-0.0098156407 -0.01995671 -0.025510995 4281554548
0.0013781264 -0.020529171 -0.025603281 4281883753
0.0026605055 -0.017974833 -0.027554972 4280700809
0.0044897571 -0.017930645 -0.027671693 4280633998
0.0063188672 -0.017886413 -0.027788369 4280633743
0.0081478357 -0.017842123 -0.027904993 4279848853
0.0099766999 -0.017797789 -0.028021572 4279062434
0.011408225 -0.016080743 -0.029359272 4278407339
0.013432704 -0.016872693 -0.028864993 4279128223
0.015462473 -0.017664479 -0.028371019 4282143343
0.0062737465 -0.019349983 -0.02887368 4280239514
0.0081026703 -0.019305754 -0.028990345 4280242064
0.010127284 -0.020100046 -0.028497817 4279456154
0.011363037 -0.017540142 -0.030441476 4279128479
0.013387412 -0.018334331 -0.029948851 4278407848
0.015824996 -0.020805117 -0.028239226 4282341223
-0.024879877 -0.021555256 -0.027966743 4278537133
-0.008406505 -0.021164998 -0.029023593 4282209134
0.0080575719 -0.02076935 -0.030075675 4281163890
-0.024923358 -0.023017967 -0.029051548 4281226619
-0.019279331 -0.02373261 -0.028795762 4281946994
-0.0087879673 -0.020940963 -0.031323932 4281684598
0.0094497949 -0.020502882 -0.032489501 4281817709
-0.025254883 -0.022787955 -0.031351522 4282602854
0.0092092827 -0.021116976 -0.034175947 4282078829
0.017548241 -0.022715006 -0.039794326 4282275179
0.024829037 0.0070641097 0.025487628 4285295653
0.026314817 0.0086442456 0.024043621 4285229353
0.028646968 0.0071586482 0.025245732 4285228589
0.02142822 0.010866273 0.019850951 4285493278
0.022691846 0.013219127 0.017750878 4285624348
0.024150521 0.014802968 0.016311843 4286147098
0.026455306 0.013312353 0.017512459 4286081053
0.029421784 0.0095164832 0.02069111 4286212124
0.02014377 0.013975387 0.014774632 4285755928
0.021600023 0.015563505 0.013338901 4285754399
0.023256697 0.016380565 0.012562247 4285819934
0.025336176 0.015656078 0.01310223 4286213143
0.028071716 0.012619669 0.015615741 4286344468
0.030609086 0.010354472 0.017470185 4285557538
0.032940142 0.0088603124 0.018666014 4285427234
0.035731971 0.0058254804 0.021176098 4285427744
0.018628865 0.010879414 0.015093128 4285492769
0.020096257 0.012472065 0.013659935 4286083604
0.021135077 0.015610682 0.010913794 4286148629
0.022786319 0.016429795 0.010139119 4285622563
0.024646074 0.016475914 0.010021336 4285622564
0.027156234 0.014203502 0.011872561 4285754143
0.029243268 0.013477122 0.012410515 4285820188
0.031557851 0.01197817 0.013604204 4285624348
0.03365799 0.011252245 0.014141422 4285493534
0.035763353 0.010526467 0.014678325 4285558813
0.03764347 0.010573409 0.014559493 4285623584
0.039756499 0.0098479558 0.01509601 4285951259
0.041167133 0.011439817 0.013666873 4286277404
0.043282442 0.010714481 0.014203294 4286211614
0.017768353 0.012473496 0.011353075 4285558814
0.019430883 0.013294952 0.010579214 4285624094
0.02087909 0.014891563 0.0091505377 4286279699
0.022316225 0.016487991 0.0077225571 4286082329
0.024170473 0.016533976 0.0076051294 4286082584
0.026458114 0.015029898 0.0087972032 4286083604
0.028756395 0.013526192 0.0099886088 4285689628
0.030620851 0.013572576 0.0098706447 4285624093
0.032710023 0.012844203 0.01040694 4285623838
0.034576736 0.012890769 0.010288924 4285689373
0.036443219 0.012937365 0.010170951 4285820444
0.037843317 0.014533268 0.0087456815 4286016793
0.039703928 0.014579812 0.0086281467 4286278933
0.041802853 0.013851909 0.0091639962 4286343704
0.044389449 0.011575261 0.011005893 4286213654
0.047235988 0.0085247345 0.01349975 4285425958
0.017314717 0.012530075 0.0089340433 4285624349
0.019177668 0.012576083 0.0088159181 4285689629
0.020831831 0.013399592 0.0080442699 4285820444
0.022691645 0.01344564 0.0079264324 4286214673
0.024337217 0.014269071 0.0071553523 4286280463
0.026410632 0.013537927 0.0076909503 4285689118
0.028489262 0.012806999 0.0082262093 4285624093
0.030350924 0.012853337 0.0081084371 4285624094
0.032212369 0.012899717 0.0079907142 4285623838
0.034301192 0.012169207 0.0085254479 4285689374
0.035934597 0.012992607 0.0077554192 4286214928
0.037562385 0.01381593 0.0069857892 4285688353
0.039184503 0.014639182 0.0062164962 4285557028
0.041754767 0.012355572 0.0080545451 4285688863
0.043858774 0.011625646 0.0085884761 4285623073
0.046455719 0.0093427822 0.010424897 4285623839
0.049561866 0.0055074021 0.013562728 4285426723
0.015604824 0.010210421 0.0085970061 4285359658
0.016455159 0.014155103 0.0052169356 4285624349
0.018512972 0.013421191 0.0057516741 4285689628
0.020367503 0.013467064 0.0056341374 4285688864
0.02243305 0.012733461 0.0061684772 4285557283
0.024289876 0.012779502 0.0060508791 4285623074
0.026146464 0.012825599 0.0059333425 4285623839
0.028002858 0.012871763 0.0058158711 4285623838
0.029636942 0.013697216 0.005047312 4285558558
0.031939805 0.012184976 0.0062320689 4285558558
0.033798277 0.012231315 0.0061145602 4285623838
0.035426259 0.013056813 0.0053464584 4286083604
0.036582738 0.015440138 0.0032778955 4286082838
0.038429692 0.01548635 0.0031612325 4285885213
0.040753186 0.013974892 0.0043448089 4285885469
0.043087341 0.012463676 0.005527772 4286082839
0.046163492 0.0086166337 0.0086593749 4285623839
0.050252564 0.0016556755 0.014387701 4285426979
0.01495675 0.011060456 0.0055350699 4285558813
0.016002215 0.014233949 0.0028143395 4285820698
0.018054463 0.013497656 0.0033478374 4286148373
0.019903474 0.013543399 0.0032306546 4286147863
0.022174619 0.012025779 0.0044139316 4286016793
0.02381476 0.012853382 0.0036464781 4285689374
0.025882468 0.012117771 0.0041791443 4285755164
0.027516775 0.01294536 0.0034121536 4285559069
0.029589482 0.012209987 0.0039445907 4285559068
0.03144265 0.012256166 0.0038273935 4285624349
0.033295631 0.012302389 0.0037102434 4285624603
0.034918226 0.013129873 0.0029441374 4285755419
0.036535174 0.013957264 0.0021784194 4286082839
0.038146488 0.01478461 0.0014130599 4286016793
0.040228799 0.0140497 0.0019451268 4285951513
0.042557307 0.01253405 0.0031251721 4286083348
0.046358831 0.0063332375 0.0081935059 4285492513
0.013908587 0.013492083 0.0011844421 4285558558
0.015346594 0.015105715 -0.00023073517 4285820443
0.017390542 0.014367109 0.00030164979 4286082838
0.019439727 0.013628682 0.00083373301 4286082329
0.021705233 0.012106543 0.0020141802 4286147864
0.023553759 0.012152368 0.0018971013 4285951768
0.025185533 0.012982054 0.0011318037 4285689373
0.027030937 0.013027931 0.0010150177 4285624348
0.028654173 0.013857463 0.00025038142 4285558813
0.030721121 0.013119815 0.00078159478 4285624349
0.0323385 0.013949307 1.7404556e-05 4285690139
0.034410439 0.013211885 0.0005483795 4285623838
0.036022007 0.01404131 -0.00021538418 4285688864
0.037863433 0.014087362 -0.00033171196 4285688863
0.039704673 0.014133448 -0.00044800248 4285557793
0.042268552 0.011830108 0.0013758913 4285492768
0.046310432 0.0048287362 0.0070780064 4285427488
0.013005257 0.0080366153 0.0034447159 4285294123
0.013661824 0.012800353 -0.00055918749 4285754909
0.015300065 0.013632005 -0.0013234736 4285754653
0.017138265 0.013677409 -0.0014400268 4285425449
0.019184582 0.012936739 -0.00090937223 4285622819
0.021025091 0.012982307 -0.0010259878 4285820188
0.022865415 0.013027942 -0.0011425363 4285623328
0.024705499 0.013073632 -0.001259028 4285624093
0.026764579 0.012333507 -0.00072901603 4285558558
0.028385118 0.013165133 -0.0014918717 4285558558
0.030224614 0.013210954 -0.0016082162 4285624094
0.031836607 0.014042469 -0.0023704609 4285689373
0.033902988 0.013302727 -0.0018407581 4286017049
0.035974614 0.01256316 -0.0013113571 4285951769
0.037816003 0.012609201 -0.0014276924 4285623328
0.039657198 0.012655275 -0.0015439866 4285623838
0.042220809 0.010345388 0.00027505588 4285558813
0.046505593 0.0025391784 0.0066075642 4285493278
0.011774085 0.011279332 -0.0015365537 4285492259
0.013014987 0.013690209 -0.0035915952 4285886488
0.01484789 0.013735408 -0.0037078625 4285952023
0.016886115 0.01299225 -0.0031783301 4286017048
0.018513076 0.013825973 -0.0039402237 4285885724
0.02034536 0.01387134 -0.0040563168 4286018068
0.022177458 0.013916763 -0.004172354 4285886489
0.024009354 0.013962237 -0.0042883325 4285624094
0.026060186 0.01321966 -0.0037593963 4285558558
0.027672566 0.014053313 -0.0045201546 4285689629
0.029503852 0.014098929 -0.0046359776 4285689884
0.031334952 0.014144579 -0.0047517614 4285952278
0.03316585 0.014190262 -0.0048675062 4286016794
0.035229236 0.013448244 -0.00433918 4286016793
0.037297823 0.012706457 -0.0038111787 4286280719
0.039609738 0.011177255 -0.002639859 4285623839
0.042654715 0.0072858427 0.00046128035 4285558813
0.046944179 -0.00054200366 0.0067773061 4285427743
0.011530362 0.01059461 -0.0032752221 4285295399
0.012968712 0.012221271 -0.0046808077 4285492769
0.014801532 0.012266433 -0.0047970973 4285690139
0.016428664 0.013102232 -0.0055573881 4286215184
0.018258363 0.013147479 -0.0056733554 4286017559
0.019666083 0.014773576 -0.0070767831 4286083349
0.02148997 0.014818782 -0.0071923081 4285623838
0.023313656 0.014864033 -0.0073077846 4285690139
0.025575221 0.013328927 -0.0061367378 4285624349
0.02762571 0.012584271 -0.0056093922 4285689629
0.029008016 0.014210017 -0.0070110001 4285952279
0.030833639 0.014255526 -0.007126445 4285623074
0.032659061 0.014301052 -0.0072418544 4285623073
0.034716889 0.013556762 -0.0067148395 4285820188
0.036779933 0.012812642 -0.0061881235 4286149138
0.03908626 0.011278896 -0.0050196527 4285492513
0.042606883 0.0057971273 -0.00064252131 4285493024
0.047625937 -0.0044213589 0.0075824545 4285295908
0.011484027 0.0091215055 -0.0043675276 4285689628
0.012922429 0.010752495 -0.0057698973 4285624349
0.01475516 0.010797657 -0.0058861794 4285426723
0.015971512 0.013221046 -0.0079298243 4285426468
0.017795712 0.013266141 -0.0080454592 4285492004
0.019198053 0.014896495 -0.0094453543 4285426978
0.021229975 0.014149053 -0.008918561 4285493023
0.023050889 0.014194222 -0.0090338718 4285624603
0.024871618 0.014239443 -0.0091491286 4285624349
0.026692137 0.014284721 -0.0092643239 4285624348
0.028512456 0.014330031 -0.0093794819 4286149903
0.029878408 0.015959738 -0.010776807 4286017303
0.031692915 0.016004993 -0.010891529 4285622818
0.033972308 0.014466187 -0.0097246934 4285623074
0.036262363 0.012927635 -0.0085584633 4285491748
0.038801014 0.010597479 -0.0067524649 4285689628
0.042799763 0.0035166536 -0.001105939 4285427234
0.047820576 -0.0067300247 0.0070978394 4285295654
0.010766082 0.0028323922 -0.0014935937 4284900914
0.012029268 0.005263295 -0.0035355594 4285688864
0.01347588 0.0068987943 -0.0049351677 4285820444
0.015114062 0.0077391155 -0.0056929998 4285886488
0.016335949 0.010169214 -0.0077321827 4285689883
0.017957479 0.011009231 -0.0084888786 4285295398
0.019573376 0.011849185 -0.0092451554 4285361188
0.021397121 0.011894369 -0.0093606878 4285493278
0.02300448 0.012734259 -0.010116395 4285493279
0.02460622 0.013574054 -0.010871639 4285558813
0.026645608 0.01282472 -0.010346865 4285624349
0.028241552 0.013664445 -0.011101684 4285689883
0.029604852 0.015298428 -0.012495615 4286148884
0.031416617 0.015343586 -0.012610182 4285951513
0.033460654 0.014594557 -0.012085564 4285885978
0.035745077 0.013051553 -0.010922262 4286018069
0.038278073 0.01071471 -0.0091207754 4285755163
0.042270713 0.0036141444 -0.0034884429 4285361699
0.047771804 -0.0082489317 0.0059716529 4284902188
0.01052507 0.0021439604 -0.0032352433 4285032239
0.011982761 0.0037840419 -0.0046324264 4285295398
0.013829105 0.0038294494 -0.004749638 4285623073
0.015472695 0.0046720654 -0.0055062063 4285754143
0.01690542 0.0063116737 -0.0069016218 4285689118
