# .PCD v0.7 - Point Cloud Data file format
VERSION 0.7
FIELDS x y z rgba
SIZE 4 4 4 4
TYPE F F F U
COUNT 1 1 1 1
WIDTH 960
HEIGHT 1
VIEWPOINT 0 0 0 1 0 0 0
POINTS 960
DATA ascii
-0.02165883 0.017507145 0.0268659 4281174853
-0.019652955 0.01677818 0.0274367 4281175364
-0.017897405 0.017580954 0.026666846 4280262719
-0.016277991 0.019149465 0.025227224 4279481143
-0.014403105 0.01918651 0.025128193 4280524093
-0.012120441 0.016926864 0.027038727 4280849473
-0.010237716 0.016964277 0.026939441 4280719168
-0.0080723017 0.015470853 0.028179295 4280654143
-0.0063286126 0.016273992 0.027410511 4280719423
-0.0042968169 0.015546402 0.027980585 4280654399
-0.0027085468 0.017114958 0.026543178 4280526134
-0.00036973506 0.014857071 0.028451152 4279807544
0.0022953153 0.011069112 0.031696044 4279545658
0.0057762563 0.0034560356 0.038282894 4278568754
0.0088299662 -0.001860518 0.042861369 4281827144
0.012084797 -0.0079412879 0.048106343 4282542419
-0.026426021 0.0097461008 0.031405568 4282411859
-0.025341079 0.015160108 0.02662012 4281044804
-0.021696202 0.016001662 0.025751546 4279089464
-0.019815557 0.016038535 0.025652003 4280979524
-0.018062815 0.016843477 0.024883866 4281175619
-0.016315661 0.017648378 0.024116155 4280849218
-0.014174499 0.016149743 0.025353856 4280849473
-0.012294468 0.016187025 0.025254656 4280784194
-0.010553241 0.016992157 0.02448744 4280849729
-0.0086762533 0.017029589 0.024388555 4280588609
-0.0069435462 0.017834721 0.023621989 4279611959
-0.0049228147 0.017104739 0.024191037 4281110594
-0.0031959042 0.01790995 0.023424916 4281828164
-0.0011700913 0.017180255 0.023993831 4281241409
0.0011709705 0.01491593 0.025896952 4280591159
0.0035281703 0.012652041 0.027799308 4281176638
0.0062223822 0.0088540222 0.031034693 4281111104
0.0094330832 0.0027549751 0.036269017 4281306434
0.013516538 -0.0071790321 0.044834305 4281371714
0.016996153 -0.014043011 0.050730027 4282154819
-0.028032251 0.0058752298 0.032383189 4282543184
-0.02714783 0.012845749 0.026272029 4281437504
-0.02010303 0.016073728 0.023203529 4280524093
-0.018228114 0.016110593 0.02310437 4281175874
-0.016483754 0.016917614 0.022338413 4280915009
-0.014478713 0.016184634 0.022906296 4280914754
-0.012604259 0.016221816 0.022807397 4280979778
-0.010868564 0.017029004 0.022042152 4281045058
-0.0089971423 0.017066313 0.021943551 4280980289
-0.0071259141 0.017103748 0.021845058 4280133179
-0.0035334378 0.017948555 0.020982431 4279808309
-0.0015132427 0.017216587 0.021550041 4279808309
0.00066714734 0.015715236 0.022783004 4279158314
0.0030158833 0.013444657 0.024680968 4279742264
0.0053807795 0.011174487 0.026578143 4281045313
0.0087404102 0.0042882673 0.032465458 4281633344
0.012646303 -0.0049049072 0.040345307 4283529268
-0.029071268 0.01129989 0.025254998 4281696838
-0.027754992 0.015199279 0.021824192 4280719933
-0.025882386 0.015235675 0.021724831 4280392258
-0.024129372 0.01604463 0.020959733 4281110339
-0.022015378 0.014536379 0.022192057 4279025714
-0.020265367 0.015345508 0.021427291 4280720189
-0.018393308 0.015382336 0.021328291 4280980289
-0.016782127 0.016963737 0.019898867 4281045824
-0.014915805 0.017000658 0.01980032 4280849984
-0.013049647 0.01703768 0.019701863 4280914498
-0.011322193 0.017846933 0.018938635 4280914243
-0.0094590858 0.017884089 0.018840484 4281045058
-0.0074521527 0.017149342 0.019406995 4281045569
-0.0037213415 0.01722428 0.019210842 4278895663
-0.0018561929 0.017261894 0.019112892 4278634799
0.00047339499 0.014984334 0.021006893 4279350583
0.0028191432 0.012707157 0.02290016 4280785213
0.0058223158 0.0073438287 0.027447348 4281568829
0.009026438 0.0012097508 0.0326562 4283071033
-0.031103063 0.010529263 0.02357344 4281435974
-0.029775631 0.014439659 0.020150049 4280914498
-0.028019737 0.015250629 0.019386249 4278959668
-0.02626941 0.016061654 0.018622793 4280849218
-0.024524659 0.016872628 0.017859749 4281175108
-0.022541221 0.016134454 0.018425232 4281175363
-0.020677324 0.016171003 0.018326577 4280067898
-0.018813577 0.016207671 0.018228017 4280915008
-0.017080277 0.017018871 0.017465914 4281045824
-0.015352581 0.017830065 0.016704181 4281176385
-0.013494723 0.01786693 0.016606165 4281110338
-0.011775516 0.018678164 0.015845036 4281240898
-0.0099206865 0.018715171 0.015747337 4281371203
-0.0079221129 0.01797813 0.016312636 4281371459
-0.0059182495 0.01724129 0.016877733 4281110593
-0.0040584952 0.017278699 0.016779995 4280915009
-0.0020468235 0.016542224 0.017344834 4280719168
0.00012493879 0.01503198 0.018571854 4280653888
0.0030951202 0.00965265 0.023109395 4280980799
0.0062635094 0.0035003088 0.028307108 4282154818
0.0096382126 -0.0034247953 0.034164563 4284706859
-0.031465188 0.011353785 0.020468637 4281632324
-0.029923446 0.013720928 0.018379867 4280913733
-0.028170366 0.014534084 0.017617807 4278828344
-0.026539471 0.01612406 0.016193416 4278503219
-0.024800256 0.016937127 0.015432296 4278959668
-0.021213774 0.01778659 0.014573457 4280263229
-0.019233517 0.017046345 0.015137691 4280850239
-0.017378218 0.01708295 0.015039654 4280850748
-0.015523054 0.017119667 0.014941711 4280980798
-0.013668053 0.017156487 0.014843857 4281045824
-0.0082478747 0.018043926 0.013889454 4278698803
-0.006249629 0.017304754 0.014453276 4281045058
-0.0043954477 0.017342066 0.01435584 4281045313
-0.0023893937 0.016603304 0.014919357 4280718659
8.623302e-05 0.013536362 0.01746491 4280849218
0.0030559078 0.008141784 0.021991171 4281633088
0.0065441281 0.00042000972 0.028496889 4283204398
-0.031284973 0.0082955193 0.020681616 4281370438
-0.029960021 0.012227679 0.017274538 4281631558
-0.028320882 0.013822125 0.015852831 4281565768
-0.026692752 0.015416412 0.014431822 4281176128
-0.024956353 0.016231639 0.013672425 4280393279
-0.02322552 0.01704683 0.012913446 4280589374
-0.021500278 0.017862013 0.012154844 4280784704
-0.019653138 0.017898375 0.012057178 4280721464
-0.01767594 0.017156055 0.012620004 4280785723
-0.015693434 0.016413933 0.013182623 4280654909
-0.01384129 0.016450709 0.013084925 4281046334
-0.012266025 0.018044813 0.01166735 4278506023
-0.010560736 0.018860241 0.010910273 4279482928
-0.0064342543 0.016598774 0.01269496 4280654654
-0.0045829117 0.016636042 0.012597687 4280848963
-0.0025797486 0.015894977 0.013159767 4280522053
4.7519803e-05 0.012040978 0.016358143 4281501254
0.0033315569 0.0050746314 0.022191117 4283461949
0.0066643804 -0.0018906277 0.028021608 4283269679
-0.032145988 -0.0010590777 0.026269469 4282542673
-0.031213325 0.0060102493 0.020228358 4281107788
-0.029774446 0.0091720223 0.017489014 4280587079
-0.028243694 0.011552216 0.015410596 4280522054
-0.026496343 0.01236969 0.014652196 4281111104
-0.024873819 0.013968324 0.013234794 4281437249
-0.023140363 0.014785802 0.012477259 4281242684
-0.021537166 0.016384294 0.011061057 4280982328
-0.01981758 0.017201668 0.010304458 4280720189
-0.017973442 0.017238071 0.010207023 4280850238
-0.015730832 0.014931874 0.012085651 4280524348
-0.014014404 0.01574949 0.011329441 4279873079
-0.012165256 0.015786314 0.011231986 4281632579
-0.010598339 0.017384714 0.009818159 4281567809
-0.0087549612 0.017421627 0.0097211581 4280981309
-0.0069117323 0.017458623 0.009624226 4281046334
-0.0049194619 0.016715134 0.010185171 4280980033
-0.002618067 0.014410758 0.012061254 4280652613
0.00047276914 0.0082044397 0.017224083 4280914499
0.0036069527 0.0019990746 0.022384768 4281051689
-0.032183081 -0.0025844965 0.025140308 4282020688
-0.031033494 0.002937302 0.020430394 4280453714
-0.029589094 0.0061078984 0.017697226 4280324429
-0.027939115 0.0077112187 0.016281445 4279932749
-0.026300147 0.0093144365 0.014866331 4279737674
-0.024672214 0.010917613 0.013451857 4279607878
-0.023055293 0.012520617 0.012038071 4280848964
-0.021200117 0.012557024 0.011939896 4281305158
-0.01947245 0.013376785 0.011184453 4281110338
-0.017750356 0.014196498 0.010429421 4280980543
-0.01590104 0.014233125 0.010331805 4280915264
-0.012479372 0.015872626 0.0088233165 4279482673
-0.011058912 0.018258246 0.0067563602 4280265014
-0.0090801045 0.017512111 0.0073162499 4279352878
-0.0070960075 0.016766144 0.0078759808 4279809328
-0.0048083439 0.014454914 0.0097478339 4281307199
-0.0020488799 0.0097958948 0.013587091 4281568064
0.0012068525 0.0027897339 0.019392364 4282291243
-0.03222017 -0.004109662 0.024011333 4281694034
-0.030962113 0.00064164959 0.019969452 4279865938
-0.029292971 0.0022495743 0.018555794 4280127313
-0.027634855 0.0038574189 0.017142819 4279998029
-0.025987759 0.0054652113 0.015730476 4279998283
-0.024470817 0.0078583732 0.013662683 4279803209
-0.022726625 0.0086804219 0.012907816 4279671883
-0.021112576 0.010287838 0.011497498 4279609919
-0.019382261 0.011109794 0.010743573 4280066368
-0.017787565 0.012717089 0.0093344003 4281045569
-0.015938375 0.012753723 0.0092367996 4281111103
-0.01449579 0.015146071 0.0071734153 4280589373
-0.012793273 0.015967922 0.0064212182 4279157294
-0.011237279 0.017574837 0.0050144466 4279026989
-0.0092613772 0.016826471 0.0055728778 4280202539
-0.0074265599 0.016863322 0.0054764031 4280980288
-0.0046973303 0.012190564 0.0093074394 4281306943
-0.0014801398 0.0051638819 0.015100162 4282025788
0.0019403994 -0.0026465971 0.021544714 4284252704
-0.032257244 -0.0056345556 0.022882562 4281236564
-0.030890819 -0.0016581584 0.019505506 4280388434
-0.029329918 0.00074211136 0.017439943 4280127824
-0.027444564 0.00077866204 0.017339841 4279866703
-0.025792036 0.0023908615 0.015930474 4280194123
-0.024269637 0.004790727 0.013867212 4279737928
-0.022641875 0.0064026639 0.01245932 4279867469
-0.020900626 0.007226944 0.011706309 4279410763
-0.019292187 0.0088387243 0.010299608 4279609154
-0.017564803 0.009662902 0.0095475297 4279935554
-0.015975714 0.011274561 0.0081419731 4280785214
-0.014397658 0.012886064 0.006737113 4281239878
-0.012830645 0.014497487 0.0053328658 4281436229
-0.011274658 0.016108735 0.0039293105 4280979268
-0.0094425306 0.016145421 0.0038329009 4280782664
-0.0071716011 0.013820646 0.0056959027 4280914244
-0.0042883381 0.0083478242 0.010169948 4282090303
-0.00091184676 0.00051463954 0.016600553 4284252958
-0.032505151 -0.0055788476 0.020446645 4280973403
-0.031035922 -0.0023817718 0.017731443 4279928924
-0.029256001 -0.0015551727 0.016977619 4279603289
-0.027481645 -0.00072856247 0.016224178 4279604309
-0.025829162 0.0008880049 0.014818054 4279670608
-0.024306729 0.0032943822 0.01275962 4279736143
-0.022679001 0.0049106739 0.011354961 4280193104
-0.0210623 0.0065268986 0.0099509265 4279802188
-0.019329414 0.0073532574 0.0092000961 4279735889
-0.017732047 0.0089693274 0.0077972491 4279673158
-0.015880395 0.0090060066 0.0076995161 4279803974
-0.014299639 0.010621913 0.0062977429 4280000579
-0.01245372 0.01065867 0.0062004523 4280979013
-0.010889575 0.012274457 0.0047997115 4281305669
-0.0089058653 0.011521898 0.005354506 4281240389
-0.006624341 0.0091908462 0.0072120656 4281567555
-0.0038796812 0.0044922419 0.011022956 4283072309
-0.029625416 -0.00068763085 0.013905299 4279209058
-0.027518727 -0.0022355374 0.015108699 4279276889
-0.025866274 -0.00061462633 0.013705801 4279540303
-0.024343822 0.0017982889 0.011652214 4279474004
-0.022716124 0.0034189355 0.010250791 4279343954
-0.020850595 0.0034555513 0.010152074 4279801169
-0.019112349 0.0042842422 0.0094025386 4279801169
-0.017379675 0.0051128697 0.0086534061 4279802443
-0.01551998 0.0051496942 0.0085552372 4279999049
-0.013660442 0.0051866341 0.0084571652 4280000579
-0.011939071 0.0060153361 0.0077088475 4279478339
-0.010223307 0.0068440679 0.0069609336 4279543109
-0.0085131302 0.0076728072 0.0062133283 4280260679
-0.0060775205 0.0045438167 0.0087155495 4281565768
-0.0034713522 0.00062385947 0.011866416 4281115184
-0.00053485483 -0.0048783049 0.016315173 4284445739
-0.026135787 -0.00052837655 0.011293999 4279210078
-0.024380907 0.00030242093 0.010544977 4279734358
-0.022631586 0.0011332259 0.0097963363 4279472729
-0.020887844 0.0019640494 0.0090480866 4280060248
-0.019022577 0.0020007584 0.0089494549 4279865429
-0.017157443 0.0020375941 0.0088509284 4279475279
-0.015292436 0.0020745378 0.0087524876 4280127824
-0.013698101 0.0036994461 0.0073564043 4279867979
-0.011976808 0.0045303497 0.0066097267 4280064329
-0.010120407 0.0045674127 0.0065119579 4279867979
-0.0079772919 0.0030170698 0.007711092 4279997009
-0.0055311397 -0.00012043491 0.010206286 4279995224
-0.024655726 0.00039964728 0.0081417505 4279731043
-0.022790343 0.0004361663 0.0080429707 4279340638
-0.020676449 -0.0011198707 0.0092398524 4279667548
-0.018805873 -0.0010830443 0.0091409516 4279603289
-0.016935423 -0.0010461006 0.0090421457 4279472729
-0.015462562 0.0013794284 0.0070012626 4279475533
-0.013735767 0.0022125226 0.0062558409 4279801934
-0.012014546 0.0030455645 0.0055107558 4279931983
-0.010017604 0.0022866372 0.0060599325 4279932494
-0.0080153793 0.0015279241 0.0066089081 4279866703
-0.015632566 0.00068885647 0.0052534705 4279017554
-0.014043711 0.0023223124 0.0038641691 4279019338
-0.012328018 0.0031574816 0.0031209616 4279345739
-0.010336697 0.0023962278 0.0036688633 4279211098
-0.0080534518 3.8979575e-05 0.0055068759 4279406174
-0.015934825 0.0008033812 0.0028649261 4278362204
-0.014216341 0.0016406737 0.0021231044 4278885464
-0.012503423 0.0024779122 0.0013816934 4279016024
-0.010374472 0.00091405399 0.0025718315 4278818399
0.01381699 -0.0038752994 -0.012589382 4284638774
-0.036082774 -0.011075489 0.020351183 4280701318
-0.034890991 -0.005476919 0.015695376 4278800804
-0.033526838 -0.0014680177 0.012342587 4278931363
-0.031973954 0.0009515211 0.010291936 4279716509
-0.030105256 0.00098764338 0.010192639 4278407339
-0.0008771643 -0.0048065959 0.013897495 4282145638
-0.036718417 -0.0078207711 0.015326878 4280308364
-0.035235167 -0.0045975205 0.012630151 4278472619
-0.03047397 0.0018840078 0.0071415799 4280372114
-0.028386839 0.00032697804 0.0083396053 4279259549
-0.0012192503 -0.0047259778 0.011486488 4279197073
0.0006634742 -0.0046879034 0.011387691 4281356159
-0.038842261 -0.0077715833 0.013012706 4280308363
-0.037253667 -0.0053386688 0.010969568 4278734759
-0.035681505 -0.0029058941 0.0089273611 4278340274
-0.028650273 0.00043338351 0.0059423475 4278996389
-0.026790243 0.00046956725 0.0058436804 4278471344
-0.024930321 0.00050584413 0.0057450896 4278473639
-0.0017125756 -0.0038384628 0.0084372722 4278472619
0.00016185641 -0.0038005617 0.0083389068 4279455133
0.0020361394 -0.0037625451 0.0082406392 4279321769
0.0040698946 -0.0045222845 0.0087868003 4279122869
0.0061089322 -0.0052818134 0.0093326904 4281221774
0.0084833875 -0.0076364679 0.011166468 4282992239
-0.039363377 -0.0052737277 0.0086661298 4278930853
-0.037688687 -0.0036356971 0.0072744307 4278537134
-0.035820134 -0.003599925 0.0071748835 4279127204
-0.033951681 -0.0035640467 0.007075422 4279193248
-0.032406922 -0.00112506 0.0050396742 4278668968
-0.030546829 -0.0010891035 0.0049408339 4279126948
-0.028686836 -0.001053052 0.0048420709 4278537643
-0.02682694 -0.0010168962 0.0047433935 4279062688
-0.025085926 -0.00017983653 0.0039999522 4278865574
-0.023350477 0.0006572064 0.003256876 4278471344
-0.021247961 -0.00090773404 0.0044479202 4279130774
-0.0022055507 -0.0029377155 0.0053979233 4279585948
-0.00033938885 -0.0028999634 0.0053000078 4279192484
0.0054204538 -0.0035861656 0.005649223 4278466754
0.0077837631 -0.0059476262 0.0074787783 4280435354
-0.041179147 -0.0076098172 0.0083025265 4281422204
-0.039883949 -0.0027538892 0.0043358263 4278800294
-0.034408346 -0.001843879 0.0033945031 4279062688
-0.032658834 -0.0010049418 0.0026518814 4278800548
-0.028836656 -0.0017362107 0.0030984143 4278931109
-0.026979621 -0.0017001051 0.0029998906 4278735014
-0.025360133 -5.7950616e-05 0.0016149022 4278734758
-0.023387332 -0.0008246731 0.0021599988 4278668714
-0.021657538 1.4603138e-05 0.0014188867 4278995878
-0.019806411 5.1021576e-05 0.0013209945 4278666419
-0.017825801 -0.00071523711 0.0018659076 4280109464
-0.016104538 0.00012416393 0.0011254614 4279126438
-0.0065603629 -0.0012960546 0.001921799 4278541468
-0.0048535168 -0.00045638718 0.0011825999 4279192228
-0.0026981831 -0.0020236392 0.0023683663 4278405299
-0.00084027648 -0.0019860826 0.0022708615 4278995114
0.00086063892 -0.0011462569 0.0015321784 4278864809
0.0025559664 -0.00030644611 0.00079386123 4278930854
0.0072495639 -0.0050431537 0.0044449018 4278929323
0.0082790926 -0.00099507906 0.0011437526 4279718548
-0.04140329 -0.0074976441 0.0059069702 4279194268
-0.039919633 -0.0042398432 0.0032358477 4278866849
-0.038159057 -0.0033988655 0.0024939943 4278473129
-0.033018287 -7.0506707e-05 -0.00037155673 4278272189
-0.028986357 -0.0024148189 0.0013581254 4278735013
-0.027132187 -0.0023787767 0.0012597488 4278538664
-0.025396787 -0.0015374497 0.00051978044 4278341804
-0.023545563 -0.0015012324 0.00042173266 4278406828
-0.018122144 -0.00058707036 -0.00051298738 4278269893
-0.016274113 -0.00055051595 -0.00061057042 4279649953
-0.014426224 -0.00051384419 -0.00070805568 4279520924
-0.012716159 0.00032766536 -0.0014461055 4278542488
-0.0067442656 -0.001975432 0.00018324889 4279129243
-0.0050402209 -0.0011336114 -0.00055423845 4279127458
-0.0030391291 -0.0019008443 -1.1430122e-05 4278667184
0.00066539645 -0.0018258952 -0.00020580087 4279256489
0.0023579448 -0.00098392181 -0.00094239973 4278996643
0.0045314729 -0.0025548581 0.00023947936 4278667948
0.0082401782 -0.0024791397 4.5396388e-05 4279915154
-0.045849495 -0.020409204 0.014085811 4282733414
-0.044028804 -0.01956539 0.013342004 4282929254
-0.04303598 -0.011451051 0.0068251491 4282732394
-0.041627221 -0.0073765246 0.0035180338 4278341803
-0.038194824 -0.0048824521 0.0013957778 4278735779
-0.036542144 -0.0032316484 1.4966354e-05 4278932639
-0.035005417 -0.00077340193 -0.0020058788 4279127458
-0.033269696 6.9607049e-05 -0.002744548 4279062179
-0.03120821 -0.0015097484 -0.0015614284 4278735014
-0.029249091 -0.0022813957 -0.001019137 4278538919
-0.027168747 -0.0038602361 0.00016316492 4278473384
-0.025314823 -0.0038240887 6.488245e-05 4278472874
-0.023582343 -0.0029805526 -0.00067324936 4278275759
-0.021979451 -0.0013298504 -0.0020507015 4278534584
-0.020260811 -0.0004864037 -0.0027878936 4279516844
-0.018288739 -0.0012571588 -0.0022458155 4278597314
-0.016311359 -0.0020276904 -0.0017039282 4278466753
-0.014463589 -0.0019910317 -0.0018014163 4279192228
-0.010768458 -0.0019174367 -0.0019961577 4278735779
-0.0089210868 -0.0018805005 -0.0020934101 4278997408
-0.006928049 -0.0026502218 -0.0015519802 4279128733
-0.0052267835 -0.0018063206 -0.0022876635 4278538409
-0.0033798441 -0.0017691031 -0.0023846794 4278537644
0.0076985657 -0.0015440397 -0.0029652566 4281422969
-0.042980395 -0.01376178 0.0063540866 4282536043
-0.041380711 -0.011296243 0.0043343278 4279914133
-0.039700668 -0.0096408445 0.0029551527 4278472619
-0.038031608 -0.0079855006 0.0015766053 4278275758
-0.036475718 -0.0055204956 -0.0004405193 4278603944
-0.03493626 -0.0030556526 -0.0024567284 4279194014
-0.033090241 -0.0030201152 -0.0025549289 4278998174
-0.031354703 -0.0021748226 -0.0032918919 4278866083
-0.029511601 -0.0021391232 -0.0033897758 4278800803
-0.027552769 -0.0029128455 -0.0028490052 4278669733
-0.025588606 -0.0036863275 -0.0023084152 4278276524
-0.022016242 -0.002804609 -0.0031422991 4279389854
-0.020297669 -0.001959011 -0.0038778894 4279259039
-0.018455219 -0.0019226745 -0.0039752591 4278668713
-0.01674505 -0.0010770224 -0.004710244 4278733739
-0.014770694 -0.0018496886 -0.0041697361 4278733994
-0.013066225 -0.0010039825 -0.0049042962 4278668969
-0.0091018453 -0.0025485195 -0.0038237479 4278538154
-0.0071116909 -0.0033205077 -0.0032838043 4278669479
-0.0052647293 -0.0032833871 -0.0033808947 4278669223
-0.0035691187 -0.0024373494 -0.0041146092 4278669479
-0.0017251521 -0.0024001133 -0.0042114109 4278538664
0.0063083544 -0.005484621 -0.0020539239 4278995623
0.0076598674 -0.0030212142 -0.0040585175 4281686894
-0.042924903 -0.016076652 0.0058799572 4281486719
-0.041322485 -0.013604555 0.0038648816 4279914133
-0.039639764 -0.011944776 0.0024887761 4278406574
-0.037968013 -0.010285074 0.0011133524 4278866084
-0.036409389 -0.007813449 -0.0008991193 4279062434
-0.034657422 -0.0069659119 -0.0016355254 4278407338
-0.031280417 -0.0044589564 -0.0037444867 4278604709
-0.029547784 -0.0036114529 -0.0044796132 4278473638
-0.027820688 -0.0027639419 -0.0052143615 4278604198
-0.025862146 -0.0035397522 -0.0046751183 4278538918
-0.022176947 -0.0034676157 -0.0048702713 4278272188
-0.020461172 -0.0026198868 -0.0056040939 4278274229
-0.015212387 -0.00088810548 -0.0071674865 4279192739
-0.013378605 -0.00085163862 -0.0072641708 4278735014
-0.011264406 -0.0024376046 -0.0060894396 4278800293
-0.0092824623 -0.0032120142 -0.0055507384 4278538154
-0.0074409172 -0.0031751208 -0.0056476295 4278406573
-0.0039093792 -0.0022900626 -0.0064762849 4278537899
-0.0019171089 -0.0030639172 -0.005937865 4278735014
-7.6130033e-05 -0.0030266512 -0.0060344432 4278669223
0.0017647073 -0.0029893406 -0.0061309785 4278800294
0.003767401 -0.0037627202 -0.0055929143 4278603434
0.0059401169 -0.0053466214 -0.0044206735 4279259294
-0.042869501 -0.018395679 0.0054027513 4280110738
-0.041358292 -0.015102697 0.0027558692 4279390109
-0.039772272 -0.012624346 0.00074661337 4278735013
-0.038103294 -0.010960301 -0.00062547345 4278931873
-0.036241051 -0.010924701 -0.00072472356 4278931873
-0.034378897 -0.010888983 -0.00082387868 4278931618
-0.032516826 -0.010853159 -0.00092294998 4279062688
-0.030875392 -0.0091892462 -0.0022932049 4279128478
-0.029470947 -0.0058975285 -0.0049338192 4278408103
-0.02797265 -0.0034200046 -0.0069378447 4279062944
-0.026135467 -0.0033842064 -0.0070352554 4278932383
-0.024298381 -0.0033483282 -0.0071325991 4278604709
-0.015653729 8.6709857e-05 -0.010155443 4278669734
-0.013690736 -0.00069050491 -0.0096174702 4278538154
-0.011582226 -0.0022808816 -0.0084456988 4278341294
-0.0098917484 -0.0014309008 -0.0091761444 4278733993
-0.00011425465 -0.0044990759 -0.007124221 4279258274
0.0014079809 -0.0028357059 -0.0084869079 4278538409
0.0032431185 -0.0027984139 -0.0085830707 4278472874
0.0054074824 -0.0043869279 -0.0074136145 4279456665
-0.042905353 -0.019902308 0.0042874468 4280111248
-0.041206308 -0.018233655 0.0029168222 4279587478
-0.039614834 -0.015748611 0.00091208983 4278669733
-0.037841104 -0.014896555 0.00017756782 4279259549
-0.036174953 -0.013228191 -0.0011910507 4279325084
-0.034310218 -0.013192426 -0.0012903465 4278931873
-0.032553073 -0.012340285 -0.0020237602 4279063199
-0.030691233 -0.012304356 -0.0021227393 4279128223
-0.029168315 -0.0098200124 -0.004123291 4279063199
-0.027546167 -0.0081518618 -0.0054891706 4278472619
-0.024213709 -0.0056319516 -0.0075854436 4278670244
-0.022497978 -0.0047799638 -0.008316176 4278998174
-0.020914339 -0.0031122155 -0.0096796826 4279324829
-0.019341711 -0.0014445316 -0.011042569 4279193249
-0.017648071 -0.00059273466 -0.01177188 4278538919
-0.01596 0.00025904551 -0.012500826 4278408104
-0.013865199 -0.0013360549 -0.011331636 4278735015
-0.011899777 -0.0021153186 -0.010795349 4278669223
-0.008244209 -0.0020422526 -0.010987813 4278995368
-0.0064166188 -0.0020055734 -0.011083923 4279519904
-0.0042871162 -0.0035995245 -0.0099162199 4278992819
-0.00030881166 -0.0051560691 -0.0088454485 4279192484
0.0012107044 -0.0034884028 -0.010204762 4278735013
0.0030430183 -0.0034512207 -0.010300819 4278538663
0.0050398186 -0.0042290268 -0.009765638 4278932129
0.0068745613 -0.0041916203 -0.0098616928 4281751664
-0.043123417 -0.019771352 0.0019054133 4279783574
-0.041336019 -0.018917125 0.0011715796 4279521689
-0.039650708 -0.017244216 -0.00019503571 4278407084
-0.037877064 -0.016389996 -0.00092794467 4279259803
-0.036006942 -0.016354255 -0.0010276213 4279194014
-0.034241632 -0.015499979 -0.0017599296 4279128479
-0.032481845 -0.014645683 -0.0024918485 4279390874
-0.030727595 -0.013791341 -0.003223436 4279456409
-0.028978877 -0.012937028 -0.003954595 4279325084
-0.027351301 -0.011264494 -0.0053175185 4279194014
-0.025616392 -0.010410188 -0.0060478244 4278799783
-0.02412913 -0.0079197073 -0.0080414172 4279061158
-0.022286966 -0.0078836409 -0.0081389658 4278537389
-0.020697914 -0.0062113907 -0.0094995722 4278931618
-0.018990636 -0.0053572683 -0.010228077 4279324828
-0.017552782 -0.0028673001 -0.012218792 4278800803
-0.015727401 -0.0028311517 -0.012315147 4278735013
-0.014039516 -0.0019771121 -0.013042405 4278801058
-0.0085726306 -0.0018680412 -0.013330381 4279847833
-0.0067505985 -0.001831485 -0.013426207 4279259548
-0.004626736 -0.0034299642 -0.012261413 4278735014
-0.0026458427 -0.0042106174 -0.01172727 4278668714
-0.0006596446 -0.0049910918 -0.011193356 4278276014
0.00069531053 -0.0025018547 -0.013179019 4278735014
0.002681233 -0.0032822117 -0.012644924 4278669988
0.0043432936 -0.0024277624 -0.013370208 4278473129
0.0081607103 -0.0031705815 -0.012931852 4279588244
0.010159612 -0.0039503137 -0.012398241 4280897668
-0.041278053 -0.021237673 0.00069307163 4282601579
-0.039493542 -0.02038121 -3.8908795e-05 4279520158
-0.037714556 -0.01952468 -0.00077053998 4279324319
-0.036043033 -0.017847518 -0.0021329951 4278866083
-0.034277804 -0.016991066 -0.0028636809 4278735014
-0.032625504 -0.015314021 -0.0042249989 4279390874
-0.030763939 -0.015278121 -0.0043239817 4279128478
-0.028902471 -0.015242105 -0.0044228695 4279324829
-0.027156644 -0.01438558 -0.0051521938 4279128224
-0.025416359 -0.013529083 -0.0058811642 4278472619
-0.023923624 -0.011031934 -0.007870255 4279062434
-0.022076152 -0.010995773 -0.0079680905 4278603689
-0.020481676 -0.0093191275 -0.0093257297 4279127968
-0.018898189 -0.0076425606 -0.010682756 4278800038
-0.017325692 -0.0059661772 -0.012039106 4278407339
-0.015764199 -0.0042898357 -0.01339482 4279062943
-0.013939057 -0.0042536072 -0.013491098 4278801058
-0.012394115 -0.0025774781 -0.014845777 4278604710
-0.0087553188 -0.00250482 -0.015037412 4278272443
-0.00132294 -0.0031780414 -0.014791423 4278669223
0.00065752119 -0.0039607473 -0.014258778 4278604199
0.0024814904 -0.0039237738 -0.014354426 4278603944
0.0041408017 -0.0030672904 -0.015077941 4278538409
0.0059617609 -0.0030302145 -0.01517331 4278341548
0.0096032396 -0.0029558688 -0.015363874 4278534584
0.011423767 -0.0029185731 -0.015459049 4280897414
0.01324413 -0.0028812569 -0.015554201 4282078063
-0.041501373 -0.021093406 -0.0016788067 4279645364
-0.039722398 -0.020234853 -0.0024088621 4282274413
-0.037948944 -0.019376313 -0.0031385552 4281095294
-0.036180999 -0.018517766 -0.0038678721 4279326104
-0.034313958 -0.018482007 -0.003967328 4278801314
-0.032339666 -0.019268859 -0.0034373403 4279455899
-0.030690201 -0.017587472 -0.0047951713 4279586968
-0.02893893 -0.016728744 -0.0055233017 4279128224
-0.027308688 -0.015047509 -0.0068799499 4279062689
-0.025571201 -0.014188884 -0.0076071527 4278800038
-0.023960218 -0.012507755 -0.0089626517 4279390109
-0.022112872 -0.012471608 -0.0090604909 4279062434
-0.020518411 -0.010790667 -0.010414941 4279389854
-0.018676721 -0.010754429 -0.010512332 4278603944
-0.017098796 -0.0090735443 -0.011865782 4278537898
-0.015397325 -0.0082150251 -0.012590632 4278341804
-0.013975948 -0.0057121739 -0.014570676 4278539429
-0.012431011 -0.0040317113 -0.01592214 4279521689
-0.011039786 -0.0015292708 -0.017900458 4278801313
-0.0036427006 -0.002205899 -0.017654544 4278537644
-0.0016731396 -0.0029910877 -0.017123001 4278538918
0.00030172616 -0.0037760977 -0.016591683 4278669734
0.0021201596 -0.0037392713 -0.016687065 4278407084
0.0036095306 -0.0020591449 -0.018035034 4278865574
0.0072348192 -0.0019853264 -0.018224897 4278401984
0.010859527 -0.0019112192 -0.018414507 4278730933
0.012849711 -0.0026954059 -0.017883612 4279913114
0.014845178 -0.0034794249 -0.017352948 4278671009
0.017396361 -0.0067269383 -0.014946455 4279589264
-0.045464333 -0.021010879 -0.0038440712 4282601069
-0.034350097 -0.01997277 -0.0050708428 4281685618
-0.032483276 -0.019936897 -0.0051701982 4278998684
-0.030616544 -0.019900929 -0.0052694771 4279455898
-0.028975368 -0.018215204 -0.0066236034 4279390109
-0.027345143 -0.016529636 -0.0079770368 4278668968
-0.025725923 -0.01484411 -0.0093298312 4278800803
-0.023875888 -0.014808023 -0.0094278939 4278800803
-0.022149563 -0.013947275 -0.01015277 4279194014
-0.020428784 -0.013086531 -0.010877272 4278931874
-0.018842608 -0.011401298 -0.01222798 4279062944
-0.017135642 -0.010540572 -0.01295164 4278538409
-0.015434232 -0.0096798996 -0.013674891 4279259039
-0.013738375 -0.0088192532 -0.014397785 4278538409
-0.012467869 -0.0054857889 -0.016998392 4278603944
-0.010933943 -0.0038011074 -0.018345984 4279390364
-0.0092656463 -0.002940692 -0.019067263 4278998174
-0.0071586296 -0.0045527006 -0.017911369 4278604453
-0.0053424761 -0.0045162737 -0.018006893 4278538919
-0.0036799982 -0.0036557335 -0.018727617 4278604199
-0.0020230785 -0.002795212 -0.019448048 4278538918
-5.3800642e-05 -0.0035825949 -0.018918043 4278472874
0.0019207671 -0.0043697162 -0.018388277 4278603433
0.0048831254 -0.0010010675 -0.021076942 4279061923
0.0068572909 -0.0017879941 -0.020547001 4278603433
0.0086641982 -0.0017511211 -0.020641571 4279321258
0.010821491 -0.0033613443 -0.019487744 4279124399
0.012811534 -0.0041477112 -0.018958459 4279520413
0.014806859 -0.0049339468 -0.01842943 4278801568
0.017541155 -0.0090136034 -0.015405688 4278998939
0.020116314 -0.012269283 -0.013006872 4280112524
0.022901915 -0.016347747 -0.0099857021 4282668134
-0.047540464 -0.020883683 -0.0061035175 4282271609
-0.030872844 -0.019737445 -0.007624872 4281619829
-0.029124457 -0.018874519 -0.0083496198 4279390108
-0.027381584 -0.018011607 -0.0090740081 4279062688
-0.025644261 -0.017148664 -0.0097979959 4278800548
-0.023912482 -0.016285699 -0.010521669 4278997153
-0.02218622 -0.015422786 -0.011244934 4278931874
-0.020465512 -0.014559888 -0.011967836 4278997664
-0.018750351 -0.013696995 -0.012690363 4279128478
-0.017040726 -0.012834116 -0.013412533 4279128479
-0.015336666 -0.011971205 -0.014134375 4278800803
-0.01363815 -0.011108357 -0.014855815 4278800549
-0.012224957 -0.0085925702 -0.016825711 4278800549
-0.0070476905 -0.0068308162 -0.018361969 4278734504
-0.0052289441 -0.0067943549 -0.018457646 4278669989
-0.0038707256 -0.0042792531 -0.020424338 4278865573
-0.0022165701 -0.0034166835 -0.021142995 4278800549
-0.00056798756 -0.0025541428 -0.021861294 4278735015
0.0013982952 -0.0033436511 -0.021332735 4278603433
0.0045114458 -0.00079264306 -0.023391141 4278865318
0.0063102394 -0.00075603649 -0.023485361 4279062688
0.0082814097 -0.0015451573 -0.022956846 4279324319
0.01043307 -0.0031598266 -0.021806007 4278537643
0.01259549 -0.0047742547 -0.020655645 4278668458
0.01494924 -0.0072139641 -0.018883569 4278867103
0.017869264 -0.012130076 -0.015245872 4279129243
0.020821705 -0.017045403 -0.011609856 4280767109
0.023617812 -0.021134559 -0.0085973293 4282340968
-0.051544175 -0.019952185 -0.0088832285 4282797674
-0.049605258 -0.020747259 -0.008356953 4282208114
-0.029160794 -0.02035851 -0.009448098 4280767108
-0.027418002 -0.019493433 -0.010170873 4282406248
-0.025680743 -0.018628361 -0.010893278 4280373899
-0.023949042 -0.017763244 -0.011615349 4279718038
-0.022099357 -0.01772709 -0.011713339 4279128989
-0.020375993 -0.01686199 -0.012434786 4278801569
-0.01878712 -0.015168067 -0.013779229 4279194523
-0.016945899 -0.015131826 -0.013876583 4279063199
-0.015104789 -0.015095478 -0.013973853 4279128734
-0.013263796 -0.015059026 -0.014071036 4278931619
-0.01198221 -0.011708008 -0.01665937 4279259294
-0.010294862 -0.01084305 -0.017378492 4278537898
-0.0070848241 -0.0082846954 -0.019438053 4278800294
-0.0052661672 -0.0082482714 -0.019533752 4278537899
-0.0037544668 -0.0065550823 -0.020873534 4279127713
-0.0024099126 -0.0040336782 -0.022834631 4278997918
-0.00092293322 -0.0023408346 -0.024172997 4278539685
0.00087618828 -0.0023044609 -0.024267415 4278474149
0.0041400194 -0.00057536922 -0.025698861 4278337723
0.0061030239 -0.0013669096 -0.025171595 4278732209
0.0078988895 -0.001330344 -0.025265643 4278928813
0.010220103 -0.0037774686 -0.023496801 4278339253
0.012557477 -0.0062241992 -0.021728752 4278799528
0.015091568 -0.0094982693 -0.019340882 4278932893
0.018197179 -0.015255108 -0.015092468 4279391128
0.02115465 -0.020183416 -0.011466421 4281357434
-0.031384744 -0.01938403 -0.01231602 4281288583
-0.024106301 -0.018409442 -0.013331084 4281946993
-0.022259459 -0.018373389 -0.013428954 4279325339
-0.020665061 -0.016675141 -0.014770562 4279325338
-0.018823862 -0.016638994 -0.014867987 4279325339
-0.017114367 -0.015771834 -0.01558697 4279129243
-0.015276097 -0.015735574 -0.015684113 4279259804
-0.013574988 -0.014868311 -0.016402526 4278997664
-0.011879429 -0.014001124 -0.017120548 4278603179
-0.010189414 -0.013133987 -0.017838234 4278472364
-0.0083597526 -0.013097523 -0.017934645 4279062178
-0.0068260506 -0.011399702 -0.019272545 4278865828
-0.0051527098 -0.010532613 -0.019989142 4279127203
-0.0034849271 -0.0096655637 -0.020705393 4278537899
-0.00064242631 -0.0054403115 -0.023997435 4278277289
0.0010005161 -0.0045735268 -0.024712207 4278998683
0.0028021336 -0.0045370851 -0.02480674 4278671008
0.0041027814 -0.0020097997 -0.026760513 4278732973
0.0058959723 -0.0019733645 -0.02685448 4278535093
0.009832181 -0.0035605617 -0.025803605 4278668458
0.012341678 -0.006843918 -0.023420962 4278867359
0.015053295 -0.010956801 -0.020420337 4278998683
0.01852493 -0.018388728 -0.014945421 4280964479
0.021115497 -0.021670332 -0.012566878 4282667368
-0.03142073 -0.020861194 -0.013409454 4281487993
-0.020701643 -0.018145911 -0.015859215 4282208624
-0.018989403 -0.01727663 -0.01657681 4279916174
-0.017151136 -0.017240476 -0.016674032 4279522963
-0.015447259 -0.016371116 -0.017391078 4279455388
-0.013611931 -0.01633485 -0.017488016 4278930854
-0.011776716 -0.016298488 -0.017584877 4278669224
-0.0099416003 -0.016262047 -0.017681668 4279259039
-0.0082517564 -0.015392651 -0.018397668 4278931363
-0.0068632141 -0.012857676 -0.020351665 4279259294
-0.0050393268 -0.012821194 -0.020447673 4279062688
-0.0033688694 -0.011951953 -0.021162478 4278800293
-0.0015479475 -0.011915371 -0.021258207 4278406574
-0.0002033636 -0.0093809785 -0.0232096 4278734504
0.001286231 -0.0076793265 -0.024541685 4278734249
0.0029290244 -0.006810355 -0.025254825 4279259294
0.0043993592 -0.005109 -0.026585752 4279653779
0.006028302 -0.0042400975 -0.02729808 4278998684
0.0078240111 -0.0042036287 -0.027392196 4278604454
0.0099696666 -0.0058316067 -0.026250755 4278538919
0.012481585 -0.0091237035 -0.023874687 4278538664
0.015376039 -0.014079581 -0.02026484 4280505223
0.018669322 -0.020698907 -0.015421996 4280505223
-0.03330645 -0.022373745 -0.014404327 4281291389
-0.017056361 -0.019544316 -0.017142626 4281620594
-0.015349828 -0.018672803 -0.017858179 4278602414
-0.013785772 -0.016966097 -0.019191539 4279127713
-0.011953391 -0.016929798 -0.019288255 4278930598
-0.0099787265 -0.017728517 -0.018767098 4278800293
-0.0079987347 -0.018527104 -0.018246124 4279259039
-0.0066046864 -0.015985519 -0.02019559 4278866084
-0.0047754645 -0.015948964 -0.020291904 4278472618
-0.0030996129 -0.015077487 -0.021005416 4278735013
-0.0015852973 -0.013371157 -0.022335695 4279128479
-8.1963837e-05 -0.011665046 -0.023665326 4278734759
0.0015717894 -0.010793795 -0.024377512 4278931109
0.0033840984 -0.01075721 -0.024472659 4279127714
0.006330125 -0.0073456559 -0.027128397 4278342059
0.0079589188 -0.0064746244 -0.027839059 4279981199
0.010282084 -0.0089413337 -0.026084946 4279259804
0.012976833 -0.013076412 -0.023099648 4278604454
0.016059436 -0.018879578 -0.018884053 4280110994
0.018996805 -0.023847576 -0.015286095 4282012273
-0.0118507 -0.019231318 -0.019755663 4280767108
-0.010015801 -0.019194927 -0.01985248 4280242064
-0.0083260536 -0.018321272 -0.02056531 4278603944
-0.0067896247 -0.016610477 -0.021893701 4279062178
-0.0049632192 -0.016574034 -0.021989906 4279062944
-0.0032901317 -0.015700413 -0.022701712 4279193759
-0.0016225949 -0.014826894 -0.023413146 4279390364
-0.00011924654 -0.013116462 -0.024739573 4278996898
0.0013731197 -0.011406144 -0.026065411 4278996898
0.0033467039 -0.012206532 -0.025545346 4279194014
0.0049920082 -0.011333112 -0.026255427 4278866083
0.0068012625 -0.011296496 -0.026350347 4278931618
0.0082659796 -0.0095865168 -0.027674502 4278538154
0.010594331 -0.012059717 -0.025925482 4278800294
0.013471812 -0.017042145 -0.022334186 4280962184
0.016562082 -0.022860341 -0.01813033 4282142578
-0.035644397 -0.022002138 -0.01895869 4281290879
-0.017261222 -0.021645764 -0.01993476 4282667878
-0.012027182 -0.019858064 -0.02145567 4282668390
-0.010337375 -0.018982349 -0.022166977 4280571779
-0.0083631426 -0.019785408 -0.021649009 4278996898
-0.0069744065 -0.017230956 -0.02358857 4279325084
-0.0048499778 -0.018873161 -0.022456253 4278997664
-0.0030210689 -0.018836616 -0.022552544 4279259294
-0.0015039891 -0.017121652 -0.023876613 4279127714
2.1010637e-06 -0.015406875 -0.025199996 4279259294
0.0013359189 -0.012853154 -0.027136395 4279455644
0.0033093467 -0.013655759 -0.026617965 4279062688
0.0049546361 -0.012780208 -0.027326463 4278800548
0.0067638084 -0.01274363 -0.027421406 4279194014
0.0085728616 -0.012706995 -0.0275163 4278931874
0.010906406 -0.015186651 -0.025772417 4279390364
0.013611324 -0.019343365 -0.02280386 4280832643
0.016523533 -0.0243381 -0.019224035 4282339948
-0.017560516 -0.021430314 -0.022248695 4282209133
-0.010658674 -0.018760957 -0.024475025 4282340713
-0.0086900443 -0.019566366 -0.02395835 4282471273
-0.0070113689 -0.018688541 -0.024667414 4280700043
-0.0050375164 -0.01949369 -0.024150899 4279324829
-0.0032114163 -0.019457253 -0.024247089 4279127969
-0.0013854355 -0.019420734 -0.024343209 4279258273
0.00012338161 -0.017701527 -0.025663564 4279324573
0.0014600083 -0.015141338 -0.027595283 4279456154
0.0029441565 -0.013422526 -0.028914267 4279324574
0.0047506541 -0.013386116 -0.02900915 4279259294
0.0067264214 -0.014190692 -0.028492415 4278997664
0.008707501 -0.014995173 -0.027975889 4278997409
0.011043519 -0.017481294 -0.026237046 4279719569
0.013395727 -0.019967088 -0.024498979 4281882223
-0.017859552 -0.021206152 -0.024556125 4281487993
-0.010837562 -0.019374616 -0.026165159 4281882224
-0.0034016147 -0.020073412 -0.025938386 4281358708
-0.0015784428 -0.020036992 -0.026034391 4279783064
8.6151063e-05 -0.019157035 -0.026740851 4279325339
0.0015840307 -0.017433764 -0.028057383 4279521689
0.003234826 -0.016553983 -0.028763043 4279062178
0.0050466806 -0.016517513 -0.028858246 4279258273
0.0068584159 -0.016480986 -0.028953398 4279325083
0.0090141296 -0.018130736 -0.027828859 4278997664
0.010831058 -0.018093996 -0.027924204 4280571779
0.013002828 -0.019743303 -0.026800426 4282406759
-0.018027097 -0.021819308 -0.026246721 4282405483
-0.010732077 -0.021675726 -0.026632456 4282471273
-0.00010941923 -0.019766875 -0.028427029 4280637058
0.0017080158 -0.019730473 -0.028522657 4279062179
0.0031976551 -0.018003002 -0.02983552 4278603943
0.0051759854 -0.018812021 -0.02932225 4279194524
0.0071596354 -0.019620884 -0.028809221 4278671009
0.008976616 -0.019584263 -0.028904656 4279129754
0.010793485 -0.019547559 -0.029000027 4280768639
-0.017932128 -0.024124784 -0.026716473 4281029249
-0.010910757 -0.022284882 -0.028319264 4283059559
-0.0003048256 -0.020372283 -0.030109929 4281881968
0.0033243299 -0.020299628 -0.030300917 4282079339
0.005305253 -0.021110838 -0.029789442 4280375428
0.0071222633 -0.021074314 -0.029884955 4279261079
0.0091110989 -0.02188525 -0.029373815 4279523218
0.010581329 -0.020153651 -0.030682305 4281882988
-0.011089258 -0.022889651 -0.030002827 4281685364
-0.00050006807 -0.020973319 -0.031789593 4282338418
0.0070849657 -0.022527693 -0.030960659 4282210154
0.0087299272 -0.021641493 -0.03166116 4280835194
-0.011409536 -0.022637587 -0.032288119 4282209644
-0.011729561 -0.022376733 -0.034566976 4282013039
-0.012049295 -0.022107221 -0.036839359 4282209899
-0.012510531 -0.020969987 -0.039705485 4282733159
-3.3318996e-05 -0.023589298 -0.042490609 4281682559
0.0025759563 -0.02786826 -0.039606281 4282143344
-0.00055126846 -0.022427542 -0.045334704 4278992054
0.0018861815 -0.025852513 -0.043052189 4282665838
0.0038471073 -0.026682034 -0.042552881 4283058794
0.027007192 0.0031793565 0.025422316 4285229864
0.029295608 0.0016683601 0.026640836 4284966959
0.023752049 0.0070573557 0.019790139 4285294888
0.025065646 0.0094292592 0.017720295 4285361444
0.026748292 0.010245897 0.016965568 4285818913
0.02881629 0.0095074996 0.017525254 4285883938
0.0067845061 -0.0042053349 0.027543236 4285360168
0.022400633 0.011005666 0.014081738 4285492259
0.023695275 0.013383744 0.012017678 4285885468
0.02555161 0.013422431 0.01192112 4286147354
0.027407706 0.013461201 0.011824637 4286146843
0.02985812 0.011161255 0.013693949 4285950239
0.03272637 0.0073026866 0.016872674 4285228844
0.0045114085 -0.004215423 0.025195163 4285165093
0.020495906 0.009472033 0.013072507 4285558303
0.021798968 0.01185677 0.011012821 4285821209
0.023465484 0.012677306 0.01026215 4285557283
0.024933651 0.014279744 0.0088579068 4285557283
0.026586145 0.015100127 0.0081080683 4285688863
0.028431095 0.015138721 0.0080122072 4286148883
0.030878305 0.012832237 0.0098768882 4285754654
0.033545159 0.0097445268 0.012394129 4285362208
0.036646031 0.0050941408 0.016216682 4285296929
0.019349292 0.012682749 0.0080499658 4285558559
0.021010511 0.013505301 0.0073011452 4285821209
0.022286311 0.015896002 0.005247795 4286017304
0.023930825 0.016718393 0.0044999141 4285623073
0.025960363 0.015972665 0.0050567547 4285557284
0.028391249 0.013659285 0.0069173472 4285754653
0.030436672 0.012914067 0.0074734222 4285689884
0.03228385 0.012952821 0.0073775295 4285558814
0.034543224 0.01142407 0.0085849101 4285493534
0.037022181 0.0091118962 0.010443229 4285427489
0.039093941 0.0083674379 0.010998089 4285230118
0.017461278 0.011163048 0.0070499424 4285492768
0.018756583 0.01356055 0.005000324 4285559069
0.020596743 0.013598772 0.0049045095 4285690139
0.022057034 0.015209673 0.0035070768 4286018323
0.023506261 0.016820351 0.0021103015 4286017049
0.025334962 0.016858535 0.0020152321 4285951514
0.027559437 0.015324561 0.003221021 4285951768
0.029794581 0.013790818 0.0044263331 4285689884
0.031836964 0.013043402 0.0049809841 4285558559
0.033884563 0.012296153 0.0055354042 4285558813
0.035728559 0.012334956 0.005439763 4285624349
0.037360772 0.013159623 0.0046944683 4285624349
0.039201632 0.013198456 0.0045990599 4286213398
0.041476294 0.011665905 0.0058025196 4286147098
0.044640452 0.0069909412 0.0096026417 4286212379
-0.0006474182 -0.0025733225 0.016785815 4285425958
0.015573263 0.0096436329 0.0060501322 4285360424
0.01651375 0.013625072 0.0027055573 4285558814
0.017979898 0.015240232 0.0013109632 4285623838
0.020183221 0.013701214 0.0025144359 4285689629
0.02163811 0.015316291 0.0011205412 4285623584
0.023466937 0.015354404 0.0010254113 4285820699
0.025295541 0.015392577 0.0009303391 4285820699
0.02751983 0.013854241 0.0021329047 4285623838
0.029353477 0.013892645 0.0020376658 4285558303
0.031390309 0.013142882 0.0025910214 4285558303
0.033226281 0.013181461 0.0024957536 4285624094
0.035479657 0.011643933 0.0036969585 4285624348
0.036897644 0.013258731 0.0023053465 4285754399
0.038518772 0.014085436 0.0015622405 4286016539
0.040351227 0.014124131 0.001467295 4286212889
0.042842448 0.011799319 0.0033154124 4286147098
0.046016864 0.0071115773 0.0071052867 4285951259
0.049448714 0.0016367938 0.011540933 4285163564
0.015176274 0.0097444206 0.0036577908 4285558558
0.016474649 0.012155002 0.0016175918 4285951514
0.018125117 0.012983775 0.00087411422 4286082838
0.019956946 0.013021821 0.00077873282 4286017558
0.021788597 0.013059923 0.00068340544 4285688863
0.023812495 0.012307486 0.0012355773 4285623584
0.025841609 0.011555206 0.0017875833 4285558304
0.027480237 0.012384122 0.0010449411 4285558559
0.02951441 0.011632064 0.0015967702 4285624348
0.031350516 0.011670571 0.0015014419 4285624093
0.033186428 0.011709124 0.0014061583 4285623583
0.035022132 0.011747731 0.0013109324 4285886489
0.036434747 0.01336679 -7.7228062e-05 4285820443
0.038050458 0.014195492 -0.00081841368 4285557029
0.03987743 0.014234064 -0.00091307797 4285623074
0.042143397 0.012692647 0.00028438773 4285754653
0.044420034 0.011151446 0.0014813682 4285688863
0.047157355 0.0080307368 0.0039693741 4285689373
0.050827131 0.0017511584 0.0090387892 4285492768
0.013293914 0.0082299802 0.0026612887 4285492258
0.014421947 0.011440219 -2.1121465e-05 4285558559
0.015891045 0.01306407 -0.0014094664 4286214673
0.01753331 0.013894899 -0.0021509379 4286148629
0.019356899 0.013932763 -0.0022458993 4285951258
0.021180309 0.013970671 -0.002340816 4286083348
0.023580685 0.011630343 -0.00049808528 4285689118
0.025606953 0.010875843 5.2395277e-05 4285558558
0.027440667 0.010914175 -4.2901374e-05 4285558813
0.029073648 0.011745149 -0.00078356639 4285624348
0.030904248 0.011783531 -0.00087861437 4285624349
0.032734662 0.01182195 -0.00097362604 4285623839
0.034564875 0.011860436 -0.0010685725 4285754909
0.035972118 0.013483686 -0.0024531912 4286083349
0.037368283 0.015106784 -0.0038372446 4286148883
0.039187074 0.015145151 -0.0039315112 4285885978
0.04122518 0.014391387 -0.0033812802 4286083093
0.043713041 0.012053458 -0.0015426716 4286083349
0.04644195 0.0089238416 0.0009392919 4285427233
0.050558411 0.0010425802 0.0072842981 4285427234
0.012550808 0.0099349301 -0.0010115905 4285558304
0.014204293 0.010767948 -0.0017521242 4285886488
0.015670702 0.012396144 -0.0031371377 4285623074
0.017126054 0.014024144 -0.0045214742 4285557028
0.018944129 0.014061863 -0.004616173 4285885978
0.020762019 0.014099663 -0.0047107972 4286017559
0.022964358 0.012547662 -0.0035168882 4285689374
0.025177404 0.010995891 -0.0023234598 4285558303
0.027005605 0.011034079 -0.0024184939 4285558814
0.02883362 0.011072334 -0.0025134645 4285690139
0.030458249 0.011905344 -0.0032520536 4285624349
0.03228315 0.01194364 -0.0033467822 4285623839
0.034107871 0.011982003 -0.0034414511 4285689374
0.035721079 0.01281496 -0.0041793827 4285820699
0.037114613 0.014442308 -0.0055600349 4286214929
0.03871385 0.015275022 -0.006297132 4286016794
0.040746428 0.014518933 -0.0057482533 4286082838
0.043228641 0.012174336 -0.0039142147 4285623839
0.046176732 0.0082416348 -0.00079587195 4285426979
0.05097273 -0.0020441134 0.0074603888 4285426978
0.0098703429 0.0036068484 0.0019564377 4287260174
0.010333225 0.01002492 -0.0032890961 4285426213
0.011808157 0.011657473 -0.0046714526 4285689884
0.013272062 0.013289837 -0.0060531273 4286017559
0.014724903 0.014922092 -0.0074342154 4285688863
0.016350813 0.01575687 -0.0081715845 4285557284
0.018157929 0.015794365 -0.0082657058 4285557284
0.020343974 0.014237521 -0.0070742164 4285820189
0.022348434 0.013478143 -0.0065258835 4285755163
0.024553113 0.011921866 -0.0053353067 4285624093
0.026373096 0.011959905 -0.0054298956 4285624349
0.027992472 0.012794895 -0.0061666593 4285624093
0.029403113 0.014426714 -0.007545149 4285623583
0.031420216 0.013667909 -0.0069972444 4285623583
0.033442572 0.012909232 -0.006449597 4285689119
0.035258904 0.012947431 -0.0065438189 4285623583
0.036861047 0.013782343 -0.0072794836 4285754909
0.038674295 0.013820561 -0.0073734839 4285754908
0.040926181 0.012265725 -0.0061850231 4285689884
0.043632999 0.0091181789 -0.0037148707 4285558559
0.047260731 0.0027853139 0.001317923 4285427489
0.009948276 0.010161616 -0.0056556836 4285427233
0.011417799 0.011798354 -0.0070344955 4285558303
0.012876295 0.013434997 -0.0084127095 4285952023
0.014142402 0.015870938 -0.010431845 4286082583
0.015760124 0.016707694 -0.011167189 4286082584
0.017559007 0.01674501 -0.011260891 4286016794
0.019926183 0.014384324 -0.0094310939 4286083604
0.021925062 0.013622651 -0.0088840853 4285624093
0.024124116 0.012061866 -0.0076964013 4285624348
0.0259386 0.012099737 -0.0077907424 4285624348
0.027752899 0.012137661 -0.0078850314 4285689629
0.02936393 0.012974719 -0.0086197015 4285886489
0.030969352 0.013811732 -0.0093540978 4286214928
0.032986164 0.013050722 -0.0088077392 4286149139
0.035008229 0.012289884 -0.0082616769 4285754654
0.036821589 0.012328068 -0.0083557107 4285689374
0.038634785 0.012366248 -0.0084497351 4285624349
0.040886492 0.010807063 -0.0072644856 4285624093
