# .PCD v0.7 - Point Cloud Data file format
VERSION 0.7
FIELDS x y z rgba
SIZE 4 4 4 4
TYPE F F F U
COUNT 1 1 1 1
WIDTH 963
HEIGHT 1
VIEWPOINT 0 0 0 1 0 0 0
POINTS 963
DATA ascii
-0.013254747 -0.0090051135 0.0065594753 4289932574
-0.011191308 -0.0097512612 0.0070972359 4290063389
-0.0093886405 -0.0089208093 0.0063303933 4289867293
-0.0075915493 -0.008090362 0.0055639707 4289671710
-0.037054412 -0.022955434 0.016706221 4287772214
-0.035079226 -0.022914004 0.016587965 4287510838
-0.033299271 -0.021290224 0.015164436 4287446324
-0.031730901 -0.018084355 0.012436609 4287642419
-0.03028743 -0.014087826 0.0090578226 4288035118
-0.028659791 -0.011673664 0.006985127 4288297004
-0.026831631 -0.010841541 0.0062176036 4289212199
-0.025009029 -0.010009411 0.0054505095 4289539619
-0.023191977 -0.0091772489 0.0046837805 4290455578
-0.021497115 -0.007554397 0.0032659862 4289800993
-0.019693896 -0.0067223441 0.0025002947 4288819753
-0.017652057 -0.007471459 0.003037475 4288885289
-0.01572971 -0.0074298317 0.0029233508 4290128159
-0.013679951 -0.0081785731 0.0034602135 4290258974
-0.011755139 -0.008136658 0.0033461172 4289735969
-0.0096974708 -0.0088849906 0.0038826875 4289932829
-0.0076344982 -0.0096331425 0.0044190632 4289409313
-0.0059815049 -0.0080102468 0.003004387 4287710248
-0.039428398 -0.021400081 0.013047646 4286136898
-0.037280049 -0.022945877 0.014232765 4287248953
-0.035120882 -0.024491301 0.015417271 4287641909
-0.033243448 -0.023656458 0.014648055 4287445813
-0.031572029 -0.021235069 0.012577432 4287642164
-0.029917043 -0.018813975 0.010507905 4287642419
-0.028384175 -0.015599919 0.0077888491 4287969583
-0.026656363 -0.01397232 0.0063720271 4289016104
-0.025050685 -0.011551902 0.0043057185 4289277478
-0.023347583 -0.0099245943 0.0028905449 4289735714
-0.021772053 -0.0075045787 0.00082621351 4290520603
-0.019974373 -0.0066704126 6.2438659e-05 4290978840
-0.018060215 -0.0066290703 -5.1278621e-05 4290716954
-0.016021416 -0.0073803859 0.00048456714 4290586139
-0.0139773 -0.0081314156 0.0010201521 4289866273
-0.012188271 -0.0072970288 0.00025726855 4289801504
-0.010271896 -0.0072551752 0.00014376454 4289605154
-0.0083556585 -0.0072132163 3.0348077e-05 4289344034
-0.0064395517 -0.0071711643 -8.2988292e-05 4288626464
-0.035541482 -0.022886155 0.011648306 4287510583
-0.033382658 -0.024435829 0.012829748 4287641399
-0.031613767 -0.022803402 0.011413419 4287511094
-0.029958755 -0.020375777 0.0093487492 4287511349
-0.028320178 -0.017948316 0.0072851246 4287642419
-0.026698031 -0.015521113 0.0052225487 4288035118
-0.025203407 -0.012298929 0.002512428 4289212453
-0.023616858 -0.0098722475 0.00045222696 4289081383
-0.02204676 -0.0074457768 -0.0016069654 4289473828
-0.020373847 -0.0058146017 -0.0030169087 4290062623
-0.018346027 -0.0065683853 -0.0024821446 4290193694
-0.016312886 -0.0073219435 -0.001947613 4290389533
-0.014274418 -0.0080752745 -0.001413316 4289669923
-0.012621053 -0.0064440491 -0.0028217463 4289801504
-0.010845833 -0.0056076786 -0.0035821111 4289735968
-0.0088050365 -0.0063606286 -0.0030477052 4289474593
-0.0070355348 -0.0055241464 -0.003807555 4289802014
-0.0051305965 -0.0054822341 -0.0039201532 4289477909
-0.033716559 -0.023615256 0.0097191548 4286855998
-0.031855747 -0.022776296 0.008954254 4287445559
-0.030206166 -0.02034222 0.0068947235 4287314999
-0.028467439 -0.018705875 0.0054836599 4287773234
-0.026631393 -0.017867066 0.0047205184 4288362029
-0.025022935 -0.015433488 0.0026637176 4288754728
-0.023317177 -0.013797459 0.0012548342 4288820009
-0.021855336 -0.010567084 -0.0014466401 4289081383
-0.020177018 -0.0089313891 -0.0028537023 4289473829
-0.018509686 -0.0072958786 -0.0042599975 4289866274
-0.016354837 -0.0088487305 -0.003080694 4289670434
-0.014571279 -0.0080102198 -0.0038400954 4290128414
-0.012663215 -0.0079686884 -0.0039532124 4290390299
-0.011153679 -0.0055363169 -0.0060034408 4290848534
-0.0092540421 -0.0054947268 -0.0061158785 4291110419
-0.007631015 -0.0038595069 -0.0075190449 4290979859
-0.0053142086 -0.0062079998 -0.0056952136 4289279008
-0.0035559535 -0.0053693634 -0.0064526862 4289608724
-0.032097485 -0.022740209 0.0065016821 4286921533
-0.030247748 -0.021899188 0.0057391524 4287052859
-0.028509058 -0.020258505 0.0043313215 4287642163
-0.02678135 -0.018617887 0.0029241955 4288427564
-0.02495366 -0.017776974 0.0021632509 4287969584
-0.023358896 -0.015337035 0.00011221971 4287838769
-0.021780554 -0.012897401 -0.0019377251 4287969839
-0.020337805 -0.0096585974 -0.0046315603 4289212198
-0.018795073 -0.0072194394 -0.0066792443 4289866019
-0.016895071 -0.0071782954 -0.0067920419 4290128159
-0.014867891 -0.0079362774 -0.0062602777 4290324764
-0.013095431 -0.0070956824 -0.0070173652 4290324764
-0.011461269 -0.00545609 -0.0084181186 4290651929
-0.0097026639 -0.0046156291 -0.0091741849 4290652183
-0.0078114606 -0.0045741247 -0.0092860498 4291045138
-0.005638577 -0.0061302977 -0.0081105782 4290652694
-0.0038858354 -0.0052896431 -0.0088660577 4289606174
-0.0019923374 -0.0052477699 -0.0089778211 4289674004
-0.030392058 -0.022654008 0.0039395019 4286922044
-0.028445207 -0.022612691 0.003823298 4287773233
-0.026606627 -0.021769481 0.003063242 4287969839
-0.024773587 -0.020926272 0.0023036031 4287773489
-0.023059718 -0.019281376 0.00090070441 4288034863
-0.02158954 -0.0160334 -0.0017883764 4287773744
-0.020141244 -0.012785792 -0.0044760788 4288296748
-0.018593028 -0.010340055 -0.0065192068 4289081383
-0.016812239 -0.0094973799 -0.0072752996 4290389788
-0.015037015 -0.0086546857 -0.008031032 4290586139
-0.013267349 -0.0078120297 -0.0087863002 4290847769
-0.011768609 -0.0053668665 -0.010826195 4289016104
-0.010015529 -0.0045243762 -0.011580334 4288950568
-0.0082680136 -0.0036818665 -0.012334038 4289474849
-0.0059626997 -0.0060436698 -0.010519244 4289474849
-0.0042154714 -0.0052009262 -0.011272828 4289867293
-0.0021812469 -0.0059601897 -0.01074255 4290391829
-0.00043974817 -0.0051173689 -0.011495644 4290327824
-0.030638911 -0.022600196 0.0015005823 4287445303
-0.028592266 -0.023362989 0.002027221 4288099888
-0.026648376 -0.023321623 0.001911277 4287380533
-0.024815425 -0.022476252 0.001153253 4287838769
-0.023101587 -0.020827005 -0.00024640374 4287838768
-0.021631323 -0.017570347 -0.00292903 4287512114
-0.020063918 -0.015117793 -0.0049685328 4287773743
-0.018634681 -0.011861791 -0.0076485495 4288296748
-0.01710289 -0.009409748 -0.009685819 4289539108
-0.015460353 -0.0077614989 -0.011080762 4289735459
-0.013698939 -0.0069168089 -0.011833968 4290782233
-0.012075696 -0.0052687787 -0.013227618 4290520603
-0.010192782 -0.0052275816 -0.013339086 4290586904
-0.0081719346 -0.0059895776 -0.012809906 4290325018
-0.0061457902 -0.0067513231 -0.012280939 4290848533
-0.0044013411 -0.0059065297 -0.013032714 4290194459
-0.0025162548 -0.0058648735 -0.013144003 4289933084
-0.0006313026 -0.0058231112 -0.013255204 4290260248
0.0014051646 -0.0065842308 -0.01272655 4290131219
-0.026906248 -0.023261251 -0.00052200397 4286595134
-0.024968043 -0.023219893 -0.0006375243 4287641908
-0.023256954 -0.021566408 -0.0020337463 4287511349
-0.021556862 -0.019912999 -0.003429269 4287839279
-0.0197488 -0.019065652 -0.0041839438 4287839278
-0.018311307 -0.01580078 -0.0068579828 4288100908
-0.016895689 -0.012536335 -0.0095306132 4288820263
-0.015374862 -0.010077875 -0.01156228 4288885289
-0.013740633 -0.0084253214 -0.012953468 4290389789
-0.012117404 -0.0067729503 -0.014343886 4290782489
-0.010369912 -0.0059262319 -0.015094456 4290848534
-0.0083519705 -0.0066904724 -0.014566729 4291110163
-0.0061880127 -0.0082598813 -0.013400434 4290979348
-0.0044436306 -0.0074129254 -0.014150593 4289605919
-0.0027048215 -0.0065659862 -0.014900344 4289998108
-0.00097158551 -0.0057190871 -0.015649702 4289670688
0.00090763718 -0.0056773564 -0.015760496 4289540384
0.0027867407 -0.0056355437 -0.015871217 4290195988
-0.027379882 -0.021575421 -0.0042269225 4286006338
-0.025231257 -0.023150792 -0.0030638329 4287118138
-0.02329874 -0.023109429 -0.0031789197 4287642164
-0.021482494 -0.022259837 -0.0039325417 4287773489
-0.019790702 -0.020602159 -0.0053242613 4288297258
-0.018231496 -0.018136652 -0.0073535065 4288755238
-0.016688734 -0.015671344 -0.009381732 4289016868
-0.015289471 -0.012398403 -0.012046879 4288362538
-0.013912089 -0.0091258176 -0.014710641 4289147429
-0.012291603 -0.0074691614 -0.016097663 4289539619
-0.010546889 -0.0066203577 -0.016846474 4289801759
-0.0083939284 -0.0081944708 -0.015682848 4290129179
-0.0065115355 -0.0081530828 -0.015794134 4289998108
-0.0047726557 -0.0073040863 -0.016542358 4289932829
-0.0031854734 -0.0056476081 -0.017927077 4290063643
-0.0014604554 -0.0047987206 -0.018674336 4289932573
0.00041050464 -0.004757192 -0.018784653 4289998364
0.0022813231 -0.0047155572 -0.018894883 4289409569
0.0060225129 -0.0046320586 -0.019115135 4288693018
-0.023567308 -0.023031492 -0.0055983225 4287053113
-0.021640472 -0.022990134 -0.0057129851 4288034609
-0.019832589 -0.022138461 -0.0064644283 4288689449
-0.018151786 -0.020476604 -0.0078521324 4288035629
-0.016481996 -0.018814825 -0.0092391372 4287643183
-0.014950182 -0.016343184 -0.011261749 4287446833
-0.013823979 -0.011441723 -0.015192006 4288166954
-0.012333211 -0.0089707617 -0.017212024 4288754984
-0.010858897 -0.0064999983 -0.019231023 4289670943
-0.0088495053 -0.0072687622 -0.018706016 4290325274
-0.0069754049 -0.0072275763 -0.018816829 4289932829
-0.0051014274 -0.0071863094 -0.018927569 4289998364
-0.0033736378 -0.0063352743 -0.019673441 4289867293
-0.0019489154 -0.003865147 -0.021689093 4290979348
-0.00023771077 -0.0030142786 -0.022433911 4290783508
0.0016221106 -0.0029729111 -0.02254351 4290914323
0.0036387071 -0.0037408853 -0.022018384 4289736988
0.0056605935 -0.0045086099 -0.021493545 4290064409
-0.023948934 -0.022132184 -0.0086466456 4289866528
-0.021914363 -0.022903468 -0.0081254151 4288033843
-0.020111997 -0.022049744 -0.0088749137 4287642164
-0.018315174 -0.02119601 -0.0096239867 4287577139
-0.016523901 -0.020342257 -0.010372701 4287708208
-0.015118994 -0.017051876 -0.013025222 4287643183
-0.013735961 -0.013761816 -0.015676405 4287643183
-0.012242436 -0.011284223 -0.017691772 4288624168
-0.010765344 -0.0088069122 -0.019706108 4289278243
-0.0090290606 -0.0079538543 -0.020451114 4290063389
-0.0072983392 -0.0071008233 -0.021195721 4289867039
-0.0054299384 -0.0070596561 -0.021306116 4289998619
-0.0038536042 -0.0053948229 -0.022683721 4289802014
-0.0022883043 -0.0037300549 -0.024060614 4289670943
-0.0005825907 -0.0028771795 -0.024803448 4290259993
0.00127168 -0.002835948 -0.02491273 4291111184
0.0032826662 -0.0036062105 -0.024388958 4290064153
0.0052989349 -0.0043762727 -0.023865435 4289868568
0.0071582124 -0.0043346304 -0.023974787 4289347858
-0.020391166 -0.021952087 -0.01127884 4287052859
-0.018599864 -0.021096336 -0.012025995 4287249208
-0.016689956 -0.021055019 -0.012139411 4287577138
-0.01516078 -0.018570434 -0.014152192 4287642928
-0.013388857 -0.017714689 -0.014897961 4287970348
-0.011887118 -0.015230487 -0.016908955 4287904814
-0.010401823 -0.012746483 -0.018918931 4288166188
-0.0090707131 -0.0094485786 -0.021560356 4289278243
-0.0074805394 -0.0077792965 -0.022935692 4289735969
-0.0056149662 -0.0077382093 -0.023045933 4289670943
-0.0040413812 -0.0060690427 -0.024420183 4290259738
-0.0023301542 -0.0052139759 -0.025161803 4289082149
-0.00062448531 -0.004358937 -0.02590302 4288754728
0.0010755956 -0.0035039503 -0.026643861 4289474848
0.0030836985 -0.0042764591 -0.026121542 4289409568
0.0050970688 -0.0050487537 -0.025599468 4289671710
0.0071157515 -0.0058208471 -0.025077637 4289868058
0.0091397241 -0.0065927859 -0.024556018 4290980879
0.020945549 -0.017768586 -0.016280834 4286923318
0.022481889 -0.016099127 -0.01765205 4288231213
-0.018641543 -0.022621157 -0.013157632 4286987579
-0.016607672 -0.023396498 -0.012639366 4287642673
-0.014948927 -0.021721905 -0.01401593 4287577138
-0.01330116 -0.020047439 -0.015391756 4288035373
-0.011796657 -0.017556628 -0.017398115 4288166444
-0.010308586 -0.015066065 -0.019403417 4288558888
-0.008974649 -0.011759425 -0.022038557 4289082149
-0.0076625869 -0.008453222 -0.024672296 4288951079
-0.0059430115 -0.0075959554 -0.025412984 4289670689
-0.0045206845 -0.0051064817 -0.027414061 4290456089
-0.0028176904 -0.0042494042 -0.028153636 4290914069
-0.0011202395 -0.0033924021 -0.028892774 4290652183
0.0010336787 -0.0049833888 -0.027741708 4289867804
0.0030415952 -0.0057580899 -0.027221009 4290980114
0.0050548017 -0.0065325638 -0.026700538 4289802268
0.0069111362 -0.0064910762 -0.026809786 4289540638
0.0092619956 -0.0088967085 -0.025031045 4289213474
0.011461392 -0.010486212 -0.023882378 4287708719
0.019002676 -0.019330282 -0.017296407 4286530618
0.020723097 -0.018471874 -0.01803631 4286660924
0.022619136 -0.018428922 -0.018147461 4287380024
-0.016649526 -0.024923317 -0.01377248 4287707444
-0.014864035 -0.02406314 -0.014515902 4288296494
-0.013084088 -0.023202989 -0.015258926 4288689194
-0.011706296 -0.019886922 -0.017890356 4288689194
-0.010350373 -0.016571244 -0.02052043 4288297004
-0.0088786744 -0.014074491 -0.022519816 4287969838
-0.007423427 -0.011577925 -0.024518173 4288231723
-0.005984623 -0.0090816533 -0.02651551 4289081893
-0.0047080442 -0.0057673147 -0.029140588 4289212453
-0.0030077994 -0.0049081882 -0.029878356 4290455578
-0.0011618882 -0.0048673041 -0.029987264 4290848534
0.00083783269 -0.0056444639 -0.029467776 4290587414
0.0029995292 -0.0072395401 -0.028320339 4289933084
0.0050125718 -0.0080162296 -0.027801506 4289474593
0.0073551238 -0.010428688 -0.026027221 4289147684
0.0095489919 -0.012022737 -0.024881523 4287381298
0.012088694 -0.015252205 -0.022481341 4286858039
0.014309451 -0.016845487 -0.021337099 4286596154
0.016713917 -0.019256227 -0.019566208 4286726458
0.018958837 -0.020848857 -0.018423233 4286857274
0.020857647 -0.020805957 -0.018534632 4287511093
0.022394046 -0.019127838 -0.019899409 4287118138
-0.01718726 -0.023166101 -0.017419359 4286268479
-0.015286021 -0.023124922 -0.017532222 4287903283
-0.013384897 -0.023083625 -0.01764499 4287969329
-0.011880297 -0.020579804 -0.019641671 4287904303
-0.010392126 -0.018076243 -0.021637309 4287773489
-0.0087828003 -0.016393686 -0.023004213 4287707953
-0.0071844757 -0.014711183 -0.024370402 4288231724
-0.0057401657 -0.012208306 -0.026363164 4288623913
-0.0047494918 -0.0072441623 -0.030236542 4288885289
-0.0031977594 -0.005562461 -0.031599734 4289474339
-0.0013546869 -0.0055216579 -0.03170849 4289866784
0.00079604238 -0.0071213897 -0.030563761 4289866783
0.0031140968 -0.0095410822 -0.028793011 4289605154
0.0052890256 -0.011140149 -0.027649544 4289212453
0.0077987462 -0.014379101 -0.025254231 4287184948
0.010165319 -0.016797487 -0.023486171 4286923318
0.01238057 -0.01839534 -0.022344917 4286661689
0.014436364 -0.019172978 -0.02182994 4286988343
0.016324513 -0.019130483 -0.021940839 4287118903
0.018563762 -0.020727579 -0.020800831 4287446068
0.020278715 -0.01986506 -0.021537188 4287838258
0.022169128 -0.019822281 -0.021648042 4286071874
-0.013814814 -0.022132341 -0.020651061 4287576118
-0.012054157 -0.0212682 -0.021389659 4287642164
-0.01029906 -0.020404018 -0.022127882 4287642673
-0.008549504 -0.019539896 -0.022865657 4287707699
-0.0068055056 -0.018675791 -0.023603022 4288035373
-0.0054959431 -0.015343478 -0.026217218 4288362538
-0.0042082369 -0.01201158 -0.02883007 4288035629
-0.0029424056 -0.0086800605 -0.031441551 4288427563
-0.001094006 -0.0086391745 -0.031550642 4288819753
0.00090810657 -0.0094207097 -0.031034518 4288820009
0.0033851415 -0.01266933 -0.028643861 4287969839
0.0058837757 -0.015917316 -0.026254438 4288297258
0.0080800802 -0.017520189 -0.025115412 4288755749
0.010451771 -0.019944929 -0.023352541 4287381554
0.012337409 -0.019902688 -0.023463435 4287119668
0.014393032 -0.020682529 -0.022950087 4287184949
0.016108245 -0.019817971 -0.023685023 4287250229
0.017993435 -0.019775487 -0.023795702 4286791484
-0.012359895 -0.021126876 -0.023759082 4286987579
-0.010475561 -0.021085771 -0.023870725 4287511604
-0.0085913315 -0.021044575 -0.02398229 4287445813
-0.0069875717 -0.019353377 -0.025342345 4287773488
-0.0053948089 -0.017662279 -0.026701722 4288100908
-0.0039586425 -0.015146536 -0.028684288 4287773743
-0.0025389269 -0.012631002 -0.030665852 4288297258
-0.00098457932 -0.01094052 -0.032022707 4288231469
0.0011738315 -0.012548815 -0.030884933 4287577393
0.0034994707 -0.014981436 -0.029124375 4287381299
0.0060004815 -0.018238114 -0.026741527 4287250484
0.0078754202 -0.018196313 -0.026851945 4287512369
0.010079496 -0.019803252 -0.025716603 4288624423
0.011959583 -0.019761156 -0.025827188 4287839534
0.01400961 -0.020543274 -0.025315188 4287250229
-0.012797311 -0.020149462 -0.026745066 4286333503
-0.010651909 -0.021763051 -0.025610249 4287183929
-0.0087705217 -0.021721946 -0.025721673 4287576629
-0.0068892501 -0.021680746 -0.025833014 4287773488
-0.0054366067 -0.019158205 -0.027811844 4287904558
-0.0038548261 -0.017462965 -0.029167231 4287839279
-0.0024323165 -0.014940894 -0.031144135 4288100653
-0.00087524205 -0.01324603 -0.032497939 4287839024
0.0012856573 -0.014858638 -0.031363562 4287381043
0.0036137104 -0.017297739 -0.029608011 4287381299
0.0059579536 -0.019736385 -0.02785334 4287446579
0.0076709315 -0.018867902 -0.028585184 4287381554
0.0095429048 -0.018826101 -0.028695378 4287773488
0.011414766 -0.018784232 -0.028805509 4288362539
-0.0089495555 -0.022394843 -0.027457733 4286595133
-0.0072111785 -0.021524418 -0.028189972 4287446069
-0.0054783672 -0.020653974 -0.028921854 4287707953
-0.0040420666 -0.018125264 -0.030894786 4287839279
-0.0024740025 -0.016425887 -0.032246135 4288035373
-0.00076598674 -0.015555773 -0.032976311 4287380788
0.0013973936 -0.017172731 -0.031845286 4287184694
0.0035715252 -0.01878933 -0.030714881 4287380788
0.0055973157 -0.019576717 -0.03020497 4287707953
0.0071430206 -0.017877441 -0.031554628 4287315254
0.009006761 -0.017835865 -0.031664368 4286726714
-0.0092657171 -0.022231642 -0.02981009 4286725948
-0.0072528496 -0.023022192 -0.029301483 4287707698
-0.0056627989 -0.02131819 -0.030651048 4288100399
-0.0039383024 -0.020445747 -0.031380739 4288624423
-0.002367489 -0.018742058 -0.032729011 4288166444
-0.00065682828 -0.01786969 -0.033457786 4287315509
0.0015090555 -0.019490974 -0.032330167 4287053369
0.0033730865 -0.019449668 -0.03244013 4287380534
0.0050779581 -0.018577224 -0.033168338 4287772979
0.0066155195 -0.016873784 -0.03451436 4286137408
-0.0058470778 -0.021977955 -0.032376941 4287380533
-0.0041253492 -0.021103429 -0.03310487 4287838258
-0.0024091601 -0.020228941 -0.033832412 4288034608
-0.00069853663 -0.019354435 -0.034559596 4287641908
0.0016206279 -0.021813441 -0.032818187 4287118394
0.0031747892 -0.020105543 -0.034162067 4286987579
-0.0061737783 -0.021797499 -0.034715585 4288492844
-0.0041669309 -0.02259233 -0.034209784 4287053113
-0.0024507865 -0.021715704 -0.034935731 4287772723
-0.0010416955 -0.019167945 -0.036892507 4287838004
0.0011182874 -0.020798041 -0.035771076 4287052859
0.0028204918 -0.019921465 -0.03649601 4286595388
0.0023145303 0.0038038176 0.027404927 4284638774
0.017848358 0.011761915 0.017169051 4281298273
0.020298555 0.009521924 0.019063562 4281429089
0.024006158 0.0019547995 0.025640342 4281690463
0.014862813 0.014755625 0.012129473 4280653123
0.021656193 0.010305367 0.015797652 4279872059
0.025921851 0.00042735226 0.024359006 4280584273
0.011161752 0.012373816 0.011885074 4280320349
0.012243316 0.016245192 0.0084404638 4280588354
0.0134665 0.019350426 0.005663801 4279938103
0.014839478 0.021689666 0.0035546469 4279482419
0.016893864 0.020966621 0.0041102767 4279024694
0.023537233 0.0088057406 0.014539634 4281107023
0.0071331486 0.011524044 0.010307956 4280453459
0.0085614324 0.013870673 0.0082001248 4280194634
0.0099731758 0.016217103 0.0060933176 4280458304
0.012916088 0.020141264 0.0025474951 4280524603
0.014452666 0.021719171 0.0011081211 4281697604
0.016327024 0.021761505 0.00099815056 4281176639
0.018555447 0.020268654 0.0022166278 4281176128
0.021513976 0.015705904 0.0060905544 4280980033
0.02487009 0.0096089318 0.011290367 4281044548
0.0028100982 0.012220139 0.0074059051 4281366869
0.0034704283 0.018424848 0.0019831043 4280977994
0.0045611113 0.022317963 -0.0014460157 4281370439
0.0067496747 0.020819364 -0.0002288823 4280588609
0.0089489222 0.019321075 0.00098775048 4280653889
0.010826483 0.019363226 0.00087739993 4279872569
0.014066108 0.021757593 -0.001331707 4279091503
0.015760556 0.022569684 -0.0021040416 4279156528
0.020211294 0.019575266 0.0003268132 4280654399
0.022817686 0.01653924 0.0028658472 4280654144
0.025630884 0.01273407 0.0060658166 4280718403
0.028846927 0.0073905531 0.010588053 4280647768
0.00078415126 0.020740071 -0.0023352015 4278369854
0.0018752068 0.024644 -0.0057562999 4278571558
0.0060641095 0.022409765 -0.0039888215 4280654653
0.0084156543 0.020134592 -0.0021130475 4280720189
0.010451078 0.019404335 -0.001561346 4280850494
0.012322888 0.019446479 -0.00167127 4280199223
0.017406099 0.021889297 -0.0039833994 4280133944
0.019448675 0.021159651 -0.0034317863 4280850749
0.021861367 0.018886516 -0.0015591849 4281046844
0.024105057 0.017385555 -0.00034789369 4280850238
0.026735142 0.014341479 0.0021834336 4281044803
0.030149184 0.0082113147 0.0073540993 4281367378
-0.001522854 0.011414463 0.0033869036 4281109574
-0.00052656233 0.016105065 -0.00069039781 4280849728
0.0053790435 0.024017835 -0.0077356477 4280589373
0.007719405 0.021735875 -0.0058640805 4280981309
0.0099098459 0.020228779 -0.0046533374 4280719423
0.011942156 0.019496402 -0.0041029807 4280850494
0.013808221 0.019538501 -0.0042125043 4280589628
0.015325636 0.021129148 -0.0056409449 4280916793
0.017008908 0.021945452 -0.0064093038 4280458304
0.019045889 0.021213518 -0.0058589694 4280785214
0.021270506 0.019707704 -0.0046498524 4280655163
0.02350577 0.018202269 -0.00344133 4280525879
0.031821653 0.0074974895 0.0054478198 4279281223
-0.0043646842 0.0043749176 0.0071042059 4283394373
-0.0040372759 0.012964886 -0.00026474334 4281174853
-0.0028881803 0.016891582 -0.0036732797 4280915518
-0.001616776 0.020040857 -0.0064208112 4280329529
-0.00036732107 0.02318971 -0.0091669979 4281370694
0.0013255775 0.024007669 -0.009934851 4281175619
0.0030128211 0.02482562 -0.010702283 4280263739
0.0053367391 0.022536727 -0.0088347066 4280654653
0.0075135082 0.021024896 -0.0076264548 4280588863
0.0095349699 0.020289997 -0.007077157 4280719679
0.011561684 0.019555332 -0.0065280804 4280849729
0.013593659 0.018820809 -0.0059792204 4280980799
0.015108354 0.020415777 -0.0074042412 4280849984
0.016788878 0.021234194 -0.0081708208 4280719423
0.018643372 0.02127629 -0.0082794745 4280589884
0.020679981 0.020542255 -0.0077306754 4280590394
0.026821211 0.018341316 -0.0060857078 4279612468
0.0334884 0.0067882352 0.0035453783 4279936828
0.037578024 -0.0017022491 0.010654955 4281370693
-0.0046904534 0.0044025443 0.0046517514 4283137588
-0.0045121163 0.013795635 -0.0033571282 4281829693
-0.0035179034 0.018512232 -0.0074149249 4281110849
-0.00210765 0.020890841 -0.0094976695 4278962218
-0.00040920824 0.021711001 -0.010264304 4279287853
0.0012836084 0.022531169 -0.011030506 4279678513
0.0031286106 0.022572344 -0.011139125 4278634543
0.0051339269 0.021834744 -0.01059062 4278959669
0.0073077381 0.020318488 -0.0093854396 4280458814
0.0091603547 0.02036014 -0.0094942814 4280523583
0.011181459 0.019623151 -0.00894651 4280654144
0.01303643 0.01966502 -0.0090553695 4280524348
0.014891207 0.019706963 -0.0091641564 4280784959
0.016568974 0.02052751 -0.0099289399 4280784703
0.018420637 0.02056955 -0.01003742 4280655163
0.020089842 0.021390093 -0.010801638 4280330038
0.021938398 0.021432223 -0.010909814 4281371968
0.023786731 0.021474438 -0.011017917 4281371968
0.026015729 0.019960267 -0.0098153474 4279744304
0.0284485 0.017668275 -0.0079582203 4278376228
0.03168077 0.012264451 -0.0034820894 4281306688
0.034950882 0.0068614949 0.00099190604 4281174853
0.038661346 -9.6361153e-05 0.0067730211 4280974424
-0.0045918077 0.0020947158 0.0041756043 4283073328
-0.0041219145 0.0099511258 -0.0025012195 4280919854
-0.003266111 0.015462307 -0.0072060311 4281501763
-0.0019999295 0.018628882 -0.0099402936 4281306689
-0.00060338527 0.021013817 -0.012017295 4279093034
0.0012416616 0.021054899 -0.012125991 4278507044
0.0054125637 0.018794155 -0.010376806 4279220788
0.0071020871 0.019616755 -0.011141025 4280654398
0.0086201131 0.021220183 -0.012559924 4280654398
0.010464266 0.021261724 -0.012668211 4280719679
0.012308247 0.021303346 -0.012776423 4280784703
0.01415205 0.021345036 -0.01288457 4280915008
0.016172417 0.020606136 -0.012338171 4281111359
0.018198021 0.019867441 -0.011792007 4280981308
0.021340385 0.022293134 -0.013970383 4279678513
0.023180477 0.022335155 -0.014078002 4281632833
0.025591433 0.020036122 -0.012224544 4281567808
0.027825423 0.018517798 -0.011025442 4281111868
0.030265875 0.016219547 -0.0091735506 4280851513
0.032920897 0.013141576 -0.0066694096 4280587334
0.036201112 0.0077237096 -0.0022072745 4280778838
-0.0046346039 0.00056641735 0.003041463 4282354483
-0.0037320703 0.0060937814 -0.001654835 4282223159
-0.0027210489 0.010836912 -0.0056942268 4282355503
-0.0017428324 0.015579348 -0.0097315833 4281633598
-0.00049299747 0.018754361 -0.012458332 4280718403
0.0011997074 0.01957888 -0.013221288 4280653633
0.0032021254 0.018836768 -0.012675921 4280720189
0.0052098036 0.018094884 -0.012130778 4280720189
0.0068965629 0.018919522 -0.012893198 4280589884
0.0082460642 0.021310365 -0.01496218 4280851513
0.0099161267 0.022134872 -0.01572351 4279418924
0.013761371 0.02143486 -0.015285835 4278896683
0.015952818 0.019910807 -0.014087863 4281372224
0.017975532 0.019169869 -0.013543153 4280655163
0.019821376 0.019211864 -0.013651229 4280981819
0.021297321 0.02081929 -0.015063977 4278377504
0.023324892 0.020078702 -0.014519375 4279812643
0.025548004 0.018555744 -0.013322974 4279223594
0.027781755 0.017033076 -0.012127088 4278765868
0.030026212 0.01551074 -0.010931839 4280981309
0.032479741 0.013206344 -0.0090855099 4280849219
0.035351686 0.0093377512 -0.0059372503 4281109573
0.038454443 0.0046876073 -0.0021392484 4281500233
-0.0048186705 -0.00017577223 0.0012542112 4282745398
-0.0037745759 0.0045809727 -0.0027774698 4282288693
-0.0024698824 0.0077657029 -0.0055011259 4282225199
-0.0011871159 0.010950044 -0.0082234181 4281573419
-7.8432262e-05 0.01491957 -0.011597028 4281634108
0.0011577606 0.018103061 -0.014316437 4280785214
0.0026872009 0.019715196 -0.015729722 4280393533
0.0046865419 0.018970942 -0.015185712 4280589628
0.0063650906 0.019797603 -0.015946008 4280329784
0.0080380067 0.020624259 -0.016705953 4280785978
0.017394491 0.020046828 -0.016593058 4280655163
0.019414149 0.019303711 -0.016049735 4280981564
0.021069475 0.020130517 -0.016808171 4281176894
0.023094162 0.019387683 -0.01626502 4280589884
0.025314331 0.017860306 -0.01507169 4280590139
0.027545169 0.016333213 -0.013878877 4280849983
0.029982328 0.014021864 -0.012036559 4280652869
0.032633975 0.010926375 -0.0095451195 4280587334
0.035307139 0.0078314543 -0.0070548849 4281043019
0.038205639 0.0039526559 -0.0039162245 4281040469
-0.0048614144 -0.0017013792 0.00012206938 4283857198
-0.0036731511 0.0022804923 -0.0032483595 4283138608
-0.0022189617 0.0046860855 -0.0053143413 4282484533
-0.00078125298 0.0070913695 -0.0073792329 4281702449
0.00048786402 0.010284202 -0.010094175 4281831223
0.0015802532 0.014264354 -0.013458648 4281700408
0.0029603317 0.016668698 -0.015519963 4280785468
0.0043239146 0.019072773 -0.017580234 4280523584
0.0061599389 0.01911396 -0.017688168 4280590393
0.0078301057 0.019942692 -0.018446291 4280069938
0.0094946548 0.020771364 -0.019204028 4281306688
0.010982439 0.02238741 -0.020611331 4281306943
0.012980752 0.021641357 -0.020068511 4278375719
0.014807731 0.021682771 -0.020175595 4280850749
0.017172389 0.019362798 -0.018334227 4281111358
0.019007154 0.019404544 -0.018441649 4280589118
0.021026485 0.018659296 -0.017899819 4280785213
0.023051016 0.017914256 -0.017358297 4280981564
0.025651306 0.01480869 -0.014870482 4280719423
0.028273106 0.011703676 -0.012383882 4280652103
0.030916438 0.0085992683 -0.0098985275 4281044294
0.033581324 0.0054953676 -0.0074143503 4281239113
0.036066711 0.0031786989 -0.0055795596 4281824848
-0.0035718307 -2.4136156e-05 -0.0037223292 4283660593
-0.0021148771 0.0023880508 -0.0057836119 4282877489
-0.00052507967 0.0040099192 -0.007194207 4282551088
0.00074961036 0.0072115902 -0.0099029914 4281831479
0.0021571442 0.0096229184 -0.011961108 4281896248
0.0030757412 0.014403544 -0.015965618 4280722738
0.0042819157 0.017603962 -0.018670164 4280980543
0.0056291074 0.020014239 -0.020724509 4280916029
0.007456705 0.0200553 -0.020831898 4278831914
0.0091157481 0.020886092 -0.021587722 4279809583
0.010940254 0.020927301 -0.021694772 4281242173
0.012590818 0.021758003 -0.022449944 4280916284
0.014588781 0.021009883 -0.02190871 4280656184
0.016591989 0.020261945 -0.021367664 4280132158
0.018600449 0.019514231 -0.020826923 4280131648
0.020798817 0.017977508 -0.0196389 4280719423
0.023382634 0.014862774 -0.017156664 4280784703
0.025987998 0.011748593 -0.014675645 4280848964
0.028807707 0.0078459885 -0.011548751 4280912458
0.031654395 0.0039440468 -0.0084234057 4281434954
0.034131564 0.0016205888 -0.0065930472 4281630028
0.036222883 0.00087527558 -0.0060567716 4282150994
-0.0033268183 -0.0031252047 -0.0035509872 4283988524
-0.0018643662 -0.00070636719 -0.0056077344 4282943533
-0.00026913732 0.00092002191 -0.0070154495 4282747439
0.0013150573 0.0025462136 -0.0084224045 4281962804
0.0027335286 0.0049643498 -0.010476355 4282093364
0.0039781108 0.0081741922 -0.013176709 4281895739
0.0050406009 0.012175662 -0.016523134 4280785213
0.0060757473 0.01617655 -0.019867856 4280718914
0.0072490945 0.01938512 -0.022563856 4279678514
0.010385081 0.021842448 -0.024718203 4279093288
0.012374893 0.021091899 -0.024178166 4279746089
0.014369965 0.020341558 -0.023638368 4279938358
0.016728625 0.018008335 -0.021806329 4280849985
0.018921517 0.016467066 -0.020621277 4280785214
0.021309718 0.01413469 -0.018790843 4281175109
0.023901328 0.01101142 -0.016315546 4280978758
0.026894562 0.0063062105 -0.012550261 4281566278
0.029727444 0.0023930129 -0.0094322469 4281499214
0.032391861 -0.00072836597 -0.0069610402 4281891149
0.034483247 -0.0014759377 -0.0064264508 4281629774
0.036378942 -0.0014322866 -0.0065370565 4281888088
-0.0017605573 -0.0030148095 -0.006084729 4283858728
-0.00016260892 -0.0013840608 -0.0074893311 4282745908
0.0014242977 0.00024658628 -0.0088932514 4281767219
0.0028455481 0.0026712697 -0.010942464 4282092598
0.0040929765 0.005889887 -0.013636579 4282029103
0.0053184703 0.0091081355 -0.016329311 4281832498
0.0063592419 0.013120027 -0.019666269 4281241409
0.0073726773 0.017131383 -0.023001559 4281110084
0.008526966 0.020348286 -0.025689919 4280393534
0.010172173 0.02118315 -0.026441593 4278765868
0.012159117 0.02043034 -0.025903016 4279156019
0.014504045 0.018090265 -0.024075117 4280784449
0.017044239 0.014956906 -0.02160345 4280782919
0.019787803 0.011030501 -0.018488526 4280652104
0.022004768 0.0094854329 -0.017308041 4281893189
0.024606913 0.006353708 -0.014839835 4282088773
0.027230591 0.0032225568 -0.012372826 4282023239
0.030068509 -0.00070139486 -0.009263196 4281696838
0.032347195 -0.00224471 -0.0080861431 4282021709
0.034438431 -0.002994461 -0.0075531644 4281694288
-0.0016568899 -0.0053273663 -0.0065647769 4284642598
-0.00035446882 -0.0020991098 -0.0092558702 4283663144
0.0015334263 -0.0020571705 -0.0093671605 4282224943
0.0029574707 0.00037411042 -0.011411673 4282289714
0.0045222938 0.0020087976 -0.012810919 4281768239
0.0059161037 0.0044395532 -0.014853539 4281964334
0.0072934031 0.0068701115 -0.016895138 4281832753
0.0078270063 0.013281249 -0.02215475 4281373499
0.0088214427 0.017303137 -0.02548077 4281307964
0.010130286 0.019732362 -0.02751812 4280980544
0.012464248 0.017385429 -0.025694493 4280717383
0.014990672 0.014242969 -0.023228562 4280522309
0.017896727 0.0095093604 -0.019477829 4280390983
0.020653486 0.0055723153 -0.016371742 4281109574
0.023068272 0.0032275319 -0.014552618 4281826634
0.02549918 0.00088313036 -0.012734354 4282088008
0.027566388 0.0001304578 -0.012201736 4281892169
0.030409336 -0.003804273 -0.0091005079 4281175109
0.032497898 -0.0045563364 -0.0085690487 4281629774
0.034393638 -0.0045127794 -0.008679728 4281694034
0.0013388619 -0.0027677789 -0.011130114 4283663654
0.0027602613 -0.00033005886 -0.013169637 4282746163
0.0043223873 0.0013089143 -0.014565487 4282223158
0.0058734715 0.0029476788 -0.015960585 4282288949
0.007413514 0.0045863651 -0.017354984 4282288693
0.008446373 0.008619884 -0.020675251 4281831223
0.0094518885 0.012652867 -0.02399385 4281373499
0.010942511 0.014290635 -0.025385126 4281633344
0.013289772 0.011937454 -0.023567155 4281240389
0.016005695 0.00798852 -0.020466909 4281304139
0.018569633 0.0048382822 -0.018009596 4281761354
0.021336816 0.00089065172 -0.01491225 4282217803
0.023208968 0.00093329139 -0.01502183 4282282829
0.025829442 -0.0022154264 -0.012567653 4282021198
0.027712099 -0.0021723844 -0.012677727 4281890638
0.030172236 -0.0045225006 -0.010865922 4281695309
0.031867407 -0.003681506 -0.011616803 4281040469
0.0012961775 -0.0042746123 -0.01224829 4284380968
0.0028720722 -0.002631153 -0.013641769 4283139118
0.0045940876 -0.0017885203 -0.014393456 4282159918
0.0061506182 -0.00014523603 -0.015785675 4282354483
0.0076961219 0.0014978405 -0.017177146 4281832499
0.008899942 0.0047418289 -0.019849088 4281766198
0.01024989 0.0071849544 -0.021879271 4281766454
0.011754118 0.0088273697 -0.023268115 4281242684
0.014114678 0.0064679906 -0.021455761 4281696583
0.016667582 0.0033087097 -0.019004345 4281826124
0.01906313 0.00095021911 -0.017193895 4282153034
0.021474816 -0.0014078273 -0.015384335 4282152013
0.023349613 -0.0013651317 -0.015494075 4282152014
0.025785379 -0.0037224451 -0.013685861 4281889363
0.027857706 -0.0044793785 -0.0131568 4281889619
0.030127786 -0.0060360786 -0.011988983 4281693779
0.0047084615 -0.0040915133 -0.014867194 4283792173
0.006107904 -0.0016410472 -0.016895648 4282942513
0.0074908808 0.00080911443 -0.018923011 4282028339
0.0090226308 0.0024563521 -0.020310421 4281962293
0.010543361 0.0041033905 -0.02169707 4281439543
0.012394443 0.0041451305 -0.02180573 4281697859
0.014592163 0.0025819354 -0.020637359 4282153034
0.016976736 0.00021658093 -0.018831192 4282152523
0.019019738 -0.00054351334 -0.018302269 4282021198
0.021612711 -0.0037104087 -0.015859541 4282086734
0.023305833 -0.0028654253 -0.016607299 4282086479
0.025741316 -0.005229271 -0.014803927 4281757784
0.0062249452 -0.0039416188 -0.017367784 4283792173
0.0077731982 -0.0022898186 -0.01875297 4282486573
0.0089800134 0.00097160228 -0.021412164 4281831479
0.010668673 0.0018181689 -0.022158407 4281635638
0.01252237 0.0018599387 -0.022267241 4281894208
0.014895961 -0.00051227491 -0.020465348 4281957449
0.01728566 -0.0028839856 -0.018664373 4282087244
0.019512728 -0.0044507543 -0.017500803 4282087499
0.021387488 -0.0044081798 -0.017610628 4281889874
0.023446292 -0.0051699514 -0.017084148 4281889364
0.025697276 -0.0067358939 -0.015921842 4281757019
0.0077304617 -0.0037830835 -0.019861042 4283858728
0.0089374334 -0.00051298086 -0.022513788 4282027063
0.01062604 0.00033572689 -0.023258433 4281569339
0.012820758 -0.0012363186 -0.022096422 4282154054
0.015199497 -0.0036149556 -0.020299699 4281630539
0.017594352 -0.0059931381 -0.018503854 4281564748
0.019647911 -0.0067573944 -0.017978825 4282347599
0.0092250183 -0.0036158254 -0.022346979 4283661614
0.010919012 -0.0027647996 -0.023090381 4281634363
0.012948453 -0.0035320614 -0.022565695 4282610248
0.015676051 -0.0075352108 -0.019506678 4282348618
0.018254697 -0.010728662 -0.01708271 4281827399
0.020497628 -0.012303816 -0.015926577 4283265344
0.011044048 -0.005062568 -0.02356096 4282091579
0.013416901 -0.0074544288 -0.021773707 4282805578
0.015979074 -0.01065708 -0.019355267 4282675274
0.018738709 -0.014670325 -0.016306182 4282479689
0.011921413 0.0027549081 0.038387325 4281945719
0.012034804 0.00040909089 0.037881792 4280897414
0.014347814 -0.0010520536 0.039117482 4279323553
0.016835481 -0.0032655178 0.041028906 4279127714
0.011672653 0.00032408535 0.035348266 4280241043
0.0136576 0.00036833063 0.035231367 4278600373
0.01564233 0.00041266531 0.035114549 4278865573
0.017960101 -0.0010524597 0.036346842 4278866083
0.020796619 -0.0047815014 0.039601702 4279456153
0.0091754571 0.00096129067 0.032264497 4282144108
0.011469141 -0.00050905533 0.0334948 4278272953
0.0132901 0.00029224344 0.032704879 4279519648
0.015105419 0.0010935385 0.031915311 4278800039
0.017081656 0.0011378098 0.031799089 4278603944
0.019226953 0.00042521767 0.032355715 4279390109
0.021893516 -0.002557626 0.034929778 4282012019
0.0088194013 0.00089657865 0.029745612 4280242829
0.010790683 0.0009404663 0.029629476 4278734249
0.012922831 0.00022519194 0.030185025 4278602923
0.014732659 0.0010285135 0.029397454 4278602924
0.01653681 0.0018318295 0.028610308 4278864044
0.022788689 0.0004467424 0.029605206 4279590284
0.0084635615 0.00084088556 0.027233426 4279849108
0.010587558 0.00012316369 0.027787767 4278603434
0.012394801 0.00092853792 0.027001917 4278668203
0.014196388 0.0017339326 0.026216436 4278274484
0.015659444 0.004061887 0.024092082 4278406828
0.016767606 0.0079121552 0.020629756 4279261333
0.0061475933 0.00075064041 0.024843402 4280834684
0.0079524592 0.0015579518 0.024059173 4279259549
0.009909898 0.0016015619 0.023943875 4278734758
0.011545233 0.0031725727 0.022491924 4278603943
0.0039928108 -9.6392818e-05 0.023126885 4281291899
0.0057977885 0.00071302801 0.022344217 4279717018
0.0072862729 0.0030543227 0.020227797 4278275758
0.0087582245 0.0053953473 0.018112421 4278473638
0.010052778 0.0085019078 0.015331355 4279130774
-0.00054498762 0.0013233125 0.019530687 4281096313
0.003498815 0.00064120069 0.019966617 4278733484
-0.0028191507 0.0012634117 0.017160166 4281159043
-0.0010219589 0.0020767879 0.016380955 4279979669
0.0025556013 0.0037033465 0.014823806 4279260059
-0.0030042529 0.00048267841 0.015344235 4280896394
-0.0014985502 0.0028435197 0.013241136 4278931363
0.044547811 -0.0038281651 0.0048003364 4281685619
0.043455735 -0.0014499882 0.00040854886 4279259038
0.046214946 -0.0045426236 0.0028939173 4281488249
0.04025989 0.0016928744 -0.0045042308 4279261844
0.042573504 0.00016372278 -0.0033191987 4278799529
0.045321517 -0.0029379269 -0.00083962036 4278602924
0.048305668 -0.0068253865 0.0022861306 4278733738
0.051534079 -0.011498433 0.0060576042 4282077809
0.042109996 0.00021774694 -0.0057416814 4278799528
0.044640452 -0.0021041771 -0.0039142026 4278799783
0.047616065 -0.0060027111 -0.0007960517 4278734248
0.050835855 -0.010689009 0.0029662102 4279849109
0.037867233 0.0001933109 -0.0079372143 4280113288
0.039757118 0.00023692846 -0.0080474056 4279062944
0.042064875 -0.0013010204 -0.0068685543 4278866339
0.044595063 -0.0036294907 -0.0050459271 4279063708
0.047355808 -0.0067481985 -0.0025800038 4279456919
0.050572433 -0.01144764 0.0011727149 4282340459
0.03782241 -0.0013209078 -0.0090607246 4279261588
0.039712206 -0.0012772921 -0.0091709103 4279325084
0.042437732 -0.0044056475 -0.0067095095 4279587734
0.044761389 -0.005947548 -0.0055347974 4280309129
0.047524519 -0.0090749227 -0.0030755056 4280505223
0.036088437 -0.0036738012 -0.0094320802 4281033074
0.038388059 -0.0052208574 -0.0082593169 4279457683
0.040698335 -0.0067675337 -0.0070871487 4279652503
0.043228194 -0.0091091134 -0.0052742548 4280111504
0.045139238 -0.0090649147 -0.0053856117 4280636293
0.047693118 -0.011405775 -0.0035740682 4281160829
0.036043659 -0.0051898248 -0.010556936 4280440199
0.038546488 -0.007538666 -0.0087474063 4280505224
0.04106541 -0.0098870778 -0.006938844 4280505223
0.043391593 -0.011437751 -0.0057707774 4280505733
0.045305289 -0.011393475 -0.0058822772 4280636294
0.047433071 -0.012146404 -0.0053544221 4281357688
0.054292664 -0.015998248 -0.0024946937 4282405739
0.033908293 -0.0059493529 -0.012209801 4280769404
0.036400184 -0.0083050616 -0.010404556 4280768129
0.038908176 -0.010660316 -0.008600262 4280702083
0.041226201 -0.0122156 -0.0074350107 4280832899
0.0433461 -0.012970994 -0.0069083944 4280766854
0.045259736 -0.012926768 -0.0070199268 4280636038
0.047173187 -0.012882486 -0.0071314024 4282340969
0.030083366 -0.0075494517 -0.013111893 4280900473
0.03197363 -0.0075061368 -0.01322234 4279784595
0.034061581 -0.0082647298 -0.012695692 4280439434
0.036555916 -0.010626918 -0.010895453 4280767109
0.039066352 -0.012988651 -0.0090961652 4280963969
0.041180871 -0.013746472 -0.008570876 4281094529
0.043300651 -0.014504081 -0.0080458988 4280701319
0.044791333 -0.012856555 -0.0094299931 4281422459
0.028148644 -0.0091058901 -0.01412417 4280965244
0.030423708 -0.01067117 -0.01296319 4280505734
0.032514416 -0.011431979 -0.012438325 4280439434
0.034610361 -0.012192553 -0.011913756 4278996644
0.036912054 -0.013757012 -0.010754175 4280766853
0.038817964 -0.013713168 -0.010865408 4280832388
0.040723681 -0.013669267 -0.010976586 4280832389
0.042629257 -0.013625335 -0.011087727 4281815923
0.044323243 -0.012777548 -0.011833464 4282602599
0.02565328 -0.0082423836 -0.017039662 4281751154
0.028104343 -0.010618914 -0.015246831 4280440199
0.030379213 -0.012188539 -0.014089068 4280636294
0.032664791 -0.013757912 -0.012931854 4280374664
0.034961037 -0.015326929 -0.011775252 4279521434
0.03706751 -0.016089419 -0.011252904 4280372624
0.038772911 -0.015239372 -0.01199782 4280898944
0.040472694 -0.014389388 -0.01274236 4282406248
0.025609322 -0.0097486824 -0.018157342 4281815669
0.028249621 -0.012940395 -0.015736658 4280374664
0.030334763 -0.013705751 -0.015214834 4280636804
0.032620125 -0.015279493 -0.014060854 4280309128
0.034718499 -0.016044417 -0.013539705 4280176019
0.036621734 -0.016000759 -0.013650874 4279914644
0.02575212 -0.012065692 -0.018643659 4281619063
0.028015897 -0.013644435 -0.017491769 4280308873
0.03009817 -0.014412048 -0.016971407 4280243084
0.031990811 -0.014368758 -0.01708205 4280571524
0.034080893 -0.015136071 -0.016562056 4282145129
0.036176242 -0.015903257 -0.016042287 4282210663
0.038276844 -0.016670205 -0.015522812 4281423223
0.040176921 -0.016626513 -0.015633719 4281619063
0.024007201 -0.014429888 -0.019022524 4282403698
0.025894828 -0.014386948 -0.01913305 4281027973
0.027971722 -0.015156966 -0.018614072 4280504968
0.029861718 -0.015113835 -0.018724635 4280375174
0.045617297 -0.017204283 -0.017723152 4282405738
0.047513932 -0.017160518 -0.017833743 4282077553
0.024147205 -0.016755313 -0.01951489 4281812863
0.026224084 -0.017527578 -0.018997584 4280896648
0.027927577 -0.016669318 -0.019736245 4281619064
0.049146123 -0.017821455 -0.019697696 4282274159
0.023919441 -0.01744999 -0.021263484 4282078064
0.025993451 -0.018224513 -0.020747639 4282144109
0.027461015 -0.018054532 -0.023229588 4281687148
0.029109545 -0.018697638 -0.02508143 4282668134
0.031185538 -0.019476354 -0.024568852 4282471529
0.032828234 -0.020117294 -0.026418641 4282208369
0.035938308 -0.019059652 -0.029612694 4282339439
-0.011431254 0.015852449 0.051146127 4286015518
-0.0090496875 0.013700541 0.053111374 4286080799
-0.01546314 0.01416878 0.050197463 4285360933
-0.014210664 0.018614957 0.045918927 4285558049
-0.012485616 0.020125115 0.044414986 4286212634
-0.01025527 0.018700013 0.04568366 4286212378
-0.007618729 0.015074054 0.049030263 4285819169
-0.0197259 0.01395827 0.047864962 4285361444
-0.018091261 0.016209329 0.045670353 4285558559
-0.016352288 0.017723976 0.044168703 4285952023
-0.014871523 0.020710694 0.041284397 4285754399
-0.012781214 0.020016881 0.041859075 4285556774
-0.010814641 0.020059267 0.041742176 4285688609
-0.0085847154 0.018629888 0.043007776 4285754399
-0.0062095672 0.016465029 0.044963792 4285492259
-0.0034065843 0.012093162 0.048991598 4285361444
-0.022658587 0.018230813 0.041275434 4285557538
-0.020691406 0.018272685 0.041158106 4285558303
-0.018724356 0.018314654 0.041040864 4285623838
-0.016757455 0.018356742 0.040923722 4286017814
-0.015284777 0.021352043 0.038046405 4286082583
-0.013329089 0.021394109 0.037930101 4286082839
-0.01124458 0.020698065 0.038503624 4286082329
-0.009023089 0.019264208 0.039766461 4286017304
-0.0069252849 0.018568719 0.040339321 4285623584
-0.0048221946 0.017873393 0.040911984 4285427489
-0.0017346814 0.012012893 0.046307981 4285032238
-0.026421115 0.015090276 0.041719902 4286016794
-0.024777815 0.017354326 0.039534308 4286147608
-0.02315101 0.019618152 0.037349798 4286343958
-0.021079604 0.018919146 0.03792211 4285819424
-0.019120876 0.018960951 0.037805371 4285623329
-0.017041568 0.018262362 0.038377326 4285557793
-0.015450772 0.02052586 0.036195289 4285885979
-0.013497945 0.020567885 0.036079157 4286083349
-0.011674188 0.021350348 0.035275012 4286083859
-0.0094611347 0.019911958 0.03653511 4285623838
-0.0073716938 0.019214077 0.037106894 4285624348
-0.0054140836 0.019256627 0.036990799 4285558814
-0.0031769872 0.017819067 0.038249701 4285558303
-0.00035900623 0.013421657 0.042257279 4285557283
-0.03040877 0.013427455 0.040783416 4285295143
-0.028644539 0.014955159 0.039289501 4285623328
-0.026891328 0.016482702 0.037796371 4285688609
-0.025149148 0.018010179 0.036303952 4285819679
-0.023305513 0.018794606 0.03549977 4286214164
-0.021467466 0.019579018 0.034695994 4285688864
-0.019281171 0.018135181 0.035954054 4285689118
-0.01720478 0.017434323 0.036524616 4285623839
-0.015369873 0.018219041 0.035721228 4285689374
-0.013540581 0.019003732 0.034918323 4285623839
-0.011588044 0.019045869 0.034802299 4285623839
-0.0093724988 0.017603146 0.036059055 4285623838
-0.0072805323 0.016903209 0.036629051 4285689628
-0.0055943951 0.018430589 0.03514079 4285821209
-0.0037795752 0.019215478 0.034339122 4286278679
-0.0016854033 0.018515905 0.034909226 4286212634
0.0012852922 0.013363468 0.039592259 4286081054
-0.032620959 0.013297431 0.038355954 4285361443
-0.031059679 0.016319973 0.03549223 4285493279
-0.029311851 0.017851667 0.034002595 4286148884
-0.027361091 0.017892906 0.033886038 4285951004
-0.02541044 0.01793425 0.033769567 4285688609
-0.023572348 0.018720763 0.032967359 4285820189
-0.021624669 0.018762266 0.032851227 4285952023
-0.019559246 0.01805895 0.033420715 4285623584
-0.017488509 0.01735585 0.033989955 4285623839
-0.01553579 0.0173978 0.033873778 4285624348
-0.013583228 0.017439866 0.033757702 4285624349
-0.011630829 0.017482022 0.033641703 4285624349
-0.0096785873 0.017524296 0.033525802 4285624349
-0.0077265091 0.017566664 0.033409987 4285754908
-0.0059115812 0.018353665 0.032609887 4285820188
-0.0042419732 0.019885121 0.031125978 4285951258
-0.0022986084 0.019927612 0.031010911 4286213653
8.0026686e-05 0.017737171 0.032947622 4286475539
0.0030663237 0.012569923 0.037618458 4285623074
0.006391786 0.00591515 0.043654267 4285491494
-0.03256378 0.010975236 0.037872322 4285228843
-0.031101152 0.014754096 0.034330025 4285426978
-0.029457536 0.017037584 0.032158948 4285623328
-0.027509648 0.017078778 0.032042574 4286214164
-0.025561865 0.01712008 0.031926285 4286148119
-0.023614205 0.017161483 0.031810086 4286082584
-0.021781776 0.017950194 0.031009935 4285754908
-0.019719273 0.017244639 0.031577975 4285623583
-0.017772015 0.017286384 0.031462058 4285623838
-0.015824888 0.017328234 0.031346232 4285623838
-0.013877925 0.0173702 0.031230502 4285624094
-0.011802372 0.016665356 0.03179808 4285623838
-0.0098529905 0.016707594 0.031682372 4285624094
-0.0081721507 0.018243479 0.030200914 4285820699
-0.0063654631 0.019032547 0.029402897 4286148884
-0.0045644045 0.01982156 0.028605338 4285622818
-0.0024842545 0.019117357 0.029173054 4285557029
-0.00025373697 0.017666804 0.030422851 4285754143
0.0019874647 0.016216641 0.03167206 4285754909
0.0046910271 0.012527514 0.034966588 4285361189
0.0075748861 0.0080926958 0.038941436 4285098539
-0.030838422 0.010939496 0.035217814 4285557794
-0.029394854 0.014728952 0.031684913 4285492514
-0.027658097 0.016269283 0.030202545 4285623584
-0.025822774 0.017060081 0.029403657 4285820443
-0.023880716 0.017101372 0.029287796 4285689628
-0.021938775 0.017142793 0.029172041 4285689629
