# .PCD v0.7 - Point Cloud Data file format
VERSION 0.7
FIELDS x y z rgba
SIZE 4 4 4 4
TYPE F F F U
COUNT 1 1 1 1
WIDTH 977
HEIGHT 1
VIEWPOINT 0 0 0 1 0 0 0
POINTS 977
DATA ascii
-0.030858364 0.010165721 -0.015095674 4280980543
-0.029118698 0.011017293 -0.016182637 4281176384
-0.027384225 0.011868626 -0.017268438 4279808054
-0.025511194 0.011993051 -0.017657591 4279872823
-0.023491587 0.011391111 -0.017351769 4279874353
-0.021317385 0.010063283 -0.016352588 4282225453
-0.019435994 0.010188609 -0.016743232 4284118829
0.01845907 -0.016721196 0.0044140927 4283790134
0.020842807 -0.018032856 0.0053714048 4282480199
-0.054372106 -0.00030950457 -0.0041054273 4282542928
-0.053298105 0.0056675002 -0.010119766 4281304648
-0.05194794 0.0094477385 -0.014020134 4280458048
-0.050624255 0.013226338 -0.017914908 4281110338
-0.048992384 0.01481032 -0.01970242 4281501509
-0.047028307 0.014201239 -0.019387612 4281175363
-0.044708017 0.01140064 -0.016975503 4280719423
-0.042485747 0.0093320459 -0.015266692 4280653888
-0.040614028 0.0094555095 -0.015656225 4281045569
-0.038492311 0.0081188753 -0.014650155 4280915774
-0.036870081 0.0097028017 -0.016435154 4280915774
-0.035128135 0.01055637 -0.017521221 4281110848
-0.033391353 0.011409715 -0.01860613 4281046079
-0.031524207 0.011533402 -0.018994322 4281111104
-0.029795181 0.012386478 -0.020077508 4280849984
-0.027789485 0.011781149 -0.019770544 4280263484
-0.025921937 0.011905178 -0.020158583 4280849474
-0.023761693 0.010571957 -0.019159881 4280720698
-0.021739613 0.0099680871 -0.018856125 4280530979
-0.019560441 0.0086362958 -0.01786115 4282289968
-0.055402037 0.0047243834 -0.01154846 4281304904
-0.054144036 0.0092499703 -0.01614381 4281044548
-0.052493628 0.010839276 -0.017932057 4280261698
-0.051179882 0.014628168 -0.021816658 4280001853
-0.049447063 0.01548259 -0.022899749 4280393534
-0.047491293 0.01487074 -0.022584856 4279546168
-0.045063104 0.011327922 -0.019479569 4279676219
-0.042966235 0.0099850297 -0.018471751 4280915009
-0.040980566 0.0093754008 -0.01816282 4280980544
-0.038989414 0.0087662861 -0.017855 4280914753
-0.037120152 0.0088897943 -0.018243872 4280915008
-0.035510916 0.010477364 -0.020022903 4281241663
-0.033779446 0.011332519 -0.021105103 4281176385
-0.032053176 0.012187444 -0.022186134 4280980288
-0.03019404 0.012310691 -0.022572599 4279156528
-0.028475519 0.013165314 -0.023651866 4280849984
-0.026475344 0.012557555 -0.023345355 4281371203
-0.024323624 0.011219352 -0.022348154 4281241665
-0.022161078 0.0098819435 -0.021353075 4281112889
-0.019987747 0.0085454285 -0.020360181 4281047354
-0.01811187 0.0086704567 -0.020749619 4281699644
-0.016079109 0.00806541 -0.020449476 4282617134
-0.013721973 0.006000787 -0.018772373 4284510764
-0.055322845 0.0017010719 -0.01126694 4281825613
-0.054161783 0.006976068 -0.016552884 4281239878
-0.052720245 0.01004146 -0.019735545 4281110595
-0.051516961 0.01457677 -0.02430963 4280718659
-0.04978944 0.015433006 -0.025390018 4280457793
-0.047839317 0.014818568 -0.025075592 4280588353
-0.045417454 0.011264354 -0.021977123 4280849474
-0.043326382 0.0099166259 -0.020971317 4280915009
-0.041468259 0.010039158 -0.02135805 4281045569
-0.03960998 0.010161787 -0.021744747 4280980288
-0.037751544 0.010284543 -0.022131395 4280980799
-0.035892945 0.010407425 -0.022517987 4281111359
-0.034166772 0.011264399 -0.023597471 4281176384
-0.032445814 0.012121186 -0.024675839 4281046078
-0.03073005 0.01297769 -0.025753003 4280459068
-0.029160101 0.014567416 -0.027520277 4279285559
-0.02731419 0.014689993 -0.027903836 4279807799
-0.025176298 0.013346471 -0.026907019 4280329528
-0.022581812 0.009804979 -0.023843484 4280330038
-0.019809216 0.0055325851 -0.020096363 4281176638
-0.017774191 0.0049253851 -0.019798394 4281176638
-0.01526387 0.0021214262 -0.017437607 4281960764
-0.012891378 5.1297247e-05 -0.015768614 4282943534
-0.054642063 -0.0057606697 -0.0068033878 4282087244
-0.053767677 0.001745522 -0.014175105 4281304649
-0.052735057 0.0077724233 -0.020141853 4281371713
-0.051636558 0.013058871 -0.025403315 4280717894
-0.049908992 0.013917267 -0.026482109 4280979269
-0.047959153 0.01330059 -0.026169268 4280914754
-0.04553828 0.0097353309 -0.023078725 4280719423
-0.04368579 0.0098573565 -0.023464382 4280719934
-0.042076562 0.011453301 -0.025237139 4280654144
-0.038508531 0.012433775 -0.02669847 4279611959
-0.03653368 0.011819348 -0.026390383 4278829873
-0.034553353 0.01120542 -0.026083343 4280981053
-0.032837693 0.012063988 -0.027158955 4281111358
-0.031127248 0.012922317 -0.028233401 4280915009
-0.029702824 0.015251771 -0.030686107 4280784703
-0.027578879 0.013902783 -0.029689679 4280719424
-0.025444154 0.012554653 -0.028695466 4281045313
-0.022408087 0.006796509 -0.023575198 4280916028
-0.019480255 0.0017763227 -0.019151255 4281047098
-0.016976222 -0.001036942 -0.016795751 4281306944
-0.014763594 -0.0023794547 -0.015817327 4281697858
-0.012221981 -0.0051899478 -0.0134695 4282875704
-0.0098206773 -0.0072646663 -0.011811228 4284509489
-0.054164391 -0.011776321 -0.0037579425 4281955408
-0.052963797 -0.0064681098 -0.0090294424 4281760334
-0.052222494 0.0017984658 -0.01707449 4281174854
-0.051215094 0.0078413039 -0.023022948 4281370183
-0.049695861 0.010182366 -0.025491338 4281175108
-0.047851857 0.010303602 -0.025875397 4280916284
-0.045775268 0.0089460388 -0.024873231 4280851004
-0.043806706 0.0083285794 -0.024565782 4280589373
-0.042318802 0.01066801 -0.027027331 4280849984
-0.040846761 0.013006523 -0.029485561 4280784703
-0.038883071 0.012389056 -0.029176865 4281241153
-0.036784325 0.011033446 -0.028178871 4278829873
-0.034542527 0.0089403093 -0.026493326 4280785213
-0.032824147 0.0098012313 -0.027567893 4280915518
-0.031248551 0.011399955 -0.029329948 4280914753
-0.029403027 0.011522368 -0.029713534 4281110339
-0.027414475 0.010907196 -0.029409517 4281110339
-0.024983745 0.0080799311 -0.027045548 4281044548
-0.021938529 0.002304852 -0.021940179 4281175109
-0.018850476 -0.0034672171 -0.016843662 4281110849
-0.016333934 -0.0062884241 -0.01449726 4281046844
-0.014264714 -0.0068976432 -0.014209567 4281763394
-0.012031119 -0.0082430393 -0.013238667 4283201848
-0.009786766 -0.0095875561 -0.01226995 4284640303
-0.053788755 -0.017075405 -0.0014261836 4282215509
-0.05247106 -0.012493461 -0.0059950538 4281825868
-0.051606607 -0.0049440563 -0.013332205 4281566534
-0.050687287 0.0018597841 -0.019965021 4281045058
-0.049373042 0.0056925267 -0.023817264 4281175363
-0.047858577 0.0080399662 -0.026279783 4281242174
-0.046127889 0.008903116 -0.027355857 4280915009
-0.044402365 0.0097660348 -0.028430784 4280459069
-0.042682011 0.010628752 -0.029504599 4280849984
-0.041214909 0.012973458 -0.031956892 4281502274
-0.039383557 0.013094369 -0.032337941 4281175618
-0.037293326 0.01173383 -0.031341493 4281110338
-0.034928139 0.0088928938 -0.0289708 4280394044
-0.033080351 0.0090152174 -0.029355034 4281110593
-0.03095765 0.0076571703 -0.028365079 4280783428
-0.028964188 0.0070399716 -0.028063755 4280980034
-0.026537079 0.0042035803 -0.025705617 4281175109
-0.023943078 0.00062901527 -0.022666465 4281436229
-0.020878062 -0.005162254 -0.017578248 4281305669
-0.018373158 -0.0079931319 -0.015236018 4281697349
-0.016153608 -0.0093440861 -0.014265619 4281500743
-0.014391545 -0.0084771365 -0.015347021 4281436484
-0.011999689 -0.010565773 -0.013696633 4281893953
-0.0095917284 -0.012653247 -0.012049519 4284704563
-0.053814206 -0.019416548 -0.0018831743 4282215509
-0.05218536 -0.017055497 -0.0043649236 4282022728
-0.051098276 -0.010972515 -0.010304125 4281566024
-0.049837958 -0.0063810349 -0.014851175 4281174089
-0.048720006 -0.0010472685 -0.020082589 4281500489
-0.047526028 0.0035400689 -0.024615666 4281370183
-0.046363901 0.0081254244 -0.029142024 4281175618
-0.044996578 0.011221416 -0.032282948 4280393024
-0.043286849 0.012085564 -0.033352897 4279807799
-0.041706186 0.013692845 -0.035109989 4280654908
-0.039882969 0.013813209 -0.035489358 4280719933
-0.037801217 0.012447678 -0.03449434 4279807799
-0.035313014 0.008854568 -0.031441741 4280458558
-0.033201601 0.0074912608 -0.030452771 4281110595
-0.030804966 0.00464385 -0.028094972 4280783430
-0.028386835 0.0017979741 -0.025741555 4281110339
-0.025947209 -0.001046367 -0.023392521 4281632833
-0.023340885 -0.0046310648 -0.020364033 4281828164
-0.020707749 -0.0082138926 -0.017341055 4281828164
-0.018198337 -0.011053242 -0.015006261 4281827399
-0.016127195 -0.011666849 -0.014722319 4281630794
-0.014206517 -0.011538759 -0.015121015 4281435974
-0.012127161 -0.012151591 -0.014838601 4281568574
-0.0097198784 -0.014245667 -0.013196209 4284638773
-0.052105699 -0.020140953 -0.0041295579 4281695818
-0.050801989 -0.015533581 -0.0086759999 4281566279
-0.049422409 -0.011674806 -0.012525743 4281239879
-0.048179697 -0.0070712045 -0.017059373 4281369673
-0.047194812 -0.00097715855 -0.022964034 4281174854
-0.04625247 0.005114235 -0.028859813 4281306434
-0.045234304 0.010457009 -0.034058828 4281241918
-0.043890271 0.013560314 -0.037188347 4280850238
-0.042320069 0.015171289 -0.03894002 4280589628
-0.040381294 0.014545538 -0.038631052 4280654654
-0.03804997 0.011684701 -0.036266409 4280784448
-0.035433743 0.0073353425 -0.032536112 4280783428
-0.033054087 0.0044779778 -0.030181395 4280783174
-0.030378874 0.00013272464 -0.026463211 4281109573
-0.027950887 -0.0027212724 -0.024118338 4281044549
-0.025501449 -0.0055736974 -0.021777885 4281240389
-0.023175549 -0.0076804906 -0.020124 4281630794
-0.02039038 -0.012017921 -0.016428353 4281630284
-0.018324982 -0.012634285 -0.016144905 4281695563
-0.016254161 -0.013250127 -0.015862538 4281695563
-0.014333624 -0.013122067 -0.016261207 4281630539
-0.011937786 -0.015223607 -0.014621405 4281827908
-0.052026663 -0.023234934 -0.0039002849 4281625183
-0.050821554 -0.017865054 -0.0091273338 4281564748
-0.049223583 -0.0154927 -0.011592848 4281696584
-0.047751565 -0.01237268 -0.014742805 4281499978
-0.046413589 -0.0085054636 -0.018575678 4281498959
-0.045564149 -0.0016468689 -0.025149908 4281630283
-0.044644389 0.0044606477 -0.031027932 4281435719
-0.043888006 0.011313379 -0.037582666 4281567809
-0.04219139 0.012181118 -0.03864659 4281306433
-0.040247601 0.011553504 -0.0383403 4281109574
-0.037654068 0.0071894303 -0.034615148 4281175363
-0.035159875 0.0035747811 -0.031580031 4281240389
-0.032504659 -0.00078503042 -0.027867492 4281240134
-0.029954132 -0.0043957233 -0.024843924 4281303883
-0.027516339 -0.0072578043 -0.022507643 4281827143
-0.025483649 -0.0078788996 -0.022219295 4281957959
-0.023155753 -0.0099921003 -0.02057074 4281760843
-0.020811733 -0.012104161 -0.018925406 4281694798
-0.018451583 -0.01421503 -0.017283339 4281629263
-0.016228192 -0.015578859 -0.016323538 4281693779
-0.013994031 -0.01694192 -0.015365868 4281628755
-0.011749092 -0.01830408 -0.014410368 4281627989
-0.050632093 -0.021702982 -0.0082068006 4281821023
-0.049240377 -0.017821565 -0.012042891 4281434189
-0.047545154 -0.016194195 -0.013814541 4281499724
-0.046085764 -0.013066135 -0.016955366 4281695563
-0.044878218 -0.0084384456 -0.021462038 4281565513
-0.043938529 -0.0023121163 -0.027331255 4281369419
-0.043282706 0.005311735 -0.034559648 4281239624
-0.0418167 0.0076825544 -0.036992311 4281044548
-0.039736535 0.0063036755 -0.036006853 4281371203
-0.036873471 0.00042804331 -0.030929163 4281306179
-0.034230266 -0.0039457902 -0.027224001 4280979778
-0.031822909 -0.0068189278 -0.024888011 4281175364
-0.029530775 -0.0089414418 -0.023237161 4281369164
-0.027222481 -0.011062823 -0.021589553 4281630794
-0.025040064 -0.012434281 -0.020624807 4281630794
-0.022991572 -0.013056383 -0.020341337 4281761353
-0.020790253 -0.014426306 -0.019380381 4281760588
-0.018728185 -0.015047252 -0.019099543 4281629009
-0.016355261 -0.017163724 -0.017464908 4281496664
-0.014121592 -0.018531188 -0.016510369 4281233759
-0.047449555 -0.01927565 -0.013580236 4281824848
-0.045871768 -0.016891293 -0.016031677 4281695309
-0.044540148 -0.01300256 -0.019846909 4281825868
-0.04323503 -0.0091154501 -0.023656538 4281826889
-0.042317931 -0.0029730201 -0.029508017 4281695564
-0.040704373 -0.001346156 -0.031258974 4281696839
-0.038849656 -0.0012237877 -0.031644952 4281630793
-0.036223788 -0.0056120306 -0.027946012 4281696328
-0.033828091 -0.0084948242 -0.025614178 4281631304
-0.031544764 -0.010624625 -0.023966465 4281631559
-0.029518295 -0.011250779 -0.02368026 4281631049
-0.027347181 -0.01262746 -0.022716545 4281696074
-0.025023419 -0.014754266 -0.021076933 4281695053
-0.022972573 -0.015378393 -0.020795573 4281499213
-0.021063466 -0.015251495 -0.021192167 4281498194
-0.018704671 -0.017375611 -0.019559562 4281169499
-0.046108056 -0.017709188 -0.017847551 4281890894
-0.044663388 -0.014564499 -0.020972284 4281761353
-0.043122221 -0.012175791 -0.023411086 4281957449
-0.041837554 -0.0082789958 -0.027208276 4281761609
-0.040333439 -0.0058925599 -0.029639173 4281696329
-0.038342524 -0.0065236688 -0.029347578 4281761353
-0.035961155 -0.0094162896 -0.027019337 4281761863
-0.033689294 -0.011553533 -0.025374195 4281696584
-0.031534936 -0.012936004 -0.024410391 4281696073
-0.029369798 -0.014317617 -0.023448795 4281696074
-0.027332861 -0.014945097 -0.02316634 4281434954
-0.025148768 -0.01632525 -0.02220846 4281368653
-0.023098242 -0.016951598 -0.021928661 4281367633
-0.045783225 -0.022308618 -0.016255179 4282412368
-0.044556942 -0.017640278 -0.020736629 4281956939
-0.043010067 -0.015244693 -0.023171732 4282022984
-0.041599173 -0.012093276 -0.026282798 4281826633
-0.039841022 -0.011212789 -0.027353087 4281761864
-0.038213555 -0.0095761269 -0.029100442 4281761098
-0.035955843 -0.011721037 -0.027457273 4281761353
-0.033681978 -0.013864748 -0.025817428 4281761098
-0.031258468 -0.016763099 -0.023504265 4281695564
-0.029085804 -0.018148646 -0.022547442 4281565004
-0.027180005 -0.018022351 -0.022943635 4281367124
-0.042663936 -0.019840263 -0.021581985 4282415174
-0.041481782 -0.015161522 -0.026044382 4281760844
-0.039840903 -0.013519771 -0.027791342 4281695308
-0.038085233 -0.012637146 -0.028859407 4281760843
-0.035822865 -0.014788307 -0.02722214 4281695053
-0.033544313 -0.016938299 -0.025588084 4281629773
-0.031249631 -0.019087099 -0.02395729 4281433933
-0.029074799 -0.02047684 -0.023004204 4281498704
-0.042084891 -0.025975704 -0.018651325 4282411093
-0.041245241 -0.018999413 -0.025135923 4281760334
-0.039841097 -0.015830867 -0.02823256 4281760078
-0.037832458 -0.0164674 -0.027949538 4281760589
-0.03556272 -0.018624663 -0.026318606 4281629773
-0.033276845 -0.020780765 -0.024690956 4281629263
-0.030974817 -0.022935599 -0.023066603 4281432403
-0.0394747 -0.020435505 -0.026654728 4282085203
-0.037330743 -0.021836512 -0.025702052 4281890384
-0.034920704 -0.024762288 -0.023405753 4281498194
-0.032749776 -0.026161321 -0.022458469 4281365594
-0.036206771 -0.031053156 -0.020110846 4282216529
-0.033770915 -0.033985943 -0.017826445 4281694034
0.030043073 -0.026787028 0.015583383 4280311169
0.035199706 -0.037451297 0.025419524 4280506754
0.039171726 -0.043790169 0.031139826 4282340713
0.023037296 -0.018620729 0.0056427103 4280704888
0.025844913 -0.021376349 0.0079629011 4279720079
0.030110788 -0.029188171 0.015058 4280047244
0.035059292 -0.039163016 0.024187619 4280374663
0.038818911 -0.044799551 0.029212041 4282602854
0.018325198 -0.018361971 0.0032330621 4281883753
0.020511359 -0.018952772 0.003504416 4280309894
0.023102328 -0.020993248 0.0051392317 4279260313
0.026114162 -0.024482414 0.0081342794 4278670244
0.030383259 -0.03231819 0.015210876 4279325594
0.034918893 -0.040874377 0.022955975 4280374153
0.038676914 -0.046528563 0.027967731 4282602598
0.016010877 -0.019408979 0.0017814729 4282210409
0.018191352 -0.020002425 0.0020522568 4280505733
0.020574069 -0.021322936 0.0030032694 4279850384
0.023366593 -0.024097212 0.0053135231 4279652759
0.026584957 -0.028324164 0.0089796782 4278997408
0.030859921 -0.036183625 0.016037149 4279194268
0.034778513 -0.04258544 0.021724543 4280570503
0.016068742 -0.021776959 0.0012831949 4280308873
0.018057525 -0.021642566 0.00087167695 4279980945
0.020636443 -0.023697183 0.0024991967 4279850129
0.023430768 -0.026480108 0.0048025735 4279653269
0.027054686 -0.032178834 0.0098157898 4279063454
0.030926069 -0.038603649 0.015498208 4279718804
0.034638152 -0.044296131 0.020493379 4281030013
0.0088702925 -0.019422308 -0.0027471101 4282406759
0.011586197 -0.022219926 -0.00043446198 4281029503
0.013946477 -0.023551017 0.00051439926 4280308363
0.01631747 -0.024881348 0.0014611594 4280111758
0.018311447 -0.024746597 0.0010485649 4280046479
0.020895001 -0.026807427 0.0026702173 4280112014
0.023892999 -0.030330539 0.0056436695 4280112014
0.027321469 -0.035314821 0.0099656396 4279390873
0.030787328 -0.040296391 0.014279924 4280439179
0.034083374 -0.04454419 0.017910758 4281881203
0.0087382011 -0.021048546 -0.003917831 4280701573
0.011453237 -0.023854993 -0.0016115038 4280242829
0.01418967 -0.026659846 0.00069049746 4280111503
0.016374491 -0.027259715 0.0009554103 4280242573
0.018758334 -0.028593376 0.0018963255 4280242573
0.021349225 -0.030660316 0.0035116337 4280242573
0.024553204 -0.034927823 0.007151451 4280045968
0.028192641 -0.040660568 0.012135487 4279718293
0.031261712 -0.044189557 0.01508631 4282208623
0.0041293465 -0.020727128 -0.0063076084 4279588498
0.0062736534 -0.021332458 -0.006036262 4279718803
0.008788947 -0.023411691 -0.0044106981 4279915154
0.011505779 -0.026226759 -0.00211123 4279849363
0.014244016 -0.029040277 0.00018390268 4279849363
0.016812827 -0.031115539 0.0017987266 4279915154
0.019397669 -0.033189565 0.0034102723 4280438923
0.022390889 -0.036735035 0.0063683912 4280570249
0.02560968 -0.041014731 0.0099954456 4281749624
-0.0001016818 -0.021869771 -0.0073374836 4282144364
0.0020341799 -0.022478059 -0.007066234 4280702083
0.0041754432 -0.023085922 -0.0067959828 4279718803
0.0063220896 -0.023693249 -0.0065267859 4279391129
0.0088393576 -0.025778919 -0.0049065044 4279783828
0.011743303 -0.029341906 -0.0019383468 4279718293
0.014673986 -0.032902941 0.0010243133 4279915154
0.017440747 -0.03572312 0.0033071004 4280045969
0.020228909 -0.038541757 0.0055856071 4280373643
0.023430429 -0.042835891 0.0092064086 4281094528
-0.0054857433 -0.017807454 -0.013110588 4282340713
-0.0030388571 -0.019905098 -0.011481016 4280178313
-0.00023236498 -0.023486204 -0.0085013052 4279850385
0.002077613 -0.02483891 -0.0075554391 4279719059
0.0042212121 -0.025448754 -0.0072873374 4279456409
0.0063701905 -0.026058137 -0.0070202602 4279128479
0.0087069944 -0.0274086 -0.0060797147 4279784083
0.011795009 -0.031724066 -0.0024455488 4280177294
0.015102886 -0.03677845 0.0018553995 4280963459
0.018448206 -0.041830212 0.0061487481 4282339184
-0.0073904768 -0.020280853 -0.013182524 4281488759
-0.00511593 -0.021640651 -0.012232899 4280636548
-0.0029995441 -0.022254907 -0.011961061 4279915919
-0.00053458288 -0.024357781 -0.010340009 4279653779
0.0017721988 -0.025715053 -0.0093967766 4279391639
0.0042666458 -0.0278157 -0.0077816471 4279587734
0.0065975599 -0.029171094 -0.0068432353 4279522199
0.0093037449 -0.032013305 -0.0045611188 4279653269
0.012586154 -0.037084922 -0.00026631728 4280373644
0.016093601 -0.042897299 0.004692642 4281551999
-0.0096219666 -0.02126351 -0.014607812 4280243849
-0.0073559992 -0.022628471 -0.013659711 4279718803
-0.0052453466 -0.023245409 -0.013388394 4280046223
-0.0027918145 -0.025355756 -0.011769943 4279784849
-0.00049361214 -0.02671811 -0.010828272 4279719058
0.0021634921 -0.029572785 -0.0085427798 4279849874
0.0044885054 -0.030933082 -0.0076064765 4279980943
0.0070036761 -0.033038765 -0.0060004033 4281224833
-0.016482286 -0.018748283 -0.018606061 4280375683
-0.014249124 -0.020120174 -0.01765467 4280112014
-0.012163073 -0.020741358 -0.017380174 4279849873
-0.0099110454 -0.022111677 -0.016432539 4279849618
-0.0076482594 -0.02348122 -0.015487025 4279718549
-0.0052088499 -0.025599182 -0.013870653 4278932384
-0.0029218867 -0.02696684 -0.01292995 4279915154
-0.0004529655 -0.029082537 -0.011319492 4279915154
0.0020320341 -0.031197101 -0.0097122379 4280111503
0.0047096871 -0.034059018 -0.0074373968 4281290114
-0.016456932 -0.021084949 -0.019072782 4279785358
-0.014531657 -0.020956606 -0.019472465 4279784338
-0.01244859 -0.021580234 -0.019198935 4279784338
-0.010199744 -0.022955164 -0.018253904 4279719059
-0.0079401471 -0.024329245 -0.017311007 4279719059
-0.0053383708 -0.027205527 -0.0150273 4279259804
-0.0027151741 -0.030080251 -0.012747951 4279193503
-7.0538372e-05 -0.032953382 -0.010472927 4280045969
0.0024217851 -0.035074025 -0.0088720657 4281290113
0.0049301758 -0.037193395 -0.0072744647 4283253103
-0.023512203 -0.017014258 -0.02441014 4279850638
-0.021168221 -0.019152567 -0.022784326 4279587734
-0.018808108 -0.021289751 -0.021161739 4279784084
-0.016736239 -0.021916494 -0.020887718 4279653014
-0.014349237 -0.024051636 -0.019270536 4279784339
-0.012418687 -0.023922846 -0.019671235 4279718803
-0.0098472945 -0.026810169 -0.017387904 4279915664
-0.0077430494 -0.02743426 -0.017120227 4279980945
-0.0049712732 -0.031072691 -0.014174074 4280242574
-0.002340924 -0.033955686 -0.011902686 4280896648
-0.025258023 -0.020223796 -0.023797587 4279983749
-0.023493465 -0.019339785 -0.024866913 4279981708
-0.021000806 -0.022241719 -0.022574175 4279456663
-0.01908404 -0.022114225 -0.022972301 4279325594
-0.016711168 -0.02425696 -0.021357179 4279456663
-0.014631517 -0.024885327 -0.021086283 4279718804
-0.012231767 -0.027025998 -0.019476544 4279587478
-0.0096558966 -0.029921785 -0.017200634 4279849618
-0.0072212741 -0.032059915 -0.015597902 4280766599
-0.0042745061 -0.036464542 -0.011993553 4281617788
-0.028928284 -0.023569174 -0.022791125 4280442493
-0.02715325 -0.022682518 -0.023861185 4279785614
-0.025383439 -0.021796092 -0.024930067 4279915153
-0.023475032 -0.021669403 -0.025326643 4279914643
-0.021127041 -0.023820639 -0.023711355 4279980945
-0.018912114 -0.025211498 -0.022769406 4279456409
-0.016686395 -0.026601538 -0.021829545 4279456409
-0.014449921 -0.027990684 -0.020891868 4279718294
-0.012045506 -0.030137688 -0.019287936 4280177039
-0.0094651692 -0.033041865 -0.017019466 4281551998
-0.030966971 -0.025272168 -0.023528758 4280375683
-0.029053714 -0.025145546 -0.023926616 4280112013
-0.027416956 -0.023494624 -0.025665723 4279849363
-0.025367837 -0.024129972 -0.025392234 4279783828
-0.023456912 -0.024003133 -0.025789335 4279849108
-0.020960629 -0.026922353 -0.023510329 4279980433
-0.018740855 -0.028317317 -0.022572592 4280045969
-0.016055357 -0.031994984 -0.019633316 4279914898
-0.013960358 -0.032626636 -0.019368872 4280176784
-0.011545956 -0.034779482 -0.017771918 4282402169
-0.030428242 -0.030671433 -0.021313038 4280899453
-0.028908189 -0.028250545 -0.023722593 4280176783
-0.027404021 -0.025830597 -0.026128739 4279980434
-0.02549335 -0.025703892 -0.026525885 4279456409
-0.023582581 -0.025577039 -0.026922949 4279652758
-0.021087155 -0.028505094 -0.024650261 4279849618
-0.018421467 -0.032195129 -0.021715056 4280045969
-0.015577532 -0.036646634 -0.01811903 4280177039
-0.01347217 -0.037279867 -0.017858345 4280634508
-0.02862804 -0.032130688 -0.02285663 4280766343
-0.027253445 -0.028937168 -0.025927166 4279652759
-0.025337595 -0.028810129 -0.026325395 4279521688
-0.023278344 -0.029449075 -0.026057165 4279783828
-0.02062979 -0.033151314 -0.023126602 4279980179
-0.017954472 -0.036851645 -0.020201512 4283253613
-0.026965763 -0.032820866 -0.02506585 4280242829
-0.025042053 -0.032693297 -0.025465716 4280111503
-0.02283201 -0.034102298 -0.024535872 4280635274
-0.020028036 -0.038582966 -0.020951163 4280961674
0.011575535 -0.046579272 -0.018476402 4282929254
0.013933409 -0.047976084 -0.017575601 4282010999
-0.02460726 -0.037360132 -0.023951527 4282863974
0.015786242 -0.049476668 -0.019163327 4282339439
-0.01227624 -0.04603155 -0.036085315 4282929254
-0.01671689 -0.045513071 -0.03837233 4282863464
0.035009824 0.025440156 0.046641678 4285230118
0.03840325 0.027681675 0.043617852 4285951513
0.04396259 0.017330844 0.054853499 4285951769
0.033268958 0.022310488 0.047312126 4285427234
0.033593539 0.027713895 0.041065544 4285689884
0.034522846 0.031140327 0.037011243 4285558049
0.036736637 0.030617774 0.037325971 4285558304
0.04116806 0.023518726 0.044906534 4285755164
0.025220469 0.026169088 0.040802099 4285098029
0.02743151 0.025643721 0.04111553 4285426469
0.030270852 0.023136422 0.043611437 4285558304
0.031659234 0.025255028 0.041011885 4285624348
0.033031493 0.027372662 0.038415678 4285887254
0.034387656 0.02948926 0.035822921 4285821208
0.036601178 0.028964497 0.036136083 4285821209
0.039925247 0.025140628 0.040073678 4285886488
0.043952577 0.019339811 0.046178326 4285886744
0.048254438 0.012882814 0.052997068 4285624094
0.021882396 0.028355226 0.035654925 4285229354
0.023872294 0.028489728 0.035243198 4285820189
0.02647659 0.026634652 0.037012011 4285820698
0.029511884 0.023454696 0.04023008 4285754909
0.031102821 0.024916615 0.03836266 4285689884
0.032683022 0.026377842 0.036497571 4285624093
0.034036942 0.028500933 0.033910125 4285821209
0.036465712 0.027311452 0.034946367 4285821209
0.03912599 0.025460687 0.036703914 4285689629
0.042472921 0.02162521 0.0406271 4285624349
0.044946998 0.020439062 0.041654103 4285624349
0.047202796 0.019915313 0.041957155 4285558558
0.05062177 0.016084958 0.045865633 4285427233
0.056415327 0.005644761 0.056974813 4285295399
0.018738087 0.023109499 0.038930751 4285230373
0.019561768 0.027240571 0.034154847 4285493023
0.020552572 0.030703776 0.030111982 4285623838
0.022930184 0.029505983 0.031155145 4285623838
0.025727741 0.026978116 0.033646628 4285755418
0.028961297 0.023121294 0.037583068 4285820954
0.030757133 0.023922179 0.036444128 4285689884
0.032334916 0.025387663 0.034582809 4285624349
0.033471279 0.028181929 0.031277731 4285558813
0.035894223 0.026987694 0.032311879 4285558814
0.038327828 0.025794227 0.033343934 4285558558
0.041442163 0.022609107 0.036537863 4285624349
0.042774856 0.024737716 0.033959955 4285624348
0.044320125 0.026201475 0.032105714 4285689883
0.046548788 0.025673773 0.032412812 4285886234
0.051123444 0.018512197 0.039910249 4285820188
0.058124419 0.0047221929 0.054581486 4285885979
0.015644833 0.024660073 0.034520581 4285165094
0.017247071 0.026131045 0.03265705 4285558814
0.018642195 0.028269593 0.030070463 4286018578
0.020021256 0.030407142 0.027487257 4285755163
0.02198953 0.030540194 0.027080016 4285623584
0.024775555 0.028002739 0.029567366 4285689628
0.027997226 0.024131864 0.033496529 4285886999
0.030202014 0.023599688 0.033806443 4285624349
0.031987179 0.024402153 0.032671414 4285624349
0.033336636 0.026538201 0.030094707 4285559068
0.035541292 0.026006274 0.030404845 4285559068
0.037971765 0.024808194 0.03143429 4285559068
0.040412858 0.023610968 0.032461554 4285624349
0.04128357 0.02707788 0.028452294 4285755418
0.042355962 0.029877041 0.025167281 4285623583
0.044794142 0.028679851 0.026195323 4285557794
0.048646286 0.023489576 0.031526536 4285623583
0.053960569 0.014309514 0.041150913 4285754653
0.060067438 0.0031387806 0.052909225 4285820444
0.013897751 0.021538313 0.035198562 4285294634
0.014365714 0.027038958 0.028987085 4285360678
0.015758587 0.029183876 0.026405795 4285427488
0.017135404 0.031327803 0.023827894 4285755673
0.018893976 0.032130253 0.022699686 4285887254
0.021050341 0.031592365 0.023017818 4285887254
0.024029097 0.028375428 0.026223095 4285821718
0.027241534 0.024490759 0.030144336 4285690138
0.029647619 0.02328635 0.03117528 4285558558
0.031215221 0.024759967 0.029322607 4285558559
0.032557085 0.026902121 0.026752373 4285624349
0.034971088 0.025698453 0.027781906 4285624349
0.037395723 0.024495635 0.028809262 4285624093
0.039385006 0.024630789 0.028398173 4285623838
0.040245816 0.02810806 0.024399133 4285821208
0.041308131 0.030915368 0.021122744 4285886998
0.043504104 0.03038108 0.021433363 4285755418
0.046873897 0.026507895 0.025322748 4285755164
0.051221244 0.019966278 0.03206712 4285755419
0.055861071 0.012760922 0.039515376 4285821209
0.062010109 0.0015557408 0.05123733 4285624349
0.014614293 0.024060849 0.029258559 4285557283
0.015626227 0.027558345 0.025235662 4285492514
0.016807441 0.030381516 0.021940468 4285558558
0.018762127 0.030513559 0.021535972 4285690139
0.020918209 0.029973451 0.021852532 4285558813
0.023691872 0.027417548 0.024329389 4285558558
0.026693689 0.024191305 0.027521769 4285558814
0.028675091 0.024325509 0.027112005 4285624349
0.029808026 0.027145885 0.023827223 4285690138
0.031134274 0.029293593 0.021265117 4285886998
0.033314265 0.028755616 0.021577118 4285886998
0.036600269 0.024863157 0.025473678 4285886998
0.038358599 0.025668576 0.024347736 4285623838
0.039660513 0.027814928 0.021790953 4285623838
0.040489919 0.031301212 0.017806584 4285690139
0.042677592 0.030764144 0.018117351 4285755673
0.0455711 0.028217312 0.020570131 4285755418
0.049903139 0.021652672 0.02730138 4285624348
0.053810827 0.016431201 0.032595135 4285427488
0.059452139 0.006525971 0.042869091 4285427233
0.015433699 0.019048531 0.031688705 4285426214
0.016266633 0.023233 0.02694997 4285754909
0.017263312 0.026740566 0.022938455 4285558303
0.01902739 0.027547795 0.021812374 4285559069
0.020987321 0.027680296 0.021406865 4285493533
0.02355893 0.025790032 0.023157937 4285559068
0.026146594 0.023900907 0.024905799 4285559069
0.027913287 0.02470867 0.023779439 4285624604
0.02882687 0.028211143 0.019785503 4285755673
0.030142847 0.030364774 0.017230427 4285689374
0.032529127 0.02915049 0.018259147 4285755163
0.035585962 0.025917362 0.021432364 4285886998
0.038001567 0.02470525 0.022455158 4285689629
0.039301235 0.026858114 0.019903703 4285624349
0.040812768 0.028337289 0.018069552 4285559069
0.043005496 0.027798425 0.018377615 4285559069
0.045670185 0.025915403 0.020110207 4285493279
0.049766958 0.020000916 0.026112804 4285427999
0.053673081 0.01476175 0.031393856 4285295399
0.059552919 0.0041515976 0.042355053 4285295654
0.016061004 0.014691729 0.033383079 4285360424
0.017291632 0.017535757 0.030090636 4285426213
0.018109482 0.021732505 0.025364878 4285623839
0.019291932 0.024573464 0.022082543 4285624093
0.020653997 0.026736386 0.019522505 4285361699
0.022814859 0.026192252 0.019834926 4285493789
0.024981048 0.025648609 0.020146271 4285559069
0.02673443 0.026457679 0.019024303 4285755929
0.028058916 0.028618421 0.016472304 4285689883
0.029581733 0.030102331 0.01463877 4285492259
0.031745095 0.02955886 0.014950966 4285558049
0.03479287 0.026314162 0.018117866 4285689629
0.037644897 0.023746595 0.020565948 4285689883
0.039617736 0.023880772 0.020158364 4285558814
0.041362684 0.024689887 0.019038597 4285559323
0.043793645 0.02347469 0.020055154 4285493789
0.046934709 0.020236779 0.02320311 4285493788
0.05104579 0.014303494 0.02918811 4285559323
0.054727912 0.0097218156 0.033743128 4285493024
0.060618084 -0.00092277676 0.044676073 4285229098
0.015546003 0.014395189 0.030754307 4285491748
0.016964704 0.016568273 0.02818724 4285557793
0.018367361 0.018740363 0.025623562 4285689883
0.019555783 0.021590497 0.022346565 4285624093
0.020521913 0.025118228 0.018357763 4285690394
0.022275407 0.025929336 0.017237274 4285493788
0.023817323 0.027418699 0.015402867 4285559069
0.025348488 0.028907467 0.0135707 4285755928
0.02686893 0.030395549 0.011740865 4285952788
0.028592858 0.03120501 0.01062675 4285820953
0.031179059 0.029303003 0.012365369 4285821464
0.034220465 0.026046876 0.015525447 4285821463
0.037510861 0.022115186 0.019391892 4285690394
0.039933488 0.020894863 0.020406799 4285493533
0.042594377 0.018998239 0.02213029 4285559324
0.045731843 0.015749019 0.025270792 4285493534
0.048895977 0.012501694 0.028405851 4285427488
0.052322421 0.0085797533 0.032244481 4285427234
0.055780884 0.0046600625 0.036076628 4285295144
0.061440401 -0.0053428486 0.046273462 4285032238
0.015031736 0.014107812 0.028132061 4285362208
0.016638167 0.015605479 0.026287226 4285689374
0.018233892 0.017102554 0.024444623 4285624349
0.019818921 0.01859897 0.022604359 4285689884
0.02099188 0.021456987 0.019337101 4285624604
0.022346761 0.023632724 0.016788403 4285689884
0.023273509 0.027168963 0.012816092 4285493279
0.024799585 0.028661747 0.010988291 4285493534
0.026103526 0.030834313 0.008450333 4285624604
0.028033558 0.03096525 0.0080513526 4285756184
0.030397028 0.029736217 0.0090750828 4285624603
0.033868212 0.025108825 0.013650363 4285624604
0.037598912 0.019804385 0.018928217 4285493279
0.040922821 0.015861914 0.022777991 4285427488
0.044051319 0.012601011 0.025912145 4285493023
0.047436636 0.0086628571 0.029749414 4285426978
0.050388359 0.0060848668 0.032164156 4285229353
0.053361379 0.0035084635 0.034574516 4285228843
0.056355707 0.0009335801 0.036980607 4285163564
0.062020414 -0.0091020018 0.04715199 4285032238
0.012531996 0.01369562 0.025927657 4284969253
0.014328433 0.014513552 0.024801185 4285363229
0.016119536 0.015331279 0.023675857 4285558558
0.018100441 0.015465017 0.023265878 4285624094
0.019685719 0.01696584 0.021428818 4285624604
0.021059781 0.019149397 0.01888098 4285559069
0.02241778 0.02133191 0.016336573 4285624093
0.023553841 0.024196442 0.013083626 4285624349
0.024876986 0.026376829 0.010546526 4285493279
0.026395254 0.027873587 0.0087236706 4285559069
0.028116651 0.028687306 0.0076133627 4285493533
0.030915421 0.026089612 0.010052739 4285559069
0.03439327 0.021447252 0.014615292 4285493533
0.038574241 0.014761925 0.021295967 4285493789
0.041910332 0.010807097 0.025133451 4285426978
0.045051195 0.0075360462 0.028256914 4285360678
0.047988795 0.0049482286 0.030668 4285229354
0.050947707 0.0023619458 0.033074751 4285163308
0.053692639 0.00045817345 0.034771346 4285163309
0.056929439 -0.0028059483 0.037875295 4285163308
0.062599301 -0.012874112 0.048021138 4284966703
0.015986223 0.013694003 0.022497272 4284971039
0.017772054 0.01451363 0.021374786 4285231904
0.019354902 0.016018689 0.019541482 4285493789
0.020726709 0.01820869 0.016999001 4285559324
0.022691431 0.018341634 0.016592594 4285624604
0.0242448 0.019844983 0.014765596 4285624348
0.025787424 0.021347757 0.012940863 4285690139
0.027319323 0.022849847 0.011118459 4285689628
0.029054172 0.023666691 0.010007011 4285427489
0.031865489 0.021061067 0.012437286 4285427743
0.03557438 0.015719857 0.017693507 4285493278
0.039326034 0.010381676 0.022940973 4285426468
0.042896021 0.0057304129 0.027473191 4285229099
0.045368001 0.0045003593 0.028468279 4285163053
0.048310116 0.0019040629 0.030871926 4285229099
0.051273536 -0.00069066882 0.033271253 4285229099
0.054728467 -0.0046501979 0.03707473 4285098028
0.059166543 -0.011339396 0.04368645 4285163053
0.017249268 0.014255047 0.018776132 4284904738
0.018826991 0.015764203 0.016947107 4285362974
0.020594148 0.016584955 0.01583025 4285493789
0.022558752 0.016717892 0.015423866 4285559579
0.024728827 0.016163539 0.015726281 4285624603
0.026487902 0.016984042 0.014611311 4285689884
0.028241593 0.017804276 0.013497533 4285689884
0.030203402 0.017937403 0.013092006 4285689629
0.033462331 0.013950672 0.016925698 4285492514
0.036972199 0.0092797205 0.02145884 4285360934
0.040076371 0.0059840083 0.024573458 4285294634
0.04298301 0.0033763275 0.026977791 4285228844
0.045457173 0.0021420792 0.027969139 4285163054
0.048401114 -0.00046287477 0.030365909 4285163309
0.052063107 -0.0051229373 0.034867957 4285098029
0.056937099 -0.013207324 0.04287567 4285097774
0.020061702 0.016341388 0.013245203 4285166624
0.022020835 0.016473956 0.012839951 4285362974
0.024390558 0.015227437 0.013849046 4285362973
0.026562985 0.014671151 0.01414942 4285559068
0.028530069 0.014804546 0.013742736 4285624604
0.031137131 0.012870874 0.015452622 4285624094
0.033976212 0.010249518 0.017864177 4285360934
0.037492707 0.0055636615 0.022384508 4285295143
0.040382516 0.0029459596 0.024785733 4285294889
0.043517701 -0.00035852939 0.027885893 4285228844
0.046452846 -0.0029729456 0.030277906 4285228844
0.05055628 -0.0090256259 0.036176421 4285163309
0.05493984 -0.015762694 0.042766713 4285097519
0.021686092 0.015547205 0.010968667 4285036063
0.023847543 0.014987834 0.011269649 4285297694
0.026222115 0.013737354 0.012274565 4285559068
0.02860737 0.012487665 0.013277389 4285559069
0.031429585 0.0098563209 0.01568581 4285558558
0.03448901 0.0065353587 0.018793305 4285295143
0.037793636 0.0025254786 0.022598101 4285294889
0.040466752 0.00059005618 0.024289628 4285229609
0.044051304 -0.0041063949 0.028784702 4285229354
0.048352838 -0.010871224 0.035375498 4285228844
0.053395428 -0.019702852 0.044057079 4285097518
-0.0050071068 0.0086034238 0.019038258 4285098539
-0.0033729337 0.010128453 0.017206488 4285164839
0.023305256 0.014757413 0.0086968001 4285232668
0.025674 0.013502102 0.009699706 4285428763
0.028474011 0.010860331 0.012106184 4285428509
0.031721331 0.0068331659 0.0159129 4285296164
0.03456942 0.0041948557 0.018309584 4285230119
0.037657186 0.0008649826 0.021403117 4285229608
0.040550645 -0.001770027 0.023790589 4285163564
0.045031171 -0.0092527196 0.031074351 4285163564
0.050702259 -0.020194165 0.041843764 4285098029
-0.0079170242 0.010340378 0.014718967 4285689883
-0.0066199787 0.013266973 0.011470702 4285886234
-0.0045077391 0.012698505 0.01177752 4286017559
-0.0025600493 0.012829076 0.011373729 4285624603
-0.00061229244 0.012959752 0.010969995 4285560599
0.025334049 0.012579974 0.0078331847 4285036063
0.028340664 0.0092332661 0.010935169 4285297439
0.031586774 0.0051928461 0.014732378 4285230883
0.034649473 0.0018502027 0.01782289 4285099048
0.03752074 -0.00079523027 0.020208349 4285098028
0.040634166 -0.004134208 0.023288531 4284966449
0.046009224 -0.014420867 0.033348285 4284966449
-0.011175614 0.0049550384 0.01792082 4285164838
-0.010161608 0.0092956275 0.013251137 4285689883
-0.0088560544 0.012231506 0.010007478 4285623839
-0.0074073523 0.014464881 0.0074774474 4285558048
-0.005306121 0.013893463 0.0077849068 4285623839
-0.0030296594 0.012621727 0.0087992847 4285624093
-0.00091488659 0.012051389 0.0091041476 4285427999
0.027997382 0.0083046183 0.0090646725 4285036574
0.031452224 0.0035528094 0.013552068 4285034279
0.034729175 -0.00049859285 0.017333215 4285033258
0.037820224 -0.0038501918 0.020409809 4284967469
-0.015695699 0.0051788986 0.015435966 4285295399
-0.014503319 0.008829996 0.011480495 4285558813
-0.012712587 0.0096638501 0.010367285 4285559069
-0.011086032 0.011201203 0.0085465983 4285690138
-0.0094700642 0.012737907 0.00672823 4285953043
-0.0080289841 0.014977403 0.0042046048 4285820954
-0.0059360787 0.014403213 0.0045121536 4285755673
-0.0036681183 0.013126463 0.0055250823 4285952788
-0.0012171045 0.011147775 0.0072416384 4285558813
0.00072512403 0.011278167 0.0068391152 4285428253
0.0024897493 0.012111098 0.0057319365 4285297438
0.0044294 0.012241535 0.0053301081 4285495828
-0.018969987 0.0090821534 0.0090028755 4285623073
-0.017031383 0.0092113391 0.0086003933 4285952024
-0.01524606 0.010046914 0.007489847 4285754909
-0.0133099 0.010176137 0.0070880242 4285624349
-0.011532389 0.011011392 0.0059792474 4285558559
-0.010082968 0.013257917 0.0034586936 4285690138
-0.0081572235 0.013386764 0.0030592605 4285755673
-0.00639816 0.014221091 0.0019545406 4285690138
-0.0037971474 0.011529163 0.0043750033 4285624604
-0.0015189089 0.01024884 0.0053825676 4285493278
0.00024571642 0.011083871 0.004276935 4285493788
0.0016500987 0.013327993 0.0017661788 4285493789
0.0035789162 0.013457686 0.0013665855 4285296928
-0.02190784 0.011605993 0.0040030107 4285754909
-0.020133395 0.012442797 0.0028961767 4285820188
-0.017912552 0.0111534 0.0039117672 4285951768
-0.015834115 0.010573298 0.0042186528 4285820698
-0.013906106 0.010701969 0.003818512 4285689628
-0.011978004 0.010830738 0.0034184195 4285558558
-0.010372277 0.012375526 0.0016086623 4285558558
-0.0084493347 0.01250416 0.0012097992 4285558814
-0.0063597113 0.01192534 0.0015147608 4285558558
-0.0040953942 0.010639541 0.0025219172 4285558814
-0.0019922592 0.010061823 0.0028242301 4285624603
-0.00040756539 0.011605769 0.0010191835 4285690139
0.0011665039 0.013149064 -0.00078354031 4285952278
0.0030898415 0.013278376 -0.0011820067 4285885978
0.0053784959 0.011994787 -0.00017953664 4285951769
0.0076778941 0.010711983 0.00082082301 4285558303
-0.025599521 0.0083396137 0.0050735101 4285362208
-0.024384011 0.01202473 0.0011372752 4285690138
-0.022905041 0.014285684 -0.0013801074 4285492769
-0.020998888 0.014412567 -0.001775953 4285492259
-0.018791903 0.013117824 -0.00076076575 4285623839
-0.016268019 0.010402501 0.0016621817 4285689628
-0.014345478 0.010530785 0.0012631677 4285689883
-0.012106076 0.0092385262 0.0022718646 4285558814
-0.010339063 0.010077536 0.0011685714 4285559068
-0.008086089 0.008786343 0.0021746494 4285559068
-0.0063215867 0.0096254647 0.0010720063 4285558813
-0.0043932684 0.0097546577 0.00067218021 4285624349
-0.0024648793 0.0098839849 0.00027242303 4285690139
-0.00088529661 0.011431918 -0.0015282817 4285755419
0.00050653145 0.013688371 -0.004026683 4285623838
0.0026014931 0.013108235 -0.0037240684 4285623583
0.0047018602 0.012528535 -0.0034224428 4285820699
0.0071778744 0.01053226 -0.0017253384 4285493278
0.009106528 0.01066225 -0.0021246672 4285165859
-0.02833778 0.010189809 0.00079405494 4285165093
-0.026563641 0.011030637 -0.00030972064 4285362464
-0.024936888 0.012584828 -0.0021179095 4285755929
-0.023175854 0.013425037 -0.0032188548 4285887764
-0.021420032 0.014264956 -0.0043185987 4285821464
-0.019068673 0.012252301 -0.0026015192 4285821464
-0.016701158 0.010240868 -0.0008877581 4285821463
-0.014784101 0.010368772 -0.0012856517 4285558813
-0.012708735 0.0097841993 -0.00098121352 4285558814
-0.010627929 0.0092001557 -0.00067785941 4285559069
-0.0083781295 0.0079043955 0.00032558292 4285624859
-0.0064500198 0.0080334544 -7.4300915e-05 4285624604
-0.0046907328 0.0088744685 -0.0011741258 4285624348
-0.0032799058 0.011138558 -0.0036717523 4285755674
-0.0015365332 0.011978716 -0.0047681183 4285821208
2.4601817e-05 0.013529912 -0.0065616649 4285623328
0.002293516 0.012236089 -0.0055617094 4285492258
0.0045731775 0.010943055 -0.0045638531 4285558304
0.0068635605 0.0096508861 -0.0035681836 4285690139
0.0089770369 0.0090701282 -0.0032707918 4285558813
0.0110959 0.0084897876 -0.002974391 4285493788
-0.025204677 0.011726886 -0.0039554294 4285428253
-0.023446258 0.01256904 -0.0050541852 4285624858
-0.021545723 0.012695491 -0.0054489095 4285690138
-0.01934503 0.011391476 -0.0044388948 4285624604
-0.016980853 0.0093732178 -0.0027293377 4285558813
-0.015221965 0.010215834 -0.0038278718 4285558813
-0.013310298 0.010343462 -0.0042245854 4285624349
-0.011398528 0.01047121 -0.0046212357 4285689629
-0.0091599189 0.0091702864 -0.0036187507 4285689629
-0.0072426237 0.0092986301 -0.0040163789 4285624093
-0.0051565357 0.008713007 -0.0037154797 4285624093
-0.0039220527 0.011697195 -0.0069050808 4285624348
-0.0021866672 0.012538999 -0.0079981778 4285887509
-0.00063333288 0.014094107 -0.0097868983 4285887509
0.0016270727 0.012795262 -0.0087883919 4285887509
0.0037161037 0.012210421 -0.0084877387 4285821973
0.0065496378 0.0087742209 -0.0054076463 4285690393
0.0088475756 0.0074782819 -0.0044167098 4285559069
0.011726618 0.0040453672 -0.0013458757 4285493533
0.014439624 0.0013267919 0.0010260697 4285296419
-0.025330234 0.010155573 -0.0050871493 4285232159
-0.023282785 0.0095641762 -0.0047805859 4285362719
-0.021377027 0.0096909627 -0.0051764026 4285493533
-0.019321322 0.0091003925 -0.0048714336 4285559068
-0.017412663 0.0092275813 -0.0052677002 4285493278
-0.015659079 0.01007203 -0.0063635148 4285624604
-0.014226463 0.012350172 -0.0088563282 4285755929
-0.012488727 0.013193779 -0.0099486951 4285952534
-0.010103442 0.01117076 -0.0082480852 4285886999
-0.0077020191 0.0091488808 -0.0065506995 4286018578
-0.0056215934 0.0085607246 -0.0062502958 4285689628
-0.0043918863 0.011553362 -0.0094324145 4285624349
-0.0026618019 0.012396991 -0.010522792 4285558558
-0.00093701109 0.013240397 -0.011611983 4285624349
0.001499474 0.011221424 -0.0099214539 4285624349
0.0039520413 0.0092037022 -0.008234214 4285558814
0.0067898817 0.0057567954 -0.0051631527 4285493278
0.009467233 0.0030267909 -0.0027905116 4285559069
0.012545876 -0.001131244 0.00096260384 4285559069
0.015464028 -0.0045724288 0.0040173363 4285493023
0.018213611 -0.0072971582 0.0063752457 4285099048
-0.021649972 0.008837603 -0.0070092101 4285362718
-0.019746907 0.0089643002 -0.0074044038 4285427998
-0.017843731 0.009091109 -0.0077995416 4285493789
-0.016405459 0.011376053 -0.010288693 4285624859
-0.014983136 0.013660081 -0.012774505 4285689628
-0.013095696 0.013786182 -0.01316613 4285558049
-0.010882124 0.012474775 -0.012164969 4285689373
-0.0084920675 0.01044555 -0.010470111 4285755673
-0.0059175231 0.0076990724 -0.0080832597 4285624348
-0.0045188628 0.0099820793 -0.010563744 4285558813
-0.0027887374 0.010827899 -0.011652509 4285559069
-0.00088750944 0.010955572 -0.01204651 4285559324
0.0017300472 0.0082124323 -0.0096682329 4285493533
0.0041872934 0.0061883777 -0.0079868045 4285493534
0.007398285 0.0012960657 -0.003540908 4285427744
0.010272563 -0.0021592379 -0.00048543233 4285361188
0.013363378 -0.0063296705 0.0032554474 4285295143
0.015908958 -0.0083472654 0.0049188845 4285163563
-0.022216123 0.0094330534 -0.010234794 4285037083
-0.020321216 0.0095591843 -0.010628311 4285231649
-0.018578343 0.010407202 -0.011718804 4285428253
-0.016995545 0.011976495 -0.013504513 4285625113
-0.015580844 0.014266577 -0.015983876 4285821973
-0.013701558 0.014392111 -0.016373821 4285492768
-0.011333644 0.012354702 -0.014679337 4285558558
-0.0087840781 0.0095976442 -0.012293896 4285624093
-0.006549459 0.008283481 -0.011300193 4285821464
-0.0046458058 0.0084110945 -0.01169486 4285558813
-0.0029156394 0.0092590973 -0.01278202 4285559068
-0.00030967593 0.0065062791 -0.010407938 4285493533
0.0026754998 0.0023151487 -0.0066553177 4285493533
0.0056928173 -0.0018737614 -0.0029092329 4285558813
0.008373756 -0.0046211481 -0.00055046845 4285558559
0.011076126 -0.0073670372 0.0018039774 4285360678
0.013610329 -0.0093921274 0.0034648553 4285228843
0.016160591 -0.011416048 0.0051224791 4285097773
-0.019007545 0.01029335 -0.014234293 4285100579
-0.017429866 0.011866659 -0.016015708 4285559068
-0.015862796 0.013439413 -0.017794885 4285887763
-0.013986323 0.013564743 -0.018184254 4285821974
-0.011947088 0.01296699 -0.017880371 4285821973
-0.0095717423 0.010923587 -0.016192231 4285821974
-0.0070122592 0.008158505 -0.013815286 4285624603
-0.0049434081 0.0075630695 -0.013517292 4285559069
-0.0023490414 0.004800573 -0.011147402 4285493279
0.00044279173 0.0013173074 -0.0080914525 4285427234
0.0036188513 -0.0036083683 -0.0036612088 4285426724
0.0062882043 -0.0063654408 -0.0013066437 4285228844
0.0089789927 -0.0091210008 0.0010436084 4285163053
0.011317737 -0.010431781 0.0020131338 4285228844
0.01385659 -0.012463123 0.0036681201 4285228844
0.016027352 -0.01305081 0.0039457362 4284901169
-0.017863452 0.011765987 -0.018520383 4285362464
-0.016144346 0.012616955 -0.019602509 4285427998
-0.014270682 0.012742084 -0.019991307 4285493278
-0.012071948 0.011416495 -0.018996844 4285493278
-0.0095321015 0.0086412057 -0.016622411 4285493278
-0.0069708005 0.0058674887 -0.014252337 4285493278
-0.0043880455 0.0030953139 -0.011886627 4285558813
-0.0017838441 0.0003246814 -0.0095252814 4285492768
0.0015452392 -0.0053425133 -0.0044129398 4285360678
0.0043815449 -0.0088336542 -0.001374254 4285360679
0.0068821944 -0.010874495 0.0002835039 4285294634
0.0090311877 -0.01146622 0.00056372769 4285163053
0.011372086 -0.012781225 0.001529498 4285163308
0.013723705 -0.014095381 0.0024931412 4285228843
0.016086042 -0.015408732 0.0034547001 4284901169
-0.018141985 0.010946229 -0.020326776 4285298968
-0.01626854 0.01107122 -0.020715626 4285231393
-0.01423537 0.010468535 -0.020413835 4285493534
-0.011872128 0.0084110275 -0.018733036 4285558814
-0.0091627985 0.0048998147 -0.01567658 4285493279
-0.006259013 0.00066325068 -0.011936703 4285493024
-0.0036637485 -0.0021168739 -0.0095800916 4285360678
-0.00087402388 -0.0056223348 -0.006540047 4285294633
0.0017667972 -0.0083991885 -0.004192723 4285360679
0.0044290535 -0.011174425 -0.0018497203 4285294888
0.00656965 -0.011769004 -0.0015695244 4285294633
