# .PCD v0.7 - Point Cloud Data file format
VERSION 0.7
FIELDS x y z rgba
SIZE 4 4 4 4
TYPE F F F U
COUNT 1 1 1 1
WIDTH 974
HEIGHT 1
VIEWPOINT 0 0 0 1 0 0 0
POINTS 974
DATA ascii
-0.0089800693 0.016989239 0.029001916 4281632579
-0.006344486 0.014358278 0.031424433 4281763139
-0.0031607002 0.0096517354 0.035981178 4281503548
0.00095178559 0.0014868155 0.044091649 4281373754
0.0056711063 -0.008749485 0.054323316 4281307963
-0.033185642 -0.013918035 0.062459394 4282869329
-0.033131573 -0.0033076778 0.051191002 4282021708
-0.032750953 0.0052046552 0.042101257 4281369164
-0.031881753 0.010923393 0.035904445 4280915518
-0.030210529 0.012456581 0.034031667 4280655674
-0.028262962 0.012595266 0.033598304 4281112378
-0.026169132 0.012037307 0.033882916 4280982073
-0.024069812 0.011479862 0.034166329 4281047609
-0.022419218 0.013011947 0.032298416 4278767909
-0.020625044 0.013847202 0.031149069 4279679789
-0.01836586 0.012594268 0.032147557 4279287853
-0.016255271 0.012037992 0.032428734 4281176639
-0.014463358 0.012873381 0.031280115 4281046078
-0.01284137 0.014403895 0.029418906 4280850494
-0.011229914 0.015933719 0.027560173 4279612468
-0.0092888959 0.016072884 0.027128974 4279484459
-0.007002309 0.014822531 0.02812176 4280591158
-0.0041787736 0.011489168 0.031246403 4280396083
-0.0011504069 0.0074633285 0.035075992 4281112889
0.0022714958 0.0020514652 0.040318884 4281439034
0.0070199259 -0.008215636 0.050519697 4281701683
-0.03208008 -0.011270158 0.056466065 4282347854
-0.031538118 -0.0034293607 0.048108749 4281760589
-0.030916665 0.0037078932 0.040482581 4281435719
-0.029926654 0.0087435544 0.035020761 4281112379
-0.02840085 0.010980144 0.032434888 4281308473
-0.026453223 0.011118904 0.03200157 4281047863
-0.024505418 0.011257753 0.031568266 4280982328
-0.0230111 0.013492346 0.028989656 4280591159
-0.021378744 0.015027594 0.027129123 4280981819
-0.019130711 0.013769433 0.028126797 4278767654
-0.016871896 0.012512192 0.029122101 4281046589
-0.014764156 0.011953607 0.029402336 4281177404
-0.012980018 0.012790695 0.02825713 4281046588
-0.011033896 0.01293011 0.027824705 4280851003
-0.0092575401 0.013766825 0.026681362 4280981053
-0.0069687925 0.012512214 0.027670382 4281242683
-0.0044940673 0.010561615 0.029366916 4281569849
-0.0020032562 0.0086122602 0.031059956 4281701173
0.00032310933 0.0073606521 0.032040849 4283466283
0.0035762414 0.0026285723 0.036559567 4284379694
0.0083537437 -0.0076692775 0.046729431 4284379694
-0.031693768 -0.015761681 0.058124252 4281889873
-0.030599046 -0.010703489 0.052650437 4281759823
-0.029954541 -0.0035426393 0.045035392 4281368653
-0.029503454 0.004316017 0.036716387 4281241409
-0.028538685 0.0093653053 0.031271666 4281502528
-0.027028259 0.011607409 0.028694196 4281111358
-0.025088567 0.011745647 0.028262684 4280655929
-0.023752827 0.014687058 0.02497706 4281307453
-0.021977175 0.015525315 0.02383505 4281763393
-0.019893993 0.014962565 0.024118956 4281112889
-0.017328281 0.012299694 0.026536996 4280722228
-0.015064504 0.011038482 0.027527986 4281177403
-0.013282977 0.011877552 0.026384966 4281177658
-0.011172626 0.011317134 0.026663115 4281308729
-0.0093962029 0.012156039 0.025521381 4281374519
-0.0071079545 0.010896981 0.02650723 4283206693
-0.0048089363 0.0096387565 0.027490808 4284515354
-0.031308893 -0.020270564 0.059769921 4282020689
-0.029797774 -0.017308511 0.056451328 4281628498
-0.028857816 -0.011532165 0.050277889 4281629009
-0.028521005 -0.0029438436 0.041256741 4281566023
-0.028247941 0.005640097 0.032249808 4281567044
-0.027165581 0.0099994391 0.027535951 4281110595
-0.02567054 0.012247145 0.02496681 4280590394
-0.024492983 0.015899736 0.020977391 4280396848
-0.02272791 0.016739409 0.019839354 4280331823
-0.020499546 0.015471049 0.020834781 4280658478
-0.017625049 0.01139392 0.024668604 4281048118
-0.015364438 0.010128066 0.025657015 4281308474
-0.013749659 0.011671141 0.023807216 4281504059
-0.011644963 0.011108093 0.024084974 4281768239
-0.009704303 0.011247166 0.023653809 4283268659
-0.031057443 -0.024090335 0.060688548 4282149973
-0.029807035 -0.019706272 0.055946708 4281889619
-0.028451059 -0.016030513 0.051925361 4281825359
-0.02782147 -0.0088268444 0.044346355 4281369929
-0.027530286 -0.00021531433 0.035354964 4281370693
-0.027157534 0.007686168 0.027089393 4281239878
-0.02625129 0.012762114 0.021680702 4281307963
-0.024930265 0.015719969 0.018411368 4281112889
-0.023017149 0.015856449 0.01798586 4281111614
-0.020635974 0.013878658 0.019687869 4281439289
-0.01823866 0.011902086 0.021386411 4282421804
-0.016309146 0.012040034 0.020957481 4284251428
-0.029816616 -0.022108138 0.055439107 4282017628
-0.028320003 -0.019129582 0.052136876 4281955918
-0.027124126 -0.014736041 0.047417097 4281892168
-0.026529897 -0.0075128749 0.039862335 4281761609
-0.026279014 0.0011221468 0.03089959 4281827908
-0.025796313 0.0083376244 0.023369761 4281306179
-0.024764907 0.01271981 0.018686917 4280980544
-0.022999708 0.013563827 0.017552078 4281438523
-0.020460758 0.010872528 0.019956339 4281963568
-0.028189633 -0.02223713 0.052342176 4281889618
-0.026987437 -0.017830066 0.047630802 4281826634
-0.025817018 -0.013425119 0.04292652 4281566278
-0.025403079 -0.0054724663 0.034687661 4281957449
-0.025195178 0.0031859353 0.025754077 4281436483
-0.024449978 0.0090014562 0.019663496 4281698114
-0.022676717 0.0098482072 0.018528471 4283465774
-0.020441864 0.008567065 0.019512609 4284511274
-0.02699085 -0.020220004 0.047130376 4281759313
-0.025674675 -0.01651407 0.043142445 4282022219
-0.024529699 -0.012097739 0.038453721 4281956684
-0.024153616 -0.0041235387 0.030241242 4281891148
-0.023535799 0.0024229512 0.023453023 4283331643
-0.026994575 -0.022614047 0.046626978 4282345559
-0.025674935 -0.018896945 0.042646408 4282282829
-0.024526287 -0.014467202 0.037966639 4282087244
-0.023703922 -0.0086112097 0.031884834 4281956684
-0.023073886 -0.0020441338 0.025108557 4283266108
-0.024378832 -0.01755739 0.038180165 4281694543
-0.023108635 -0.013832644 0.034218885 4282022219
-0.022164304 -0.0086772442 0.028858801 4282284358
-0.024376255 -0.019937292 0.037685551 4281300058
-0.023102578 -0.016201362 0.033731639 4282152779
-0.021855365 -0.012467191 0.029783705 4282349638
-0.023243506 -0.017853379 0.03254161 4281954389
-0.021547515 -0.016270146 0.030699318 4282545478
0.016213201 0.0076525211 0.0010761484 4284186658
0.017073911 0.01137244 -0.002775904 4283984188
-0.021539006 -0.018640302 0.030210314 4282543948
0.0096162073 0.015138574 -0.008131247 4284388364
0.011290109 0.015993431 -0.009232875 4283994388
0.012543168 0.018285312 -0.011702487 4284510253
0.004621353 0.01028908 -0.0052569266 4284186659
0.0051324703 0.015476778 -0.010473717 4283927833
0.0056063123 0.020661868 -0.015682105 4284512293
0.0016394742 0.012210347 -0.0093883406 4283861278
0.002933275 0.014517747 -0.01185764 4283792174
-0.0052757561 0.0072094649 -0.0060976804 4284708644
-0.0026566945 0.0044372231 -0.0037756942 4283792684
-0.0016890131 0.0082076788 -0.0076196291 4282162979
-0.0011249818 0.013429463 -0.012825567 4283011108
-0.0054104924 0.0056490153 -0.0072213025 4282615859
-0.0029753298 0.003597118 -0.005589216 4282092343
-0.0025665313 0.0095653236 -0.01147362 4279294738
-0.0025769733 0.016988169 -0.018713275 4284575023
-0.010365922 0.0082096905 -0.011609802 4284186913
-0.0086735375 0.0090756863 -0.012708239 4282486318
-0.0062657967 0.007015124 -0.011075042 4281700664
-0.0034763739 0.0034930855 -0.0080813421 4281374009
-0.0021441095 0.005822584 -0.01054479 4281308984
-0.0021447986 0.013268024 -0.017770328 4284706603
-0.0094513409 0.0022581741 -0.0086303921 4282089793
-0.0086294301 0.0067973211 -0.013138767 4281763903
-0.0071195513 0.0083991736 -0.014915943 4281372733
-0.0041592531 0.0041317716 -0.011247362 4280657204
-0.0019081011 0.0028003529 -0.010305121 4281112634
-0.00096191838 0.0066022053 -0.014119777 4283854649
-0.0088878907 -0.0022467822 -0.007030997 4283201339
-0.0085856691 0.0045148432 -0.013572256 4281893188
-0.007432431 0.0075932294 -0.01670563 4281698623
-0.0046585165 0.0040481687 -0.013724786 4280719933
-0.0013026111 -0.0017016083 -0.0087150754 4280525369
0.00040609762 -0.00082960725 -0.009813549 4284183598
-0.0076288879 -0.0097232834 -0.0027279872 4282873153
-0.007303793 -0.0029403269 -0.0092596691 4281892934
-0.0068469867 0.0031011254 -0.015102816 4281305159
-0.0046102442 0.0017597452 -0.014163936 4281045824
-0.0016231574 -0.002531901 -0.010520766 4281373499
0.00083321705 -0.0046083406 -0.008912785 4282418744
-0.0068950877 -0.015012406 -0.0004824386 4282480964
-0.0062016547 -0.0096898824 -0.0056490842 4281891914
-0.0057248324 -0.0036294907 -0.011483662 4281500233
-0.0040161498 -0.0027533844 -0.012579065 4281046588
-0.0013891347 -0.0055775046 -0.010297863 4281503803
0.00088446587 -0.0069203228 -0.0093702767 4282614074
-0.0066847764 -0.018094391 -0.00028005894 4282284358
-0.0056317598 -0.014241613 -0.0040862658 4281827399
-0.004784517 -0.0096479952 -0.0085611716 4281631304
-0.0032416768 -0.0080261678 -0.010332575 4281826634
-0.0013403781 -0.0078893751 -0.010754591 4281957703
0.00056097284 -0.0077524334 -0.01117651 4282807618
-0.0068225749 -0.019694522 -0.0014323508 4282088519
-0.0055924095 -0.016575724 -0.0045569381 4281566023
-0.0042044632 -0.014203094 -0.0070036449 4281892168
-0.0028324276 -0.011831485 -0.0094467327 4281826633
-0.00092329457 -0.011694118 -0.0098704845 4281826633
0.00023790076 -0.0085798204 -0.012979349 4282219333
0.0019468106 -0.0076989233 -0.014071325 4284574003
-0.007307332 -0.019799553 -0.0039297817 4281432913
-0.0059057213 -0.017419584 -0.0063747196 4281826379
-0.0041623749 -0.016534492 -0.0074730655 4281957705
-0.0026057661 -0.014902949 -0.0092410278 4281957450
-0.0010597557 -0.01327198 -0.011006583 4281695563
0.00028885528 -0.010895312 -0.01343937 4281956428
0.0020004809 -0.010012053 -0.014530266 4282742339
0.0037068091 -0.0091290176 -0.015619947 4283984954
-0.0041206218 -0.018870071 -0.0079454212 4281760078
-0.0027424246 -0.016484916 -0.010380117 4281826124
-0.001196187 -0.014849558 -0.012142472 4281695053
0.00015283749 -0.012466297 -0.014570476 4281956685
0.0020537861 -0.012329265 -0.014992217 4282349639
0.0035708733 -0.010695651 -0.016747834 4282742594
-0.0042576678 -0.020458311 -0.0090890778 4281693779
-0.0026979484 -0.018817745 -0.010851267 4281825869
-0.0011488125 -0.017177857 -0.012610964 4282087499
0.00020328537 -0.014787786 -0.015034824 4282087498
0.0017285645 -0.013149366 -0.016789043 4282153543
0.0034349672 -0.012261972 -0.017875494 4282350659
0.0049416758 -0.010624647 -0.019625416 4284117809
-0.0028347299 -0.020401292 -0.011991504 4281495134
-0.0012853704 -0.018757023 -0.013748004 4281759823
6.7144632e-05 -0.016360357 -0.016167074 4281695309
0.0015926473 -0.014717557 -0.017918095 4282220098
0.0031075291 -0.013075352 -0.019666711 4281698623
0.0048060305 -0.012186259 -0.020749653 4282156348
0.0061054528 -0.0097928941 -0.02315655 4284247603
-0.0016052984 -0.019580446 -0.015548834 4281563219
0.00030312687 -0.019443043 -0.015972357 4281499214
0.0016454719 -0.017040446 -0.018384144 4281632833
0.002971869 -0.014638871 -0.020792358 4281568319
0.0042823367 -0.012238301 -0.023196938 4281827398
0.0059702508 -0.011347644 -0.024275802 4283005755
0.0074535049 -0.0097030327 -0.02601384 4284247348
0.00016666204 -0.021019414 -0.017107349 4281365338
0.0016979389 -0.019367449 -0.01885315 4281760078
0.002836246 -0.016202077 -0.021917781 4281825868
0.0041471273 -0.013794914 -0.024317579 4281761353
0.0058350787 -0.012902088 -0.025394835 4282154054
0.0075177327 -0.012009516 -0.026470818 4282547008
0.0091950707 -0.011117198 -0.02754553 4284377653
0.0015617348 -0.020939164 -0.019984737 4281694033
0.0023186654 -0.016246557 -0.024361063 4281826379
0.0036246404 -0.01383321 -0.026754901 4281696073
0.0056999363 -0.014456242 -0.026513655 4282153034
0.0077805705 -0.015078738 -0.026273495 4282349894
0.0096649081 -0.014942303 -0.026691107 4282676804
0.010323469 -0.010256194 -0.031045157 4284508469
0.0023742728 -0.018566191 -0.024825452 4281627224
0.0034898669 -0.015384853 -0.027871955 4281891148
0.0053686947 -0.015249059 -0.028288525 4282348873
0.0076451078 -0.016634807 -0.027393656 4282283848
0.0099321865 -0.018019691 -0.026501006 4282152779
0.011209376 -0.015601367 -0.0288832 4282480199
0.0033551194 -0.01693622 -0.028988812 4281694543
0.0052337907 -0.016800433 -0.029405352 4282088519
0.0081054457 -0.020479709 -0.026551269 4282024004
0.011204984 -0.024919771 -0.023049472 4282088008
0.01311297 -0.02478148 -0.023472222 4282152269
0.013161771 -0.01778093 -0.029765932 4282870348
0.0049581192 -0.02537787 -0.024222106 4281824593
0.0066648461 -0.024474941 -0.02529702 4281890893
0.0097550787 -0.028928898 -0.02180301 4281565769
0.012877256 -0.033380441 -0.01831599 4281892933
0.012194136 -0.040487088 -0.014479228 4282084438
-0.026998628 -0.025012217 0.046120606 4282210918
-0.025958929 -0.019850373 0.040739052 4281229678
-0.027419556 -0.025256954 0.04350175 4281816434
-0.026100952 -0.021518052 0.039537683 4280440454
-0.027562324 -0.026935332 0.042292625 4281684854
-0.026384283 -0.02246426 0.037635505 4280439944
-0.024661977 -0.020879298 0.035787165 4280636548
-0.027428087 -0.030060552 0.04248371 4281488248
-0.026384834 -0.024852514 0.037135549 4280439944
-0.024803456 -0.022539794 0.034590982 4280570249
-0.023237888 -0.020228148 0.032050058 4280637059
-0.026526693 -0.026519269 0.035934813 4280178060
-0.025088508 -0.023474574 0.032697789 4280307854
-0.023525182 -0.02115649 0.030162198 4280179079
-0.027299728 -0.035608605 0.042150684 4282602598
-0.026527707 -0.028913528 0.035430498 4280178059
-0.02508625 -0.025859855 0.032199264 4279521944
-0.023519833 -0.023535058 0.02966789 4279062688
-0.021820474 -0.021938451 0.027834533 4280767619
-0.026529048 -0.031311877 0.034923255 4280636294
-0.025370818 -0.026789606 0.030309683 4279652759
-0.023806643 -0.024458364 0.027783638 4280045969
-0.021961119 -0.023587056 0.026646966 4280505224
-0.020272028 -0.021986768 0.024819255 4282143598
-0.026109498 -0.035911009 0.036492229 4282012018
-0.025225762 -0.029910691 0.030500868 4279455899
-0.023655821 -0.027572542 0.027978456 4279783318
-0.022101719 -0.025235355 0.025459614 4280045968
-0.020261336 -0.024362132 0.024325782 4280308363
-0.018579852 -0.022757903 0.022503104 4280898944
-0.024938513 -0.033774547 0.031376846 4279520924
-0.023651261 -0.029961146 0.027476823 4279914899
-0.022094075 -0.027617186 0.02496217 4279914899
-0.020552691 -0.025274277 0.022451162 4279980433
-0.018720124 -0.024399333 0.02132077 4280177549
-0.023210969 -0.034562603 0.029038372 4281290879
-0.022234756 -0.029267073 0.023773663 4280045968
-0.02054229 -0.027653456 0.021954935 4279784083
-0.019013681 -0.02530475 0.019451682 4279849873
-0.017500907 -0.022957087 0.01695209 4280177548
-0.016003981 -0.020610407 0.014456058 4281750133
-0.022079732 -0.032393172 0.023958456 4280308365
-0.020833176 -0.028560579 0.020083917 4280045968
-0.019306805 -0.02620548 0.017586045 4279849618
-0.017484654 -0.025326803 0.016461294 4279915153
-0.015984658 -0.022973359 0.013969446 4279456153
-0.020823043 -0.030943513 0.019584978 4281356158
-0.019293599 -0.028581634 0.017091289 4280504203
-0.017468754 -0.027700603 0.015967548 4279849109
-0.015807383 -0.026080117 0.014162501 4279128733
-0.01431749 -0.023720719 0.011677863 4280308108
-0.012679849 -0.022101685 0.0098782722 4282012528
-0.019280713 -0.030961961 0.016593607 4280569483
-0.017453171 -0.030078501 0.015470846 4278997153
-0.015788902 -0.028453439 0.013668399 4279849364
-0.014295939 -0.026087269 0.011187956 4280242319
-0.012818817 -0.023722149 0.0087111713 4280702084
-0.019268174 -0.033346295 0.016092945 4281486209
-0.01759316 -0.031716198 0.014291212 4280044949
-0.016244486 -0.028598525 0.011133142 4280177039
-0.014756422 -0.026226193 0.0086587071 4280045713
-0.013120994 -0.024598546 0.0068660527 4280111503
-0.01182789 -0.021484464 0.0037206123 4280767108
-0.017888162 -0.032607093 0.01243341 4280962693
-0.016383834 -0.030227125 0.0099600963 4280439178
-0.015055727 -0.027102105 0.0068132244 4280111503
-0.013259694 -0.026216187 0.0057009794 4280177039
-0.011965986 -0.023093328 0.0025619054 4280700809
-0.010356747 -0.021463007 0.00077853817 4280701573
-0.018027876 -0.034241959 0.011255801 4282730354
-0.016680669 -0.031106927 0.0081110485 4281094018
-0.01519442 -0.028721616 0.005646769 4280177039
-0.013561208 -0.027085386 0.0038610995 4280177039
-0.011938527 -0.025449865 0.0020779036 4280438669
-0.010494582 -0.023067161 -0.00037674187 4280307598
-0.0090665147 -0.020685479 -0.0028277666 4280702849
-0.015013084 -0.031841837 0.0058286116 4280897923
-0.013536982 -0.029450551 0.0033714958 4280504459
-0.012076735 -0.0270603 0.00091805356 4279979924
-0.010464389 -0.025420964 -0.00085955067 4279192994
-0.0092038959 -0.022282772 -0.0039780615 4280176784
-0.007617984 -0.020645112 -0.0057495488 4280506498
-0.014832459 -0.034970544 0.0060043372 4282403444
-0.013513092 -0.031819835 0.00287899 4280569739
-0.012049783 -0.02942279 0.00042967498 4279455388
-0.010602336 -0.027026728 -0.0020159853 4279652503
-0.0093412399 -0.023879759 -0.0051281448 4279914899
-0.0077551045 -0.022237733 -0.0068964427 4280308619
-0.0061795339 -0.020596318 -0.0086622974 4280703614
-0.012188096 -0.031034805 -0.00073130801 4280635275
-0.010572646 -0.02938652 -0.002503112 4280111248
-0.0091380067 -0.026984766 -0.0049409419 4279980433
-0.0077192597 -0.024583973 -0.0073751803 4280045969
-0.0061407983 -0.022937991 -0.009138423 4280177295
-0.0043946728 -0.022046223 -0.010232501 4280704888
-0.012326386 -0.032646544 -0.001892105 4281813628
-0.010710713 -0.030993879 -0.0036607012 4280701063
-0.0091055781 -0.029341877 -0.0054268166 4280111503
-0.0076837614 -0.026934318 -0.0078568794 4279914898
-0.0061024167 -0.025283754 -0.0096175075 4279914899
-0.0048877895 -0.022122256 -0.012706056 4280374664
-0.003152214 -0.021228969 -0.013796086 4280640119
-0.0090734921 -0.03170307 -0.0059156455 4280570759
-0.0076485947 -0.029288799 -0.00834148 4279849363
-0.0064148009 -0.026117317 -0.011427879 4279390619
-0.0052022301 -0.022947222 -0.014509468 4279521433
-0.0038303584 -0.020536296 -0.01692326 4279914643
-0.0092114545 -0.033307627 -0.00707119 4280896648
-0.0077861473 -0.030886784 -0.0094922446 4279652504
-0.0065517463 -0.027706519 -0.012572277 4279718038
-0.0055162609 -0.023767486 -0.016309492 4279783828
-0.0039662942 -0.022110157 -0.018056534 4280308108
-0.0018778853 -0.022732876 -0.017818667 4280048009
-0.009179879 -0.03567484 -0.0075643514 4283318638
-0.0075793192 -0.034009948 -0.0093196146 4283124329
-0.0065138452 -0.030057989 -0.013055474 4280242573
-0.005474899 -0.026107788 -0.016785331 4280046224
-0.0039220378 -0.024445884 -0.018529758 4279915663
-0.001831308 -0.025070667 -0.018294003 4279980689
0.00045026839 -0.026456676 -0.017400745 4279849873
-0.0059523322 -0.034707844 -0.011563327 4280832389
-0.0054338798 -0.028452203 -0.017264139 4279980688
-0.0038781278 -0.026785754 -0.01900591 4279981199
-0.0017850883 -0.027412519 -0.018772323 4279849108
0.00068390369 -0.02956678 -0.017225709 4279587223
0.0020412058 -0.027136907 -0.019621387 4280310404
-0.0055667721 -0.038608029 -0.010741533 4282141048
-0.0052160881 -0.031567492 -0.017088596 4279915153
-0.0040143505 -0.028363131 -0.020141702 4279980944
-0.0021040961 -0.028225712 -0.020565733 4279586713
0.00073170289 -0.031919159 -0.017712295 4279783829
0.0028431155 -0.032546513 -0.017484222 4279783829
0.0040077828 -0.029344298 -0.020528726 4280703614
-0.0034321994 -0.033015311 -0.01865698 4280373389
-0.001693707 -0.032108516 -0.019737843 4279587734
0.0011489615 -0.035812378 -0.016894054 4280177548
0.0036431402 -0.0379778 -0.015362673 4281291898
0.0053924136 -0.037069902 -0.016445599 4282797928
-0.0026721396 -0.03845574 -0.016531218 4281488248
-0.00073825568 -0.038316622 -0.016960479 4280308618
0.0019345395 -0.041259706 -0.014780459 4280636293
-0.0026768558 0.0090802908 0.027764434 4285166368
-0.0005393438 0.0085223317 0.028036932 4285624604
0.0019696094 0.006567888 0.029721187 4285820953
0.0054230243 0.0011232942 0.034931116 4285886234
0.010237608 -0.009204708 0.045068331 4285820443
-0.0074192286 0.00998348 0.024637092 4285100834
-0.0054730363 0.010123149 0.024204846 4285231903
-0.003526751 0.010262944 0.023772663 4285624604
-0.0017605349 0.011103697 0.022635112 4285624094
0.000548888 0.0098421574 0.023613285 4285558048
0.0032400265 0.0071804971 0.02599767 4285689374
0.0072696619 -0.00038161874 0.03330297 4285820699
0.012121301 -0.010739796 0.043407537 4285754909
-0.014543481 0.012882322 0.019821219 4285361953
-0.012116484 0.010908209 0.021513343 4285361954
-0.010181285 0.011046886 0.021083383 4285427489
-0.0077300742 0.0090746731 0.022770325 4285558813
-0.0061359406 0.010621041 0.02092866 4285558813
-0.004375089 0.01146353 0.019793807 4285953044
-0.0029793866 0.013711862 0.017252577 4285755929
-0.00068647787 0.012444735 0.018231142 4285558303
0.001802478 0.010475755 0.019910093 4285558304
0.005247321 0.0049955174 0.025095865 4285689883
0.0091161318 -0.0018861741 0.031675145 4285690649
0.013811518 -0.011572391 0.041046202 4285493534
-0.018534169 0.01101014 0.019527964 4285103383
-0.016607456 0.011147864 0.019099632 4285362209
-0.015171953 0.01340504 0.016553938 4285820698
-0.012753628 0.011423662 0.018243127 4285886233
-0.010657448 0.010855675 0.018519558 4285886234
-0.0082122721 0.008876428 0.020202927 4285558814
-0.0069720969 0.011838183 0.016958762 4285558558
-0.0050447285 0.011976577 0.016530756 4285624348
-0.0036566034 0.01423097 0.013996046 4285886998
-0.0013721883 0.012958802 0.014973275 4285887254
0.0011080578 0.010982633 0.016649202 4285821718
0.0043554753 0.0061888322 0.021123584 4285690139
0.0070689432 0.0035114065 0.02349009 4285558558
0.01038311 -0.0012773275 0.027949778 4285493789
0.015105054 -0.010992251 0.03729216 4285493789
-0.018829253 0.010122888 0.017672885 4285427998
-0.01722718 0.011678092 0.015835533 4285624603
-0.015799224 0.013941295 0.013296407 4285754654
-0.013223354 0.011244237 0.015686214 4285886234
-0.01096388 0.0099653378 0.016665313 4285952534
-0.0083504878 0.0072711706 0.019046938 4285689883
-0.0071096793 0.010241739 0.015809152 4285689629
-0.0051824413 0.010380112 0.015381161 4285624349
-0.0036142953 0.011933617 0.013551893 4285624349
-0.0015099682 0.01136449 0.013825309 4285558558
0.00078466162 0.010088794 0.014797028 4285558558
0.0030900203 0.0088139772 0.015766442 4285624349
0.0054061078 0.007539995 0.016733602 4285624348
0.0077329017 0.0062669441 0.017698422 4285624348
0.011243887 0.00075666606 0.022843627 4285755164
0.016383532 -0.01039964 0.033551544 4285689118
-0.022507552 0.0068312883 0.018790513 4285296673
-0.020889509 0.0083917528 0.016952746 4285493789
-0.019281976 0.0099516064 0.015117349 4285690393
-0.017684974 0.011510774 0.013284422 4285624349
-0.016098518 0.013069324 0.011453856 4285557794
-0.013692256 0.01107388 0.013135906 4285558048
-0.011269893 0.0090796947 0.014814448 4285755419
-0.0084886588 0.0056662261 0.017891165 4285755674
-0.0070731677 0.0079355016 0.01535999 4285689884
-0.0053201169 0.0087839216 0.014231769 4285624348
-0.0037517212 0.010341838 0.012405708 4285559069
-0.0014656559 0.009060964 0.013376016 4285558813
0.0004616864 0.009199664 0.012948237 4285559069
0.0025764741 0.008629337 0.013217799 4285690139
0.0043165423 0.0094773769 0.01209287 4285755419
0.0062440448 0.0096163973 0.01166529 4285952024
0.0087577514 0.0076299086 0.013324324 4286017048
0.013069995 -0.00073063374 0.02123425 4285951514
-0.022186529 0.003091976 0.019749828 4285558814
-0.021181133 0.0075119659 0.015102196 4285427743
-0.020049665 0.01121632 0.011163972 4285624858
-0.018463071 0.012779102 0.0093365973 4285887508
-0.0167238 0.013628192 0.0082126698 4285821719
-0.014326233 0.011625566 0.0098916888 4285821463
-0.011575487 0.0081988201 0.012966935 4285887509
-0.0089691989 0.0054865703 0.015337063 4285690138
-0.007210847 0.006337449 0.014209209 4285624349
-0.0056342781 0.0079001635 0.012384547 4285559068
-0.003889095 0.0087503418 0.011259723 4285624604
-0.0019672923 0.0088885128 0.010833083 4285624603
-0.00022995099 0.0097383261 0.0097102188 4285559068
0.001689326 0.0098765418 0.00928431 4285690139
0.0034187883 0.010725997 0.0081633553 4285689883
0.0049504302 0.012286171 0.0063491035 4285754909
0.0074474439 0.010291837 0.0080069713 4285754398
0.010949794 0.0047459155 0.013128052 4285885978
0.015898531 -0.0057694018 0.02308896 4285754909
-0.021007221 0.004489325 0.015358744 4285294889
-0.020342689 0.010352015 0.0093254019 4285427488
-0.018918868 0.012634471 0.0068017365 4285624603
-0.017021853 0.012770101 0.0063800337 4285624603
-0.01462765 0.010760598 0.0080549354 4285624349
-0.012048993 0.0080374703 0.010424592 4285624348
-0.0099619851 0.0074600875 0.010696553 4285624349
-0.0082169063 0.0083121955 0.0095732696 4285689629
-0.006124381 0.0077354163 0.009844169 4285558558
-0.0042054467 0.0078732744 0.0094180834 4285624348
-0.0019230805 0.006583333 0.01038266 4285624349
-0.00036736578 0.008149296 0.0085660852 4285558558
0.0015517697 0.0082874894 0.0081401858 4285624348
0.0029019341 0.01056587 0.0056337845 4285887509
0.0044285059 0.012130022 0.0038239621 4285689374
0.0067244619 0.01084166 0.0047858935 4285492004
0.0098218173 0.006703034 0.0085125817 4285558049
0.013151512 0.0018543154 0.012923365 4285623838
0.016924556 -0.0044164062 0.018707113 4285624094
-0.02078684 -0.0080165938 0.025141532 4284901679
-0.020369489 -0.00069597363 0.01770799 4285360679
-0.01969026 0.0051852912 0.011684414 4285492768
-0.018893357 0.010345921 0.0063688355 4285493278
-0.017156649 0.011199221 0.0052486667 4285559069
-0.014928635 0.0099003389 0.0062215663 4285558814
-0.012521714 0.0078852996 0.0078887772 4285624349
-0.01061118 0.0080221891 0.0074642841 4285624348
-0.0088740364 0.0088759065 0.0063443854 4285755673
-0.0069659799 0.0090128481 0.0059206132 4285952789
-0.004700195 0.007717222 0.0068855323 4285952788
-0.00260517 0.0071386546 0.007154406 4285755929
-0.00087304413 0.0079924464 0.00603595 4285624349
0.00085379928 0.0088460222 0.0049186982 4285558814
0.00219642 0.011130385 0.002418898 4285755928
0.0037152283 0.012698397 0.00061401166 4285953044
0.0058078729 0.012120165 0.00088387355 4285953044
0.0084982999 0.009397544 0.0032230336 4285887254
0.011610389 0.0052469373 0.0069367504 4285821209
0.014146037 0.0032426119 0.0085764667 4285492768
0.017519614 -0.0016181022 0.012966312 4285427233
0.023263212 0.018490784 -0.0081208237 4284901168
0.027162258 0.012210377 -0.0023789927 4285820698
-0.020166021 -0.013246626 0.02746216 4284901168
-0.019114982 -0.0087840259 0.022833725 4285294633
-0.01872503 -0.0014433488 0.015422655 4285294633
-0.018388242 0.0058937073 0.0080234548 4285229609
-0.01712874 0.0089089051 0.004813794 4285427488
-0.015229199 0.0090447813 0.0043915771 4285559068
-0.013161588 0.0084614903 0.0046644956 4285624604
-0.011429809 0.009316884 0.0035473183 4285690138
-0.0097032823 0.010172069 0.0024313554 4285755418
-0.0074540786 0.0088707358 0.0033965968 4285689374
-0.005372785 0.0082888603 0.0036667977 4285821209
-0.0031047836 0.0069891438 0.0046279849 4285755929
-0.0013779365 0.007844761 0.0035123341 4285624604
0.00015701726 0.0094180405 0.0017069872 4285493278
0.0016813539 0.010990709 -9.5956028e-05 4285493278
0.0033870488 0.011845127 -0.0012066662 4285559324
0.0052820705 0.011981897 -0.0016269758 4285624859
0.0075717084 0.010684378 -0.00067004189 4285493533
0.010071971 0.0086707994 0.00097254431 4285427998
0.012385644 0.0073752403 0.0019243187 4285099814
0.014299419 0.0075138286 0.0015001944 4284904484
0.018283445 0.020238534 -0.011830926 4285361443
0.019058824 0.023952603 -0.015663827 4285754908
0.020250067 0.026233956 -0.018124241 4285755163
0.023216823 0.02279219 -0.01511968 4285820443
0.028476268 0.012201823 -0.0053001083 4285951514
0.050833635 -0.038109951 0.041741006 4285951513
-0.019698814 -0.017775759 0.029070081 4284966703
-0.01832721 -0.014744096 0.025841711 4285229099
-0.017291021 -0.010269314 0.021226434 4285229354
-0.017405208 -0.00074213743 0.01175143 4285294634
-0.016938724 0.0058926493 0.0050705811 4285427489
-0.015694469 0.0089156628 0.0018708589 4285559068
-0.013800286 0.0090512633 0.0014499105 4285690394
-0.012076452 0.0099082589 0.0003361213 4285886998
-0.010357846 0.010765009 -0.00077641569 4285558048
-0.0082929432 0.010179639 -0.00050430372 4285492258
-0.0060441829 0.0088740438 0.00045781536 4285558304
-0.0039657913 0.0082898214 0.00072714267 4285689883
-0.002249565 0.009146899 -0.00038457708 4285624348
-0.00072501972 0.010723785 -0.0021843633 4285559069
0.0013562068 0.010140166 -0.0019154402 4285559324
0.0032510534 0.010276809 -0.0023357908 4285493789
0.0049515031 0.011133134 -0.0034436437 4285428253
0.0064495616 0.012708642 -0.0052372441 4285559834
0.008136753 0.013564236 -0.006341977 4285168409
0.013780233 0.020576127 -0.014168489 4285296418
0.015001308 0.022865854 -0.016630817 4285427744
0.01599062 0.025872607 -0.019772403 4285690138
0.016958594 0.028877921 -0.022909179 4285623839
0.018789552 0.029011153 -0.023314469 4285623839
0.021291727 0.026992109 -0.021676403 4285623583
0.025168328 0.020670727 -0.015958868 4285689119
0.030467315 0.010050543 -0.0061724484 4285689118
0.053007491 -0.04040309 0.040712774 4285623839
-0.018004473 -0.018556371 0.026746279 4285097518
-0.016802356 -0.014792264 0.02283304 4285097518
-0.01674398 -0.0059599876 0.014069991 4285163054
-0.016424876 0.0014196634 0.0067074252 4285360424
-0.015829064 0.007347852 0.0007417216 4285427488
-0.014270201 0.0089308023 -0.0010630046 4285493278
-0.013062425 0.011960179 -0.0042479485 4285690138
-0.011357084 0.012818143 -0.0053559244 4285821718
-0.0094814077 0.01295273 -0.0057725254 4285689883
-0.0068926625 0.010195687 -0.0034309609 4285755673
-0.0044634305 0.0081629753 -0.001782971 4285887253
-0.002568882 0.0082992539 -0.0022035134 4285493533
-0.00086052343 0.0091580003 -0.0033117405 4285493789
0.001220379 0.0085721463 -0.0030443934 4285297184
0.0031150803 0.008708775 -0.0034647216 4285297439
0.0066495612 0.023680735 -0.018829532 4285427234
0.0086959973 0.023093071 -0.018554036 4285557793
0.010747772 0.022505905 -0.018279642 4285623838
0.012384424 0.023360491 -0.019371212 4285558813
0.013589945 0.025655702 -0.021825248 4285558558
0.014779473 0.027949832 -0.02427561 4285755928
0.01573476 0.030963 -0.027403057 4285952788
0.01755226 0.031095266 -0.027805354 4285820953
0.020040398 0.029068619 -0.026169075 4285821209
0.02344935 0.024165396 -0.021820664 4285821208
0.027353346 0.017826416 -0.016123766 4285755418
0.03223145 0.008614704 -0.0077264779 4285624348
0.055185929 -0.042699844 0.0396806 4285558559
0.059702173 -0.049729511 0.045971528 4285493278
-0.016942166 -0.016425848 0.021656414 4285031983
-0.015588332 -0.0045232326 0.0097147431 4285163309
-0.015139911 0.002149798 0.0030673118 4285360679
-0.01423711 0.0066417605 -0.0014984445 4285427488
-0.013536252 0.011857301 -0.0067467857 4285559068
-0.01200892 0.013442591 -0.0085410923 4285624604
-0.010141376 0.013576567 -0.0089559052 4285558813
-0.0073834509 0.01008492 -0.0059309211 4285493278
-0.0049602538 0.0080452114 -0.0042864685 4285427743
-0.002521012 0.0060068071 -0.002645538 4285428253
-0.0011820421 0.0083170682 -0.0051250779 4285494299
0.00032970309 0.0099019706 -0.0069154557 4285103383
0.0038780011 0.024918288 -0.022251083 4285558559
0.0049005635 0.027944431 -0.025387404 4285820188
0.0073347725 0.025906533 -0.023744645 4285885468
0.0097849704 0.023869935 -0.022105386 4286017559
0.011831101 0.023280244 -0.021831241 4285624349
0.013031732 0.025581688 -0.024279296 4285558558
0.013785636 0.029326964 -0.028083071 4285558558
0.014948932 0.031625912 -0.030522697 4285755419
0.016979 0.031035535 -0.030244708 4285821208
0.019907827 0.027558122 -0.027256142 4285821209
0.023315288 0.022639461 -0.022918798 4285690138
0.026073955 0.019888043 -0.020619778 4285624349
0.029085234 0.016417019 -0.017649248 4285558813
0.033059184 0.010063663 -0.011982312 4285493533
0.056884911 -0.043559156 0.037296988 4285493533
0.061178252 -0.049888656 0.042893678 4285493535
0.063788071 -0.051173687 0.043771684 4285032749
-0.015904713 -0.014274836 0.016588643 4285097518
-0.014754038 -0.010492265 0.012703232 4285294889
-0.014288042 -0.0037983432 0.006066585 4285492004
-0.013869915 0.0028923377 -0.00055936445 4285624094
-0.013499629 0.0095796958 -0.0071746036 4285493533
-0.012314484 0.012625068 -0.010341413 4285559069
-0.010624949 0.01348637 -0.011442551 4285427998
-0.0078734383 0.0099833012 -0.008424297 4285362718
-0.00059821829 0.01864874 -0.018023174 4284968743
0.00066672638 0.020960569 -0.020481151 4285427998
0.0017191842 0.023997404 -0.02361775 4285624604
0.0031487159 0.025581207 -0.025386298 4285558049
0.004365772 0.027889911 -0.027833404 4285623583
0.0065894239 0.026570469 -0.026874671 4285689374
0.0090309195 0.024526641 -0.025238326 4285820953
0.011068717 0.023934178 -0.024964018 4285755419
0.012474315 0.025516771 -0.026726797 4285624093
0.013438892 0.028548043 -0.029843332 4285624349
0.015035637 0.029404491 -0.030922599 4285558813
0.017068055 0.028812062 -0.03064671 4285558814
0.019775266 0.026047919 -0.028342981 4285558814
0.022729585 0.022561561 -0.025368163 4285624349
0.025253503 0.020524677 -0.023749432 4285624349
0.026868727 0.021382987 -0.024832329 4285624349
0.029180031 0.020071156 -0.023892086 4285689884
0.033630345 0.012252219 -0.016893705 4285820698
0.058334097 -0.043691456 0.034246579 4285820698
0.062644079 -0.050039306 0.039825037 4285623329
0.06500344 -0.050606474 0.04002957 4285163563
-0.015725553 -0.017358571 0.01679823 4284966449
-0.014245339 -0.01502607 0.014296249 4285426468
-0.013274059 -0.010503076 0.0097347256 4285492769
-0.012668695 -0.0045215636 0.0038060602 4285294889
-0.0127846 0.0043774992 -0.0048592305 4285427234
-0.011757869 0.0081625432 -0.008708572 4285361954
-0.01040766 0.010486312 -0.011181228 4285297438
-0.0078295954 0.0077021345 -0.0088568311 4285167389
-0.0022586435 0.022950038 -0.024577396 4285493534
-0.0010145903 0.02526699 -0.02702588 4285559069
0.00040982664 0.026854679 -0.028790131 4285886999
0.0022216178 0.026985649 -0.029191826 4285821208
0.0034284592 0.029300194 -0.031631768 4285689118
0.005640924 0.027975548 -0.030673828 4285689374
0.0082780384 0.025196891 -0.028361591 4285755164
0.010726821 0.023147121 -0.026731674 4285755673
0.012342317 0.02400687 -0.027813571 4285624349
0.013522508 0.026320096 -0.030247236 4285559068
0.015339632 0.026452232 -0.030649532 4285559068
0.017597346 0.02513155 -0.029701106 4285624348
0.020088667 0.023085449 -0.028080178 4285624348
0.022821575 0.020314544 -0.025788561 4285624348
0.024434242 0.021174762 -0.026869334 4285624348
0.02557959 0.023486104 -0.029294798 4285755674
0.027176172 0.024345387 -0.030371832 4285820698
0.030185122 0.020852529 -0.027416904 4285885979
0.036088139 0.008660391 -0.016413402 4285885978
0.053539947 -0.031647652 0.020274427 4285885978
0.060019962 -0.044539794 0.031874731 4285885723
0.063850015 -0.049457118 0.036096655 4285951258
-0.014222633 -0.017378494 0.013816616 4285426978
-0.012755197 -0.015040241 0.011322435 4285426978
-0.011804126 -0.010505438 0.0067752581 4285229354
-0.011732426 -0.0023110956 -0.0011896095 4285229353
-0.011202741 0.00368274 -0.0070882598 4285295653
-0.0021987148 0.020709723 -0.02498398 4285559069
-0.0015319847 0.0252253 -0.029467206 4285427743
-0.00011263415 0.02681696 -0.031227028 4285624348
0.0010972768 0.029138226 -0.0336629 4285952788
0.0026941597 0.029998358 -0.03473939 4285952534
0.004693985 0.029398561 -0.034460083 4285886998
0.0075263306 0.025880657 -0.031475119 4285821719
0.009966407 0.023823701 -0.029848149 4285624348
0.011998208 0.023226555 -0.029575676 4285558558
0.01382054 0.023358963 -0.029979203 4285558813
0.015642859 0.023491498 -0.030382629 4285559068
0.017905388 0.022166755 -0.029438481 4285624604
0.019955754 0.021571416 -0.029169774 4285558813
0.022236854 0.02024829 -0.028229609 4285624349
0.023388043 0.022566509 -0.030651495 4285755419
0.024753952 0.024155796 -0.032398432 4285821209
0.026109165 0.025744382 -0.034142867 4285558048
0.028634159 0.023694742 -0.032533847 4285623838
0.03284641 0.016555168 -0.026241006 4285755164
0.038801841 0.0043297857 -0.015276671 4285689629
0.060702816 -0.042477474 0.026838599 4285624349
0.064788654 -0.04813607 0.031715132 4285427234
0.067388527 -0.049434572 0.032585859 4285098283
-0.012565762 -0.018124849 0.011528542 4284966958
-0.011275094 -0.015045919 0.0083576282 4285098283
-0.010513548 -0.009764798 0.0031414237 4285098284
-0.0011860356 0.014800262 -0.022000313 4285360424
-0.0014687218 0.022994209 -0.029867766 4285360933
-0.0006343089 0.02678835 -0.033657372 4285558814
0.00037210807 0.02984824 -0.036764137 4285690138
0.0021623261 0.029977772 -0.037160963 4285690138
0.0045643672 0.027911291 -0.035530671 4285690139
0.0076022297 0.023650482 -0.031878479 4285624349
0.010044236 0.021587137 -0.030256871 4285558558
0.011442585 0.02318234 -0.032008268 4285558558
0.013259454 0.023314368 -0.032410577 4285624349
0.015076304 0.023446497 -0.032812797 4285624348
0.017772825 0.020655211 -0.030526321 4285624349
0.019600278 0.020788353 -0.030930713 4285558558
0.021427693 0.020921584 -0.03133503 4285558558
0.022343406 0.023976147 -0.03442077 4285690138
0.023698909 0.025569085 -0.036162131 4286018579
0.025043724 0.027161285 -0.037901014 4285689628
0.027793251 0.024374552 -0.035625748 4285623839
0.031041153 0.020130467 -0.03201906 4285558558
0.035285871 0.012971483 -0.02574959 4285624348
0.040315468 0.003629148 -0.017491203 4285624603
0.056563444 -0.032529704 0.014956165 4285624603
0.063375689 -0.046223015 0.027145384 4285559068
0.067234442 -0.051168621 0.031338438 4285427744
0.069844291 -0.05247058 0.032203779 4285164074
-0.01124689 -0.017392993 0.0078804484 4285032748
-0.0099741481 -0.014306471 0.0047201263 4285098283
-0.0092379712 -0.0090116933 -0.00047901273 4284967213
0.00039566681 0.0066590011 -0.017004281 4285163308
-0.00063344836 0.017818991 -0.027565446 4285426214
-0.00037216768 0.023829576 -0.033377692 4285559068
0.0004417859 0.02763328 -0.037154548 4285493533
0.0024356097 0.027028553 -0.036877248 4285559068
0.0044347756 0.026424322 -0.036601052 4285558814
0.0072649233 0.022884369 -0.033631891 4285559069
0.0092854239 0.022281878 -0.033360206 4285624349
0.010676015 0.023880936 -0.03510667 4285690139
0.012055948 0.025479306 -0.036850646 4285886999
0.014076406 0.024877179 -0.036578752 4285886998
0.016761357 0.022076312 -0.034296207 4285886999
0.018578015 0.022208661 -0.034698218 4285624349
0.020394638 0.022341125 -0.035100132 4285558558
0.021072619 0.026136208 -0.038845934 4285558558
0.022184676 0.028464872 -0.041249342 4285821718
0.02351376 0.030060325 -0.042981483 4285887254
0.026010672 0.027995564 -0.041376047 4285953044
0.029477011 0.023005124 -0.037108243 4285887509
0.03273952 0.018749077 -0.03351447 4285756183
0.036521312 0.013032801 -0.028597087 4285493789
0.04231653 0.001470685 -0.018371634 4285493534
0.061461307 -0.042826138 0.021264756 4285493534
0.066826001 -0.052171782 0.02942829 4285559069
0.069175646 -0.052748024 0.029628837 4285230118
-0.0099430159 -0.016648605 0.0042457366 4284901168
-0.0086882152 -0.013554521 0.0010959781 4284900914
0.0014032498 0.00069066882 -0.014063002 4284966959
0.00097154453 0.0096731484 -0.022579243 4285163053
0.00086706132 0.017177094 -0.029732665 4285294888
0.0013040118 0.02246685 -0.034853112 4285295909
0.0025072582 0.024807442 -0.037272766 4285493789
0.00430521 0.024937641 -0.037671216 4285493788
0.0067218207 0.022859152 -0.036053807 4285559069
0.0085277706 0.02299016 -0.036453858 4285624604
0.0099106282 0.024592992 -0.038195312 4285690139
0.011068601 0.026930887 -0.040604509 4285755418
0.013294943 0.025590323 -0.039662234 4285820954
0.015751459 0.023515321 -0.038053215 4285952789
0.018001715 0.022176724 -0.037116058 4285821209
0.019588016 0.023043692 -0.038184546 4285624349
0.020486355 0.026114509 -0.041253418 4285558559
0.021593548 0.028449342 -0.043650821 4285558814
0.022917541 0.030048843 -0.045378618 4285690139
0.025408426 0.027977031 -0.043776691 4285624348
0.028629754 0.023704749 -0.040183648 4285624604
0.032123815 0.018701147 -0.035933279 4285558814
0.035655074 0.013700441 -0.031691067 4285493278
0.041192874 0.00283584 -0.022152241 4285559069
0.06030415 -0.041596904 0.017392276 4285493278
0.066163816 -0.052437484 0.026860302 4285559068
0.068507776 -0.05301629 0.027060425 4285295144
0.0020284839 -0.0038246065 -0.012488307 4284966958
0.0025731213 0.0014879555 -0.017621368 4285097518
0.0026897527 0.0082764328 -0.024091525 4285294888
0.0029564984 0.014322538 -0.029878858 4285426723
0.0029799566 0.021104507 -0.036328182 4285493533
0.0039722994 0.024189878 -0.039412118 4285493534
0.0055614337 0.025058441 -0.040480196 4285559324
0.0073539242 0.025188461 -0.040877283 4285690393
0.0091464072 0.025318604 -0.041274272 4285624349
0.010296829 0.027662493 -0.043676928 4285492003
0.012514666 0.0263169 -0.042735972 4285557793
0.014962463 0.024234764 -0.041129932 4285689628
0.017426224 0.022153836 -0.039527312 4285689628
0.01945658 0.021548424 -0.039260589 4285624349
0.020582903 0.023891117 -0.041657418 4285559069
0.021463197 0.026969485 -0.044715703 4285493278
0.023020098 0.027836889 -0.045775846 4285558813
0.025512926 0.025758673 -0.044179216 4285558814
0.028973611 0.020737201 -0.039932936 4285558814
0.032230843 0.016454551 -0.0363575 4285559069
0.035763256 0.011438616 -0.032126937 4285559068
0.041546647 -0.00019440055 -0.021950891 4285624093
0.059902444 -0.042555183 0.01551366 4285559068
0.064994499 -0.051224127 0.022979366 4285689884
0.0020826571 -0.0061317235 -0.012942987 4284900913
0.0034012161 -0.0037700757 -0.015378673 4285163054
0.0041182749 0.0008149147 -0.019824136 4285163308
0.0044077225 0.006880112 -0.025603449 4285294633
0.0038525425 0.015906576 -0.034053031 4285360169
0.0040461458 0.021965139 -0.039810941 4285229354
0.0050204806 0.025058061 -0.042884305 4285427999
0.0063905157 0.026668604 -0.044616498 4285756183
0.0079610497 0.027538233 -0.04567866 4285821718
0.0093124136 0.029147703 -0.047406584 4285755163
0.011519071 0.027796909 -0.046466418 4285689884
0.014174655 0.024967656 -0.044196904 4285755929
0.016629696 0.022879589 -0.042597264 4285756183
0.018651744 0.022271339 -0.042330295 4285624604
0.020451931 0.022402752 -0.042728454 4285559069
0.02248187 0.021795351 -0.042463094 4285493533
0.02428462 0.021927174 -0.042861663 4285493534
0.027262952 0.018366486 -0.039948747 4285493533
0.030030064 0.015546184 -0.037703305 4285360678
0.033299305 0.011251301 -0.034140274 4285360168
0.036843546 0.0062208623 -0.029923676 4285360424
0.043374307 -0.0076595992 -0.01779612 4285360424
0.060003374 -0.044983484 0.014956029 4285360424
0.064334288 -0.051467165 0.020427687 4285359913
0.0034581199 -0.0060745031 -0.015832109 4285228844
0.0049588047 -0.0044506714 -0.01759048 4285294378
0.0056582503 0.00014622509 -0.022022165 4285360169
0.0053241923 0.0084571689 -0.029788431 4285294633
0.0049315505 0.016764045 -0.03754168 4285294379
0.0048916154 0.023581032 -0.043947488 4285361699
0.0058452822 0.0266813 -0.047009625 4285493278
0.0071995668 0.028295234 -0.048735023 4285755929
0.0087568276 0.029166199 -0.049792536 4285821719
0.011173926 0.027068529 -0.048189521 4285887254
0.013825925 0.024230324 -0.045925751 4285821718
0.016277594 0.022135399 -0.044330217 4285558813
0.018520925 0.020783264 -0.043401144 4285493534
0.020774856 0.01943206 -0.042474382 4285559069
0.023498619 0.016599499 -0.040226117 4285493533
0.026011363 0.01450951 -0.03864374 4285492769
0.028774943 0.011680119 -0.036404144 4285492769
0.031084586 0.010333404 -0.035489313 4285492004
0.034125578 0.0067666173 -0.032598197 4285360168
0.037436031 0.0024617612 -0.029053943 4285294634
0.044216525 -0.012199931 -0.016299838 4285294634
0.059852999 -0.046676293 0.013738269 4285294634
0.063674852 -0.051701054 0.017882528 4285228843
0.0052130558 -0.0075004846 -0.017376276 4285098283
0.0065112114 -0.005126901 -0.019797541 4285294633
0.0067927949 0.00097284466 -0.025548983 4285294633
0.0066262037 0.0085602179 -0.03262331 4285294888
0.0057900287 0.018378947 -0.041682474 4285492259
0.0057170652 0.025213357 -0.048066229 4285493278
0.0066500492 0.028321028 -0.051117226 4285493534
0.0086289085 0.02770485 -0.050844319 4285559068
0.01082918 0.026344903 -0.049909279 4285559068
0.013696373 0.022753533 -0.046988569 4285559069
0.016147323 0.020652022 -0.045397736 4285493278
0.018838301 0.017808076 -0.043148898 4285493279
0.021323791 0.015709322 -0.04156553 4285427233
0.024742858 0.01063861 -0.037344493 4285360678
0.027270854 0.0085431635 -0.035770368 4285295144
0.030284237 0.0049631894 -0.032881457 4285294888
0.032137178 0.0050989389 -0.03329093 4285294633
0.035190366 0.0015221164 -0.030410638 4285294888
0.038270094 -0.002052635 -0.02753612 4285294889
0.044811793 -0.016015381 -0.015472787 4285229098
0.059953347 -0.049110517 0.013176313 4285294634
0.0632696 -0.052667394 0.015998976 4285163053
0.0065732002 -0.0074303746 -0.020251663 4285294889
0.0078584962 -0.005051069 -0.022665054 4285294888
0.0079122484 0.0018119439 -0.029062444 4285360424
0.0070970468 0.011660665 -0.038105145 4285491748
0.0064205416 0.020757452 -0.046468996 4285821974
0.0071542226 0.02462155 -0.050178811 4285493278
0.0089274943 0.024750426 -0.050571449 4285493533
0.011564387 0.021893442 -0.04831741 4285493534
0.01400399 0.019784436 -0.046729028 4285624859
0.016902005 0.016184509 -0.043823175 4285690393
0.019602718 0.013332546 -0.041582987 4285624094
0.022551246 0.009736523 -0.038688138 4285360423
0.025297133 0.0068881065 -0.036457758 4285228843
0.027832378 0.0047866851 -0.034890145 4285294633
0.03038355 0.0026865453 -0.033325911 4285294888
0.032713428 0.0013325736 -0.032422051 4285294634
0.035533607 -0.00150989 -0.030207776 4285294889
0.039102614 -0.0065843612 -0.02603077 4285229098
0.045160726 -0.019099474 -0.01531016 4285228843
0.0064377561 -0.0089879036 -0.021372916 4285164074
0.0079232119 -0.0073518679 -0.023117941 4285360169
0.0087908208 -0.0034674853 -0.026849562 4285294633
0.008606486 0.004162401 -0.033887304 4285425959
0.0077457093 0.014036357 -0.042898685 4285492258
0.0080780499 0.019410972 -0.047927186 4285558049
0.0098644942 0.019540805 -0.048322737 4285427233
0.012298075 0.017424684 -0.046737991 4285360934
0.015184358 0.01381287 -0.043837741 4285426214
0.017876199 0.010951385 -0.041602194 4285425959
0.020813003 0.0073434934 -0.038712956 4285360424
0.023323672 0.0052334517 -0.037144914 4285294633
0.025621226 0.0038724542 -0.036237456 4285228843
0.028161079 0.0017647967 -0.034675688 4285229098
0.030716851 -0.00034159422 -0.033117358 4285294888
0.033762552 -0.0039409325 -0.030251751 4285295144
0.03755381 -0.0097789764 -0.025427638 4285294888
0.042114612 -0.017854072 -0.018650237 4285229098
0.0075884759 -0.0081526786 -0.024897795 4284967214
0.0088586546 -0.0057611987 -0.027298037 4285228843
0.0094982423 -0.0011157766 -0.031677134 4285294633
0.0090682097 0.0072847679 -0.039350316 4285360424
0.009630587 0.01192487 -0.043712176 4285425959
0.011012465 0.013558388 -0.045430534 4285426723
0.013676815 0.010685921 -0.043195575 4285426469
0.016144246 0.008565858 -0.04162316 4285294379
0.018848481 0.00569655 -0.039396837 4285294379
0.021350473 0.0035792291 -0.037831828 4285294378
0.024094565 0.00071305037 -0.035614159 4285360424
0.026402233 -0.00065156817 -0.03471218 4285228843
0.0291835 -0.0035147592 -0.032502532 4285163563
0.031986006 -0.0063762814 -0.030297488 4285294889
0.036230642 -0.013732098 -0.02417442 4285294633
0.040767923 -0.02183304 -0.017409842 4285098028
0.0089261197 -0.008058995 -0.027749449 4285163308
0.0097740553 -0.0041540712 -0.031460367 4285163308
0.0099733472 0.00201004 -0.037141271 4285294888
0.010550037 0.0066642761 -0.041496553 4285360424
0.012158131 0.007549867 -0.042557187 4285294634
0.014406882 0.0061759353 -0.041645825 4285228843
0.017102223 0.003297165 -0.039424166 4285294634
0.01981885 0.00042001903 -0.037207097 4285294379
0.022333421 -0.0017029494 -0.035649747 4285229099
0.025089905 -0.0045769513 -0.033441313 4285294633
0.02809627 -0.0082013533 -0.030583519 4285229354
0.03182311 -0.014079489 -0.025771404 4285294633
0.035826437 -0.02070611 -0.020315833 4285294634
0.010049138 -0.0072009042 -0.031249685 4285033004
0.010462273 -0.0017746389 -0.036262028 4285360168
