# .PCD v0.7 - Point Cloud Data file format
VERSION 0.7
FIELDS x y z rgba
SIZE 4 4 4 4
TYPE F F F U
COUNT 1 1 1 1
WIDTH 858
HEIGHT 1
VIEWPOINT 0 0 0 1 0 0 0
POINTS 858
DATA ascii
-0.018020473 -0.04330799 -0.0073723849 4287508289
-0.018325455 -0.04414615 -0.0091774892 4287966014
0.0024700463 0.00012988597 0.065959893 4282216528
0.0030191578 0.0056614503 0.059686597 4279740223
0.0054160953 0.0044654757 0.060673464 4280198459
0.0093573406 -0.0021075532 0.06745325 4280916539
-0.0129456 0.0014369041 0.063653201 4279479103
-0.011592597 0.0042903796 0.060275082 4279805249
-0.0092395805 0.0030861422 0.061268244 4280395574
-0.006530039 0.00053109974 0.06371326 4279679789
-0.0046766847 0.0013559535 0.062520891 4281437248
-0.0033630878 0.0042068809 0.059152093 4280980288
-0.0018898472 0.006381087 0.056513503 4281045313
-0.00079948828 0.0099043325 0.052429304 4280851004
0.00063668191 0.012075942 0.04979939 4281372989
0.0030011497 0.010873195 0.050790392 4281502273
0.0067168698 0.0049500167 0.056838874 4280198458
0.012616415 -0.0083864927 0.070820898 4280851514
-0.017617092 0.0014896542 0.061195429 4281697348
-0.017060515 0.0077469572 0.054180626 4281109829
-0.016057663 0.01196488 0.049358983 4280848198
-0.014417227 0.013466779 0.047451705 4281566788
-0.012107283 0.01225492 0.048451539 4280525624
-0.0092685595 0.0090097561 0.051625531 4280850238
-0.0071044229 0.0084781423 0.05189376 4281111104
-0.0052907914 0.0093023479 0.050712198 4281110338
-0.0034823865 0.010126248 0.049531892 4281045313
-0.0018625371 0.011627179 0.047629733 4279416374
-0.00043918937 0.013804454 0.045007635 4280850493
0.0019114614 0.012596261 0.045998547 4281046334
0.005038064 0.0086821616 0.049872082 4280328509
0.010136403 -0.001994431 0.060944837 4280002363
-0.018878184 0.0045777336 0.05490974 4281370438
-0.018662255 0.012215767 0.046460617 4279611959
-0.017024338 0.013721745 0.044557132 4280458813
-0.015396945 0.015227061 0.042656068 4280524093
-0.012930997 0.013329271 0.044380359 4280394043
-0.010276496 0.01075248 0.046824962 4280198969
-0.0077756792 0.0088574216 0.048541371 4281046078
-0.0063255653 0.011043038 0.045917746 4281111104
-0.0045303889 0.011868153 0.044742092 4280980543
-0.0027404465 0.01269301 0.04356765 4280719934
-0.000769943 0.012838248 0.043115422 4280003383
0.0015775487 0.011625346 0.044103831 4280003383
0.0041268878 0.0097344294 0.045809522 4280459578
0.008048676 0.0030938014 0.052545022 4280655674
0.014184594 -0.01100646 0.06717135 4280916284
-0.019341651 0.0042798147 0.052273456 4281631559
-0.019290633 0.01262508 0.04311819 4279480634
-0.017660454 0.014134895 0.041219652 4279350583
-0.015706852 0.014278214 0.040770806 4279676983
-0.013413884 0.013056222 0.041767992 4278961199
-0.010593299 0.0097876266 0.044929869 4281046079
-0.0082708076 0.0085680261 0.045920361 4281111104
-0.0064703301 0.0093956217 0.044745028 4281176639
-0.0046750717 0.010222919 0.043570962 4280915008
-0.0028850511 0.011049986 0.042398121 4281111104
-0.0011002459 0.011876706 0.041226592 4281176384
0.0010558218 0.011340503 0.041493729 4281241664
0.003217306 0.010804757 0.041759744 4281241665
0.0063520595 0.0068648607 0.045611955 4281372989
0.01187372 -0.0052414462 0.058059398 4281176894
-0.018692866 -0.00080888718 0.05471066 4281889874
-0.019272074 0.010305963 0.042678326 4280784449
-0.017803043 0.012505677 0.040059719 4281110595
-0.015849546 0.012648974 0.039610885 4281045569
-0.013557076 0.0114225 0.040604915 4281111104
-0.011253841 0.010196954 0.041596502 4281241409
-0.0087650679 0.0082877353 0.043305892 4281110848
-0.0069698654 0.0091171786 0.042133335 4281045823
-0.0048197098 0.0085779727 0.042400017 4281045823
-0.0030296072 0.0094072223 0.041228771 4281111614
-0.001059331 0.0095523968 0.040776562 4280981309
0.00091103464 0.0096976906 0.040324409 4280850493
0.0026907623 0.010526419 0.0391558 4278636584
0.005238764 0.0086222365 0.040852081 4279091758
0.0099592879 -0.00079320371 0.050412972 4280267564
0.017536325 -0.019761674 0.06996239 4280267564
-0.017887376 -0.0066074431 0.057854552 4282607698
-0.018770102 0.0059195086 0.044400487 4281175618
-0.017945573 0.010876749 0.038899988 4280914498
-0.015992194 0.011020008 0.038451158 4281045313
-0.014038682 0.011163358 0.038002361 4280329528
-0.011913151 0.010619894 0.038272809 4280133943
-0.0096076205 0.0093901306 0.039260715 4280785978
-0.0072913431 0.0081612989 0.040246174 4281046589
-0.0051441714 0.0076197013 0.040511865 4281111614
-0.0029915646 0.0070785508 0.040776417 4281176893
-0.0012039579 0.0079099014 0.039607421 4280981054
0.00039057434 0.0094266757 0.037724204 4280590138
0.0019745417 0.010942783 0.035843492 4279939634
0.0045138299 0.0090313554 0.037536841 4280851259
0.0084401108 0.0023249537 0.044222608 4279483439
0.015000343 -0.013282157 0.060166579 4279158058
-0.018108584 0.00082563609 0.046830259 4281369929
-0.017760612 0.0078685507 0.039179381 4280915264
-0.01630114 0.010080859 0.036572754 4280719933
-0.014688481 0.011602711 0.034688063 4278636584
-0.012914632 0.012434702 0.03352353 4279548464
-0.0079664066 0.0085876584 0.036929548 4280786234
-0.0058275461 0.0080432147 0.037195496 4281242174
-0.0040479228 0.0088760257 0.036029924 4281111103
-0.0022735447 0.0097085908 0.034865584 4280720444
-0.00031673163 0.009852834 0.034416504 4280786234
0.0010691881 0.012060534 0.031827454 4281763139
0.0034041405 0.010829236 0.0328058 4281567553
0.0069237277 0.0054744184 0.038054582 4281111869
0.012667427 -0.0074363425 0.051120412 4281111613
0.019718222 -0.024461515 0.068428576 4281307199
-0.017931502 -0.0022136346 0.047088914 4281237583
-0.018230446 0.0076196939 0.036581054 4280981309
-0.01710818 0.011221725 0.032545853 4280915519
-0.015674725 0.013438776 0.02995012 4281698113
-0.013571098 0.012889192 0.030222356 4281567808
-0.01128789 0.011648968 0.031208809 4280655163
-0.0086402744 0.0090276375 0.033622548 4280786234
-0.0066891834 0.0091711506 0.033174556 4281046334
-0.0047379956 0.0093147904 0.032726631 4281045824
-0.0029715188 0.010148905 0.031565752 4280915519
-0.001022812 0.010292538 0.031118523 4279417139
0.00073583052 0.011126325 0.029959552 4279873844
0.0030676275 0.0098903328 0.030935407 4280721208
0.0058010295 0.0072760135 0.033329967 4280395574
0.010338865 -0.0015414134 0.042109206 4280330804
0.016953783 -0.017245814 0.057965968 4280721464
-0.017915789 -0.0045671314 0.046624534 4281171793
-0.018372796 0.005991593 0.035421874 4280914243
-0.017581642 0.010992639 0.029963206 4279742773
-0.016153045 0.013215926 0.027373442 4280525878
-0.014055066 0.012663741 0.027645292 4280265014
-0.011777669 0.011418615 0.028629862 4279939634
-0.0091362931 0.0087880194 0.031038471 4280721209
-0.0071906485 0.0089311153 0.030591719 4281111869
-0.005244907 0.0090743154 0.030145012 4281046078
-0.0034836791 0.0099102482 0.028986964 4281176384
-0.001540415 0.010053471 0.028540976 4280850239
0.00040292367 0.010196805 0.028095052 4280915008
0.0025389269 0.0096482038 0.02835875 4281176894
0.0050708503 0.0077164322 0.030039277 4281243449
0.0084104948 0.003019385 0.034549665 4281438778
0.013993887 -0.0092806593 0.046836849 4281373498
0.021095896 -0.026412167 0.064052127 4281438779
-0.017579459 -0.0083179995 0.047587886 4282215764
-0.018678218 0.0050601512 0.033548165 4280979779
-0.018220067 0.011468943 0.026672909 4280785978
-0.016630527 0.013002209 0.02480326 4280721209
-0.014538188 0.012447383 0.025074759 4281179188
-0.012440413 0.011893053 0.025345089 4281376048
-0.0098078996 0.0092529356 0.02774928 4281441073
-0.0078703612 0.0093954206 0.027304372 4281373753
-0.0055692233 0.0081479549 0.028280403 4281569593
-0.0036261715 0.0082910433 0.027834378 4281373754
-0.0016830377 0.008434236 0.027388411 4281504313
0.00044991821 0.0078831166 0.027651116 4281895994
0.0022034645 0.0087209567 0.026496653 4283794978
0.0045369565 0.0074763671 0.027465684 4284707624
-0.017083965 -0.012780681 0.049255725 4282476629
-0.018494405 0.0020375997 0.033817228 4281436228
-0.018194884 0.0091651157 0.026242433 4281373243
-0.016434178 0.010004759 0.025087265 4281438269
-0.014678661 0.010844123 0.02393336 4282288439
-0.012754764 0.010985386 0.023491425 4283136569
-0.010478303 0.0097314864 0.024469716 4283529013
-0.008191064 0.0084784329 0.025445646 4283399474
-0.0058931038 0.0072263107 0.026419146 4283530033
-0.0037686191 0.0066721365 0.026682008 4284447014
-0.001825612 0.0068152994 0.026236055 4284445738
0.00011747703 0.0069585815 0.025790161 4284511018
-0.01847402 -0.00029274821 0.033368651 4283855158
-0.018453985 -0.0026271641 0.032917093 4284311354
-0.016477436 0.0062920079 -0.0069410144 4284511783
-0.015059683 -0.0099720061 0.0061559984 4284507958
-0.015572138 0.00036965311 -0.0039167348 4282289713
-0.015982758 0.0099775195 -0.013284902 4284706603
-0.014495779 -0.0063098371 -0.00022466551 4281567298
-0.015941307 0.0077121034 -0.01369162 4282809913
-0.013075832 -0.014486104 0.0048153149 4282936648
-0.015197061 0.0025110915 -0.011364266 4282940983
-0.011832278 -0.021966517 0.0091438629 4282543948
-0.014630307 -0.0019766465 -0.0097351167 4283463223
-0.010764509 -0.028744563 0.012765749 4281631559
-0.013188053 -0.010168254 -0.0047127763 4282218823
-0.010044523 -0.034073815 0.015005513 4282607954
-0.011749242 -0.018399328 0.00028146454 4282739789
-0.0086759031 -0.03810636 0.010371818 4282280533
-0.011313692 -0.018567219 -0.0076106861 4284311609
-0.0088194311 -0.039744705 0.0092054289 4282084183
-0.010035612 -0.026133351 -0.003355023 4282608209
-0.0092912838 -0.031483427 -0.001137522 4282410838
-0.0090789832 -0.034597591 -0.00094403443 4282476118
-0.011220243 -0.01946751 -0.017219422 4282869584
-0.010067105 -0.034795731 -0.005906058 4282083419
-0.011894479 -0.018761501 -0.020330304 4283461183
-0.012388729 -0.018800981 -0.022767354 4282741828
-0.013417944 -0.016547769 -0.027185757 4282349129
-0.013910018 -0.016562365 -0.029605158 4282022473
0.0090919435 -0.010978423 -0.038389701 4284704308
-0.013688475 -0.019630298 -0.029380165 4282022984
-0.013640866 -0.011839725 -0.036395006 4282938944
-0.01222166 -0.028081343 -0.024556022 4281560414
-0.011787023 -0.021802269 -0.03024598 4282153034
-0.015303485 -0.025532745 0.044451311 4282471528
-0.01464247 -0.030786462 0.046763454 4282275179
-0.014144719 -0.035345674 0.048359524 4282208878
-0.013648435 -0.03992226 0.049943212 4282078064
-0.013475657 -0.043074675 0.050119728 4281946993
-0.013464402 -0.045512639 0.049594373 4281946994
-0.013935298 -0.045779131 0.046983428 4282143088
-0.013510503 -0.038378678 0.03957418 4282340204
-0.014244966 -0.046763875 0.045071654 4282536554
-0.013331801 -0.041523121 0.03975489 4282143089
-0.013805375 -0.041758418 0.037167694 4281422714
-0.014115438 -0.042716146 0.035275847 4280701319
-0.01341027 -0.036716267 0.029303394 4281815924
-0.014587551 -0.042935327 0.032700114 4281881203
-0.013390854 -0.039119124 0.02880159 4281815669
-0.014734246 -0.044617429 0.031502381 4282536043
-0.013701677 -0.040054351 0.02692662 4281946738
-0.012365639 -0.036964774 0.023727287 4282732903
-0.015205108 -0.044822723 0.028936528 4282928998
-0.013847306 -0.041722909 0.025738573 4282273904
-0.012175813 -0.040100269 0.023911433 4282339694
-0.014322065 -0.041910551 0.023186741 4282469999
-0.012488395 -0.041024029 0.022045409 4282142578
-0.014631614 -0.042831592 0.021321869 4281749113
-0.012800559 -0.041943073 0.020182746 4281094018
-0.011144411 -0.040312648 0.018365694 4281882224
-0.014940739 -0.043747872 0.019460374 4282142324
-0.013112292 -0.042857349 0.018323468 4281618808
-0.011119552 -0.042711392 0.017865459 4281685363
-0.013423603 -0.043766871 0.016467499 4282208114
-0.011433672 -0.043621138 0.016010122 4281554039
-0.0092716664 -0.044221625 0.016228285 4281817198
-0.013900943 -0.043922789 0.01393986 4282404208
-0.011916481 -0.043777466 0.013483732 4281094783
-0.009931922 -0.043632016 0.013027671 4281030778
-0.012567416 -0.043173671 0.010290919 4281684599
-0.010590978 -0.043028802 0.0098367352 4281684853
-0.013217147 -0.04255639 0.007107785 4281880948
-0.011248838 -0.042412132 0.0066554528 4281619319
-0.013697159 -0.04268083 0.0046040248 4282208369
-0.011905499 -0.041781828 0.0034838 4281684598
-0.010292925 -0.040128127 0.0016963466 4281751153
-0.014344692 -0.042038649 0.0014386044 4282601069
-0.012731984 -0.040380649 -0.00034579821 4281553528
-0.011303466 -0.037966132 -0.0027946325 4281030013
-0.013727687 -0.03820195 -0.0048286039 4281684344
-0.012658969 -0.034263089 -0.0086004334 4281359473
-0.015972123 -0.039189652 -0.0061934646 4282862699
-0.014721438 -0.0360009 -0.009295498 4281814904
-0.013665184 -0.032052003 -0.013056398 4280046223
-0.016447946 -0.039266571 -0.0086634066 4283320423
-0.015372377 -0.03530544 -0.012420771 4281749113
-0.014323272 -0.031346127 -0.016171971 4279848598
-0.015341181 -0.03766124 -0.012891171 4282862189
-0.01446151 -0.032924689 -0.017295817 4279914388
-0.013438053 -0.028956167 -0.021032944 4281492073
-0.014427014 -0.03527116 -0.017760351 4280045969
-0.013049398 -0.032827474 -0.020173186 4279984513
-0.032135606 -0.045964658 -0.0078720618 4282667369
0.0072765909 0.0048449486 0.029845886 4285034278
0.012041459 -0.0047213659 0.03928303 4285033768
0.018911419 -0.021216668 0.055758793 4284903719
0.0018684343 0.0077984333 0.02463791 4285100069
0.0038089976 0.0079417452 0.024192754 4285689628
0.0063422136 0.0059969276 0.025863303 4285820443
0.010292791 -0.00081772357 0.032462414 4285689628
0.016528044 -0.015280806 0.046793226 4285623838
0.023697225 -0.032517456 0.063912041 4285623838
-0.018004641 0.0061564595 0.026519986 4285100833
-0.016406611 0.0076991692 0.024654809 4285231903
-0.01498979 0.0099414065 0.022082428 4285558814
-0.013242077 0.010782521 0.020931957 4285755419
-0.011147473 0.010223582 0.021199858 4285820188
-0.0085113496 0.0075662062 0.023590229 4285689373
-0.0060351864 0.0056099221 0.025268525 4285427488
-0.0040950552 0.0057527721 0.02482315 4285493788
-0.0023415163 0.0065947846 0.023671763 4285559324
-0.00059322268 0.0074365288 0.02252166 4285624604
0.0013418272 0.0075793117 0.022077683 4285558558
0.0030822568 0.0084207281 0.020929499 4285558559
0.0056067705 0.0064686388 0.022597158 4285558048
0.0091472864 0.0010273829 0.027776331 4285820698
0.01455434 -0.01069168 0.039267432 4285952024
0.021078557 -0.025892437 0.054246906 4285820954
0.026888002 -0.038294382 0.066394843 4285689373
-0.017980322 0.0038421452 0.026082031 4284902444
-0.016715102 0.0067947507 0.022801878 4285493278
-0.015471019 0.0097459033 0.019526651 4285689629
-0.013555363 0.0098865107 0.019086575 4285689119
-0.011639595 0.010027237 0.018646553 4285820188
-0.0090096891 0.0073605329 0.021031896 4286083349
-0.0067207441 0.0060989112 0.022000952 4285624094
-0.0049725473 0.0069426149 0.020852325 4285493279
-0.0032295883 0.007786043 0.019704983 4285558814
-0.0013027191 0.0079281181 0.019262804 4285690138
0.00062421709 0.0080702901 0.018820675 4285755929
0.0023567341 0.0089132637 0.01767596 4285558049
0.0046754032 0.0076544583 0.018638657 4285558048
0.008003775 0.0028949603 0.023106236 4285624094
0.012584221 -0.0060623437 0.031770308 4285624348
0.018464649 -0.019213915 0.044619914 4285690138
0.02465404 -0.033057585 0.058145992 4285559323
-0.018121354 0.0022287294 0.024933301 4285033259
-0.017190818 0.0065999031 0.020245099 4285624859
-0.015781082 0.0088548437 0.017684007 4285623838
-0.0140412 0.0096997023 0.016538588 4285492259
-0.011955231 0.0091357231 0.016805159 4285623329
-0.0096855313 0.0078681409 0.017775288 4285755164
-0.0074050687 0.0066014305 0.018743077 4285755419
-0.0056647919 0.0074467361 0.017597882 4285624349
-0.0037434548 0.0075882822 0.017156878 4285624349
-0.0020110048 0.0084332749 0.016013598 4285624349
-0.00028380007 0.0092779472 0.014871637 4285821718
0.0018266961 0.0087165162 0.015133123 4285821718
0.0043364689 0.0067501068 0.016794419 4285821464
0.0074610636 0.0026774481 0.020551691 4285887253
0.011022175 -0.0027974322 0.025700238 4285624348
0.016060391 -0.013183966 0.035729576 4285690139
0.022631621 -0.028478064 0.050626952 4285624348
0.028478986 -0.040956385 0.062707856 4285558814
-0.017833196 0.0071213543 0.016989186 4285428254
-0.016430989 0.0093823075 0.014434666 4285821463
-0.014526233 0.0095220804 0.013997066 4285821464
-0.012094975 0.0075424314 0.01567089 4285821209
-0.010003909 0.0069767013 0.015934719 4285952789
-0.0079074204 0.0064114779 0.016197389 4285690139
-0.006355837 0.0079644993 0.014353064 4285624349
-0.0044426098 0.0081054419 0.013913921 4285624348
-0.0023405552 0.0075409487 0.014175544 4285624349
-0.00061594695 0.0083876252 0.013035803 4285624349
0.0012974888 0.0085288808 0.012596834 4285558558
0.0038012154 0.0065554082 0.014254645 4285558303
0.0063209534 0.0045832843 0.015908821 4285558303
0.0092608444 0.0012033507 0.018954797 4285558814
0.013865234 -0.0078093559 0.027571261 4285558813
0.020405388 -0.023154177 0.042440064 4285559069
0.027272722 -0.039194152 0.057977941 4285493278
0.031284481 -0.045372315 0.063754544 4285427489
-0.018139787 0.0062377453 0.015151045 4285296418
-0.016739786 0.0085051209 0.012601887 4285558813
-0.014665216 0.007935755 0.01286772 4285689884
-0.012409933 0.0066581443 0.013834625 4285689883
-0.010321856 0.0060899779 0.014097511 4285689628
-0.0082283467 0.0055223256 0.014359233 4285624349
-0.0064959228 0.006371446 0.013219069 4285624349
-0.0043969303 0.0058043972 0.013479677 4285624348
-0.0024811029 0.0059456155 0.013040002 4285624349
-0.00056520104 0.0060869381 0.012600384 4285624349
0.0013507605 0.0062283948 0.012160842 4285558558
0.0034633167 0.0056627914 0.012418675 4285624094
0.0053820461 0.0058046505 0.01197865 4285624349
0.0079064295 0.0038263276 0.013627014 4285558813
0.011878563 -0.0030966476 0.020140193 4285558558
0.018390303 -0.018492013 0.034979824 4285623838
0.025438873 -0.035290904 0.051181216 4285426978
0.030702539 -0.045726441 0.061110485 4285361443
-0.018111765 0.0039358139 0.014721158 4285099048
-0.017048147 0.0076326579 0.01077246 4285493533
-0.014976561 0.0070608556 0.011037339 4285559069
-0.012899548 0.0064895526 0.011301056 4285624094
-0.010994837 0.0066294894 0.010863594 4285623838
-0.008909639 0.0060590133 0.011125588 4285624093
-0.0066359714 0.0047786459 0.012085251 4285624093
-0.0045372993 0.0042093918 0.012344326 4285624349
-0.0024332441 0.0036406144 0.012602228 4285558813
-0.00070584565 0.0044918805 0.011465072 4285558813
0.0012099817 0.0046333 0.011025545 4285690139
0.0027331524 0.0061935708 0.0091946227 4285690139
0.0042457208 0.0077532008 0.007366172 4285952533
0.0069577619 0.0050582513 0.0097073903 4285886744
0.010712812 -0.0011789054 0.015513371 4285886233
0.016378785 -0.013789669 0.027548179 4285755164
0.022769559 -0.028518349 0.04163916 4285689118
0.029272137 -0.043238632 0.055704661 4285361444
-0.017750282 0.00020225346 0.015690129 4285033258
-0.017016977 0.0053378493 0.01034692 4285493789
-0.015287463 0.0061906725 0.0092103183 4285690139
-0.013738077 0.007756412 0.0073759193 4285821463
-0.011844136 0.0078955442 0.006940919 4286018324
-0.0095896982 0.0066092536 0.0079016713 4285952789
-0.0067759752 0.0031861737 0.010951662 4285886999
-0.0046776384 0.0026146695 0.011209173 4285689628
-0.0027620792 0.0027558431 0.010769537 4285624349
-0.0012281202 0.0043210685 0.0089392131 4285624604
0.00068224967 0.0044620708 0.0085009271 4285689884
0.0020041838 0.0067379773 0.0059802057 4285689628
0.0037078634 0.0075900182 0.0048503568 4285623584
0.0064136609 0.0048858076 0.0071865236 4285623583
0.0095490515 0.00076130033 0.010902537 4285886234
0.014370842 -0.0090471208 0.020145137 4285886233
0.019895548 -0.020981729 0.031444106 4285558559
0.027419861 -0.039303109 0.048936948 4285558559
0.032290351 -0.048381418 0.05742956 4285164073
-0.016986124 0.0030388832 0.0099184252 4285427489
-0.015769977 0.0060408115 0.006688538 4285689884
-0.014225625 0.0076105297 0.004858573 4285755419
-0.012337144 0.0077492446 0.0044248151 4285689118
-0.010088567 0.0064581484 0.0053836098 4285755164
-0.0072812736 0.0030235797 0.0084269606 4285952534
-0.0055592209 0.0038786009 0.0072940942 4285624349
-0.0034664609 0.0033045709 0.0075513311 4285558813
-0.001940228 0.0048736334 0.0057260217 4285558813
-0.00023128092 0.0057280213 0.0045964038 4285821463
0.001276426 0.0072959661 0.0027754519 4285755673
0.0029721782 0.0081496239 0.0016490396 4285557794
0.0054677911 0.0061493441 0.0032893943 4285558049
0.0083872899 0.0027239546 0.006307669 4285624094
0.012366453 -0.0042644069 0.012770678 4285689883
0.017654471 -0.015525639 0.023358848 4285689884
0.025146918 -0.033906601 0.040816836 4285689884
0.031061025 -0.046577804 0.052736685 4285493024
0.034029432 -0.04927063 0.05500672 4285098029
-0.017124787 0.0014537722 0.0087898765 4285361954
-0.016251653 0.0059000701 0.0041733067 4285821209
-0.014886864 0.0081914142 0.0016518037 4285624093
-0.012829348 0.007612139 0.0019151818 4285426468
-0.010586597 0.0063161552 0.0028721041 4285558048
-0.0077857375 0.0028701052 0.0059088245 4285624094
-0.0060689487 0.0037269294 0.0047787819 4285690138
-0.0043574087 0.004583478 0.0036500117 4285558813
-0.0028415769 0.0061561987 0.0018302763 4285558813
-0.0011432059 0.0070119798 0.00070468965 4285624604
0.00054989383 0.0078675225 -0.00041957898 4285887509
0.0024361461 0.0080069676 -0.00085216691 4285953043
0.004925698 0.0059996694 0.00078466558 4285887254
0.0076350123 0.0032782406 0.0031071438 4285821718
0.010572039 -0.00015674531 0.0061133765 4285755673
0.014371984 -0.0064497516 0.011865463 4285493024
0.020125415 -0.019172624 0.02379285 4285427233
0.025760254 -0.031173587 0.035011671 4285230118
-0.017601345 0.0013093129 0.0062704589 4285230118
-0.017075785 0.0072084814 0.00027469965 4285559069
-0.015721183 0.0095056593 -0.0022396196 4285887508
-0.013497673 0.00820373 -0.0012816146 4285887508
-0.01108383 0.0061833411 0.00036706077 4285953298
-0.0086539313 0.0041642264 0.0020121897 4285953553
-0.0071326569 0.0057414696 0.00019430974 4285559068
-0.005809553 0.0080368817 -0.002312371 4285559069
-0.0043120719 0.0096125975 -0.0041246125 4285558813
-0.0022464506 0.0090323761 -0.0038642392 4285558814
-0.00037102029 0.0091708973 -0.0042944336 4285558558
0.0019009113 0.0078734979 -0.003346914 4285558813
0.0039826371 0.0072948188 -0.0030899751 4285559069
0.0062732846 0.0059989691 -0.0021465416 4285493279
0.0081621632 0.0061389506 -0.0025794781 4285559069
0.010259934 0.0055617988 -0.0023259628 4285493534
0.013209181 0.0021169633 0.00066953734 4285296163
-0.018077094 0.0011740476 0.0037575064 4285164074
-0.017898299 0.0085348859 -0.0036111095 4285493534
-0.016553894 0.010837857 -0.0061181942 4285558814
-0.014341552 0.0095307454 -0.0051609101 4285624603
-0.01193906 0.0075028837 -0.0035144552 4285558813
-0.010066755 0.0076405928 -0.0039443593 4285493534
-0.0087485947 0.0099421218 -0.0064451313 4285493279
-0.0078211091 0.013684649 -0.010321539 4285558813
-0.0059698708 0.013821151 -0.010746354 4285624349
-0.0039258599 0.01323713 -0.010482647 4285624349
-0.0014857128 0.011212721 -0.0088443263 4285624349
0.00057436153 0.010630123 -0.0085841278 4285559069
0.0026397929 0.010048039 -0.0083250711 4285559069
0.0043038651 0.010906145 -0.0094392141 4285493789
0.0053445846 0.01392296 -0.012608344 4285559579
0.0061553791 0.017657772 -0.016457316 4285494044
0.0082076043 0.017075162 -0.0161949 4285755418
0.011335157 0.012897696 -0.012515609 4285885213
0.016444556 0.0022529736 -0.0026966985 4285819678
0.022949666 -0.012697689 0.011198274 4285819678
0.030676408 -0.031232312 0.028476629 4285819678
0.037418254 -0.046165161 0.042317618 4285819679
0.041089602 -0.05103647 0.046605393 4285492003
-0.018034257 0.0069816262 -0.0047169621 4285493534
-0.016863309 0.010015465 -0.0079105021 4285427999
-0.01500728 0.010151744 -0.0083368486 4285427999
-0.013151158 0.010288149 -0.008763128 4285493278
-0.011840593 0.012595549 -0.011257336 4285493789
-0.011099555 0.017072272 -0.01581407 4285624604
-0.010203145 0.020823497 -0.019675249 4285821208
-0.0081940964 0.02023454 -0.019405181 4285952534
-0.0056021102 0.017477617 -0.017075624 4285952533
-0.0029887855 0.014722317 -0.014750855 4285755673
-0.0013433471 0.015581023 -0.015859265 4285624349
0.0002968125 0.016439438 -0.016966395 4285493278
0.0015253536 0.018741734 -0.019441163 4285559069
0.0029437952 0.020321071 -0.02122831 4285624603
0.0041431263 0.022621423 -0.023696229 4285755164
0.0059599355 0.022756286 -0.024112485 4285623583
0.0084181651 0.020727418 -0.022482583 4285689374
0.012624042 0.012931228 -0.015405003 4285951769
0.018641414 -0.0006275326 -0.0028942937 4285951769
0.02719946 -0.0221062 0.017075516 4285951769
0.035243765 -0.041411385 0.034970112 4285951769
0.040479347 -0.051342003 0.044005245 4285886233
0.042342938 -0.050465606 0.042847883 4285296164
-0.01697278 0.00034222752 -0.00099112466 4284968234
-0.015848171 0.011512548 -0.012192101 4285166113
-0.014539905 0.013826247 -0.014681024 4285362208
-0.013610899 0.017590612 -0.018541768 4285559324
-0.012524057 0.02062751 -0.021709193 4285690138
-0.011458423 0.023662947 -0.024871672 4285886999
-0.0094656609 0.023070633 -0.024599526 4285952534
-0.0072751939 0.021753725 -0.023643181 4286018324
-0.0046840645 0.018988006 -0.02131979 4285821209
-0.0028622001 0.019122653 -0.021737639 4285624348
-0.0012406111 0.019981947 -0.022838922 4285558814
-0.0002332069 0.023013763 -0.025987547 4285558813
0.0011642165 0.024595931 -0.027766639 4285821718
0.002551008 0.026177432 -0.029543215 4285689629
0.0047709569 0.024863526 -0.028593093 4285557794
0.0072151572 0.022827014 -0.026964843 4285558048
0.010756632 0.017175388 -0.021941023 4285623584
0.015873153 0.0064653307 -0.012172197 4285623838
0.023728445 -0.012913346 0.0057218196 4285623838
0.032848589 -0.035894744 0.026973123 4285623584
0.03941609 -0.050193377 0.040056776 4285623838
0.041728221 -0.050760157 0.040257085 4285427233
-0.015747059 0.016667373 -0.019889869 4285230884
-0.014651675 0.019713551 -0.023052877 4285559579
-0.013393335 0.022030447 -0.025525348 4285689883
-0.012337696 0.025073931 -0.02867906 4285558048
-0.010734849 0.025933523 -0.029774733 4285623583
-0.0085608736 0.024611037 -0.02881789 4285820698
-0.005986616 0.021835275 -0.026497111 4285755419
-0.003785938 0.020514943 -0.025546182 4285690139
-0.0021749325 0.021375641 -0.026643429 4285624349
-0.00077196583 0.022962499 -0.028420644 4285624349
0.00062038377 0.02454868 -0.030195342 4285886998
0.0022101924 0.025408152 -0.03128748 4285821208
0.0040054545 0.025541406 -0.031698801 4285886744
0.0062275492 0.024223346 -0.030752283 4285821209
0.0093245395 0.02000422 -0.027095085 4285821464
0.013765819 0.011435702 -0.019379167 4285821209
0.020927554 -0.005829215 -0.0035532552 4285821209
0.030457404 -0.030333564 0.019007897 4285821464
0.038127732 -0.04830195 0.035445351 4285821209
0.041343674 -0.051770031 0.038348041 4285558559
0.044122115 -0.053787321 0.039895516 4285427490
-0.016237289 0.016613472 -0.022338759 4285362209
-0.015871793 0.022589199 -0.028232684 4285624603
-0.014077075 0.022721287 -0.028644715 4285887508
-0.013028774 0.025773004 -0.031790279 4285689629
-0.011244565 0.025904533 -0.03219974 4285689374
-0.0092683509 0.025306653 -0.031926919 4285821209
-0.0067029931 0.02252144 -0.02961058 4285886998
-0.0043135807 0.020467035 -0.027980035 4285624348
-0.0027078241 0.021329489 -0.029074425 4285624349
-0.00110735 0.022191688 -0.030167505 4285624349
7.7355653e-05 0.024510615 -0.03261758 4285624093
0.0014540255 0.026100151 -0.034385353 4285821463
0.0036622733 0.024776593 -0.033439033 4285886999
0.0058811717 0.023453902 -0.032495011 4285821463
0.0087583214 0.019948993 -0.029523309 4285755928
0.012099111 0.014991168 -0.025205461 4285558813
0.018131409 0.001308389 -0.012790361 4285558813
0.027174789 -0.021819338 0.0083749257 4285558814
0.03616184 -0.044207335 0.028827094 4285558814
0.040730372 -0.05204837 0.035768706 4285558814
0.043502755 -0.054072767 0.037312746 4285493024
-0.016369797 0.015103359 -0.023413792 4285427744
-0.016546197 0.023294158 -0.03134422 4285493533
-0.015127134 0.024890229 -0.033119291 4285690138
-0.013718624 0.0264856 -0.034891807 4285886998
-0.011753451 0.025884632 -0.034618206 4285886998
-0.0095911622 0.024552483 -0.033665165 4285887254
-0.0070293844 0.021758225 -0.031354472 4285690139
-0.0048403963 0.020428225 -0.030407347 4285624349
-0.0030401833 0.020561386 -0.03082015 4285690139
-0.0014423095 0.021425571 -0.031911019 4285624604
-5.4780394e-05 0.023020227 -0.033678189 4285624094
0.0015298352 0.023883659 -0.034765854 4285558559
0.0035298578 0.023286182 -0.034499574 4285624094
0.0055352077 0.022689227 -0.034234427 4285624094
0.0079772286 0.020632889 -0.032620158 4285558558
0.010871859 0.01711842 -0.029660463 4285558814
0.01578201 0.0070402622 -0.020641679 4285493533
0.023897728 -0.013242885 -0.0022137905 4285493533
0.033520207 -0.037889607 0.020216247 4285493533
0.04011789 -0.052317619 0.033195935 4285493533
0.043347456 -0.055806473 0.036079433 4285427998
-0.016502272 0.01359351 -0.024488641 4284966703
-0.017038506 0.023278035 -0.033764683 4285428254
-0.015808061 0.025612567 -0.036216166 4285559068
-0.014034823 0.025743164 -0.036623202 4285624349
-0.012072634 0.025139779 -0.036350541 4285624349
-0.0097219944 0.023069091 -0.034720991 4285558559
-0.0077437386 0.022467066 -0.034451805 4285558559
-0.0053664073 0.020398591 -0.032828201 4285558558
-0.0033721216 0.019797996 -0.03256252 4285624349
-0.0017768666 0.020664215 -0.033651229 4285624859
-0.00039172918 0.022263046 -0.035414562 4285559068
0.0013977885 0.022395764 -0.035824653 4285624349
0.0033974722 0.02179607 -0.035559904 4285624349
0.00497685 0.022661533 -0.036644593 4285624093
0.0074128248 0.020598158 -0.0350338 4285755419
0.0096466057 0.019268066 -0.034099534 4285624093
0.014098972 0.010621436 -0.026444321 4285624094
0.020849669 -0.0053357184 -0.012086501 4285689629
0.030882936 -0.031522885 0.011640194 4285624094
0.038819902 -0.050384194 0.028618183 4285624094
0.042960748 -0.056808919 0.034176487 4285623838
0.044808514 -0.055922434 0.033031106 4285295653
-0.016626399 0.019586477 -0.032779139 4285362209
-0.015937671 0.024138339 -0.037265584 4285428253
-0.013978541 0.023532417 -0.036993928 4285558814
-0.012202717 0.023663301 -0.037401482 4285624349
-0.010044139 0.022322092 -0.036454059 4285624093
-0.0080688931 0.021717701 -0.036185846 4285689884
-0.005694937 0.019642323 -0.034566294 4285689884
-0.0037036538 0.019039351 -0.034301583 4285624349
-0.0019090101 0.019172207 -0.034713026 4285624348
-0.00031897798 0.020040311 -0.035798792 4285559068
0.0016803592 0.019438289 -0.035535663 4285624604
0.0030551478 0.021040961 -0.037293229 4285690139
0.0046319291 0.02190844 -0.038375694 4285821463
0.006203372 0.02277568 -0.039456893 4285952534
0.0088592097 0.01997184 -0.037179951 4285820953
0.0124187 0.014233872 -0.032224786 4285952024
0.018253285 0.0011616796 -0.020577809 4286017559
0.026894543 -0.020705894 -0.00091823936 4285952024
0.036381036 -0.044761583 0.020711757 4285952024
0.041649528 -0.054873958 0.02960363 4285886233
0.043717928 -0.054719225 0.029130608 4285426978
-0.01570088 0.021186594 -0.03695938 4285428254
-0.014294282 0.022794973 -0.03872177 4285624604
-0.012709767 0.02366421 -0.039805215 4285690139
-0.011130497 0.024533127 -0.040887322 4285952533
-0.0087812394 0.022449236 -0.039267033 4285952534
-0.0064160004 0.02036668 -0.037650369 4285952533
-0.0042338856 0.019023109 -0.036711298 4285821208
-0.0024446957 0.019155573 -0.037121482 4285624093
-0.00065547973 0.019288134 -0.037531603 4285558814
0.00092665106 0.020157959 -0.038613856 4285624604
0.0025034621 0.021027572 -0.039694831 4285755673
0.0036501363 0.023370329 -0.042116482 4285689628
0.0056411847 0.022765834 -0.041852824 4285623838
0.0080730356 0.020689111 -0.040250693 4285557794
0.011182023 0.016405236 -0.036644615 4285821209
0.016107379 0.0062361062 -0.02769717 4285886488
0.024041494 -0.013492301 -0.010083123 4285886488
0.033489399 -0.037623249 0.011502302 4285821209
0.040340304 -0.052916571 0.025046729 4285886488
0.042862631 -0.054233149 0.025909066 4285558303
0.045395546 -0.055548832 0.026769053 4285361698
-0.015281845 0.017485108 -0.035983115 4285428253
-0.014052674 0.019839447 -0.038419724 4285624604
-0.01302769 0.022933457 -0.041527513 4285689883
-0.01164199 0.024544906 -0.043281704 4285689374
-0.0096860155 0.023934692 -0.04301231 4285689374
-0.0073321238 0.021844666 -0.041397858 4285952534
-0.0051611848 0.020495921 -0.040459502 4285952788
-0.002979584 0.019148085 -0.039523501 4285624348
-0.0011958294 0.019280244 -0.039932366 4285558814
0.00017413124 0.020891238 -0.04168243 4285558814
0.0013238937 0.023240745 -0.044100057 4285755929
0.0028821714 0.02411123 -0.045175053 4285886998
0.0048649088 0.023503933 -0.044911105 4285623584
0.0070705116 0.02215853 -0.043980051 4285558049
0.0099473409 0.018598951 -0.041048534 4285492513
0.01418791 0.010612436 -0.034121033 4285689373
0.021418709 -0.0069632828 -0.018543711 4285689373
0.030830707 -0.031169392 0.0029965963 4285623839
0.038571395 -0.049461588 0.019175414 4285689373
0.042475548 -0.055208281 0.024026338 4285689628
0.044769093 -0.055791393 0.024219897 4285032749
-0.015412327 0.016000699 -0.037039794 4285362210
-0.014739066 0.020591099 -0.041493531 4285624349
-0.013909526 0.024436269 -0.045266517 4285689629
-0.012915745 0.027536862 -0.048360594 4285557794
-0.01097605 0.026923191 -0.04808905 4285558049
-0.0084427446 0.024083007 -0.045804113 4285623839
-0.0060868897 0.021986704 -0.044194918 4285689883
-0.0039164461 0.020633589 -0.043259561 4285558813
-0.0023475289 0.021506753 -0.044335678 4285558814
-0.00099060684 0.023121174 -0.046079516 4285624349
0.00035568699 0.024734907 -0.047820851 4285624348
0.0016913489 0.026347999 -0.049559705 4285887509
0.0036604591 0.025737502 -0.049294252 4285887253
0.0058522373 0.024386693 -0.048363253 4285887253
0.0087146498 0.020815063 -0.045436524 4285821464
0.012494292 0.014283996 -0.039854072 4285690648
0.018800307 -0.00038539618 -0.026969468 4285690648
0.02772042 -0.023186602 -0.0068027414 4285690648
0.036805302 -0.045975365 0.013326385 4285755673
0.042088874 -0.056178659 0.022146996 4285559069
0.044379406 -0.056764171 0.022339631 4285427743
0.046675198 -0.057349175 0.02253117 4285032239
-0.015725382 0.015262168 -0.038769282 4285097774
-0.015239 0.020610884 -0.043885302 4285624859
-0.014789775 0.025957022 -0.048992746 4285887253
-0.013424836 0.027575716 -0.050735712 4285689373
-0.01187725 0.028448977 -0.051805634 4285689884
-0.0093555003 0.025599163 -0.049524508 4285755673
-0.0070110075 0.023495417 -0.047917571 4285887509
-0.0046505257 0.021392938 -0.046314165 4285558814
-0.0030895174 0.022267658 -0.047386818 4285559069
-0.0013272874 0.022398356 -0.047790647 4285558813
-0.00040175393 0.025503486 -0.050862018 4285558814
0.0011380315 0.026376981 -0.051929548 4285493023
0.0026724935 0.027250256 -0.052995801 4285558558
0.0050702542 0.025151253 -0.051400416 4285558559
0.0081433728 0.020825207 -0.047815226 4285558559
0.011470854 0.015759017 -0.043573365 4285493278
0.016186271 0.0062413886 -0.035360433 4285493278
0.024387516 -0.014403887 -0.01722363 4285493278
0.034350652 -0.040231854 0.005513439 4285493278
0.04100332 -0.0549189 0.018286731 4285493278
0.043282859 -0.055507421 0.018480275 4285427744
0.045806073 -0.056836829 0.019332908 4285164328
-0.016478375 0.023630019 -0.048953846 4285427744
-0.015480712 0.026748326 -0.05203598 4285690394
-0.013933115 0.027623668 -0.05310436 4285821719
-0.012004729 0.027004819 -0.052833498 4285821463
-0.0096796006 0.024892949 -0.051227052 4285756183
-0.0073384754 0.022782344 -0.049624138 4285558813
-0.0053833984 0.022165813 -0.049359147 4285558814
-0.0036266483 0.022295985 -0.049761809 4285559069
-0.0018698759 0.022426248 -0.050164413 4285493534
-0.00053104758 0.024048213 -0.051897559 4285558814
0.0010087937 0.024923924 -0.052963473 4285559069
0.0027576163 0.025053959 -0.053363994 4285558813
0.0051572919 0.022948552 -0.051773943 4285493023
0.0080121383 0.019354425 -0.048861638 4285426979
0.010893548 0.015762422 -0.045955315 4285361188
0.014701227 0.0091940761 -0.040408295 4285361444
0.021742919 -0.0077922046 -0.025617126 4285361444
0.031899992 -0.034443907 -0.002267824 4285361444
0.039453562 -0.052153081 0.013119553 4285361444
0.042423476 -0.054976463 0.015292955 4285361189
0.044938169 -0.056310922 0.016144358 4285294889
-0.016606182 0.02217735 -0.04998789 4285296164
-0.015795402 0.026054036 -0.053732328 4285493789
-0.014060229 0.026182007 -0.054130495 4285558814
-0.011939332 0.024811778 -0.053193755 4285558814
-0.0098077729 0.02344244 -0.052259397 4285558814
-0.0074673742 0.021325197 -0.050661169 4285493278
-0.0053118132 0.019957833 -0.049732089 4285493534
-0.003349077 0.019339804 -0.04947038 4285559069
-0.0015871339 0.019470457 -0.049874157 4285427744
-3.3959746e-05 0.020349216 -0.050941613 4285493024
0.0017253533 0.020479929 -0.051344607 4285492769
0.0036987625 0.01986317 -0.05108498 4285493024
0.006110996 0.017752111 -0.049502656 4285492769
0.0085391775 0.015642323 -0.047923848 4285426723
0.01120536 0.012786847 -0.045687884 4285492258
0.014791707 0.0069458187 -0.040816281 4285492259
0.021603968 -0.0093444139 -0.02672134 4285492259
0.031063642 -0.033836387 -0.0054051923 4285492258
0.038604327 -0.051599175 0.0099463509 4285492258
0.041800678 -0.055177987 0.012773008 4285360934
0.044071473 -0.05577141 0.012965423 4285228844
-0.016549282 0.01997301 -0.050354067 4285098538
-0.015360359 0.022357356 -0.052757137 4285493534
-0.013807338 0.0232375 -0.053823527 4285493788
-0.011489008 0.02111179 -0.052225277 4285558813
-0.0095453039 0.020489812 -0.051961064 4285558559
-0.0070023611 0.017615329 -0.049704134 4285492513
-0.0050399899 0.016994953 -0.049444035 4285492768
-0.0026657209 0.014873873 -0.047858246 4285558558
-0.00089329109 0.015005302 -0.04826444 4285492513
0.0010877401 0.014386673 -0.048008356 4285492259
0.0030740984 0.013768554 -0.047753409 4285426468
0.005065769 0.01315096 -0.047499582 4285558304
0.0070627481 0.01253387 -0.047246896 4285558303
0.0090650544 0.011917237 -0.046995297 4285558304
0.011516392 0.0098027736 -0.04542657 4285426468
0.015330859 0.0031954721 -0.039910186 4285492259
0.022373801 -0.013891593 -0.025193632 4285360934
0.031837411 -0.038455598 -0.0039317361 4285492259
0.038221307 -0.052528501 0.0080962116 4285360934
0.040943515 -0.054622084 0.0096034342 4285294888
-0.015385866 0.013239447 -0.046726618 4285031983
-0.014739305 0.01789372 -0.051125638 4285163054
-0.012985814 0.018023048 -0.051528007 4285228589
-0.010847371 0.016645264 -0.050601743 4285228844
-0.0086982697 0.01526846 -0.049677864 4285294634
-0.0065385029 0.01389255 -0.04875635 4285294634
-0.0041676499 0.011764519 -0.047174715 4285294633
-0.0017808303 0.009637773 -0.045596655 4285360678
4.7422945e-06 0.0097701848 -0.046005849 4285426469
0.0017903298 0.009902738 -0.046414953 4285426213
0.0037869699 0.0092831776 -0.046163984 4285360934
0.0060026348 0.0079121366 -0.045254748 4285426469
0.0080125742 0.0072937682 -0.045006603 4285426468
0.0095897615 0.0081792623 -0.046075989 4285426469
0.011826668 0.0068101063 -0.045171309 4285360678
0.015868863 -0.00056786835 -0.039013259 4285360934
0.023142075 -0.018456131 -0.023678252 4285360934
0.031920698 -0.040839724 -0.0044377949 4285360934
0.03807101 -0.054203704 0.0069045769 4285426214
0.040322538 -0.054803088 0.0070980834 4285294379
-0.014777988 0.0087443963 -0.045114525 4285097774
-0.013558947 0.011144083 -0.047514766 4285163053
-0.011976615 0.012030806 -0.048584703 4285163054
-0.0098227635 0.010649774 -0.047665205 4285228588
-0.0078531615 0.010025322 -0.047410183 4285294124
-0.0056806467 0.0086459741 -0.046494815 4285294889
-0.0034974627 0.0072674826 -0.045581769 4285294888
-0.001303643 0.0058899447 -0.044671118 4285294888
0.00048975646 0.0060229376 -0.045082107 4285360679
0.0020749718 0.0069106743 -0.046152052 4285360678
0.0042874515 0.0055348426 -0.045245353 4285426214
0.0062970407 0.0049141943 -0.044998862 4285426469
0.0080957748 0.0050480664 -0.045410719 4285426469
0.0098944977 0.0051820651 -0.045822479 4285360933
0.012357647 0.0030553341 -0.044266157 4285295398
0.016405705 -0.0043441951 -0.038125567 4285360933
0.032233037 -0.043980941 -0.004292639 4285360933
0.037920736 -0.055878609 0.0057131695 4285360934
0.039937139 -0.055727586 0.0052521834 4285228844
-0.012941543 0.0066391081 -0.045912772 4285097773
-0.011348519 0.0075287521 -0.046983514 4285229099
-0.0093766488 0.0069021359 -0.046730716 4285229098
-0.0075941309 0.0070338398 -0.047139566 4285229354
-0.0054168291 0.0056504235 -0.046228487 4285229354
-0.0032288805 0.0042679384 -0.045319803 4285294889
-0.0014356524 0.0044007972 -0.045730844 4285294889
0.00056295097 0.0037767142 -0.045483693 4285360424
0.0023588724 0.0039100274 -0.045895163 4285360423
0.0045761093 0.0025302097 -0.044992838 4285426469
0.006377358 0.0026641488 -0.045405362 4285426469
0.0083945692 0.0020419955 -0.045162145 4285426469
0.010198459 0.0021763816 -0.045575086 4285360934
0.013108758 -0.0014682859 -0.042715762 4285295399
0.01694137 -0.0081334114 -0.03724711 4285229864
0.032086112 -0.045620218 -0.0054587484 4285229864
0.03777048 -0.057553202 0.0045219893 4285164073
0.040021289 -0.058157012 0.0047124336 4285032494
-0.0125122 0.0028773174 -0.044983868 4285163563
-0.011100367 0.0045301318 -0.046714995 4285294634
-0.0091235228 0.0039016828 -0.046464957 4285229098
-0.0075303689 0.0047937483 -0.047533952 4285229098
-0.0053509586 0.0034061596 -0.046626624 4285229098
-0.0033607259 0.0027790591 -0.046379391 4285229098
-0.0013651401 0.0021524653 -0.046133235 4285229098
0.0008409135 0.00076717138 -0.045231767 4285294889
0.0028497986 0.0001418516 -0.044988513 4285294889
0.0052849352 -0.0020006523 -0.043435786 4285295143
0.0073097795 -0.0026245564 -0.043196023 4285360934
0.0093399286 -0.0032479391 -0.042957384 4285295654
0.011593819 -0.0046290904 -0.042066365 4285230118
0.014742667 -0.009041436 -0.038566254 4285098793
0.019265842 -0.01799836 -0.031159759 4285098793
0.032626383 -0.049531572 -0.0046715206 4285033259
0.037156817 -0.057712957 0.0020301382 4285032749
-0.012829442 0.002153784 -0.04670104 4285163818
-0.011041995 0.0022855997 -0.047111209 4285229353
-0.0092545077 0.0024175346 -0.047521297 4285294889
-0.0072726533 0.0017874017 -0.04727393 4285294634
-0.0048914701 -0.00036631525 -0.045714136 4285229098
-0.0022946894 -0.0032805204 -0.043501757 4285229098
0.00012106448 -0.0054313615 -0.041949745 4285097773
0.0023478381 -0.0068195164 -0.041056193 4285097774
0.00458524 -0.0082067251 -0.040165033 4285031984
-0.011656947 -0.0046851188 -0.043153781 4285163054
-0.0098510608 -0.0045519471 -0.043568183 4285097774
-0.0076621659 -0.0059479177 -0.042669632 4285032494
-0.0054626167 -0.0073429272 -0.041773487 4285032749
-0.0026620366 -0.011029728 -0.03891407 4284901424
