# .PCD v0.7 - Point Cloud Data file format
VERSION 0.7
FIELDS x y z rgba
SIZE 4 4 4 4
TYPE F F F U
COUNT 1 1 1 1
WIDTH 976
HEIGHT 1
VIEWPOINT 0 0 0 1 0 0 0
POINTS 976
DATA ascii
0.0046437532 0.012729123 0.013684392 4280527408
0.0065858364 0.012869645 0.013255861 4280788273
0.0089083724 0.011614934 0.014235415 4281439289
0.011048771 0.011058576 0.014509257 4281504824
0.012999009 0.011199974 0.014079142 4281700664
0.014354669 0.013432749 0.011542372 4281376049
0.016497834 0.012876887 0.011815827 4281571124
0.018442819 0.013018209 0.0113871 4282287418
0.021006454 0.011070088 0.013059944 4282551344
0.02295946 0.011212204 0.012629606 4283990819
0.025970191 0.0078738034 0.01569592 4284578594
-0.0048621409 0.0090235323 0.016073169 4282093619
-0.0034372471 0.011266951 0.013525367 4281637169
-0.001321584 0.010706007 0.013802558 4281114164
0.0004408285 0.011546824 0.012669101 4280723248
0.0023799874 0.011686929 0.012241062 4280592434
0.0041345321 0.01252741 0.011109438 4280983093
0.0062585138 0.011967435 0.01138515 4281308728
0.0083878674 0.011407975 0.011659693 4281308728
0.010522611 0.010849003 0.011933126 4281244214
0.01285807 0.0095910579 0.012906682 4281570104
0.0144122 0.011131134 0.011075391 4279618078
0.016357044 0.011272337 0.010646615 4280461618
0.018301902 0.011413645 0.010217916 4279747364
0.020864833 0.0094589144 0.011885971 4281311278
0.023026401 0.0089025125 0.01215395 4282159663
0.026461409 0.004156664 0.016607096 4282356523
0.03121789 -0.0047751665 0.025234876 4283533094
0.037777223 -0.019285321 0.039419785 4283532838
-0.0018140078 0.010510202 0.011227429 4284448544
-5.6862831e-05 0.011352804 0.010096766 4282421038
0.0018768385 0.011492494 0.0096699186 4281438523
0.0038106143 0.01163229 0.0092431251 4281243705
0.0061187521 0.010367636 0.010219228 4281047609
0.0082477927 0.0098059624 0.010492193 4281178169
0.010189738 0.009946648 0.010063825 4281308983
0.012326874 0.0093857795 0.010335166 4280984368
0.013678096 0.011631358 0.0078091808 4281504313
0.016015794 0.01036936 0.0087791532 4281894974
0.017754711 0.011211559 0.0076532029 4281309494
0.020517405 0.0085489675 0.010014882 4281570104
0.023301464 0.0058879927 0.012371991 4281375539
0.027373821 -0.00097449869 0.018901153 4281505844
0.032996286 -0.012735263 0.030287234 4281505844
0.039358936 -0.026589766 0.043738276 4281569849
-1.6864389e-05 0.0090527311 0.0096357614 4284643618
0.0019193701 0.0091925785 0.0092083346 4282421039
0.0036714002 0.010037202 0.0080806017 4281833264
0.0054181516 0.010881539 0.0069541037 4281440054
0.0073492527 0.011021335 0.0065280497 4281178169
0.0094726905 0.010457162 0.0068006776 4281308984
0.011796478 0.0091895685 0.0077702608 4280399144
0.013538066 0.010033987 0.0066451691 4280984878
0.015474651 0.010174595 0.0062182099 4281114419
0.017411262 0.010315303 0.0057913307 4281049649
0.02037603 0.006940566 0.0088429339 4280723248
0.023784086 0.0021620169 0.013278956 4281635383
0.028917188 -0.0082354918 0.023262842 4281635383
0.034771211 -0.020734675 0.035310946 4281439033
0.040504951 -0.032524407 0.046644665 4281439033
0.0070205852 0.010135151 0.0046697669 4284383773
0.0091410391 0.0095685795 0.0049414076 4283728679
0.011266865 0.0090024918 0.0052119307 4282682668
0.013003197 0.0098486692 0.004089687 4281768493
0.014934324 0.0099888816 0.0036639385 4281179189
0.017473787 0.0080126524 0.0053222682 4280852533
0.021056425 0.0025111884 0.010447513 4281177913
0.025306081 -0.0051024854 0.017643949 4281373499
0.031089809 -0.017646231 0.029677844 4281633853
0.036542665 -0.02877339 0.040306017 4281633853
0.041432556 -0.037780628 0.048840322 4281956173
0.013060853 0.0075481907 0.0036235247 4283860259
0.014794607 0.0083964691 0.0025035664 4281635383
0.017535929 0.0057059377 0.0048501771 4281439033
0.021940539 -0.0026430041 0.01273194 4281438779
0.02724082 -0.013816491 0.023367284 4281438524
0.033047602 -0.026397891 0.03536649 4281503548
0.037884168 -0.035437539 0.043891072 4281892679
0.041710496 -0.040938288 0.048949815 4282346323
0.023232855 -0.0092383251 0.016382342 4283596333
0.028964004 -0.021864682 0.028368516 4283596589
0.034580782 -0.033774607 0.039643936 4282807364
0.038583811 -0.04000473 0.045386523 4282673489
0.030268667 -0.028528698 0.031963728 4284508979
0.035059921 -0.037628546 0.040455446 4283395138
0.038856227 -0.043166608 0.045494422 4282803793
-0.026368573 0.002476491 -0.0047254032 4283067464
-0.025357023 0.006973885 -0.0093074758 4284313648
-0.02766379 0.006745629 -0.011407781 4282027829
-0.026229344 0.0090672448 -0.013899427 4281445919
-0.024058752 0.0077430755 -0.012930278 4282952203
-0.022030421 0.0071485788 -0.012654314 4284447523
-0.0203081 0.0080116987 -0.013759958 4284642854
-0.029958695 0.0065274313 -0.013503857 4281764924
-0.028666168 0.009587124 -0.016682295 4279876394
-0.027099729 0.011182833 -0.018475173 4280982839
-0.024492316 0.0076599196 -0.015436789 4280593454
-0.022316769 0.0063318461 -0.014471954 4280593964
-0.020130441 0.005004704 -0.013509456 4282224433
-0.018407941 0.0058700815 -0.014613446 4282943023
-0.031544864 0.0026487634 -0.012142668 4281631559
-0.030659333 0.0079201311 -0.017388882 4280982073
-0.029232144 0.010254156 -0.01986918 4281438778
-0.027378723 0.010386582 -0.020279413 4281503039
-0.025075108 0.0083191171 -0.018624876 4280916283
-0.0226027 0.0055198446 -0.01628622 4281242939
-0.020419545 0.004188031 -0.015326288 4281438523
-0.018541642 0.004322648 -0.015741609 4281765434
-0.016984962 0.005922541 -0.017528646 4282683689
-0.015275493 0.0067893714 -0.018627955 4283794723
-0.033966795 0.0031751096 -0.014924839 4281043784
-0.032791205 0.0069899112 -0.018784273 4280848964
-0.031500258 0.010066837 -0.021949379 4279611959
-0.02994144 0.011670526 -0.023734074 4280198969
-0.028098807 0.011802174 -0.024141926 4280719933
-0.025656708 0.0089918226 -0.021803193 4280394554
-0.023193173 0.0061831176 -0.019469123 4279742519
-0.021018527 0.0048463717 -0.018510638 4280783938
-0.019148752 0.0049803928 -0.018924167 4280979778
-0.017439336 0.0058492646 -0.020021919 4281178169
-0.015898291 0.0074524507 -0.021802109 4281570359
-0.0143678 0.0090550408 -0.023579914 4280658479
-0.012342449 0.0084543899 -0.023307767 4280593454
-0.010140527 0.0071202219 -0.022354763 4282487338
-0.0082754828 0.0072545558 -0.022766761 4284445483
-0.0361038 0.002238512 -0.016323546 4282411859
-0.035189576 0.0075422004 -0.021553326 4280849728
-0.033756509 0.0098894797 -0.024025265 4280718659
-0.032055937 0.010759141 -0.025119999 4280653633
-0.030649193 0.013104744 -0.027585957 4280850494
-0.028376393 0.011021856 -0.025934555 4280850494
-0.0260875 0.008940272 -0.02428668 4280589629
-0.023477875 0.0053848177 -0.021273339 4280784703
-0.021771304 0.0062554926 -0.022369027 4280980289
-0.019754678 0.0056515336 -0.022096893 4281046334
-0.018213511 0.0072590113 -0.023873957 4280981308
-0.01684583 0.0096025839 -0.026330695 4280461364
-0.015328418 0.011208523 -0.028102309 4280590904
-0.012980133 0.0091319233 -0.02646694 4280394299
-0.01044482 0.0063204169 -0.024154728 4278965278
-0.0080617443 0.0042465851 -0.022526922 4281769003
-0.0060151517 0.0036456287 -0.022260847 4283597608
-0.0030684359 -0.00063291937 -0.018603055 4284710429
-0.037711367 -0.0016578361 -0.014969776 4282412879
-0.03743691 0.0073682591 -0.023629174 4281240389
-0.036000893 0.0097221136 -0.026096899 4280849729
-0.03416428 0.0098529607 -0.026503693 4280914753
-0.032468989 0.01072444 -0.027595678 4281045058
-0.03077887 0.011595614 -0.028686393 4281110594
-0.028800353 0.010986358 -0.028407842 4280979778
-0.026368022 0.008157827 -0.026080105 4280718914
-0.024066374 0.0060706511 -0.024439871 4280914499
-0.022367738 0.0069428757 -0.025532138 4280915008
-0.020674318 0.0078148767 -0.02662321 4280980799
-0.019146219 0.0094257146 -0.028394077 4280264248
-0.017791435 0.011774898 -0.030843047 4281111359
-0.016287088 0.013384253 -0.032608487 4281436994
-0.013784736 0.010561526 -0.030295655 4281240644
-0.01091947 0.0062636882 -0.026630038 4281045314
-0.0076752976 0.00049189478 -0.021615118 4281372734
-0.0052688718 -0.0015866682 -0.019997299 4281634363
-0.0019526184 -0.0073530525 -0.014998122 4281634873
0.0019505732 -0.015329085 -0.0079791583 4281830713
0.0060965158 -0.024038114 -0.00029731449 4282744379
0.0099329688 -0.031267963 0.0060201176 4283983423
-0.03901922 0.0034870878 -0.022270927 4281632834
-0.037966833 0.0080782771 -0.02679354 4279546679
-0.036266461 0.0089520663 -0.027885178 4279610938
-0.034432642 0.0090826899 -0.02829138 4279025203
-0.032457389 0.008470729 -0.028013885 4280523583
-0.030620605 0.0086017847 -0.028420568 4280849473
-0.028637089 0.0079906806 -0.028144777 4280849729
-0.026498854 0.0066379681 -0.027188297 4280915009
-0.024501763 0.0060280487 -0.026915351 4280849473
-0.02311758 0.0083854795 -0.029366128 4280784959
-0.021592028 0.010000404 -0.031133289 4280980799
-0.019757167 0.010131996 -0.031539045 4280329273
-0.018409923 0.012487117 -0.03398139 4279481398
-0.017078582 0.014841244 -0.036420189 4280720189
-0.014587775 0.012008972 -0.034111362 4280850238
-0.011734445 0.0076972023 -0.030452959 4280459323
-0.0078096613 -0.0010544807 -0.022742301 4280525624
-0.0045244582 -0.0068406686 -0.017749492 4281242429
-0.0006608814 -0.014843605 -0.010739958 4281372989
0.0028989241 -0.021362618 -0.005092836 4281436993
0.006506741 -0.027878024 0.00054379553 4282938433
-0.040745921 0.00033796579 -0.021603484 4282023494
-0.04006277 0.0071805492 -0.028174359 4280850749
-0.03862869 0.0095471963 -0.030631926 4280589884
-0.036938891 0.01042236 -0.031719547 4280720189
-0.034562148 0.0075720102 -0.029393027 4280329274
-0.032587215 0.0069578141 -0.029117126 4280980289
-0.030463062 0.0055995211 -0.028160974 4281111104
-0.028474547 0.0049865842 -0.027887944 4281111360
-0.026480578 0.0043741167 -0.02761605 4281045568
-0.024936348 0.0059944764 -0.029384185 4280915519
-0.023711473 0.0091020241 -0.03250806 4281111360
-0.022350706 0.01146441 -0.034948658 4281110849
-0.020366915 0.010851674 -0.034674171 4280849729
-0.018864855 0.012469493 -0.036432691 4280327999
-0.017208297 0.013343491 -0.037512057 4280262719
-0.015053827 0.011988293 -0.036561824 4280393278
-0.011866342 0.0061774552 -0.031560775 4280262719
-0.0075979047 -0.0040857121 -0.022519421 4280457538
-0.0034305155 -0.013600968 -0.014168795 4280718403
0.00044946 -0.021626718 -0.0071809469 4281045058
0.0038450137 -0.027422138 -0.0022254502 4281436484
0.0065484531 -0.030247115 3.0372292e-05 4281696328
-0.042733409 -0.001323849 -0.022307733 4282085203
-0.041897319 0.004791975 -0.028186172 4280914243
-0.040582597 0.0079136491 -0.031324133 4280720189
-0.039288998 0.011033949 -0.034457315 4281240899
-0.037338637 0.01041564 -0.034177825 4281306434
-0.035106309 0.0083033219 -0.032537442 4281046334
-0.0329988 0.0069393516 -0.031580992 4280459834
-0.031024054 0.0063231066 -0.031306658 4281111613
-0.028897606 0.0049606636 -0.030354181 4281111614
-0.027058177 0.0050920993 -0.030761313 4280980799
-0.025521703 0.0067162663 -0.032524519 4280915008
-0.024304174 0.0098319575 -0.035640161 4280849983
-0.022637233 0.010708559 -0.036720484 4280784704
-0.020656429 0.010093365 -0.036446955 4280914243
-0.018994585 0.010969829 -0.037525985 4280914243
-0.017173119 0.011100661 -0.03792863 4280914499
-0.015016496 0.0097412579 -0.036982164 4280979524
-0.011657819 0.0031680539 -0.031320501 4280783683
-0.0070411637 -0.0086149424 -0.020956004 4280718403
-0.0021636747 -0.021136306 -0.0099374931 4280979779
0.0013789982 -0.027695909 -0.0043162098 4281044803
0.0038846284 -0.029786721 -0.0027349107 4282153034
0.0064063109 -0.031876288 -0.0011570118 4282674253
-0.043986604 0.0038999319 -0.02956455 4280848709
-0.042790852 0.007780984 -0.033379659 4280587079
-0.041491479 0.01091028 -0.036507655 4279610174
-0.04008048 0.013288319 -0.038950291 4280524094
-0.038143747 0.012666866 -0.038669422 4280458813
-0.035787381 0.0097975545 -0.036351494 4279808054
-0.033550292 0.0076791197 -0.03471702 4280655418
-0.031440467 0.0063110515 -0.03376428 4281046078
-0.029611938 0.0064415708 -0.0341691 4281046078
-0.027634591 0.0058235526 -0.033896826 4280785468
-0.026257224 0.0081999525 -0.036331441 4280655419
-0.024741702 0.0098270886 -0.038086653 4279742264
-0.023080021 0.010705423 -0.039164148 4278894388
-0.020945519 0.0093397796 -0.038216375 4279545403
-0.019124284 0.0094704516 -0.038619075 4280914243
-0.016808935 0.007358633 -0.037001163 4280783428
-0.014477506 0.0052480772 -0.035386711 4280457284
-0.010770038 -0.0028383955 -0.028397124 4280457284
-0.0059679225 -0.015402339 -0.017389927 4280653889
-0.0012505092 -0.027212828 -0.0070738448 4281502018
0.0017723143 -0.031551257 -0.0034821443 4282216784
0.0039239116 -0.032155395 -0.0032472797 4282607699
-0.045216382 -0.0022563264 -0.026171278 4281889874
-0.044239886 0.0031428039 -0.031346418 4280847434
-0.043045983 0.0070345923 -0.035152927 4280651849
-0.041618764 0.0094202533 -0.037594363 4280783429
-0.040207341 0.011804845 -0.040032189 4280914499
-0.038270913 0.011181157 -0.039752916 4280719424
-0.036053292 0.0090546757 -0.038119152 4280654143
-0.033960089 0.0076809376 -0.037166111 4280915773
-0.031999297 0.0070593059 -0.036891989 4280980798
-0.029887185 0.0056871101 -0.035942916 4280915518
-0.028358348 0.0073193088 -0.037697978 4280654653
-0.026840039 0.0089508146 -0.039450586 4280263229
-0.025332257 0.010581747 -0.041200809 4280784448
-0.02320902 0.0092107579 -0.040253885 4280263229
-0.018768474 0.0057215989 -0.037694439 4280522818
-0.016610336 0.0043535233 -0.036754999 4280783683
-0.013772856 -1.1883676e-05 -0.033132538 4280457028
-0.0098845027 -0.0088708699 -0.025492717 4280587334
-0.0048973188 -0.022220075 -0.013846046 4280652614
-0.00068986416 -0.031817459 -0.0055682547 4280717638
0.0018089227 -0.033922017 -0.0039953515 4282476629
0.0037823766 -0.033779547 -0.0044310391 4282541654
-0.045102611 -0.0052887574 -0.025922351 4282020944
-0.044119604 0.00012600422 -0.03108743 4280913224
-0.042792551 0.0032745451 -0.034208551 4280848454
-0.041486621 0.0064216703 -0.037324928 4281045823
-0.039937079 0.0080590621 -0.039081782 4280848453
-0.038263038 0.0089417249 -0.040159423 4281110339
-0.036181115 0.0075626671 -0.039207209 4280980033
-0.034088418 0.0061845109 -0.038257353 4280915008
-0.032127947 0.0055606887 -0.0379848 4280915518
-0.030307665 0.0056905895 -0.038387805 4280916029
-0.028635591 0.0065736696 -0.0394646 4279937338
-0.027421683 0.0097151212 -0.042559929 4281110338
-0.025921628 0.011349801 -0.044305135 4281305668
-0.023963206 0.010726374 -0.044031717 4281045314
-0.021522447 0.0078465343 -0.041744925 4280914498
-0.018898658 0.0042162389 -0.038791895 4280523584
-0.016412448 0.0013398901 -0.03651499 4280718658
-0.012736157 -0.0067968741 -0.02955468 4280587589
-0.0083227344 -0.017935462 -0.019930702 4280456008
-0.0036570504 -0.029819556 -0.0096557215 4280521544
-0.0004805997 -0.034936965 -0.0054111555 4281369163
0.0018451922 -0.036296763 -0.0045115426 4282476374
-0.043751657 -0.004413113 -0.029479586 4281500234
-0.042286493 -0.0020118952 -0.031919681 4281369928
-0.040578105 -0.0011248291 -0.033003453 4281435973
-0.039139226 0.001274772 -0.035437603 4281567043
-0.037581317 0.0029171482 -0.037192922 4281175363
-0.036033913 0.0045589134 -0.038945884 4281175365
-0.034356855 0.0054441839 -0.040022396 4280849218
-0.032542184 0.0055735558 -0.040424261 4281046334
-0.030872837 0.0064584985 -0.041498899 4280849474
-0.029504962 0.0088537037 -0.043916821 4280132924
-0.028002121 0.010492828 -0.045659445 4279285048
-0.026509836 0.012131326 -0.047399707 4280262719
-0.024403609 0.010750379 -0.046455599 4280523583
-0.02196908 0.0078614354 -0.04417403 4279872059
-0.018705934 0.001202561 -0.038550571 4280067389
-0.015394773 -0.0054527298 -0.032937638 4280913734
-0.011201784 -0.015874058 -0.023994595 4280913734
-0.0069341548 -0.026289888 -0.01506796 4280651338
-0.0031081662 -0.034439646 -0.0081585348 4281433424
-0.00044680387 -0.037311628 -0.0059265308 4281694289
0.001703687 -0.037922464 -0.005696483 4282476374
-0.04363317 -0.0074512586 -0.029236186 4281435208
-0.041908912 -0.0065610036 -0.03032192 4281370184
-0.040189847 -0.0056709796 -0.031406492 4281370184
-0.038475938 -0.0047812611 -0.032489784 4281240389
-0.037305765 -0.00085821003 -0.036266245 4281175109
-0.035750121 0.00078842044 -0.038017727 4281110083
-0.034065023 0.0016764402 -0.039094385 4280848963
-0.032385126 0.002564244 -0.04016985 4280980034
-0.031146273 0.0057246462 -0.043257773 4281044803
-0.029780611 0.0081261694 -0.045670256 4280914243
-0.028430827 0.010526732 -0.04807917 4280523584
-0.026943609 0.012169156 -0.049815007 4280588863
-0.024843216 0.010783494 -0.048872918 4280523583
-0.022097722 0.0063719824 -0.045259934 4280850239
-0.018352665 -0.0025761127 -0.037647694 4280980034
-0.014215808 -0.013032064 -0.028715285 4281045058
-0.0098377354 -0.024238631 -0.019132748 4280979014
-0.0060566776 -0.03241571 -0.01223154 4281565258
-0.0029045716 -0.037565492 -0.0080046393 4282216018
-0.00076248497 -0.038179241 -0.0077744722 4282476629
0.0015622228 -0.039547853 -0.0068811923 4282083674
-0.043639183 -0.0097365007 -0.029673353 4281566023
-0.041785754 -0.0096050277 -0.030084306 4281238858
-0.039932176 -0.0094734579 -0.030495219 4281369929
-0.038210221 -0.0085809901 -0.031578671 4281500489
-0.036762349 -0.006167613 -0.034004919 4281369929
-0.035193183 -0.0045156553 -0.035756126 4281109064
-0.033774294 -0.0021041036 -0.038175784 4281174344
-0.032228783 -0.0004536286 -0.039921589 4281044294
-0.030838884 0.0019560978 -0.042334642 4281175363
-0.029612601 0.005124405 -0.045413163 4281239878
-0.028407462 0.0082913265 -0.048486911 4281175619
-0.026917353 0.0099383108 -0.05022011 4281372223
-0.024814807 0.0085484385 -0.049281776 4281111359
-0.02190952 0.0033650473 -0.045012206 4280980034
-0.017839432 -0.0071262941 -0.036088072 4280849474
-0.013203546 -0.019887641 -0.025183756 4280979779
-0.0088098571 -0.031125762 -0.015629277 4281565003
-0.0056886002 -0.036293127 -0.011407141 4282281553
-0.0030451156 -0.039183937 -0.0091843903 4282541909
-0.044775479 -0.016739674 -0.025661817 4281952858
-0.043645538 -0.012025855 -0.030113529 4281237838
-0.041789584 -0.011894211 -0.030525047 4281434698
-0.04006242 -0.010999337 -0.031608108 4281238858
-0.03834042 -0.010104708 -0.032689936 4281369673
-0.036757864 -0.0084475353 -0.034440979 4281369419
-0.034911945 -0.0083161816 -0.034849949 4281238858
-0.033345051 -0.0066599473 -0.036597311 4281173578
-0.031646423 -0.0057665333 -0.03767363 4281435463
-0.030242793 -0.0033493116 -0.040084817 4281566533
-0.028855003 -0.00093317777 -0.042492386 4281109574
-0.027783535 0.003005296 -0.046230149 4280849218
-0.026126988 0.003896147 -0.047296815 4281045058
-0.024164557 0.0032642707 -0.047030866 4281110083
-0.021089211 -0.0026945621 -0.04211029 4281240899
-0.017005943 -0.013215438 -0.033212006 4281044549
-0.012357458 -0.026012897 -0.022338342 4281174345
-0.0087817758 -0.033480287 -0.016127992 4281043528
-0.0058281943 -0.037902497 -0.012580309 4282477138
-0.0033571422 -0.040042005 -0.01102607 4282672724
-0.042911552 -0.018913597 -0.026529662 4281171794
-0.041541532 -0.015718557 -0.029627597 4281041488
-0.039935105 -0.014055625 -0.031380799 4281500489
-0.038339153 -0.012393266 -0.033131607 4281500743
-0.036753692 -0.010731593 -0.03487999 4281369929
-0.035042003 -0.0098352656 -0.035957783 4281369929
-0.033474863 -0.0081746578 -0.03770192 4281369929
-0.03163413 -0.0080434754 -0.038109593 4281304649
-0.029937975 -0.0071479529 -0.039183639 4281239879
-0.028247029 -0.0062527061 -0.040256448 4281305159
-0.02686137 -0.003830038 -0.042658594 4281370949
-0.025186144 -0.0029356778 -0.043727756 4281305414
-0.023205414 -0.0035684332 -0.043467499 4281174599
-0.020113088 -0.0095434561 -0.038563788 4281501508
-0.016014006 -0.020093665 -0.029691946 4281828164
-0.011840288 -0.030638389 -0.020836502 4281958213
-0.0090860426 -0.034313522 -0.01795312 4282087243
-0.0063050836 -0.037986614 -0.015075553 4282018903
-0.0038400926 -0.040133081 -0.013524894 4281887323
-0.039165631 -0.020957977 -0.027817771 4281168223
-0.037944525 -0.016987965 -0.031572871 4281565769
-0.036615975 -0.013786867 -0.034654841 4281434443
-0.035035454 -0.012121066 -0.036398754 4281369673
-0.033465445 -0.010455899 -0.038140319 4281239369
-0.031480312 -0.011091076 -0.037883103 4281370184
-0.029778793 -0.010193035 -0.038956724 4281369928
-0.027935289 -0.010061421 -0.039364837 4281370184
-0.026391365 -0.0083976835 -0.041100226 4281370439
-0.024552934 -0.0082661808 -0.041507035 4281370183
-0.022248887 -0.010431446 -0.03992632 4281435209
-0.018823944 -0.017953575 -0.033715621 4281369928
-0.015185174 -0.026236959 -0.026855368 4281565768
-0.011814084 -0.032985911 -0.021329429 4281956683
-0.0097215325 -0.033612341 -0.021095168 4282214744
-0.0071181431 -0.036532305 -0.018883333 4282213978
-0.0044933856 -0.039450593 -0.01667612 4281951839
-0.037027165 -0.024677999 -0.027361885 4281954643
-0.035944156 -0.019927941 -0.031773396 4281694543
-0.034620173 -0.016718395 -0.034847677 4281500489
-0.033039287 -0.015048102 -0.036588378 4281369928
-0.031327203 -0.014147229 -0.037662774 4281173578
-0.029764675 -0.012478009 -0.039399236 4281370184
-0.028065644 -0.011577845 -0.040470578 4281370184
-0.026222154 -0.011446126 -0.040878601 4281435463
-0.024530888 -0.010546282 -0.041948058 4281370438
-0.022224888 -0.012717962 -0.040372632 4281631048
-0.018799298 -0.020261757 -0.034178503 4281631048
-0.015160099 -0.028569035 -0.027336352 4281761609
-0.012440074 -0.032268517 -0.024461884 4282151759
-0.01035586 -0.032897778 -0.024227396 4282214234
-0.032059222 -0.022742122 -0.032397628 4282674763
-0.030750319 -0.019524686 -0.035461903 4281630793
-0.029318415 -0.017079398 -0.037859738 4281369673
-0.027902335 -0.014635175 -0.040253952 4281304649
-0.026203148 -0.013732664 -0.041323647 4280977738
-0.024509169 -0.012830459 -0.04239206 4281369929
-0.022046432 -0.015778542 -0.04016269 4281369418
-0.018932477 -0.021804221 -0.035303071 4281631558
-0.015455615 -0.029365972 -0.029136561 4281761863
-0.013390459 -0.029998854 -0.028899627 4282018393
-0.028297752 -0.024789833 -0.033692528 4281955408
-0.027299851 -0.020019241 -0.038065083 4281631304
-0.025885917 -0.017568476 -0.040453859 4281630793
-0.024487808 -0.015118733 -0.042839043 4281108554
-0.022177912 -0.017303213 -0.041274335 4281305158
-0.019222878 -0.022574432 -0.037084568 4281501509
-0.016070582 -0.028614603 -0.032246478 4281761864
-0.014176339 -0.028478645 -0.032665282 4281952603
-0.023556232 -0.022058584 -0.039348766 4281826123
-0.021382853 -0.023473866 -0.038449056 4281761609
-0.018727489 -0.027210861 -0.035585046 4281630793
-0.016045421 -0.03094586 -0.032726802 4281695309
-0.017919779 -0.033417352 -0.032790154 4282216274
-0.01570151 -0.034833528 -0.031903468 4282019924
0.037664328 -0.050435014 0.037787311 4282210409
0.033939417 -0.047253042 0.032236591 4282406504
0.037087776 -0.05072327 0.035165802 4282406504
0.029842515 -0.042582907 0.025345346 4282602854
0.033370122 -0.047520787 0.029628539 4282340714
0.036512025 -0.051002368 0.032550968 4282471784
0.029898776 -0.045013599 0.024781542 4282340204
0.033218898 -0.049237594 0.028377684 4282405739
0.026868312 -0.043940701 0.021296689 4282537319
0.029748896 -0.046716906 0.023540484 4282340204
0.032859243 -0.050222747 0.026453344 4282601833
0.027328167 -0.047836505 0.022082059 4281619318
0.030010233 -0.049887262 0.023645056 4282078064
0.024313297 -0.046742029 0.018609161 4282012529
0.027178697 -0.049536951 0.02084305 4281291133
0.029654609 -0.050858386 0.021730172 4282470764
0.021321651 -0.045628004 0.015144588 4282209389
0.024164785 -0.048433371 0.017376741 4281946738
0.026826708 -0.050498791 0.018934222 4281487483
0.029299421 -0.05182483 0.019818773 4282602344
0.021371109 -0.048051029 0.014588421 4282078064
0.024016295 -0.050124355 0.016144579 4282143598
0.026272787 -0.050715432 0.016360341 4282667879
0.018400788 -0.046910755 0.011137826 4282471274
0.021223383 -0.049735114 0.013361247 4282078064
0.024067326 -0.052557841 0.015580101 4282733158
0.011920132 -0.039931029 0.002796378 4282537318
0.014688466 -0.042768367 0.0050250404 4281946738
0.018060051 -0.04784023 0.0092501957 4282077553
0.01196447 -0.042327322 0.0022617541 4281750388
0.014734542 -0.045173235 0.0044834688 4280570249
0.017913509 -0.049512677 0.0080314521 4281815158
0.0090724006 -0.041121118 -0.0011608312 4282078064
0.012008458 -0.044727668 0.0017241612 4281946484
0.014780272 -0.047582164 0.003938945 4281618553
0.017767001 -0.051184811 0.0068129282 4282273904
0.0091145039 -0.043514811 -0.0016928064 4282012273
0.012240171 -0.047884516 0.0018470492 4282077554
0.015016381 -0.050747417 0.0040542949 4282273904
0.0064263232 -0.043037288 -0.0044384906 4281948524
0.009341456 -0.046667278 -0.0015653903 4282012529
0.012095392 -0.049540631 0.00064012222 4282208623
0.014870673 -0.052412309 0.0028410126 4282797929
0.0035759695 -0.041787662 -0.007839852 4281685619
0.0062836148 -0.044673353 -0.0056308964 4280439434
0.0093826503 -0.04907123 -0.0021049278 4280766599
0.01232601 -0.05270993 0.00075386278 4283124839
0.0011025444 -0.042037964 -0.0099109076 4281948524
0.0037932396 -0.044933714 -0.0077048624 4281750644
0.0063231066 -0.047068402 -0.006163259 4281750133
0.0094235055 -0.051479273 -0.0026474353 4281881203
0.001138024 -0.044422142 -0.010433969 4281094783
0.0036511421 -0.046564735 -0.0088936398 4281618808
0.0063622557 -0.049467541 -0.0066985982 4281946484
0.0092793591 -0.053130038 -0.0038505141 4282732394
-0.00167346 -0.043131508 -0.013815162 4281621614
0.00064375997 -0.044518054 -0.012933393 4280177038
0.0035090707 -0.048195489 -0.010082228 4280307854
0.0062192678 -0.051107042 -0.0078935232 4282012018
-0.0049745664 -0.039521344 -0.019160196 4281162359
-0.0021610633 -0.043213643 -0.016305961 4281816178
0.00050283968 -0.046137512 -0.014113796 4282208623
0.0033670403 -0.049825877 -0.011270551 4282863208
-0.0085715204 -0.034339361 -0.02580357 4281228658
-0.0052841827 -0.040351935 -0.020981863 4281292153
-0.0024744533 -0.04405532 -0.018135011 4282012274
0.00018585846 -0.046988226 -0.015948584 4282667369
-0.0090443045 -0.034376286 -0.028264496 4280047753
-0.0055933967 -0.041177839 -0.022800118 4281029503
-0.0027874336 -0.044892386 -0.019960631 4281946484
0.019744024 -0.05501195 -0.014554253 4282273394
-0.014311075 -0.030035891 -0.03380055 4281229934
-0.012251817 -0.030673489 -0.033565469 4279785358
-0.0095162913 -0.034404211 -0.030718787 4279915153
-0.005902186 -0.041999079 -0.024614975 4280373389
-0.0029269606 -0.046497807 -0.021130849 4281749624
-0.014121342 -0.033144869 -0.033630081 4280310404
-0.011892259 -0.034560025 -0.032745592 4280046734
-0.0091498606 -0.038301155 -0.029908638 4280177039
-0.0058702007 -0.044366494 -0.02512446 4281226109
-0.0030664615 -0.048102945 -0.02230086 4281683579
-0.011369124 -0.03923744 -0.031284485 4282667623
-0.0087845214 -0.042210951 -0.02910779 4282273648
-0.0060085654 -0.045960397 -0.026286323 4282926959
0.026950646 0.018521257 0.061889157 4285623073
0.030035166 0.015396047 0.065095671 4285819679
0.022535183 0.023910981 0.053064167 4285493024
0.024349757 0.024714865 0.051888555 4285689629
0.026987109 0.022890348 0.053634085 4285689373
0.030898683 0.01712605 0.059752598 4285820698
0.035070699 0.010708697 0.066589385 4285755164
0.019574702 0.024735145 0.0493728 4285493278
0.021179857 0.026200183 0.047470972 4285821464
0.02318267 0.026345666 0.047029473 4285689883
0.02559917 0.025172785 0.048044771 4285689629
0.029073888 0.02070551 0.052696794 4285689884
0.031949461 0.018217627 0.05515895 4285820698
0.035276093 0.014414001 0.05906976 4285493023
0.037547179 0.013905108 0.059343368 4285427743
0.039823581 0.013396662 0.059615873 4285361954
0.04188244 0.013546739 0.059162408 4284901678
0.015219957 0.023446731 0.048319392 4284901678
0.016637366 0.025578842 0.045689777 4285427998
0.018634692 0.025723781 0.045249373 4285493278
0.020430762 0.026530609 0.044081062 4285755929
0.022221511 0.027337138 0.042914003 4285886999
0.024626847 0.026159044 0.043928452 4285886998
0.027880121 0.022336822 0.047845364 4285821718
0.030529508 0.020500131 0.049578503 4285624348
0.032765605 0.019986421 0.049858123 4285559069
0.034355074 0.021455143 0.047963381 4285624603
0.03593383 0.022923186 0.046071008 4285624603
0.037724547 0.02373023 0.044904336 4285820698
0.040861871 0.020576488 0.048074841 4285885724
0.046077862 0.011485811 0.057738177 4285885979
0.013916302 0.025777396 0.042743206 4285295908
0.015905481 0.025921661 0.042304538 4285624348
0.018291574 0.024737567 0.043319762 4285624093
0.020286169 0.024882369 0.042880006 4285624094
0.022077026 0.025691096 0.041714564 4285623839
0.024275444 0.025172226 0.042000666 4285624094
0.027106561 0.022663448 0.044459403 4285558559
0.029535467 0.02148284 0.045465477 4285624349
0.031546146 0.021629207 0.045022473 4285558814
0.033339683 0.022438493 0.04385671 4285624349
0.034688264 0.024572842 0.041247718 4285755164
0.036243271 0.026043586 0.039363988 4285492258
0.038913243 0.024202209 0.041087933 4285426469
0.043193828 0.017727461 0.04785163 4285623584
0.048219193 0.0092709661 0.056763284 4285623838
0.011783369 0.023989674 0.041984186 4285427488
0.0131937 0.02613432 0.039365955 4285820954
0.015370347 0.025611375 0.03965497 4285886489
0.018147103 0.023089565 0.042118855 4285886998
0.02034251 0.022568125 0.042403847 4285886999
0.022339717 0.022713196 0.041963577 4285624349
0.024130691 0.023524191 0.040799811 4285624349
0.02633417 0.023003571 0.041083202 4285559068
0.028331406 0.023148876 0.040643096 4285559069
0.030328639 0.023294266 0.040203057 4285558558
0.032108933 0.024104789 0.039041877 4285624348
0.033664264 0.025579881 0.037161328 4285887253
0.035431139 0.026389621 0.036003172 4285821463
0.038092427 0.024541032 0.03772407 4285755674
0.041680124 0.020036548 0.042316914 4285755929
0.046226285 0.012878411 0.049774714 4285690393
0.051762916 0.0030690432 0.060090348 4285624603
0.011259519 0.023684826 0.039335616 4285690138
0.012664996 0.025835689 0.036723398 4285558048
0.015031401 0.024641257 0.037736334 4285492003
0.017408514 0.02344773 0.038746931 4285689118
0.020197786 0.020918135 0.04120151 4285755164
0.022194888 0.02106319 0.040761255 4285689884
0.024192017 0.021208335 0.04032106 4285624348
0.025771702 0.022689261 0.038438208 4285689883
0.027552109 0.023501847 0.03727854 4285624348
0.029113093 0.024981614 0.035399884 4285558558
0.031096868 0.0251261 0.03496287 4285558558
0.033080623 0.025270663 0.034525916 4285624094
0.035286427 0.024748418 0.034807444 4285689629
0.037947029 0.022893224 0.036523566 4285624348
0.041305855 0.019039795 0.040387943 4285558813
0.046307277 0.010524604 0.049261995 4285558814
0.052541837 -0.0013159961 0.061701193 4285427744
0.0067803487 0.023102533 0.037566461 4285033004
0.0083840266 0.024588987 0.035681091 4285427743
0.010356791 0.024731871 0.035245895 4285756694
0.011944585 0.026217289 0.033364192 4285887509
0.014107309 0.02568892 0.033652969 4285821463
0.016671121 0.023819316 0.035384864 4285821464
0.019451514 0.021280304 0.037834793 4285821718
0.021846894 0.020083874 0.038838178 4285624348
0.023635389 0.020899061 0.037678249 4285624348
0.025001481 0.023054108 0.035080016 4285690139
0.026351562 0.025208082 0.032485381 4285755419
0.0278995 0.026691239 0.030612947 4285886999
0.03030291 0.025495805 0.03161487 4285886743
0.032936204 0.023631893 0.033331938 4285755418
0.035363607 0.022438318 0.034328744 4285558558
0.038026191 0.020576742 0.036039434 4285558558
0.041613653 0.01604154 0.040609293 4285493534
0.047307454 0.0054925606 0.051606447 4285427998
0.0060846806 0.023490626 0.034205265 4285229864
0.0076806471 0.024980847 0.032324925 4285427488
0.0096453056 0.025123123 0.03189151 4285427233
0.011225369 0.026612397 0.030014755 4285624349
0.013574783 0.025407944 0.031024827 4285624348
0.016132567 0.023531362 0.032753058 4285624604
0.018906746 0.020983133 0.035197757 4285558813
0.021093303 0.020454548 0.035479806 4285558813
0.022668216 0.021943811 0.03360454 4285624604
0.02402411 0.024104692 0.031013506 4285690139
0.025575008 0.025592372 0.029143652 4285689884
0.027328907 0.026407491 0.027993193 4285689374
0.030159183 0.023863874 0.030425852 4285755163
0.033229839 0.020650338 0.033569761 4285821719
0.035883769 0.018781487 0.035277359 4285689883
0.038778044 0.016242743 0.037696153 4285558814
0.043055799 0.009680178 0.04439453 4285493533
0.049683869 -0.0035856292 0.058215737 4285427998
0.0059425719 0.02186349 0.033019416 4285558303
0.0077256113 0.022682082 0.031863548 4285559069
0.0093139075 0.024176236 0.029988201 4285427234
0.011083726 0.024994023 0.028835373 4285493023
0.01304305 0.025136068 0.028403247 4285493023
0.015594825 0.023252431 0.030127896 4285559069
0.017762374 0.022720184 0.030412419 4285559324
0.019935284 0.022188406 0.030695817 4285559324
0.021291658 0.024355773 0.028109608 4285558813
0.023256462 0.024498638 0.027676592 4285821973
0.024588818 0.026664458 0.025095752 4285689884
0.026759092 0.026132833 0.025379995 4285426724
0.029583167 0.023579966 0.027807476 4285558304
0.033085052 0.019007627 0.032372914 4285623839
0.036181293 0.015785124 0.035502963 4285624348
0.039752513 0.011218045 0.040053211 4285493024
0.045175724 0.0012688115 0.050294757 4285427744
0.051596977 -0.011366181 0.063366115 4285427744
0.006720148 0.016844466 0.035434909 4285557538
0.0081434175 0.019022685 0.032838389 4285558559
0.0095507577 0.021199808 0.030245507 4285624093
0.011134055 0.022698052 0.028374622 4285689884
0.013095941 0.02284028 0.027941922 4285427234
0.01545243 0.021627653 0.028943894 4285361698
0.017219797 0.022447705 0.027793439 4285493533
0.018779229 0.02394456 0.025928074 4285559069
0.020328015 0.025440685 0.024065161 4285559323
0.022489989 0.024906091 0.024349453 4285690649
0.024236061 0.025724933 0.023203945 4285953043
0.026403371 0.025190901 0.02348719 4285821719
0.029007938 0.023305114 0.025195697 4285755928
0.032503009 0.018716991 0.029751057 4285756184
0.036478035 0.012780227 0.035722271 4285493279
0.041620918 0.0034694523 0.04524003 4285427744
0.047971681 -0.0092123821 0.058295518 4285361953
0.0067608953 0.014526188 0.034960002 4285492004
0.0083737224 0.016030714 0.033085793 4285624094
0.0097868517 0.018214859 0.030496528 4285755419
0.011375777 0.019717831 0.028627725 4285689883
0.013148494 0.020540278 0.027477602 4285755674
0.015112992 0.020682778 0.027044395 4285689883
0.016478265 0.022863787 0.024465935 4285624604
0.018029969 0.024364468 0.02260557 4285558814
0.019776121 0.025185328 0.021461567 4285493278
0.021724693 0.025327016 0.021032127 4285493278
0.023462849 0.026147481 0.01989002 4285559069
0.025408756 0.026289146 0.019461302 4285690139
0.028217724 0.023717668 0.021878922 4285624349
0.032358631 0.017079178 0.028557787 4285558814
0.037437331 0.0077329874 0.038066536 4285493023
0.043709598 -0.0049962699 0.051107928 4285427489
0.049856804 -0.017040506 0.063417852 4285229865
0.0068013035 0.012203705 0.034482092 4285493023
0.0082308538 0.014395487 0.031894058 4285493789
0.0096444562 0.016586218 0.029309621 4285559324
0.011233661 0.018093582 0.027444048 4285689883
0.01300646 0.01891822 0.026295552 4285689884
0.014773954 0.019742604 0.025148245 4285689884
0.016735706 0.019884985 0.024715709 4285689628
0.018090818 0.022071868 0.022144539 4285689884
0.02004461 0.02221385 0.021713885 4285623838
0.021583281 0.023718122 0.019859815 4285492768
0.023741987 0.023178998 0.020141592 4285493023
0.025480229 0.024001744 0.019001184 4285493279
0.028506551 0.020741146 0.022121778 4285427999
0.032869004 0.013400652 0.029492842 4285427744
0.039499242 -0.000736624 0.043938875 4285427744
0.046017982 -0.014185764 0.057652138 4285230119
0.0061079599 0.012617275 0.031139439 4285493533
0.0077159777 0.014130231 0.029272823 4285494043
0.009313412 0.015642475 0.027408665 4285493533
0.011091575 0.01646959 0.026260557 4285559068
0.012864459 0.017296422 0.025113689 4285624349
0.014828738 0.017438881 0.024680512 4285689883
0.016593676 0.018265355 0.023535484 4285689883
0.018353321 0.019091483 0.022391731 4285689628
0.020312343 0.019233841 0.021959925 4285755418
0.022064013 0.020059578 0.020818064 4285755418
0.023810346 0.020885024 0.019677458 4285689883
0.025764048 0.021027256 0.01924702 4285755929
0.029225379 0.016390618 0.02377514 4285624859
0.034468442 0.0062966123 0.033957258 4285427488
0.041336566 -0.0085677356 0.049072117 4285296164
0.047205158 -0.020012796 0.06062822 4285296163
0.0059652887 0.010982592 0.029948058 4285297438
0.0075735748 0.012499932 0.028084671 4285297184
0.0091712847 0.014016565 0.026223743 4285362974
0.010949526 0.014845863 0.025077252 4285428764
0.012722488 0.01567487 0.023932004 4285494044
0.014686655 0.015817318 0.023498846 4285559323
0.016650859 0.01595987 0.023065759 4285624603
0.018413238 0.016788427 0.021923004 4285624349
0.02037482 0.016930971 0.021490632 4285689884
0.022129241 0.017759096 0.020349817 4285624349
0.024298012 0.017216329 0.020626085 4285689628
0.026259609 0.017359152 0.020193918 4285689628
0.029942673 0.012022715 0.025415847 4285690139
0.035629097 0.00052697957 0.036983915 4285624348
0.042729363 -0.015069209 0.052765518 4285558814
0.0050907768 0.012105945 0.025908032 4284905248
0.0068743117 0.012937624 0.02476188 4285101598
0.0088408813 0.01307996 0.024327977 4285297949
0.01080751 0.013222389 0.023894129 4285363484
0.012580551 0.014053587 0.02275051 4285362973
0.014740907 0.013507549 0.023026625 4285362974
0.016309708 0.015026875 0.021175599 4285559579
0.018271148 0.015169304 0.020743178 4285559323
0.020028308 0.015999727 0.019603344 4285559069
0.021987118 0.016142156 0.019171646 4285558813
0.023945935 0.016284686 0.018740023 4285690139
0.0263294 0.015052658 0.019719964 4285689884
0.030443441 0.0083245561 0.026338758 4285689883
0.036569767 -0.0045818761 0.039286911 4285558813
0.043238126 -0.018854275 0.053620741 4285558814
0.012438647 0.012432557 0.021569198 4284904994
0.014206458 0.013265703 0.020428402 4284970274
0.015968982 0.014098495 0.019288873 4285231904
0.017726189 0.014931019 0.0181506 4285297438
0.019682204 0.015073147 0.017719449 4285494044
0.021431446 0.01590528 0.016583079 4285625114
0.023594266 0.015357699 0.016857354 4285559069
0.026610933 0.01205254 0.019947065 4285493533
0.030943051 0.0046135038 0.02725221 4285493788
0.036638651 -0.0069559738 0.038762249 4285427488
0.043305486 -0.021274462 0.053061858 4285361954
0.015430078 0.01386749 0.016700106 4284904484
0.017383289 0.014009316 0.016269503 4285231904
0.019336518 0.014151257 0.015838971 4285362973
0.021289758 0.014293283 0.015408505 4285362973
0.023452265 0.013743497 0.015681209 4285559578
0.026467849 0.010427315 0.018762922 4285559069
0.030797713 0.002964057 0.026050439 4285559069
0.036707163 -0.0093341768 0.038234584 4285493278
0.043592401 -0.024389863 0.053200692 4285361953
0.023101218 0.01282366 0.013803754 4285036319
0.026113041 0.0094962753 0.016878063 4285362974
0.030437987 0.0020085871 0.024148552 4285362973
0.036558226 -0.011023 0.037004173 4285362718
0.043878548 -0.027513765 0.053333335 4285165094
0.03029288 0.00036189705 0.0229488 4284970528
0.036843076 -0.014103025 0.037170276 4284970273
0.044383496 -0.031341761 0.054157346 4284903464
-0.0072853714 0.0086842701 0.01392133 4285230629
-0.0058574677 0.010934386 0.011377668 4285427489
-0.0039240196 0.01107375 0.010950644 4285361954
-0.0088686608 0.0048250332 0.015296286 4285361443
-0.0079292729 0.0092001855 0.010642124 4285820953
-0.0059960485 0.009339422 0.010215066 4285885723
-0.0042363517 0.01018418 0.0090853237 4285951514
-0.0017767325 0.008207716 0.010765435 4285297183
-0.011119734 0.0037854537 0.013851434 4285098029
-0.010166112 0.008174628 0.0092039071 4285755418
-0.0087400861 0.010437589 0.0066704266 4285623584
-0.0068176575 0.010576021 0.0062457323 4285557538
-0.0048951246 0.010714564 0.0058210939 4285689628
-0.0026203096 0.0094383135 0.0067976378 4285689629
-0.00033473969 0.0081629977 0.0077718459 4285493278
0.0017801337 0.0075955912 0.0080443919 4285297693
0.0035322234 0.008442387 0.0069182776 4285297694
-0.011909112 0.0050225332 0.0098735932 4285296164
-0.010634646 0.0080032647 0.0066406839 4285886999
-0.0093814135 0.010982621 0.0034125037 4285820953
-0.007637687 0.011830501 0.0022894293 4285755164
-0.0057259463 0.011968266 0.0018671714 4285755673
-0.0031104945 0.0092675686 0.0042407531 4285887254
-0.00083075836 0.0079873949 0.0052129906 4285559069
0.0016409345 0.0059989095 0.0068806633 4285494044
0.0032091849 0.0075569302 0.0050589964 4285494044
0.0047668293 0.0091142878 0.0032397434 4285427744
0.0063138492 0.010671034 0.0014228765 4285427999
0.0088098086 0.0086846799 0.0030855536 4285361699
0.010932643 0.0081161931 0.0033550952 4284903463
-0.014621414 0.0061392114 0.0063342378 4285164839
-0.012859289 0.0069902837 0.0052085072 4285559069
-0.011432469 0.0092662275 0.0026846565 4285624604
-0.010021549 0.01154118 0.00016435981 4285887254
-0.0082857534 0.012390614 -0.00095529109 4285886999
-0.0062090904 0.011815749 -0.00067784451 4285821718
-0.0037755817 0.0098176748 0.00099318847 4285558813
-0.0013259873 0.0078209117 0.0026607104 4285558814
0.0011396855 0.0058253855 0.0043248124 4285559068
0.002886571 0.0066761449 0.0032031126 4285624603
0.0046281815 0.0075266361 0.0020826645 4285755674
0.0061754547 0.0090877637 0.00026902556 4285754908
0.0082872659 0.0085161701 0.00053926185 4285886233
0.010598838 0.0072345659 0.0015016589 4285755419
0.012921102 0.0059538707 0.0024617314 4285427488
0.015254073 0.0046740323 0.003419565 4285297183
-0.016839851 0.0051293969 0.0049027428 4285230118
-0.015556388 0.0081280544 0.0016807728 4285623584
-0.013483129 0.0075502768 0.0019570347 4285624094
-0.01173415 0.0084026754 0.00083591416 4285623838
-0.010325436 0.010683961 -0.0016789297 4285623839
-0.0084220544 0.010820974 -0.0020994544 4285558558
-0.0063457154 0.010243878 -0.0018236032 4285558813
-0.0039129034 0.0082391873 -0.00015736185 4285558814
-0.0018203929 0.0076634809 0.00011509284 4285493278
0.00027752295 0.0070882589 0.00038642064 4285624604
0.0020137988 0.0079404339 -0.00073128939 4285690393
0.0039309897 0.0080790743 -0.0011543892 4285689628
0.0056593791 0.0089308992 -0.0022702087 4285492259
0.0079570562 0.0076438338 -0.0013081655 4285492513
0.010265447 0.0063576326 -0.00034835562 4285624094
0.012781382 0.0043598488 0.0013001449 4285624349
0.015512874 0.0016510189 0.0036356859 4285427489
0.019276671 -0.0046166703 0.009415891 4285099814
0.024317617 -0.015152209 0.019321209 4285034023
-0.017760172 0.0071326792 0.00025618821 4285689883
-0.016011376 0.0079869777 -0.0008633798 4286017049
-0.013781771 0.0066894516 0.00010950863 4285952534
-0.012035385 0.0075437725 -0.0010093693 4285821464
-0.010126904 0.007681042 -0.0014311075 4285624349
-0.0082183182 0.0078184083 -0.0018527955 4285559069
-0.0059642866 0.0065230206 -0.00088494178 4285558813
-0.003874857 0.005944781 -0.00061354972 4285558813
-0.0019580014 0.0060830563 -0.0010368302 4285559069
-0.00022173673 0.0069373026 -0.002152985 4285558814
0.0013259277 0.0085069612 -0.0039603077 4285887254
0.0030489974 0.0093604699 -0.0050733835 4285886744
0.0051441044 0.0087831765 -0.0048028436 4285689628
0.0076272674 0.0067762062 -0.0031521656 4285689373
0.010126472 0.0047705099 -0.0015049428 4285755673
0.013035022 0.0013367161 0.0015176721 4285755418
0.016767591 -0.0049530044 0.0072898772 4285493023
0.020952176 -0.012667723 0.014428077 4285427743
0.026014086 -0.023234494 0.02430412 4285230374
-0.020653658 0.00024483353 0.0048379879 4284901423
-0.019650184 0.00470265 0.00022834726 4285558558
-0.018522061 0.008438468 -0.0036774958 4285558558
-0.016624711 0.0085745677 -0.0040970407 4285558049
-0.0144036 0.0072720125 -0.003125526 4285755164
-0.012007244 0.0052511767 -0.0014614817 4285820954
-0.010096222 0.0053886026 -0.0018837955 4285624348
-0.0081851035 0.0055261329 -0.0023060571 4285558814
-0.0061013997 0.0049451366 -0.0020350944 4285559069
-0.0040122904 0.0043646693 -0.0017652903 4285624603
-0.0022733733 0.0052211657 -0.0028804746 4285558813
-0.00072019547 0.0067954659 -0.004685821 4285558813
0.00063925609 0.0090869293 -0.0071794558 4285624349
0.002540186 0.0092243701 -0.0075989794 4285821209
0.0048181079 0.0079270303 -0.0066392496 4285886743
0.0071067512 0.0066305697 -0.005681796 4285821464
0.0099875182 0.0031836778 -0.002661325 4285690138
0.013680845 -0.0031286255 0.0031046011 4285558814
0.018218765 -0.012304142 0.011609059 4285427743
0.022624224 -0.020758033 0.019411659 4285230118
-0.022149317 0.005157657 -0.0025862213 4285295909
-0.02070792 0.007460393 -0.0050939871 4286018579
-0.019282378 0.0097621083 -0.0075981608 4285624093
-0.017395817 0.0098974295 -0.0080153281 4285492513
-0.015185878 0.0085896775 -0.0070446478 4285558303
-0.012472298 0.0051186457 -0.0039964281 4285689883
-0.010399781 0.0045344606 -0.0037248563 4285689883
-0.0083218478 0.0039507821 -0.0034544058 4285558813
-0.0065830424 0.0048092157 -0.0045680981 4285558813
-0.004674539 0.0049467683 -0.0049896259 4285624348
-0.0031211749 0.0065252855 -0.0067917686 4285689883
-0.0012178458 0.0066626891 -0.0072119888 4285689884
0.00068556145 0.006800212 -0.0076321345 4285624094
0.0025890172 0.0069378242 -0.0080522224 4285623839
0.0048690885 0.0056362599 -0.0070962589 4285558303
0.0069689304 0.0050550476 -0.006829977 4285558814
0.010623042 -0.0012799129 -0.0010702359 4285493278
0.014521468 -0.0083303973 0.0053652581 4285493534
0.019865835 -0.020409055 0.016588518 4285493535
0.023889609 -0.027450167 0.022996513 4285427743
0.027762448 -0.033768788 0.028708382 4285098284
-0.024334654 0.0041780025 -0.0040040426 4285034024
-0.023038395 0.0072121099 -0.0072028488 4285427744
-0.021303006 0.0080717579 -0.0083147716 4285690649
-0.019885011 0.010379404 -0.010812324 4285887763
-0.018006571 0.010514136 -0.011227705 4285690903
-0.015966583 0.0099252015 -0.010950763 4285756439
-0.013264745 0.0064423904 -0.0079081766 4285625114
-0.011036448 0.005131796 -0.006944688 4285559069
-0.0087973997 0.0038221106 -0.005983552 4285558813
-0.0072359666 0.0054053441 -0.0077843666 4285624604
-0.0056851134 0.0069879666 -0.0095828064 4285690138
-0.0039674044 0.0078472868 -0.010690039 4285886999
-0.0018947832 0.0072614551 -0.010419739 4285886998
0.00054875389 0.0052316263 -0.0087753721 4285953299
0.0026374981 0.0046471804 -0.0085084587 4285624348
0.0047316328 0.0040632412 -0.0082426537 4285558814
0.0072126538 0.0020364597 -0.0066063059 4285493788
0.011257071 -0.0057608336 0.00050828792 4285427998
0.015948428 -0.015717618 0.0096639376 4285427998
0.020913215 -0.026389979 0.01948729 4285361954
-0.023624375 0.0078353509 -0.010417201 4285165858
-0.021896899 0.0086965486 -0.011525698 4285231138
-0.020174623 0.0095574856 -0.012632972 4285362464
-0.018298976 0.0096919946 -0.013047745 4285362464
-0.01626198 0.0091006383 -0.012771802 4285493279
-0.014055628 0.007784009 -0.011806902 4285493535
-0.011838499 0.006468229 -0.010844244 4285559069
-0.0096106306 0.0051533654 -0.0098839328 4285558813
-0.0077158026 0.005289793 -0.010302544 4285690138
-0.0063446052 0.0076014176 -0.012784302 4285689629
-0.0046348386 0.0084623247 -0.013888149 4285557794
-0.0023906343 0.0071490407 -0.012931069 4285557793
0.00022942945 0.0043877736 -0.010604346 4285755928
0.0025004074 0.0030766726 -0.0096530579 4285624349
0.0049700066 0.0010423958 -0.0080192089 4285624604
0.0080273263 -0.0031621754 -0.0043362277 4285559069
0.01285572 -0.013877377 0.0054923203 4285493534
0.017568232 -0.023863174 0.014620302 4285427999
0.021561183 -0.030950308 0.021002119 4285295144
-0.018274203 0.0074178055 -0.013485074 4284969509
-0.016395904 0.0075525939 -0.013900368 4285296928
-0.014517494 0.0076875016 -0.014315601 4285428254
-0.012638994 0.007822521 -0.014730781 4285493789
-0.010422293 0.0065024719 -0.013771303 4285493789
-0.008366555 0.005910702 -0.013500821 4285625369
-0.0068285204 0.0075010806 -0.015289821 4286019343
-0.0051240325 0.0083637759 -0.016390871 4285624349
-0.0030653961 0.00777255 -0.016120788 4285558558
-0.00027186424 0.0042752773 -0.013114318 4285624349
0.0023633502 0.001506485 -0.010797435 4285690393
0.005019933 -0.0012606606 -0.0084851859 4285493534
0.0090304762 -0.0091085434 -0.001399355 4285493533
0.01406488 -0.020581439 0.0090837367 4285362208
0.018597519 -0.029870979 0.017503804 4285031983
-0.016529784 0.0060048401 -0.015028723 4284903464
-0.014815032 0.0068698898 -0.01613082 4285165859
-0.013105527 0.0077347159 -0.017231729 4285362973
