# .PCD v0.7 - Point Cloud Data file format
VERSION 0.7
FIELDS x y z rgba
SIZE 4 4 4 4
TYPE F F F U
COUNT 1 1 1 1
WIDTH 969
HEIGHT 1
VIEWPOINT 0 0 0 1 0 0 0
POINTS 969
DATA ascii
0.019946439 0.013122752 -0.00077366084 4280853044
0.021191299 0.016163491 -0.003834778 4280983349
0.02189762 0.021395098 -0.0089291697 4284185384
-0.052350938 -0.0024071187 0.020180026 4281696074
-0.050734274 0.0014038086 0.016347785 4281567299
-0.04893411 0.0029962808 0.014607469 4281502019
-0.046926297 0.0023716539 0.014954831 4281175363
-0.045063682 0.003224887 0.013911724 4280979524
-0.043206237 0.0040778592 0.012869658 4280979778
-0.04143469 0.0056689605 0.011134813 4281111104
-0.039673701 0.0072595775 0.0094018932 4280850238
-0.037837096 0.0081115887 0.0083637852 4281110594
-0.036005668 0.0089633763 0.0073266756 4281110338
-0.034453958 0.012028158 0.0042150281 4280783683
-0.032829359 0.014354214 0.0017986307 4281372479
-0.031026922 0.015204579 0.00076695578 4281307199
-0.028731808 0.012368508 0.0031882757 4281176894
-0.026517294 0.010270886 0.0049158745 4281308728
-0.024601333 0.010385156 0.0045723263 4282291753
0.011286747 0.0058545172 0.0045253895 4283728423
0.013072759 0.0067062229 0.003498394 4282028594
0.014059801 0.011226118 -0.00092658773 4281243194
0.015498836 0.013543621 -0.0033077428 4281373499
0.017414074 0.013660148 -0.0036493612 4281372733
0.019662926 0.012310371 -0.0026341174 4281503804
0.02073613 0.016092591 -0.006366014 4281439289
0.021265898 0.022071905 -0.012125299 4284379693
-0.052464813 -0.0039793774 0.018976424 4281628244
-0.050713092 -0.0016403124 0.016541477 4281370693
-0.048767596 -0.0015255958 0.016191613 4281239879
-0.046749324 -0.0021517351 0.016535351 4281109318
-0.044951171 -0.00055497885 0.014798915 4281175109
-0.043085627 0.00030057877 0.013757046 4281175363
-0.041386455 0.0026370063 0.011331912 4281045568
-0.0396199 0.0042321682 0.0096013639 4281176384
-0.037691899 0.0043464229 0.0092550851 4280783683
-0.035763696 0.0044607818 0.0089088464 4280719679
-0.03401804 0.0060550421 0.0071822433 4280915263
-0.032565042 0.0098679364 0.003388511 4280850238
-0.030751824 0.010721058 0.0023565609 4281046589
-0.028645553 0.0093557909 0.0033918284 4281307453
-0.026528373 0.0079912245 0.0044252574 4282027574
-0.024819434 0.009583801 0.0027056374 4284118064
0.010556847 0.0072388723 0.00061533367 4282684963
0.01233213 0.008092083 -0.00040805386 4281766708
0.013309252 0.012624267 -0.0048211832 4279812389
0.015060395 0.013476182 -0.0058400538 4279224103
0.01697012 0.013592377 -0.006180685 4280331059
0.019213118 0.012237981 -0.0051678121 4281242173
0.02028162 0.016030692 -0.00889045 4281242683
0.020979211 0.021291897 -0.013959729 4284444463
-0.052514233 -0.0062949955 0.018466363 4281824594
-0.050692454 -0.0046928525 0.016728796 4281304649
-0.048741706 -0.0045778453 0.016377969 4281173578
-0.046790734 -0.0044627339 0.016027169 4281043784
-0.044989727 -0.0028615072 0.01429351 4281239623
-0.043043673 -0.0027465001 0.013943736 4281240134
-0.041258328 -0.0011460483 0.012213079 4281240644
-0.039400361 -0.00028863549 0.011174377 4281175874
-0.037547581 0.00056861341 0.010136627 4281176128
-0.035611451 0.00068341941 0.009788949 4281176128
-0.033675134 0.00079832226 0.0094412938 4281046079
-0.032020286 0.0031389743 0.0070295529 4280849984
-0.030188225 0.0039953887 0.0059958389 4281046334
-0.028361365 0.0048515424 0.0049631717 4281242683
-0.026539713 0.0057074949 0.0039315177 4281699898
0.0080583841 0.0077859163 -0.002260488 4283795489
0.0098282807 0.0086407885 -0.0032812769 4282029359
0.011592831 0.0094954446 -0.0043010395 4281375284
0.013035242 0.011825942 -0.0066727959 4279486499
0.015105896 0.011204168 -0.0063374694 4280135219
0.017018169 0.011320516 -0.0066785607 4279483949
0.019429872 0.0092244074 -0.0049943365 4281113654
0.020673594 0.01229088 -0.0080350731 4281634363
0.021552106 0.016830523 -0.012420092 4284640303
-0.052499726 -0.0093604103 0.018644918 4282021709
-0.05067236 -0.0077536926 0.016909672 4281174088
-0.048716374 -0.0076384172 0.016557865 4281239624
-0.046832398 -0.0067777336 0.015515842 4281239368
-0.044953577 -0.0059172511 0.014474813 4281239879
-0.043079898 -0.00505694 0.01343474 4281109829
-0.041211374 -0.0041968748 0.012395719 4281175619
-0.039348014 -0.0033370182 0.011357691 4281306434
-0.037575491 -0.0017328784 0.009632824 4281175619
-0.03563679 -0.0016179457 0.0092846602 4281305924
-0.033788972 -0.00075867772 0.0082496116 4281110339
-0.032040045 0.00084436685 0.0065292129 4281045313
-0.030108847 0.00095915049 0.0061826268 4281045569
-0.028276592 0.0018177554 0.0051506581 4281307708
-0.026347756 0.0019325912 0.0048046419 4281765178
0.0076422244 0.0077225864 -0.0047946149 4282748968
0.0092538968 0.0093198195 -0.006488625 4281243704
0.010854863 0.010916457 -0.0081806015 4280591158
0.012603328 0.011772446 -0.0091957655 4281633089
0.014668316 0.011148125 -0.0088610705 4281502528
0.01673869 0.010524303 -0.0085272864 4281372989
0.019147072 0.0084215254 -0.0068475325 4281373498
0.020388624 0.011496499 -0.0098811369 4281569339
-0.05197341 -0.018417872 0.024337545 4282086223
-0.05025249 -0.015309677 0.021221606 4281434698
-0.048483372 -0.012950264 0.018798644 4280978248
-0.046658032 -0.011339203 0.01706725 4281174089
-0.044843219 -0.009728618 0.015337782 4281174598
-0.042961456 -0.0088657588 0.014297951 4281305669
-0.041084833 -0.0080031008 0.013259128 4281175619
-0.039213397 -0.0071406662 0.012221305 4280979778
-0.037432641 -0.0055316985 0.010498261 4281175363
-0.035662405 -0.0039233118 0.0087772282 4281175619
-0.033811852 -0.0030618012 0.0077433968 4280979778
-0.031872921 -0.0029467046 0.0073953094 4280849728
-0.030126311 -0.001339376 0.0056787087 4280784703
-0.028192393 -0.0012243539 0.0053316923 4281242683
-0.026258312 -0.001109235 0.0049847225 4281569083
0.0072267279 0.007668227 -0.007321971 4282028083
0.008680515 0.010012083 -0.0096858516 4281373755
0.010273594 0.011612542 -0.01137306 4279353133
0.012014031 0.012470134 -0.012385074 4280330038
0.014231399 0.01110106 -0.011377884 4280982073
0.016459554 0.0097326934 -0.010372497 4280071723
0.019030765 0.0068814382 -0.0080254246 4279419943
0.020441661 0.0092233568 -0.010381134 4282092854
0.022007933 0.0108229 -0.012063077 4284248369
-0.046125196 -0.01966583 0.022040432 4282544205
-0.04443527 -0.016550623 0.018936982 4281762119
-0.042766586 -0.013436556 0.015837442 4281763138
-0.041039184 -0.011072814 0.013427287 4281501763
-0.039245009 -0.0094589442 0.011705136 4281239368
-0.037461378 -0.0078455582 0.009984903 4281109828
-0.035512201 -0.0077300593 0.0096348133 4281110849
-0.033744276 -0.0061174408 0.0079176053 4280914499
-0.031893514 -0.005253695 0.0068854727 4280718404
-0.030047938 -0.0043901578 0.0058543542 4280980034
-0.028108783 -0.0042748675 0.0055063656 4281242429
-0.02606798 -0.0049073249 0.005840078 4281505079
-0.024229974 -0.0040439069 0.0048105707 4282680118
0.0071116127 0.0061328113 -0.0084964801 4282026809
0.0084132068 0.009227939 -0.011527888 4281438523
0.0098485574 0.011577189 -0.013883315 4281373244
0.011425719 0.013181131 -0.01556428 4281176894
0.01363457 0.011807173 -0.014558898 4281112634
0.016017471 0.0096898973 -0.012884803 4281113909
0.018416533 0.0075736493 -0.011213459 4281307454
0.019988375 0.0091777295 -0.012893124 4281831733
-0.042110033 -0.022533163 0.021469962 4282480708
-0.040674753 -0.017156169 0.016324546 4282349383
-0.03902933 -0.014034718 0.013236027 4281565769
-0.037319966 -0.011665434 0.010834286 4281043528
-0.035450742 -0.010798663 0.0098003447 4281174089
-0.033586711 -0.0099321157 0.0087674018 4280781389
-0.031727858 -0.0090657249 0.0077354349 4280977483
-0.029970147 -0.0074492395 0.0060235597 4281175619
-0.028025739 -0.0073336437 0.0056746267 4281371714
-0.02618248 -0.0064679086 0.0046457462 4281634874
-0.024240457 -0.0063522607 0.0042973906 4283333429
0.0053789727 0.0029873624 -0.0079856766 4284183598
0.0068468414 0.005344823 -0.010342097 4282609228
0.0084509961 0.0069544911 -0.012024689 4282413389
0.0098893903 0.0093103573 -0.014375625 4282022729
0.011469416 0.010918774 -0.016053738 4281827654
0.013520055 0.010287136 -0.015721526 4281699644
0.015902322 0.0081633553 -0.014052367 4281373499
0.018300753 0.0060406327 -0.012385949 4281373498
0.020209799 0.0061570108 -0.01272629 4282420018
0.021776443 0.0077651665 -0.014401581 4284444209
-0.029892921 -0.010516658 0.0061863791 4280516953
-0.02804175 -0.0096484423 0.0051576514 4280714323
-0.026195787 -0.0087804198 0.00412995 4281435719
-0.024458878 -0.0071605593 0.0024254136 4283724088
0.005557403 -5.0663948e-05 -0.0078227418 4283659573
0.0071805231 0.0015642717 -0.0095054125 4282674509
0.0087929256 0.0031787008 -0.011186142 4282543438
0.010394618 0.0047925711 -0.012864806 4281891659
0.012143169 0.0056571513 -0.013873272 4281499978
0.014046658 0.0057728365 -0.014212893 4281370949
0.01611314 0.0051401332 -0.013885098 4281306179
0.018350653 0.0037596002 -0.012891414 4281305668
0.020262241 0.0038761348 -0.013232207 4282482748
0.021831771 0.0054887235 -0.014904601 4284052019
0.0054418705 -0.0015938133 -0.0090032062 4283592509
0.0073638856 -0.001477465 -0.0093464972 4282610249
0.0091339014 -0.00060971826 -0.010357258 4282216784
0.010898583 0.00025781989 -0.011366974 4281956939
0.012657907 0.0011251941 -0.012375687 4281499468
0.014411889 0.0019923151 -0.013383313 4281303883
0.016323313 0.0021086037 -0.013724252 4281240389
0.018400244 0.0014745444 -0.013399956 4281174089
0.020314377 0.0015912279 -0.013741204 4281108553
0.021886779 0.0032083094 -0.015410735 4281370183
0.02344841 0.0048248917 -0.017078314 4281763393
0.025175527 0.0056910664 -0.018080607 4282285633
0.027076177 0.0058073997 -0.018419083 4283723834
0.029340051 0.0044248328 -0.017432872 4284180539
0.0057659075 -0.0053979903 -0.0081828125 4283069248
0.0076958463 -0.0052811652 -0.008527521 4282086734
0.0094739273 -0.0044107586 -0.0095380936 4281760589
0.011246689 -0.0035405904 -0.010547582 4281630284
0.013014104 -0.0026706159 -0.011556013 4281369164
0.014776167 -0.0018008575 -0.012563408 4281303883
0.016532872 -0.00093129277 -0.013569738 4281239369
0.018449545 -0.00081457198 -0.013911529 4281304649
0.020366218 -0.00069773197 -0.014253228 4281239114
0.022112183 0.00017155707 -0.015257423 4281239623
0.023679381 0.0017927289 -0.016922586 4281567298
0.025411893 0.002661407 -0.017924141 4281828419
0.027317775 0.0027780533 -0.018263552 4282220864
0.029586542 0.0013915449 -0.017281611 4282351678
0.031497743 0.0015087575 -0.017621782 4283332919
0.034343071 -0.0021305159 -0.014663464 4283790133
0.036836192 -0.0042657256 -0.013028212 4284314158
0.039729808 -0.0079017729 -0.010078281 4284507703
-0.011226371 -0.011022314 -0.0035837982 4284704309
0.0057963021 -0.0077029392 -0.0087025724 4283069758
0.0077287778 -0.0075859651 -0.0090477355 4282152779
0.0095095709 -0.006713286 -0.010057073 4281564493
0.011285026 -0.0058407485 -0.011065392 4281434444
0.012898047 -0.004213199 -0.012735924 4281238603
0.014819913 -0.0040964037 -0.013078829 4281173323
0.01641684 -0.0024695992 -0.014746304 4281239113
0.018333364 -0.0023528934 -0.015088073 4281174088
0.020249892 -0.0022360533 -0.015429734 4281305159
0.02216642 -0.002119109 -0.015771318 4281436229
0.024082944 -0.0020020306 -0.016112801 4281632578
0.025823528 -0.0011306778 -0.017114166 4281632324
0.027737329 -0.0010135472 -0.017454986 4281828164
0.029832406 -0.0016501173 -0.017136678 4281828164
0.031932816 -0.0022862256 -0.016819283 4281893954
0.035718583 -0.0097031519 -0.010580458 4281893698
0.039747413 -0.017869964 -0.0036935627 4281894209
0.0058263987 -0.010011889 -0.0092253871 4282480708
0.0079102926 -0.010652691 -0.0089079328 4281826378
0.0096964762 -0.009777531 -0.0099165477 4281303628
0.011477321 -0.0089025721 -0.010924123 4281302863
0.012938943 -0.006512925 -0.013253972 4281172814
0.014863353 -0.0063959733 -0.013597328 4281238348
0.01662546 -0.0055218041 -0.014601281 4281369673
0.018382208 -0.0046478286 -0.015604169 4281239879
0.020301277 -0.0045308471 -0.015946295 4281371459
0.022220345 -0.0044137463 -0.016288329 4281371203
0.024312472 -0.0050529689 -0.015971502 4281371203
0.026058456 -0.0041791722 -0.016972102 4281501764
0.027799046 -0.0033055991 -0.017971657 4281436228
0.029715361 -0.0031881705 -0.018312816 4281371203
0.032183088 -0.0053379983 -0.016683336 4281501508
0.036904961 -0.016554333 -0.0071800244 4281370438
0.005418133 -0.010044135 -0.011737008 4281299803
0.0074963309 -0.010687433 -0.011420216 4281236055
0.0095799565 -0.011330299 -0.011104312 4280975189
0.011514902 -0.011212938 -0.011449732 4281040723
0.013136331 -0.0095763057 -0.01311506 4281238094
0.015065964 -0.0094590336 -0.013459347 4281369164
0.016833451 -0.0085823387 -0.014462618 4281240133
0.018595591 -0.0077058971 -0.015464801 4281240899
0.020184832 -0.0060707182 -0.017123995 4281370949
0.02227396 -0.006712392 -0.016808407 4281305668
0.024195561 -0.0065950081 -0.017150795 4281305668
0.026117148 -0.0064775199 -0.017493093 4281175363
0.027860442 -0.0056016222 -0.018491438 4281306179
0.029779298 -0.0054840371 -0.018833051 4281240644
0.032432731 -0.0083981678 -0.016553722 4281240644
0.037530039 -0.02116207 -0.0057666237 4281044038
0.017040823 -0.01165124 -0.01433029 4280907613
0.019302374 -0.013056077 -0.013361033 4281303883
0.021072587 -0.012176886 -0.014362894 4281500489
0.023007484 -0.012058802 -0.014707733 4281239369
0.024596896 -0.010419078 -0.016363416 4281239879
0.026350956 -0.0095404536 -0.017362138 4281109318
0.027921528 -0.0079016536 -0.01901429 4281305924
0.029842922 -0.0077839047 -0.019356346 4281175619
0.032865211 -0.012226693 -0.015776943 4281306944
0.038339987 -0.026546702 -0.0037131063 4281241663
0.022961626 -0.022888154 -0.0076926099 4281430108
0.024758717 -0.022004977 -0.0086974958 4281824849
0.026205286 -0.019596249 -0.011008945 4281631304
0.027635712 -0.017188326 -0.013317458 4281304904
0.029050007 -0.014781311 -0.015622962 4281305668
0.030628782 -0.013137534 -0.017273143 4281567299
0.033480044 -0.016830191 -0.014357906 4281371458
0.038590275 -0.029666305 -0.0036301145 4281306434
0.032856803 -0.024629116 -0.010000237 4282935119
0.035375711 -0.026801586 -0.0083999429 4282805324
-0.037519604 -0.01248534 0.0089489911 4279720333
-0.035653047 -0.01161661 0.00791719 4279721099
-0.033791676 -0.010748059 0.0068863351 4279985024
-0.039012566 -0.019459814 0.012858396 4282537574
-0.037634008 -0.014055952 0.0077467971 4279653269
-0.035767414 -0.013185099 0.0067166444 4279129499
-0.033996269 -0.011559434 0.0050088391 4279063964
-0.031956866 -0.012198806 0.0053374581 4279064218
-0.030007526 -0.012083083 0.0049875081 4279197584
-0.027959719 -0.012721792 0.0053148251 4279591814
-0.039127879 -0.021045193 0.01164485 4282340204
-0.037833072 -0.014868803 0.0058668889 4278933149
-0.035881735 -0.014753304 0.005516313 4278802079
-0.034020312 -0.013880499 0.0044887811 4278407848
-0.031978503 -0.014521942 0.0048153102 4278669988
-0.030026615 -0.0144061 0.0044648871 4278669988
-0.02807457 -0.014290124 0.0041145142 4278604453
-0.026223198 -0.01341749 0.0030891243 4279195034
-0.024273522 -0.01330144 0.0027393475 4279195289
-0.022536092 -0.011672899 0.0010414831 4280504968
-0.020700373 -0.010800906 1.9198284e-05 4282078064
-0.038997464 -0.02490966 0.012461854 4282209134
-0.037693493 -0.018715523 0.0066956198 4278867613
-0.03582149 -0.017840132 0.0056677917 4278539684
-0.033864729 -0.017724231 0.0053163068 4278539429
-0.031815164 -0.01836735 0.005639703 4278473383
-0.029950671 -0.017492056 0.0046134936 4278604964
-0.028189376 -0.015858144 0.0029144334 4278735523
-0.026438661 -0.014224723 0.001217315 4278997663
-0.024388447 -0.014867373 0.0015409254 4279063454
-0.02265083 -0.013234541 -0.00015362399 4278997918
-0.020815097 -0.012360424 -0.0011742469 4279522709
-0.018873177 -0.012244523 -0.0015223809 4279916428
-0.016588807 -0.014402069 0.00014249189 4280506244
-0.014872141 -0.012770042 -0.001547955 4282668134
-0.039113134 -0.026500925 0.011243792 4282143344
-0.037808038 -0.02028957 0.0054907659 4278604963
-0.035936005 -0.019412056 0.0044646012 4278736033
-0.03379982 -0.020819098 0.0054604495 4278669988
-0.031652726 -0.022225417 0.0064544706 4278538918
-0.029780142 -0.02134753 0.0054284623 4278669988
-0.028108455 -0.01894784 0.0030589988 4278801058
-0.026352197 -0.017309859 0.0013642674 4278735523
-0.024503313 -0.016433001 0.00034273556 4278735523
-0.022447862 -0.017077416 0.00066386489 4278473384
-0.020495482 -0.016961023 0.0003137528 4278932383
-0.018542953 -0.016844518 -3.6307145e-05 4278670754
-0.016818196 -0.01520779 -0.001724985 4278736289
-0.014987417 -0.014331482 -0.0027427864 4278932894
-0.013042569 -0.014215082 -0.0030911942 4279260825
-0.011097617 -0.01409857 -0.0034395347 4279850384
-0.0092772357 -0.013222538 -0.0044551939 4280373899
-0.0073347501 -0.013105914 -0.0048028938 4280963204
-0.0053921677 -0.012989186 -0.0051505268 4282143853
-0.03898403 -0.030384228 0.012046371 4282208878
-0.037754022 -0.023391247 0.0056321276 4278931874
-0.03596355 -0.02174747 0.0039341124 4278932128
-0.033914737 -0.022395059 0.0042541856 4278801568
-0.031860389 -0.023042284 0.004573361 4278932128
-0.029895499 -0.022925727 0.0042205537 4278735523
-0.0281258 -0.021282732 0.0025266213 4278866593
-0.026366673 -0.019640297 0.00083472114 4278669988
-0.024618134 -0.017998338 -0.00085523399 4278538918
-0.022457249 -0.0194076 0.00013336446 4278473383
-0.020393915 -0.020053566 0.00045142975 4278538918
-0.018436171 -0.019936755 0.00010042544 4278801058
-0.016819641 -0.01753325 -0.002253585 4278997663
-0.015102647 -0.015892647 -0.0039373976 4278932894
-0.013157949 -0.015776254 -0.0042857793 4279063709
-0.011213139 -0.015659757 -0.0046341089 4279325849
-0.0092682093 -0.015543133 -0.0049823527 4279849363
-0.0074504055 -0.014664993 -0.0059957881 4279915154
-0.0056378767 -0.013787076 -0.0070081991 4280309129
-0.0038306415 -0.012909301 -0.0080196038 4280636804
-0.0020286888 -0.012031771 -0.0090299249 4281291899
-9.4071031e-05 -0.01191517 -0.0093758665 4282208879
-0.038855813 -0.034280106 0.012839237 4282078063
-0.037532374 -0.028033413 0.0071097668 4279390874
-0.035904549 -0.024852842 0.0040714508 4279128733
-0.033940144 -0.024736553 0.0037185317 4278670498
-0.03179127 -0.026151367 0.004705443 4278866848
-0.029821143 -0.026034519 0.0043516709 4278735778
-0.0280459 -0.024386965 0.0026601283 4278604453
-0.026181027 -0.023505017 0.0016389703 4278800803
-0.024424262 -0.021858335 -4.9085356e-05 4278604453
-0.022572495 -0.020976961 -0.0010676654 4278604453
-0.02072598 -0.02009581 -0.0020852285 4278538918
-0.018662803 -0.020743847 -0.0017687427 4278932128
-0.016935013 -0.019098379 -0.0034512773 4278866593
-0.014985204 -0.018981829 -0.0038006834 4279063198
-0.013154276 -0.018101148 -0.0048150877 4278997918
-0.011328615 -0.017220654 -0.0058284556 4279194268
-0.0095082112 -0.01634036 -0.006840792 4279128478
-0.0076930821 -0.01546026 -0.0078520812 4279390618
-0.0057534873 -0.015343718 -0.0081991963 4279653268
-0.0038138032 -0.015227057 -0.0085462332 4279849873
-0.0020091571 -0.014347181 -0.0095554106 4280112524
6.5810978e-05 -0.014993355 -0.009240061 4280112013
0.0018652193 -0.014113545 -0.010248113 4279849618
0.0036593378 -0.013233997 -0.011255089 4279391638
0.0054481253 -0.01235465 -0.012261026 4279523219
0.0072316006 -0.011475496 -0.013265904 4279326613
0.0093122274 -0.012120672 -0.012951136 4279458704
0.011398256 -0.012765408 -0.012637235 4279852934
-0.035239756 -0.033343196 0.0088868085 4282798694
-0.033519283 -0.030921698 0.0065233801 4282602343
-0.031630725 -0.030036584 0.0054994095 4281880438
-0.029747367 -0.029151678 0.004476456 4280701574
-0.027966581 -0.027499482 0.0027872156 4279784083
-0.026196361 -0.025847837 0.0011000023 4279717783
-0.024539478 -0.023429543 -0.0012515644 4279521434
-0.022793129 -0.02177909 -0.0029343078 4278997153
-0.020949267 -0.020895913 -0.003949766 4278669733
-0.018778287 -0.022312984 -0.0029695381 4278866593
-0.017050333 -0.020663224 -0.0046487497 4279259804
-0.015100673 -0.020546697 -0.0049981447 4279390618
-0.013269737 -0.019663863 -0.0060108798 4279194269
-0.011444062 -0.018781245 -0.0070225867 4278997663
-0.0094994307 -0.018664658 -0.007370797 4278932128
-0.0076816119 -0.017782249 -0.0083808945 4278866593
-0.0058690682 -0.016900063 -0.0093899714 4279325339
-0.0039295256 -0.016783424 -0.0097369887 4279521943
-0.0018549562 -0.01743184 -0.0094233835 4279587478
0.00022506341 -0.018079825 -0.0091106789 4279456408
0.0020298697 -0.017197601 -0.010117979 4279521944
0.0036863424 -0.015550822 -0.011783369 4279521944
0.0053321309 -0.013904624 -0.013446726 4279260059
0.0068188272 -0.011494502 -0.015766229 4278670498
0.0090448447 -0.012906455 -0.014794439 4279326103
0.011127874 -0.013553523 -0.01448169 4279457428
0.013059862 -0.013436221 -0.014826488 4279589008
0.014832735 -0.0125551 -0.015827432 4279785869
0.017409392 -0.015492044 -0.01354859 4279852424
0.020336587 -0.019954383 -0.0099629955 4280050304
-0.029201582 -0.036125958 0.0079253744 4282667879
-0.027401835 -0.034468427 0.0062361006 4281421183
-0.02581244 -0.031272441 0.003218526 4280830603
-0.024244361 -0.028077617 0.00020485232 4280503183
-0.022487096 -0.026422203 -0.0014765537 4280372623
-0.020740427 -0.024767339 -0.0031559293 4279324063
-0.018672496 -0.025419414 -0.0028436794 4279586713
-0.017052293 -0.022996455 -0.0051832357 4279194524
-0.014984101 -0.023648262 -0.0048708366 4279128988
-0.013266489 -0.021994613 -0.0065446803 4279128478
-0.011316746 -0.021877855 -0.0068939002 4278997408
-0.0094909407 -0.02099295 -0.0079038525 4278735523
-0.0076704249 -0.020108275 -0.0089127915 4278997663
-0.0058551766 -0.019223772 -0.0099206651 4279260314
-0.0037809983 -0.019874498 -0.00960878 4279194778
-0.0017013662 -0.020524763 -0.0092977593 4279194269
0.00024623051 -0.020407416 -0.0096460478 4278997663
0.0020537339 -0.01952289 -0.010652159 4279129244
0.0037130676 -0.017871708 -0.012314674 4278932128
0.0053616986 -0.016220979 -0.01397521 4278801568
0.0069996528 -0.014570855 -0.015633721 4279063709
0.0090796426 -0.015220359 -0.015322194 4279194779
0.011165045 -0.015869416 -0.015011539 4278801568
0.013099566 -0.015752003 -0.015356817 4278932893
0.014716163 -0.014102653 -0.01701111 4278932638
0.017615344 -0.018579699 -0.013430682 4279063708
0.021204181 -0.026116937 -0.0072414367 4279325848
0.02518085 -0.035181642 0.00024461141 4280571013
0.027524741 -0.036589779 0.0011926722 4282602598
-0.016715102 -0.027646035 -0.0037375817 4282729333
-0.014868148 -0.026758105 -0.0047499477 4281748349
-0.013026454 -0.025870383 -0.0057612746 4279914899
-0.011190012 -0.024982825 -0.0067715622 4279653014
-0.0092349425 -0.024865627 -0.0071216538 4279325338
-0.0074063614 -0.023978323 -0.0081303502 4279194523
-0.0057123192 -0.022321329 -0.0097962441 4278998174
-0.0036330819 -0.02297391 -0.0094869444 4278932639
-0.0015483797 -0.023626074 -0.0091784829 4278801823
0.00040443987 -0.0235084 -0.0095276954 4278997663
0.0020772927 -0.021852195 -0.011189413 4278932128
0.0034540966 -0.018658467 -0.014160723 4278932128
0.0052455962 -0.017772518 -0.015162108 4278866593
0.0068837143 -0.016118094 -0.016817294 4279194525
0.0092649013 -0.018306836 -0.015198686 4279194269
0.011048481 -0.017421007 -0.016198363 4278670243
0.013138976 -0.018071786 -0.015890211 4278801313
0.014758423 -0.016417988 -0.017541669 4278801313
0.017820664 -0.021675669 -0.013319124 4278866848
0.021577286 -0.030001923 -0.00649531 4279259804
-0.010700736 -0.030413538 -0.0046816152 4283187569
-0.0089798719 -0.028750896 -0.0063491557 4281748093
-0.0071432292 -0.027860984 -0.0073576397 4280045458
-0.0053118505 -0.026971221 -0.0083650518 4279980433
-0.0034857616 -0.026081681 -0.009371439 4279456663
-0.0015304908 -0.025964007 -0.0097211991 4279259803
0.00028769672 -0.025074691 -0.010725977 4279325340
0.002100572 -0.024185508 -0.011729749 4279128734
0.0036230795 -0.021754242 -0.014040728 4278670754
0.0055651888 -0.021636844 -0.014387735 4278605219
0.0072115287 -0.019977577 -0.016041074 4278735523
0.009449549 -0.021401674 -0.015081492 4278866593
0.011238508 -0.020513386 -0.016080469 4278932383
0.013178091 -0.020395644 -0.016426641 4278932383
0.015117697 -0.020277768 -0.016772706 4278932128
0.018025361 -0.024780035 -0.013213919 4279128733
0.021785405 -0.033129603 -0.006409185 4279260058
0.0004449971 -0.028187945 -0.010617087 4281747329
0.0024029389 -0.028069869 -0.010967145 4281092999
0.0039338246 -0.025631599 -0.013274627 4279456153
0.0060288906 -0.02628696 -0.012971004 4279390619
0.0076861456 -0.024622731 -0.014622931 4278932383
0.0097839907 -0.025277607 -0.014319638 4278736033
0.011274781 -0.022841327 -0.01661953 4278736288
0.013216898 -0.022723429 -0.016966153 4278867103
0.015159033 -0.022605404 -0.017312679 4279128478
0.01806825 -0.027120441 -0.013764227 4279390618
0.021992903 -0.036265641 -0.0063293749 4279718803
0.0070709363 -0.03405527 -0.0089657288 4280699533
0.0090450011 -0.033935845 -0.0093183722 4280372368
0.010718592 -0.032266252 -0.010969715 4279325848
0.012381449 -0.03059718 -0.012619117 4279063963
0.013877973 -0.028153986 -0.014914909 4278932383
0.015833385 -0.028035149 -0.015263805 4278866848
0.0187549 -0.032562308 -0.011727603 4279062943
0.022199767 -0.039409935 -0.0062559536 4280439179
0.015159376 -0.036713086 -0.010292629 4282863463
0.016980641 -0.035816148 -0.011292139 4281749369
0.019761659 -0.039578423 -0.0084154708 4280635274
0.022733085 -0.04411526 -0.0048981151 4280701064
0.023101751 -0.048059031 -0.0041969526 4282537063
-0.026235268 -0.042238623 -0.01815366 4282994278
-0.028299317 -0.043917358 -0.018999889 4282732138
-0.0052582473 -0.044844493 -0.026220113 4283059558
0.038215145 0.013660464 0.021305922 4284966704
0.039433539 0.016622711 0.018189415 4285558049
0.04217159 0.013903055 0.020601686 4285820444
-0.0045211799 -0.007168144 0.044330951 4285163819
0.035100404 0.023470279 0.0090504363 4285558303
0.036655869 0.025013734 0.0073270807 4285558303
0.039162971 0.022995368 0.0090505425 4285623583
0.042857245 0.01670561 0.014902031 4285820188
0.046797764 0.0097070038 0.021432966 4285951769
-0.010635551 0.0024474561 0.032601345 4285100068
-0.0087621137 0.0032859445 0.031544343 4285427744
-0.0070189573 0.0048427433 0.029789012 4285754653
-0.0046477504 0.0028072894 0.03152981 4285820443
-0.0016081594 -0.0028179809 0.036759462 4285820188
0.032678515 0.023225114 0.006827225 4285361954
0.033860367 0.026202232 0.0037306743 4285690138
0.035589524 0.027034484 0.002701317 4285623839
0.037697915 0.026437588 0.0030476423 4285557793
0.04098171 0.021555714 0.0075139655 4285623839
0.044105399 0.017390318 0.011287337 4285690139
0.047060914 0.013940897 0.014369205 4285624348
0.049637083 0.011920705 0.016075628 4285559069
0.05161196 0.012042373 0.015724549 4285427998
0.05275286 0.0150178 0.012635859 4285493788
0.054083303 0.017278709 0.010235066 4285689374
0.056680575 0.015260242 0.011937993 4285886234
-0.01380147 0.00721246 0.02543829 4284904484
-0.012069143 0.008772701 0.023688102 4285428508
-0.010347445 0.010332361 0.021939931 4285558303
-0.0083866008 0.010450169 0.021589013 4285558303
-0.0059153251 0.0076860785 0.024026809 4285689629
-0.003161896 0.0034827292 0.027854167 4285755928
-0.00037605315 -0.0007186085 0.031675857 4285624604
0.0021708608 -0.0034778044 0.034100316 4285493533
0.0043243878 -0.0040761083 0.034435347 4285493534
0.0060602874 -0.0025148541 0.032685138 4285427743
0.0074980631 0.00048489869 0.029548388 4285229864
0.0099392608 -0.0015521199 0.031272147 4285360168
0.030268272 0.022989579 0.0046089822 4285230629
0.031456068 0.025975626 0.0015179971 4285427998
0.0326223 0.02896047 -0.0015690573 4285821974
0.034524832 0.02907712 -0.0019077086 4285887509
0.036619473 0.028477289 -0.0015606512 4285821463
0.039693698 0.024295796 0.0022113947 4285821463
0.042602599 0.020832665 0.0052930703 4285690138
0.045538329 0.017371275 0.0083700446 4285624349
0.047486275 0.017491199 0.0080236932 4285558814
0.048817281 0.01975847 0.0056276741 4285624603
0.049923752 0.022740416 0.0025518546 4285690138
0.05143059 0.024290275 0.00084456522 4285623838
0.053781286 0.022978581 0.0018665036 4285558048
0.057657242 0.01666205 0.0076560127 4285623584
0.062019624 0.008918725 0.014798749 4285754908
-0.014502153 0.0092431754 0.0207377 4285100578
-0.012902413 0.011530049 0.018296288 4285690393
-0.011196654 0.013093024 0.016554317 4285755928
-0.0091273561 0.012487032 0.016902277 4285623838
-0.0066702887 0.0097134486 0.019335868 4285689628
-0.004061494 0.0062187761 0.02246069 4285755928
-0.0016912855 0.0041704923 0.024191683 4285624603
0.00042418391 0.0035676658 0.02453169 4285559069
0.0022687763 0.0044092834 0.023483651 4285493788
0.0041080713 0.0052507222 0.022436591 4285493534
0.005654946 0.007535249 0.02000537 4285689628
0.0077707507 0.0069328621 0.020345649 4285885724
0.01048775 0.0034454316 0.023451678 4285820189
0.014141493 -0.0043674633 0.030700058 4285820188
0.029244648 0.025039289 -3.7872232e-06 4285296673
0.030419525 0.028033186 -0.003085718 4285493533
0.032132685 0.028868623 -0.0041088946 4285558813
0.034029711 0.028984949 -0.0044465587 4285624348
0.03631068 0.027663898 -0.0034161829 4285755673
0.038797043 0.025625005 -0.0017040935 4285689883
0.041496858 0.02286879 0.00068823155 4285624349
0.044018045 0.020832278 0.0023942376 4285558813
0.045947034 0.020951051 0.0020512706 4285558814
0.047259595 0.023223639 -0.0003363518 4285624093
0.048347779 0.026213083 -0.003402174 4285887253
0.050257657 0.02633097 -0.0037415181 4285820953
0.052594453 0.025014147 -0.0027204552 4285623583
0.055590518 0.021546312 0.00033784751 4285558048
0.059270054 0.015928976 0.0054291096 4285624349
-0.016803801 0.009002462 0.018490801 4285035043
-0.015201159 0.011295795 0.016053865 4285428253
-0.013495341 0.012863018 0.014315115 4285493789
-0.011922017 0.015154794 0.011883581 4285756184
-0.0096173063 0.013095841 0.013620952 4285821718
-0.0072963387 0.011037908 0.015355526 4285755928
-0.0044393465 0.0060824305 0.019860731 4285690139
-0.0024730414 0.0062008202 0.019509038 4285559069
-0.00050663203 0.0063193291 0.019157404 4285559069
0.0013218485 0.007162109 0.018113911 4285624604
0.0031450428 0.0080046803 0.017071452 4285821719
0.0043893345 0.01174245 0.013266141 4285623839
0.0061911494 0.01258393 0.012227658 4285558303
0.0085827485 0.01053112 0.013950203 4285558558
0.011596423 0.0055858716 0.018428082 4285558813
0.014493655 0.0013662577 0.022210233 4285493533
0.017736915 -0.0042973906 0.027363848 4285362209
0.028584808 0.025667787 -0.0032313361 4285427998
0.029752148 0.028669845 -0.0063051828 4285624349
0.031643718 0.028785747 -0.0066419416 4285624094
0.033724394 0.028180629 -0.006295782 4285624094
0.036385871 0.025413305 -0.0039035648 4285558303
0.038874306 0.023368094 -0.0021968791 4285558559
0.040984392 0.022765137 -0.0018557524 4285558814
0.043299697 0.02144216 -0.0008345684 4285559069
0.044815302 0.023000963 -0.0025369218 4285558813
0.046320073 0.024559136 -0.0042372355 4285558814
0.047398038 0.027556606 -0.0072944784 4285886998
0.049507692 0.026954114 -0.0069528879 4285887253
0.051622622 0.02635204 -0.0066121691 4285886999
0.054606989 0.022872701 -0.0035601398 4285821719
0.058711767 0.01579893 0.0028749183 4285821974
-0.017260768 0.0096157491 0.015205603 4285231394
-0.015665852 0.011915103 0.012775032 4285493789
-0.013967901 0.013486087 0.011041082 4285558814
-0.012158856 0.014329266 0.01000222 4285558558
-0.0097330362 0.011536434 0.012427818 4285558559
-0.0075397678 0.010198966 0.01346525 4285558559
-0.0048165061 0.0059549809 0.017267646 4285558559
-0.002988182 0.006799683 0.016225697 4285559068
-0.00089480728 0.0061911866 0.016566265 4285559068
0.00051476061 0.0092148259 0.01345457 4285558814
0.0023245327 0.010058723 0.012416173 4285821974
0.0036992952 0.013080478 0.0093108658 4285887254
0.0054903701 0.013923444 0.008275969 4285690139
0.0078705996 0.011863425 0.0099955257 4285755929
0.010569632 0.0083534569 0.013087995 4285821974
0.013295621 0.0048452243 0.016175734 4285493278
0.01557849 0.0035143644 0.017198006 4285362208
0.028287781 0.024862088 -0.0050835153 4285559324
0.029452961 0.027872637 -0.0081502367 4285886743
0.031527996 0.027264968 -0.0078048729 4285952789
0.03398633 0.025211267 -0.0060980306 4285952788
0.037035741 0.020989463 -0.0023519741 4285886998
0.039145611 0.020384207 -0.0020125201 4285558558
0.041063745 0.02050215 -0.0023536859 4285558814
0.042582326 0.022065349 -0.0040532677 4285559069
0.044090085 0.023627952 -0.0057508005 4285558813
0.045586981 0.025190011 -0.0074463733 4285558814
0.046865236 0.027473532 -0.0098176971 4285558303
0.04875873 0.027590454 -0.010154093 4285624093
0.0508653 0.026985735 -0.009813549 4285689884
0.053840645 0.023495134 -0.0067683654 4285624604
0.058372699 0.014956426 0.0010034596 4285558814
-0.017716736 0.010242306 0.011930468 4285428253
-0.016013354 0.011817791 0.010198815 4285755674
-0.014082842 0.011933506 0.0098531079 4285755929
-0.01203065 0.011319846 0.010198945 4285755929
-0.009724468 0.0092479736 0.011925964 4285624349
-0.0076559074 0.0086354837 0.012269022 4285558559
-0.0051929802 0.0058364719 0.014681401 4285558814
-0.0032376871 0.0059541613 0.014331643 4285559068
-0.0014173016 0.0068006739 0.013292825 4285559068
0.00012240559 0.0091039091 0.010877848 4285558814
0.0017864369 0.010678001 0.0091539118 4285558559
0.0032967255 0.012979686 0.0067443643 4285755929
0.0052282214 0.013096467 0.0063992739 4285755928
0.007605128 0.011029825 0.008114323 4285690393
0.010300532 0.007508859 0.011199018 4285624859
0.01271522 0.0054446757 0.012907529 4285428254
0.026272366 0.0232189 -0.0059129437 4285493278
0.027448872 0.026238665 -0.008975016 4285558558
0.028787255 0.02853144 -0.01135269 4285623584
0.030853936 0.027921125 -0.011007503 4285623584
0.033681192 0.024409659 -0.0079451753 4285886489
0.03691829 0.01944951 -0.0035295088 4285886743
0.039416246 0.017391987 -0.0018346063 4285624349
0.041142762 0.018235147 -0.0028547582 4285558558
0.04246467 0.020527571 -0.005229055 4285559068
0.043365844 0.024268225 -0.008954593 4285624604
0.045059841 0.025109693 -0.0099687232 4285624093
0.046540715 0.026675191 -0.011657987 4285689883
0.048852067 0.025343798 -0.010642491 4285689884
0.05117406 0.024013206 -0.0096288519 4285558559
0.054369539 0.01978837 -0.0059180921 4285492768
0.059125923 0.010500692 0.0025066864 4285493533
-0.01976718 0.0085699633 0.011086166 4285362463
-0.018171698 0.010882132 0.0086654881 4285493534
-0.016360171 0.011729479 0.0076293955 4285755673
-0.014435165 0.011844821 0.0072846469 4285886743
-0.012145851 0.0097653568 0.0090095326 4286018579
-0.0098402575 0.0076869503 0.010731582 4285755673
-0.0077719949 0.0070722997 0.011073008 4285558558
-0.0056982264 0.0064580813 0.011413535 4285558813
-0.0034868345 0.0051132962 0.012441074 4285559068
-0.0016691126 0.0059617385 0.01140444 4285559068
-0.00013172999 0.008271277 0.0089949127 4285558558
0.001389578 0.010580011 0.0065883119 4285558303
0.003466472 0.0099665001 0.0069286805 4285623839
0.0055488199 0.0093534216 0.0072681662 4285558558
0.007933192 0.0072807148 0.00897686 4285493533
0.010182768 0.0059389845 0.0099981558 4285493788
0.012289502 0.0053276569 0.010333573 4285362463
0.025267133 0.02533327 -0.010479319 4285493534
0.026611285 0.027632806 -0.012853079 4285821208
0.028122541 0.029203534 -0.014545047 4285623839
0.030366808 0.027862862 -0.013521723 4285557793
0.033187732 0.024340257 -0.010466673 4285689629
0.036418185 0.019364592 -0.0060615567 4285755674
0.038716104 0.018027514 -0.0050475444 4285624348
0.040434584 0.018872358 -0.0060645705 4285558559
0.041549388 0.021897666 -0.0091083674 4285558813
0.042642601 0.024921741 -0.01214825 4285624348
0.04432857 0.025764886 -0.013159258 4285821464
0.04621654 0.025881413 -0.013494713 4285887254
0.048734903 0.023819312 -0.011808 4285953043
0.051695004 0.0203062 -0.0087769693 4285887254
0.054897413 0.016068954 -0.0050775609 4285689883
0.060314283 0.0045764297 0.0053421641 4285493533
-0.02043438 0.010685951 0.0064446768 4285427999
-0.018512473 0.010800883 0.0061003082 4285624858
-0.016706288 0.011650048 0.0050668456 4285492514
-0.014668241 0.011031091 0.0054117367 4285492258
-0.012503453 0.009678781 0.0064439178 4285623838
-0.010079943 0.0068599135 0.008849686 4285690139
-0.0080146417 0.0062428713 0.0091899894 4285624348
-0.0059438609 0.005626291 0.0095293466 4285559069
-0.0039995983 0.005743295 0.0091815386 4285559069
-0.0023245923 0.0073264167 0.0074621905 4285624348
-0.00066025928 0.0089089572 0.0057448763 4285821209
0.00099339336 0.010490984 0.0040294975 4285886999
0.0032073744 0.0091424435 0.0050535779 4285887254
0.0054321699 0.0077946857 0.0060757622 4285624349
0.0076677948 0.0064476579 0.0070961434 4285559324
0.0099142268 0.0051014274 0.0081146294 4285493788
0.011864446 0.0052196458 0.0077664321 4285362973
0.022916328 0.025163464 -0.012659589 4285034533
0.024263557 0.027469553 -0.015028927 4285558814
0.025594622 0.029774752 -0.017395306 4285821718
0.027275722 0.030618936 -0.018404402 4285953044
0.029694576 0.028543357 -0.01670574 4285887509
0.032506477 0.025009453 -0.013657484 4285887508
0.035727568 0.020018198 -0.009262518 4285690648
0.038210824 0.017946884 -0.0075750737 4285558813
0.039923958 0.018793561 -0.0085894605 4285493534
0.040834684 0.022556245 -0.012299922 4285558813
0.041718438 0.026317365 -0.01600552 4285755929
0.043393675 0.027162068 -0.017012957 4285558048
0.045685388 0.025820792 -0.016000751 4285426468
0.048197739 0.023751926 -0.014318042 4285755164
0.051576879 0.018771213 -0.0099504711 4285886999
0.055424295 0.012336798 -0.0042466857 4285624093
-0.022900499 0.011973068 0.0028508808 4285362718
-0.020768963 0.010613985 0.0038853604 4285493789
-0.018852562 0.010728568 0.0035419576 4285821974
-0.017051704 0.011579596 0.0025110804 4285821719
-0.015137725 0.01169423 0.002168268 4285624604
-0.012981459 0.010337025 0.0031986218 4285756183
-0.010566778 0.007509023 0.0055992361 4285756183
-0.0083833858 0.0061537027 0.0066248644 4285559069
-0.0064474195 0.0062700883 0.0062784497 4285493278
-0.0045113638 0.0063865781 0.0059320983 4285690394
-0.0027097091 0.007238321 0.0049016774 4285624348
-0.0009133555 0.0080898553 0.0038722884 4285821209
0.0008776933 0.0089412332 0.0028439034 4285755419
0.0029486232 0.008322984 0.003181994 4285952533
0.0051702783 0.0069707334 0.0042013731 4285755929
0.0072547831 0.006353572 0.0045371708 4285493789
0.0093447268 0.005736798 0.0048721237 4285428254
0.022277223 0.025850587 -0.015845986 4285296418
0.023616742 0.028162662 -0.018208899 4285427744
0.0253006 0.029009063 -0.01921688 4285493278
0.026979046 0.029855255 -0.020223808 4285493023
0.029208951 0.028505102 -0.019204654 4285558814
0.032014519 0.024960056 -0.016163677 4285558814
0.034846939 0.021416768 -0.013127399 4285493278
0.036931429 0.020801391 -0.01279012 4285558814
0.038628452 0.021649282 -0.013799992 4285558813
0.039722819 0.024690539 -0.016826622 4285558814
0.040997349 0.026999556 -0.019177249 4285953044
0.042460106 0.028576806 -0.020853229 4285755419
0.044533465 0.027961258 -0.020513577 4285492513
0.047031753 0.025885094 -0.018833395 4285558048
0.050821193 0.019427665 -0.013134505 4285624093
0.055519745 0.01005242 -0.0047650486 4285690138
-0.023013614 0.010436878 0.0016753133 4285428255
-0.021213025 0.01128976 0.00064601935 4285493533
-0.019191965 0.01066523 0.00099039637 4285493533
-0.017396465 0.011518002 -3.7830323e-05 4285624858
-0.015369743 0.010894023 0.00030569546 4285690649
-0.0132166 0.009532325 0.0013332386 4285624859
-0.010929007 0.0074334741 0.0030432865 4285559068
-0.0088777468 0.0068112761 0.0033826623 4285559069
-0.0070789568 0.0076647773 0.0023542587 4285493278
-0.0055487938 0.0099929869 -3.9035454e-05 4285624603
-0.0037659444 0.010845795 -0.0010644533 4285755673
-0.0019883849 0.011698335 -0.0020888057 4285492513
6.3344836e-05 0.011076711 -0.0017490946 4285426468
0.0021205358 0.010455467 -0.0014102366 4285558303
0.0044733919 0.0083614141 0.00028880825 4285624604
0.0065468363 0.0077414066 0.00062488904 4285493789
0.008926712 0.0056491569 0.002319322 4285296928
0.022163227 0.024346344 -0.016996382 4285229608
0.023857897 0.025195472 -0.018004671 4285427234
0.025547156 0.02604441 -0.019011969 4285493279
0.027413787 0.026158728 -0.019344332 4285493279
0.029280383 0.026273143 -0.019676611 4285427234
0.031711392 0.024185531 -0.017990109 4285427488
0.034158491 0.022098996 -0.016306393 4285493533
0.036428131 0.020747315 -0.015297414 4285427998
0.037923604 0.022330537 -0.01697604 4285559324
0.039010424 0.025379982 -0.019994648 4285493023
0.04007566 0.028428204 -0.023009326 4285690394
0.041527882 0.03000908 -0.02468002 4285953553
0.043383203 0.030123632 -0.025009645 4285887763
0.046286762 0.026574712 -0.021993838 4285690648
0.050066508 0.020097341 -0.016308352 4285690649
0.056044955 0.0062992126 -0.0039502592 4285625113
-0.023019373 0.0081598908 0.0011855867 4285230628
-0.021106057 0.0082741454 0.00084262295 4285493024
-0.019305296 0.0091292486 -0.00018496253 4285361698
-0.017509758 0.0099841654 -0.0012115259 4285427998
-0.015601404 0.010098428 -0.0015533585 4285427998
-0.013451412 0.0087322667 -0.0005286634 4285493533
-0.011167109 0.0066266954 0.0011769496 4285559324
-0.009371087 0.0074820518 0.0001506242 4285559324
-0.0078379884 0.0098168328 -0.0022382736 4285493534
-0.0063209236 0.012150735 -0.0046242364 4285559068
-0.0044172928 0.012265354 -0.0049647242 4285888019
-0.0025135837 0.012380086 -0.0053051412 4285755928
-0.00047020614 0.01175575 -0.0049655847 4285624603
0.0017208792 0.010392904 -0.0039475802 4285690649
0.003922794 0.0090307966 -0.0029313734 4285625113
0.0061355159 0.0076694861 -0.0019170647 4285427999
0.023096481 0.018420234 -0.014104778 4285229863
0.02463009 0.020009361 -0.015787404 4285426979
0.026872585 0.018651187 -0.014777373 4285492514
0.028212784 0.020976387 -0.017130099 4285492768
0.030092694 0.021091625 -0.017464746 4285689884
0.031784564 0.0219432 -0.018470567 4285493278
0.034043059 0.020586394 -0.017462995 4285361698
0.03573215 0.021437973 -0.018468115 4285361954
0.037415791 0.022289369 -0.019472219 4285427488
0.03869652 0.024611566 -0.021813862 4285493534
0.039759599 0.027668267 -0.024821423 4285493278
0.041209325 0.029253349 -0.026488341 4285493024
0.04306183 0.029367745 -0.026817456 4285492769
0.045542747 0.027277593 -0.025144212 4285493534
0.049737174 0.019310888 -0.01813826 4285493533
0.056569137 0.0025333837 -0.0031451832 4285493533
-0.022596754 0.0029058903 0.0034287581 4285362209
-0.020889819 0.0045070648 0.0017163781 4285493023
-0.019193493 0.0061077029 5.9898011e-06 4285492769
-0.017507792 0.0077078566 -0.00170246 4285559324
-0.015478969 0.0070796683 -0.0013627042 4285559069
-0.013444655 0.0064518601 -0.0010238127 4285493279
-0.01140485 0.0058245361 -0.00068586366 4285493533
-0.0096114837 0.0066818669 -0.0017100372 4285559579
-0.0080807246 0.0090229362 -0.0040934887 4285493788
-0.006697353 0.012104928 -0.0071536489 4285493279
-0.0049332678 0.012960829 -0.0081723314 4285493278
-0.0031744838 0.013816517 -0.009189982 4285624604
-0.00086333603 0.011706799 -0.0074937604 4285624859
0.0011798032 0.011080429 -0.0071558096 4285624348
0.0038075708 0.0074905232 -0.0041096639 4285493278
0.0058723465 0.0068656728 -0.0037754183 4285362463
0.021780338 0.013830893 -0.012238385 4284902189
0.023504667 0.014686041 -0.01324868 4285295143
0.02557772 0.014062926 -0.012914948 4285426723
0.027476385 0.014179103 -0.013253091 4285492513
0.029010139 0.015772752 -0.014932217 4285623838
0.03071822 0.01662739 -0.015939314 4285689629
0.032233074 0.018220089 -0.017614909 4285624604
0.03430865 0.017597701 -0.017281182 4285624349
0.03600315 0.018451773 -0.018285576 4285558559
0.037692219 0.019305624 -0.019288909 4285624859
0.038780097 0.022372365 -0.022294229 4285624603
0.040248927 0.023962829 -0.02396125 4285559068
0.041706935 0.025552694 -0.025626224 4285493534
0.043567374 0.025667604 -0.025956724 4285493534
0.046055734 0.023571476 -0.024289835 4285427999
0.050468285 0.014844656 -0.016638171 4285230118
0.057521746 -0.0027185604 -0.0010201554 4285230118
-0.022389673 -0.00087863207 0.004290943 4285427488
-0.020455115 -0.00076315552 0.0039441371 4285558814
-0.018857554 0.0015876889 0.0015532291 4285492768
-0.017160907 0.0031927302 -0.00015379163 4285492513
-0.015239373 0.0033077598 -0.00049800472 4285427234
-0.013076864 0.0019336939 0.00051767658 4285558304
-0.011149719 0.0020492673 0.0001726253 4285493024
-0.0094740763 0.0036534891 -0.0015302901 4285558559
-0.0078091063 0.0052571744 -0.0032312223 4285558814
-0.0061547793 0.0068603754 -0.0049301949 4285493279
-0.0045111105 0.0084630102 -0.0066271387 4285361954
-0.0027415529 0.0093215331 -0.0076450836 4285427743
-0.00083803758 0.0094363317 -0.0079853982 4285427999
0.0012075007 0.0088078976 -0.0076495297 4285493534
0.0034031123 0.0074368343 -0.0066389837 4285427744
0.0054622144 0.0068094954 -0.0063053989 4285296929
0.023911871 0.010939188 -0.012402331 4285361443
0.025638897 0.01179675 -0.013411341 4285492513
0.027540118 0.011913091 -0.013749935 4285558049
0.029076748 0.013511233 -0.015426202 4285558304
0.030787559 0.014368139 -0.016432062 4285558304
0.032680601 0.014484305 -0.016768945 4285558558
0.0345736 0.014600586 -0.01710573 4285558304
0.036273502 0.015457205 -0.01810943 4285558559
0.037967972 0.016313557 -0.019112032 4285558558
0.039458591 0.017909519 -0.020779599 4285558303
0.041139483 0.018765241 -0.021779627 4285492513
0.042611122 0.020360306 -0.023443691 4285624349
0.044278402 0.021215413 -0.024441121 4285558814
0.046567708 0.019852709 -0.023445202 4285361188
0.050986208 0.011100426 -0.015814709 4285361189
-0.022290327 -0.0039282739 0.0044627422 4285361444
-0.020460077 -0.0030650645 0.0034347428 4285558559
-0.018635049 -0.0022021309 0.0024077976 4285427233
-0.01670035 -0.0020864457 0.0020611221 4285427234
-0.014883108 -0.0012237355 0.0010357471 4285426979
-0.012830578 -0.0018547475 0.0013679443 4285426979
-0.011018481 -0.00099213421 0.00034366082 4285558304
-0.0092116296 -0.00012972206 -0.00067958888 4285558559
-0.0076667443 0.0022250563 -0.0030555173 4285558559
-0.0060068555 0.0038328394 -0.0047520944 4285492769
-0.0042239204 0.0046941936 -0.0057708477 4285426724
-0.0023098662 0.0048095062 -0.006113146 4285295144
-0.00039573386 0.0049249306 -0.0064553735 4285427488
0.0015184693 0.0050404891 -0.0067975153 4285361698
0.0035772175 0.0044108257 -0.0064655975 4285164584
0.0054942407 0.0045267642 -0.0068080784 4285560853
0.021720819 0.010037556 -0.013901584 4285099814
0.023447888 0.010897167 -0.014909001 4285427233
0.025523029 0.010269888 -0.014579002 4285492768
0.027244683 0.011129394 -0.015585275 4285558049
0.028960928 0.011988677 -0.016590504 4285558303
0.030671768 0.012847744 -0.017594676 4285558304
0.032752164 0.012221247 -0.017265247 4285558049
0.034647711 0.0123377 -0.017602479 4285492513
0.036736075 0.011711903 -0.0172743 4285492513
0.038438644 0.012570903 -0.018276663 4285492513
0.040334016 0.012687676 -0.018613601 4285492768
0.042028379 0.013546385 -0.019614331 4285492768
0.043513652 0.015146598 -0.021277454 4285492768
0.044988099 0.016746216 -0.022938514 4285492514
0.047287691 0.015379887 -0.021947753 4285361188
0.051714819 0.0066023469 -0.014338959 4285360679
-0.022298254 -0.0062364787 0.0039490983 4285361188
-0.020246558 -0.0068701506 0.0042793956 4285427233
-0.018525496 -0.0052551925 0.0025746152 4285427234
-0.01670032 -0.0043899417 0.0015493585 4285426979
-0.014880374 -0.0035249516 0.00052515836 4285361444
-0.012585212 -0.0056558549 0.002208516 4285361188
-0.010765016 -0.004790619 0.0011844607 4285426724
-0.0090756044 -0.0031769574 -0.00051427586 4285492258
-0.0073968098 -0.001563862 -0.00221097 4285492259
-0.0054669417 -0.0014478341 -0.0025562858 4285360933
-0.0036705434 -0.00058352947 -0.003575773 4285229098
-0.001879435 0.00028051436 -0.0045941947 4285229099
-9.3616545e-05 0.0011443496 -0.0056115808 4285098028
0.0018285178 0.0012603775 -0.0059551476 4285031984
0.02350622 0.0086271018 -0.015407793 4285426979
0.025407176 0.0087433308 -0.015746418 4285427234
0.027308114 0.0088596568 -0.016084962 4285558304
0.029209021 0.0089761093 -0.0164234 4285493024
0.030740622 0.010582656 -0.018091956 4285492514
0.032823406 0.0099541545 -0.017764637 4285492513
0.034721509 0.010070778 -0.018102309 4285426723
0.036812253 0.0094429925 -0.017776225 4285492258
0.03871293 0.009559989 -0.018114183 4285492258
0.040811613 0.0089329183 -0.017789338 4285426723
