# .PCD v0.7 - Point Cloud Data file format
VERSION 0.7
FIELDS x y z rgba
SIZE 4 4 4 4
TYPE F F F U
COUNT 1 1 1 1
WIDTH 978
HEIGHT 1
VIEWPOINT 0 0 0 1 0 0 0
POINTS 978
DATA ascii
-0.0086002834 -0.043032169 -0.011297665 4286660158
-0.0073061623 -0.039825737 -0.01440348 4287052860
-0.0090895519 -0.043131411 -0.013811461 4286724163
-0.0074573271 -0.041447595 -0.015594373 4286725694
-0.0065316968 -0.03670346 -0.020002605 4286529089
-0.0066817515 -0.038311936 -0.021183634 4286660158
-0.0050808787 -0.036625996 -0.022955643 4288359478
-0.0068317689 -0.039920114 -0.022364438 4286659904
-0.0052306503 -0.038229801 -0.0241332 4287575863
-0.0031032674 -0.038847893 -0.023941761 4288098869
-0.0052043162 -0.040604979 -0.024658982 4288426544
-0.0030746497 -0.041225024 -0.024469774 4288558124
-0.001846429 -0.037988551 -0.027533209 4287510583
-0.0055300891 -0.04143659 -0.026487704 4288948019
-0.0030464046 -0.043606214 -0.025000773 4288557104
-0.0014525466 -0.041907609 -0.026760992 4288165679
0.0020102337 0.0073894635 0.034309234 4283465264
0.0073261075 -0.0048457831 0.046662029 4283464753
-0.0085548647 0.014790632 0.024991993 4284447268
-0.006240081 0.013560578 0.025953166 4282813994
-0.0037388392 0.011640213 0.027624797 4282421038
-0.0022915192 0.013867326 0.025019035 4280658989
0.00040690228 0.011257589 0.027398605 4280396594
0.0044122003 0.0038153753 0.034750279 4280460343
-0.024794426 -0.0057559833 0.04642823 4283918908
-0.012973461 0.014246657 0.023301437 4284512293
-0.010842927 0.013704792 0.023549944 4283467303
-0.0088770837 0.013857253 0.023084678 4282617388
-0.0065654702 0.012622528 0.024043303 4282028339
-0.004769478 0.013469018 0.022865575 4281832499
-0.0033349134 0.01570167 0.020267799 4281114163
-0.001012288 0.014468111 0.021223981 4281306689
0.0024217144 0.0090786442 0.026434142 4281045568
0.0077592917 -0.0032333732 0.038722042 4280460089
-0.02480701 -0.0081354603 0.045910615 4282611013
-0.024815854 0.0017918944 0.035395835 4284639284
-0.017846804 0.015804496 0.019472286 4284644383
-0.01557352 0.014562059 0.020436369 4283989799
-0.013289448 0.013320588 0.021397926 4282485553
-0.01116189 0.012776263 0.021645438 4282028339
-0.0095386989 0.01432053 0.019758962 4281701174
-0.0074081831 0.013776623 0.020005919 4281635893
-0.0056227408 0.014624447 0.018832322 4280660264
-0.0038424619 0.015471969 0.017660022 4281634363
-0.0017062388 0.014928784 0.017905843 4281894208
0.001168333 0.011606105 0.020981614 4281894718
0.0049990304 0.0048116371 0.027586956 4281569848
0.0098257139 -0.0054515079 0.037712451 4281114929
-0.024963107 -0.0098187625 0.044674378 4281890129
-0.024969231 0.00013925135 0.034182142 4282939199
-0.024603959 0.0079920292 0.025850624 4284705839
-0.021587145 0.012493007 0.020638656 4283402024
-0.019789424 0.013343342 0.019463271 4282618154
-0.018155966 0.014892373 0.01757738 4281312299
-0.01604763 0.014344171 0.017827623 4280465954
-0.013933826 0.013796479 0.018076647 4280006189
-0.011480372 0.011852421 0.019744363 4281505334
-0.0095200725 0.012004383 0.019280363 4281701684
-0.0077320002 0.012854479 0.01810772 4281504823
-0.0062992312 0.015099913 0.015520215 4280202284
-0.0043491311 0.015251379 0.015058853 4279356703
-0.0022185594 0.014705542 0.01530432 4280920364
0.00046652928 0.012068637 0.017667133 4280919599
0.0031729974 0.0094334781 0.020024966 4280854319
0.0062774979 0.0054065362 0.023787644 4281308474
0.0096049793 0.00068556517 0.028247159 4281243704
0.014518995 -0.0096032917 0.038327236 4281766199
-0.024404194 -0.015014164 0.047008302 4282150483
-0.024685595 -0.0036199391 0.035108764 4282480199
-0.024310235 0.0042575374 0.026793074 4283529778
-0.023540225 0.010025054 0.020627555 4283073073
-0.021890905 0.011579476 0.018741015 4282028339
-0.020095754 0.012431726 0.017567903 4281832244
-0.018305723 0.013283655 0.016396083 4280790823
-0.016682427 0.014836337 0.014515907 4281244724
-0.014576908 0.014285758 0.014765248 4280265524
-0.012132168 0.012334496 0.016429983 4280592179
-0.0098408647 0.011084944 0.017383318 4281243704
-0.0082275718 0.012637243 0.015505809 4281504314
-0.0066247545 0.014188766 0.013630893 4281439033
-0.0046774261 0.014339998 0.013170164 4281308729
-0.0023696646 0.01309213 0.014119845 4281439034
0.00013167411 0.0111458 0.015771668 4281438778
0.0026490577 0.0092007816 0.017419755 4281635128
0.0046180822 0.0093540847 0.016954187 4282356524
0.0069687851 0.008109957 0.017894018 4283791153
0.010684349 0.0019768104 0.023745786 4284183343
0.016801108 -0.012532778 0.038003448 4284248879
-0.024132807 -0.018821932 0.047901545 4282608208
-0.023821365 -0.010209844 0.038872901 4282217038
-0.023721475 -0.00089835376 0.029148284 4282152524
-0.023388926 0.0069998726 0.020860989 4281828418
-0.022040788 0.0099667385 0.017556686 4281374773
-0.020401593 0.011524752 0.015675951 4280657969
-0.018772867 0.013082102 0.013797719 4281307964
-0.016831849 0.013232246 0.013338037 4281503039
-0.01489066 0.013382494 0.012878377 4281307454
-0.012449291 0.011424363 0.014538947 4281047353
-0.01016118 0.010170177 0.015489694 4281308473
-0.0082062669 0.010321766 0.015027005 4281177913
-0.0066005178 0.011877894 0.013154645 4281179444
-0.0048279501 0.012731269 0.011989087 4281440564
-0.0025207177 0.011478998 0.012935564 4282094638
0.00016249344 0.0088244602 0.015285507 4283404573
0.0024965294 0.0075744241 0.016225837 4284710684
-0.023719985 -0.023349389 0.049496103 4282084948
-0.022959907 -0.016830198 0.042614717 4281955153
-0.022395257 -0.0096081421 0.035035167 4282021708
-0.022485655 0.00043492764 0.024632663 4281630283
-0.021884214 0.0069421679 0.017789099 4281765179
-0.020862829 0.011328332 0.013079744 4281112633
-0.01908059 0.012183949 0.011913035 4280069174
-0.017303493 0.013039261 0.010747612 4279873333
-0.015203934 0.012483835 0.010994948 4280591158
-0.012932431 0.011223897 0.01194622 4280786999
-0.01048103 0.0092601031 0.013599444 4281308218
-0.0088724606 0.01082065 0.011729691 4281505334
-0.0070999451 0.011676081 0.010565709 4281311788
-0.0051555149 0.011827029 0.010105625 4282486319
-0.0024919622 0.009162128 0.012453493 4283726639
-0.022536281 -0.021354429 0.044208545 4282020178
-0.021516073 -0.016235583 0.038766284 4282021198
-0.021134157 -0.0082857683 0.030503776 4281891148
-0.021116417 0.0010761768 0.020841815 4281433933
-0.02070057 0.0083087906 0.01331431 4281110593
-0.019387852 0.011290446 0.010031756 4280784703
-0.017613325 0.01214771 0.0088685788 4280980033
-0.015516732 0.011589855 0.0091149397 4281176383
-0.013248429 0.010325305 0.010063577 4281308473
-0.011138249 0.0097686499 0.010306913 4283861278
-0.020787131 -0.022182636 0.041768808 4282085969
-0.020086918 -0.015628755 0.034931567 4282021454
-0.019892637 -0.0069471523 0.025990535 4281955918
-0.019917306 0.0024398863 0.016360234 4281500234
-0.019220356 0.0082715973 0.010265224 4281175874
-0.017761935 0.010551021 0.007696107 4281242173
-0.015829083 0.010700524 0.0072383471 4281701174
-0.013563946 0.0094313547 0.0081843995 4283531308
-0.020649675 -0.02530355 0.041933414 4282085714
-0.019642588 -0.020155206 0.036517505 4282087244
-0.018977601 -0.013584428 0.029703628 4282217293
-0.019136433 -0.0034551099 0.019387063 4281891913
-0.019053597 0.005244188 0.010492466 4281633343
-0.017910477 0.0089546144 0.006523829 4283727659
-0.016304161 0.010527708 0.0046642274 4284577064
-0.019349534 -0.023983933 0.037388358 4282413388
-0.018370125 -0.018822454 0.031990714 4282021708
-0.01820289 -0.010090657 0.023095921 4282153035
-0.018099155 -0.00136365 0.014216248 4282548284
-0.019506197 -0.025673859 0.036147237 4282541909
-0.018373329 -0.02121409 0.031461064 4282149973
-0.017891455 -0.013889469 0.023984138 4282283083
-0.0171475 -0.0080019608 0.01791773 4282219333
-0.016766127 -0.00068487227 0.01046478 4284575023
-0.0186808 -0.02217143 0.029531214 4281757019
-0.017735798 -0.016982071 0.024164919 4282020179
-0.016355921 -0.013951845 0.020899501 4282021454
-0.015636835 -0.0080488324 0.014852334 4284508724
-0.017580885 -0.020083196 0.024339508 4281757529
-0.016195003 -0.017043822 0.021079279 4281955664
-0.014830206 -0.014005974 0.017824117 4283068484
-0.016034875 -0.020144232 0.021252785 4281563729
-0.014504548 -0.017820224 0.018696293 4283330369
0.019585472 0.0054223761 -0.0098398784 4284378674
0.024097521 -0.0030499548 -0.0021313466 4283594549
0.038828064 -0.037934467 0.030217204 4283530034
0.043151271 -0.04495021 0.036508307 4282222394
-0.014498685 -0.020197026 0.018175337 4283262793
0.015618686 0.010171629 -0.016671661 4283075879
0.017523151 0.01032082 -0.017121263 4280858144
0.020718154 0.0061451942 -0.013498544 4281243193
0.026775684 -0.0073956847 -0.0010683369 4280915518
0.040978007 -0.040214889 0.029135462 4280850493
0.044876788 -0.04581017 0.034051362 4281630794
0.0087494962 0.011774257 -0.019876394 4282878253
0.011457462 0.0090266988 -0.017604643 4282028849
0.013152152 0.0098990574 -0.018732708 4281636659
0.014422435 0.012217984 -0.021216163 4281048629
0.015889034 0.013812542 -0.023018017 4281241664
0.01841943 0.011791334 -0.021431824 4281240644
0.02292357 0.003266342 -0.013761151 4279023673
0.02969338 -0.012479469 0.00065300055 4279023673
0.042681579 -0.041054517 0.026700512 4279611703
0.046597108 -0.046665706 0.031599261 4281632323
0.049170241 -0.047942959 0.032448146 4282608208
0.0042328574 0.012099542 -0.022167088 4284185639
0.0065130629 0.010793582 -0.021253517 4282943024
0.0086025484 0.010214813 -0.021020986 4281635384
0.010493349 0.010362595 -0.021467622 4281308218
0.011764091 0.012687922 -0.023946261 4280983348
0.013018921 0.015012167 -0.026421092 4280657714
0.014681879 0.015884422 -0.027539851 4281567299
0.01719822 0.013855644 -0.025955349 4281175874
0.020817161 0.0082032233 -0.02100021 4280914499
0.025578512 -0.0010696128 -0.012683823 4280784194
0.031967379 -0.015408933 0.0003315527 4280458304
0.038913071 -0.031188518 0.014667962 4280653633
0.044607911 -0.042613886 0.024942793 4281110084
0.048312247 -0.04751686 0.029152103 4281824339
-0.0015605614 0.010106981 -0.02197166 4283727914
-5.9299171e-05 0.011712067 -0.023775814 4282160173
0.0016246401 0.012587346 -0.024898468 4280136239
0.0034992062 0.012733512 -0.025341533 4280787509
0.005969435 0.010693885 -0.023751585 4280396594
0.0080532692 0.010112479 -0.023519386 4281045313
0.0095309317 0.011716291 -0.025317535 4281045824
0.010585032 0.014775343 -0.028464565 4280785214
0.012036219 0.0163773 -0.030256297 4279417139
0.013688628 0.017250925 -0.031370893 4279677749
0.016193599 0.015214682 -0.029788643 4280198459
0.019365877 0.010998286 -0.026190337 4279676473
0.02300958 0.0053305477 -0.021254193 4280394044
0.02736306 -0.0025140047 -0.014312009 4281045314
0.033575658 -0.01616627 -0.0020125285 4280979524
0.040344641 -0.031263202 0.011604767 4280979780
0.045842744 -0.0419944 0.021175109 4280913479
0.049789131 -0.047637723 0.026040338 4281303883
0.052363701 -0.048923254 0.026882406 4281630028
-0.0060175844 0.010458276 -0.024260234 4284710683
-0.0039584078 0.0098721012 -0.024024382 4283533858
-0.0018938407 0.0092864484 -0.023789719 4281700919
-0.00058531016 0.011627071 -0.026267884 4281178934
0.00090036169 0.013235405 -0.028064961 4280981564
0.002766829 0.01338093 -0.028506115 4281112124
0.0052283369 0.011334077 -0.026919087 4278766634
0.00730386 0.010749862 -0.026686579 4281046078
0.0087738447 0.012357354 -0.028479571 4281241664
0.010026947 0.014694389 -0.030944152 4280914754
0.011264164 0.017030235 -0.033404857 4280914498
0.013120271 0.017175626 -0.033843055 4280849729
0.015833419 0.014402866 -0.031592112 4280980034
0.019001665 0.010173082 -0.028002745 4280979779
0.021543065 0.0081334412 -0.026433928 4281175874
0.024100415 0.0060951337 -0.024868732 4281110594
0.028022956 -0.00031425059 -0.019288626 4281044804
0.034041088 -0.01327657 -0.007697437 4281305924
0.041305743 -0.029872864 0.0072138682 4281305924
0.047295451 -0.042090744 0.018089171 4281631304
0.050784901 -0.046294391 0.021603376 4282217039
-0.0054334588 0.0059759617 -0.022681948 4282289204
-0.0041033886 0.0083246082 -0.025160454 4281635384
-0.0027891546 0.010672063 -0.027635092 4281113144
-0.0016809255 0.013752081 -0.030782236 4281045824
-0.00040106103 0.016097151 -0.033248611 4281436483
0.0014493428 0.016241405 -0.033685979 4281307199
0.0042903908 0.012720734 -0.03075113 4280850749
0.0067565031 0.010667823 -0.029170087 4280786234
0.0086283088 0.010814108 -0.029612238 4281177149
0.0098818876 0.013157681 -0.032071978 4280849728
0.01153706 0.014035739 -0.033184014 4280718913
0.013398346 0.014181539 -0.033623427 4280784449
0.015901797 0.012132123 -0.032050759 4280980545
0.018421186 0.010084137 -0.030481787 4280850238
0.0205178 0.0095001906 -0.030255308 4280784703
0.021953687 0.011110164 -0.032036334 4280068409
0.02427762 0.0097957402 -0.031142145 4279416373
0.028430786 0.0026364177 -0.024910055 4279872059
0.035396781 -0.013284698 -0.01068756 4280002108
0.043410137 -0.032117762 0.0061726701 4280002108
0.048973322 -0.042908743 0.015678205 4280133434
0.05271256 -0.047854282 0.019844864 4281568064
0.055285901 -0.049148306 0.020680815 4282672724
-0.0048509277 0.0014764518 -0.021116294 4282351933
-0.0044329613 0.0075136125 -0.026972268 4281305923
-0.0036827922 0.012075506 -0.031467449 4279350329
-0.0025844984 0.015163437 -0.034605622 4280003383
-0.0011221692 0.016778614 -0.03639058 4280588098
0.00091539696 0.0161868 -0.036152557 4280459578
0.0033541396 0.014125168 -0.034570128 4279678768
0.0060094371 0.011329889 -0.032319158 4280851514
0.0080763511 0.010740727 -0.032087866 4281046078
0.0097368658 0.011621274 -0.033199586 4280980289
0.011809163 0.011032775 -0.032969382 4280719168
0.013675615 0.01117897 -0.033410016 4280784704
0.015755937 0.010591313 -0.033181481 4280915008
0.017625079 0.010737941 -0.033622578 4280785469
0.019275069 0.011618271 -0.034731425 4280654653
0.020476151 0.013964891 -0.037173241 4280198203
0.02233468 0.014111042 -0.037611574 4281110593
0.026010126 0.0083940551 -0.032722414 4281500998
0.031566232 -0.0031811595 -0.02252071 4280849728
0.039299101 -0.021341965 -0.0063569006 4279351093
0.045989297 -0.035830796 0.0064555351 4279222574
0.050883725 -0.044454478 0.013935585 4280004148
0.05439949 -0.048681885 0.017423991 4282150738
-0.0040882044 -0.0037788898 -0.018888311 4282481219
-0.0043932162 0.0052304864 -0.027431957 4281436229
-0.0040134788 0.011282101 -0.033265539 4281111869
-0.003106907 0.015116606 -0.037069764 4280589118
-0.0014572106 0.01599789 -0.038177721 4280198459
0.00057734177 0.015403692 -0.037940696 4280524860
0.0030126832 0.013335235 -0.036362395 4280916284
0.0056643672 0.010530971 -0.034117192 4281111869
0.0077282749 0.0099394098 -0.033886842 4281111358
0.0093862042 0.010821909 -0.034996308 4280980544
0.011663824 0.0094944537 -0.03409835 4280980545
0.013530135 0.009640649 -0.034538951 4280784704
0.015396461 0.0097869486 -0.034979478 4280915008
0.016830236 0.011405222 -0.03675355 4281045823
0.018253395 0.013022773 -0.038525037 4279872568
0.019887526 0.013904162 -0.039628383 4281111104
0.021516351 0.014785178 -0.04073038 4281762373
0.024274401 0.011990398 -0.03850941 4281632324
0.028660616 0.0040531978 -0.0316475 4281371968
0.034730747 -0.009022072 -0.020157743 4281371968
0.041601047 -0.024293125 -0.0067030657 4281371968
0.048107736 -0.038086712 0.0054017808 4281111103
0.052793793 -0.04599975 0.012193415 4281175364
0.056324024 -0.050238937 0.015668571 4281630793
-0.0033274926 -0.0090558082 -0.016676163 4282676804
-0.0034326836 -0.00075983256 -0.024530891 4282088773
-0.0034093075 0.0067913979 -0.03169965 4281565768
-0.0026807599 0.011377782 -0.036169782 4280523074
-0.0012152232 0.013001822 -0.037948854 4280393024
0.00082429871 0.012405857 -0.037714645 4281046079
0.0026716851 0.012549974 -0.038151227 4280981564
0.0049194284 0.011215493 -0.037249785 4280916284
0.0063666068 0.012838565 -0.039024174 4281177404
0.008214131 0.012983039 -0.039460525 4280525623
0.010477919 0.011650175 -0.038562596 4280394299
0.012752369 0.010318197 -0.037667073 4281045569
0.014610596 0.010463871 -0.038105674 4281111614
0.015820581 0.012824029 -0.040539891 4280915519
0.017014649 0.015183073 -0.04297024 4279742774
0.018635582 0.016065534 -0.044068798 4279873078
0.020475246 0.016210206 -0.044502676 4280980543
0.023221711 0.013405852 -0.042285576 4280915264
0.026677458 0.0083920136 -0.038087115 4280394043
0.031098381 0.0004337877 -0.031251498 4280524603
0.036985673 -0.011939712 -0.020464469 4280980799
0.044624403 -0.029461123 -0.0050771367 4281175618
0.050950665 -0.042554885 0.0063227788 4281240899
0.055431403 -0.049752712 0.012428571 4281044549
0.05849348 -0.052531317 0.014571939 4281304393
-0.0037882812 -0.017477334 -0.011332587 4284639028
-0.0023874119 -0.015097305 -0.01380811 4283789368
-0.0019224919 -0.0090044439 -0.019635461 4282218058
-0.0018733256 -0.0014295131 -0.026793806 4281891658
-0.001877144 0.006141372 -0.033939462 4281500488
-0.0009740293 0.0099973753 -0.037726212 4280654144
0.00048653781 0.011625476 -0.039500721 4280784959
0.0025284179 0.011027619 -0.03926865 4280850748
0.0039758123 0.01265499 -0.041039899 4280916283
0.0068388991 0.015907492 -0.044574574 4280459833
0.0092941187 0.013828054 -0.043010585 4278828344
0.011975866 0.011009224 -0.04078538 4278699059
0.013825983 0.011154257 -0.041222073 4280980033
0.015028488 0.013520353 -0.043649554 4281045313
0.016215086 0.015885267 -0.046073146 4280914753
0.017828122 0.016769283 -0.04716818 4280459324
0.019883517 0.016173657 -0.046938404 4280003383
0.02239719 0.014099613 -0.045387603 4280589628
0.025614236 0.0098090917 -0.041858934 4280784703
0.029326692 0.0040431544 -0.037018012 4281176129
0.034253884 -0.0054136217 -0.028890803 4281111359
0.041621152 -0.022251189 -0.014193655 4281111103
0.048870713 -0.038340576 -0.00018314086 4281176129
0.054297645 -0.048514843 0.0085410848 4281241408
0.057593182 -0.052041024 0.01133731 4281630793
-0.002174411 -0.018183991 -0.013639712 4283133763
-0.00078359619 -0.015798129 -0.016107813 4281824593
-0.00052746758 -0.00894472 -0.022585519 4281760078
-0.00050814822 -0.0013503209 -0.029720122 4281694543
-0.00054182485 0.006240055 -0.036842104 4281436994
0.0003436543 0.01010564 -0.040616341 4280587843
0.0017939173 0.011737436 -0.042385064 4280654143
0.0034333654 0.012624748 -0.043485396 4280785468
0.0042579696 0.016485937 -0.047244973 4281241918
0.0060813203 0.016628522 -0.047675624 4281632579
0.0083201155 0.015285 -0.046778418 4280394043
0.011200633 0.011713669 -0.043893836 4280458813
0.013255671 0.011115327 -0.043665953 4280849983
0.014669005 0.012745067 -0.045425318 4281045313
0.016071752 0.01437404 -0.047182061 4280980289
0.017684851 0.015260234 -0.048275463 4281110593
0.019963523 0.013920546 -0.047387138 4281437249
0.022705384 0.011098444 -0.045182198 4281567554
0.025697399 0.0075367093 -0.042323284 4281436994
0.028947517 0.0032359362 -0.038812283 4281567553
0.033400707 -0.0047674328 -0.032020513 4281438013
0.040518153 -0.020915061 -0.018015377 4281438013
0.047991894 -0.037794009 -0.003381243 4281567809
0.053650007 -0.048739985 0.0059782229 4281502528
0.056939028 -0.052277535 0.0087677129 4281563729
-0.0019621886 -0.021279082 -0.013477554 4282149718
-0.00038198009 -0.019633465 -0.015274105 4281759314
0.00044260547 -0.015000649 -0.019737333 4281759823
0.00029082596 -0.0066364333 -0.027526299 4281760078
8.0745667e-05 0.001723364 -0.03530138 4281370438
6.5714121e-06 0.0093324482 -0.042397216 4280848709
0.0012575798 0.011714488 -0.044826813 4281110595
0.0024927035 0.014095455 -0.047252603 4279026224
0.0037119649 0.016475253 -0.049674526 4280785979
0.0053250119 0.01736296 -0.050766826 4281306178
0.0075552985 0.016014371 -0.049870893 4281110848
0.010426678 0.01243148 -0.046992414 4280459834
0.012899 0.010340594 -0.045442209 4280980544
0.014740884 0.010485098 -0.045876876 4281045313
0.016582776 0.010629714 -0.046311453 4281175874
0.018424671 0.010774463 -0.046745934 4281307198
0.020936837 0.0086871162 -0.045204736 4281372733
0.023690987 0.0058573112 -0.043009311 4281372733
0.026466358 0.0030293018 -0.040818781 4281046589
0.029262939 0.00020309538 -0.038633153 4280981054
0.033484951 -0.0070806593 -0.032516301 4281240899
0.040600315 -0.02327624 -0.018547008 4281240899
0.047593057 -0.038719654 -0.005259933 4281501509
0.053003207 -0.048956007 0.0034219697 4281761863
0.056041069 -0.051762536 0.0055512227 4281628499
-0.0003483817 -0.021982878 -0.015782475 4281496664
0.00066601112 -0.018085934 -0.019570943 4281759569
0.001276508 -0.012693018 -0.024683226 4281760844
0.00089308619 -0.0035592243 -0.03310883 4281566023
0.00044604018 0.0055697784 -0.041519336 4281240388
0.00091876835 0.010952272 -0.046598747 4281240389
0.0019523874 0.014087684 -0.049681619 4280656694
0.003166806 0.016473647 -0.052097481 4279678768
0.0049792528 0.016615372 -0.052525558 4280264248
0.0069990382 0.016009748 -0.052292868 4280198714
0.010283828 0.010920875 -0.048101 4280654144
0.012755383 0.0088234097 -0.046555586 4281175618
0.015242886 0.0067272857 -0.045013785 4281306433
0.0173105 0.0061258599 -0.044792049 4281306179
0.019603994 0.0047784895 -0.043913879 4281305668
0.022354534 0.0019396245 -0.041724287 4281240644
0.024900405 -0.0001513958 -0.040195934 4281305923
0.027462199 -0.0022411048 -0.03867121 4281304649
0.030039895 -0.0043294132 -0.037150137 4281435463
0.034036458 -0.010888793 -0.031706195 4281762629
0.041155033 -0.027131826 -0.017774073 4281762629
0.04815121 -0.04262054 -0.004522454 4281696838
0.053082645 -0.051397309 0.0028300285 4281762119
0.055633284 -0.052723274 0.0036484711 4282280278
0.00033105165 -0.018925652 -0.021403052 4281825615
0.0015057214 -0.015771069 -0.02451304 4281435209
0.0018945709 -0.0096143037 -0.030269286 4281696329
0.0014657676 -0.00045785308 -0.03866427 4281696839
0.0013662837 0.007192716 -0.04572095 4281305668
0.0018111728 0.012588352 -0.050782107 4281373755
0.0028242879 0.015730944 -0.053853445 4281242430
0.0048383735 0.015122574 -0.053621165 4281241153
0.0072719827 0.013015345 -0.052071884 4281111358
0.010350741 0.0086610839 -0.048550956 4281110593
0.013248976 0.0050587282 -0.045695245 4281240899
0.015743677 0.0029566437 -0.04416012 4281240389
0.018036595 0.0016048029 -0.043285258 4281110084
0.020340146 0.00025391579 -0.042412758 4281240134
0.023100302 -0.0025928468 -0.040232088 4281436229
0.025430372 -0.0039414391 -0.039365672 4281435718
0.027771033 -0.0052890331 -0.038501702 4281501508
0.030122299 -0.0066356882 -0.037640072 4281631304
0.034353115 -0.01396212 -0.031558342 4281827654
0.041472264 -0.030252859 -0.017662657 4281827654
0.04775241 -0.043545544 -0.0064006597 4281696073
0.052436948 -0.051601797 0.0002823323 4281629519
0.0017341375 -0.018857501 -0.024349075 4281499214
0.0025117211 -0.014189087 -0.028771209 4281564238
0.003063906 -0.0087701082 -0.033846401 4281631049
0.0027939491 -0.00034315884 -0.041552611 4281173323
0.002863504 0.0065743998 -0.047926262 4281502784
0.0034900792 0.011231512 -0.052312352 4281634619
0.0053102076 0.011373833 -0.052742243 4281045059
0.0079578869 0.008508794 -0.050542161 4281307199
0.010836348 0.0048939064 -0.047690153 4281110084
0.013529174 0.0020326599 -0.045500539 4280976973
0.016243238 -0.00082674623 -0.04331588 4281173834
0.018543568 -0.0021823943 -0.04244604 4281239113
0.020854505 -0.0035369992 -0.041578621 4281369674
0.02295325 -0.0041400641 -0.041367337 4281565769
0.025282755 -0.0054930374 -0.040504083 4281500743
0.027850971 -0.0075952336 -0.038990781 4281305158
0.03066582 -0.010445982 -0.036829337 4281565768
0.034902371 -0.017793693 -0.030765433 4281696838
0.041788667 -0.033382282 -0.017557478 4281696838
0.047831487 -0.045964554 -0.0069754943 4281761609
0.05203348 -0.052546337 -0.0016093738 4281694543
0.0017736778 -0.021196872 -0.024851551 4281299038
0.0031272583 -0.018781066 -0.027285766 4281629263
0.004078161 -0.014856182 -0.03103417 4281694798
0.0044144094 -0.0086685866 -0.036751367 4281629008
0.0041121244 -0.00022018701 -0.044431683 4281303119
0.0047583468 0.0044515133 -0.048812546 4281696584
0.0065969005 0.0045952648 -0.049246788 4281435463
0.0092621781 0.0017229319 -0.047057472 4281305159
0.011739384 -0.00039377064 -0.045528304 4281042253
0.01423252 -0.0025090575 -0.044002838 4281173069
0.016526967 -0.0038696155 -0.043135002 4281303628
0.01883203 -0.0052291602 -0.042269617 4281434188
0.020707833 -0.005081743 -0.042712085 4281434444
0.023251414 -0.0071926191 -0.041198112 4281500234
0.02558565 -0.0085495114 -0.040339321 4281631814
0.028842095 -0.012915015 -0.036879443 4281631813
0.031899791 -0.016525663 -0.034077216 4281305669
0.036383212 -0.024645887 -0.02738349 4281370693
0.042340122 -0.037271932 -0.016809449 4281500744
0.047433153 -0.046884537 -0.0088500157 4281630793
0.051148117 -0.051983505 -0.0047931522 4282152015
0.0031695403 -0.021117777 -0.02778702 4281693779
0.0047035739 -0.019453607 -0.02955579 4281694033
0.0052477829 -0.014004767 -0.034605864 4281759823
0.0053578839 -0.0070450231 -0.040959373 4281629774
0.0060237721 -0.002358824 -0.045334928 4281565769
0.0076769367 -0.0014571995 -0.046428412 4281369164
0.010150678 -0.0035807714 -0.044903524 4281303628
0.012431271 -0.0049469694 -0.044035893 4281238604
0.014510706 -0.0055563971 -0.043823738 4281303628
0.016809884 -0.0069208592 -0.042960353 4281499214
0.0191197 -0.0082843974 -0.042099334 4281565259
0.021440115 -0.0096469671 -0.041240782 4281499723
0.024215914 -0.012518562 -0.039083585 4281564238
0.02723797 -0.016143113 -0.036281411 4281827144
0.030969612 -0.022029161 -0.031537589 4281826378
0.03497402 -0.028666101 -0.026155056 4281759314
0.039492138 -0.036807425 -0.01948767 4281628753
0.044068597 -0.044944063 -0.012833889 4281691483
0.0043623894 -0.020270877 -0.031369034 4281561434
0.0052965283 -0.016325511 -0.035096869 4281759569
0.0056092851 -0.010104924 -0.04078199 4281695054
0.00668348 -0.006922923 -0.043841295 4281564749
0.0085509159 -0.0067768991 -0.044282366 4281630028
0.010830902 -0.0081475973 -0.043418042 4281499469
0.012703702 -0.0080009028 -0.043860182 4281630540
0.014999647 -0.0093700886 -0.042999446 4281564749
0.017306231 -0.01073838 -0.04214108 4281630540
0.020057177 -0.013620831 -0.039984807 4281760588
0.023048868 -0.017258853 -0.037183918 4281563728
0.026955791 -0.023923367 -0.031793557 4281563475
0.03046079 -0.02907005 -0.027710946 4281760334
0.034457885 -0.035727188 -0.022341641 4281891149
0.037812311 -0.040110856 -0.018924575 4282019159
0.0051494613 -0.017888866 -0.036244407 4281694034
0.0056618117 -0.012412116 -0.041263726 4281433423
0.0067393221 -0.0092211291 -0.044317238 4281303373
0.0084058531 -0.0083141476 -0.045410592 4281498958
0.010685273 -0.0096892044 -0.044549435 4281499469
0.012975331 -0.011063293 -0.043690689 4281564749
0.015698742 -0.013956845 -0.041534729 4281695819
0.019085431 -0.019128539 -0.037436105 4281826888
0.022509251 -0.024297163 -0.033346198 4281695819
0.025970221 -0.029462762 -0.029264903 4281563983
0.029690294 -0.03538467 -0.024544979 4281497938
0.033003543 -0.039784797 -0.021128356 4281954899
0.036348611 -0.044182271 -0.017719112 4282476629
0.0059118345 -0.015486717 -0.041097134 4281040978
0.0067947805 -0.011523418 -0.044796169 4281433168
0.0088704042 -0.012140006 -0.044588357 4281432913
0.01136307 -0.014281653 -0.043082751 4281629008
0.014497176 -0.018709607 -0.039634347 4281825868
0.017874289 -0.02389735 -0.035545118 4281761099
0.021716155 -0.030606359 -0.030169418 4281825613
0.025172846 -0.035787567 -0.026098819 4281825103
0.028009359 -0.038680516 -0.023975855 4282281299
0.0076512098 -0.016891316 -0.042681649 4281629263
0.010145728 -0.01903943 -0.041181531 4281564238
0.013273098 -0.023481049 -0.037741542 4281432913
0.017057214 -0.030214354 -0.032367267 4281694544
0.020467201 -0.035414696 -0.028297355 4281891404
0.023914326 -0.040611938 -0.024236154 4282280789
0.012634885 -0.030573256 -0.033915646 4282216784
0.016000774 -0.03579241 -0.029847106 4282085968
-0.020266678 -0.026888005 0.031572748 4282144108
-0.020273615 -0.029294267 0.031033132 4281684853
-0.019294348 -0.024071984 0.025681783 4280243594
-0.01758096 -0.022469379 0.02381308 4280244613
-0.020280886 -0.031704567 0.030490462 4281357179
-0.019449044 -0.025741018 0.024455998 4280112013
-0.017889399 -0.023408495 0.021897394 4280309384
-0.020288501 -0.034118921 0.029944804 4281488249
-0.019301344 -0.028865702 0.02461477 4280636039
-0.017889742 -0.025798462 0.021368172 4279981198
-0.016342703 -0.023460247 0.018817555 4280374663
-0.014652301 -0.021850541 0.016961049 4282406249
-0.020444747 -0.035806999 0.028704964 4281488249
-0.019456331 -0.030538492 0.023386195 4280701319
-0.018044028 -0.027462535 0.020146038 4280308109
-0.016496528 -0.0251178 0.017600249 4280373899
-0.014805857 -0.023503743 0.015746985 4280832898
-0.020600948 -0.037494786 0.027465332 4281750133
-0.019611228 -0.032210983 0.022157844 4280832133
-0.01804487 -0.029858433 0.019612435 4280242573
-0.016494233 -0.027506955 0.017070856 4280308108
-0.014800642 -0.025888354 0.015220184 4280636039
-0.019615535 -0.034617692 0.021617025 4282143088
-0.018352438 -0.030789763 0.017702423 4280308619
-0.01664814 -0.029166065 0.015852395 4280308364
-0.01495428 -0.027543142 0.014004942 4280177549
-0.01343203 -0.025187135 0.011475217 4279522198
-0.011925556 -0.022832312 0.0089493319 4281750388
-0.018047553 -0.034662403 0.018536255 4280767364
-0.016646329 -0.031561226 0.015318651 4280243339
-0.015266169 -0.028461501 0.012106095 4279784594
-0.013746116 -0.02609919 0.0095818155 4279128734
-0.012078211 -0.024473704 0.0077439956 4280243339
-0.016800318 -0.0332219 0.014099017 4280571269
-0.015419487 -0.030113474 0.010892898 4279981454
-0.014059719 -0.027006537 0.0076918714 4279063198
-0.012394208 -0.025376871 0.0058578607 4279784594
-0.01090524 -0.023010284 0.0033461154 4280571269
-0.015256952 -0.033246055 0.011041187 4279915408
-0.014051761 -0.029389739 0.0071653388 4279652759
-0.012383327 -0.027755558 0.0053339824 4280046224
-0.010725383 -0.026122026 0.0035051536 4280177804
-0.0094149299 -0.023009904 0.00032266416 4282276200
-0.015095163 -0.036387131 0.011183299 4282666349
-0.014364857 -0.030292094 0.0052790362 4280110993
-0.012861829 -0.027911492 0.0027737338 4280045968
-0.011208918 -0.026274085 0.00094943121 4279980688
-0.0095664822 -0.024637297 -0.00087233074 4280570759
-0.0079345293 -0.023001261 -0.0026914887 4281291643
-0.014357213 -0.032679059 0.0047497358 4281159298
-0.012851063 -0.030291714 0.0022486448 4280438924
-0.011195231 -0.02864974 0.00042694993 4279980688
-0.0097179823 -0.026264392 -0.0020671133 4280439688
-0.0080857761 -0.024624012 -0.0038830359 4280570503
-0.012840629 -0.032676026 0.0017206185 4282730864
-0.011347149 -0.030283041 -0.00077243522 4280635528
-0.010037344 -0.027144961 -0.0039349589 4280308108
-0.0085780844 -0.024754375 -0.0064197239 4279979924
-0.0071346201 -0.022364959 -0.00890062 4279586713
-0.005531095 -0.020722188 -0.010706308 4281553783
-0.011333976 -0.032664634 -0.0012992881 4281094020
-0.010188553 -0.02876924 -0.0051276814 4280569738
-0.0088991635 -0.025623932 -0.0082786661 4279586458
-0.0078039058 -0.021732181 -0.012095002 4280111503
-0.0060324259 -0.0208335 -0.013225726 4280504714
-0.011485998 -0.034299515 -0.0024998412 4282403699
-0.010507192 -0.029642619 -0.0069902707 4280504203
-0.0092198141 -0.026488811 -0.010134179 4279586458
-0.0077807307 -0.024086684 -0.012604174 4280177039
-0.0063574351 -0.021685712 -0.015070305 4280438669
-0.0042375512 -0.02228488 -0.014862296 4280308108
-0.0021122508 -0.022883497 -0.014655479 4280703104
-0.0092001073 -0.028854132 -0.010650562 4280569738
-0.0077579059 -0.026445314 -0.013116309 4280242063
-0.006156262 -0.024789706 -0.014911657 4280504204
-0.004209321 -0.024638712 -0.015372446 4280242573
-0.002442833 -0.023735873 -0.016498528 4280308619
-0.0090110339 -0.031978309 -0.010503633 4281486719
-0.0075630657 -0.029562488 -0.012965834 4280438670
-0.0063059442 -0.026393451 -0.016089184 4280307854
-0.004536856 -0.025488362 -0.017214322 4279915409
-0.0027729608 -0.024583541 -0.018338131 4279981198
-0.0011973046 -0.022925265 -0.020123763 4280442238
-0.0075411834 -0.031931393 -0.013485583 4281027973
-0.00628075 -0.02875343 -0.016603125 4280242319
-0.0048639365 -0.026333325 -0.019052772 4279653268
-0.0032828003 -0.024670415 -0.020836486 4279522198
-0.0017121769 -0.023008227 -0.022617584 4279391129
3.337115e-05 -0.022102423 -0.023735212 4279785103
-0.0075196698 -0.034304321 -0.014008308 4282534003
-0.0062559135 -0.031117499 -0.017120002 4280766600
-0.0050132833 -0.027932137 -0.020226637 4279587224
-0.0034318939 -0.026264854 -0.022007106 4279063454
-0.0018610097 -0.024598323 -0.023784967 4279914899
6.9830567e-05 -0.024448253 -0.024241699 4280046223
0.0016249456 -0.022782639 -0.026015675 4280770168
-0.0049855076 -0.030291297 -0.020740712 4280307598
-0.0035809502 -0.027859002 -0.023177514 4280177295
-0.0020098053 -0.02618812 -0.024952134 4279915919
-0.00044920668 -0.024517886 -0.02672421 4280177549
0.0011008717 -0.022848383 -0.028493645 4280374153
-0.0049581043 -0.032654539 -0.021257786 4282010488
-0.0035504326 -0.030215517 -0.023690375 4280701063
-0.0021585673 -0.02777762 -0.026119074 4280112269
-0.00096737966 -0.024578534 -0.029200045 4280111758
0.00057764724 -0.022905096 -0.030965002 4280242828
0.0023022667 -0.021994144 -0.032072589 4280244358
-0.001761362 -0.031660713 -0.025320524 4280439690
-0.00093081594 -0.02692344 -0.029705862 4279784338
0.00042984262 -0.024481237 -0.032122053 4279653269
0.0019645765 -0.022804096 -0.033881217 4279718803
0.0042591318 -0.024182975 -0.033027373 4280046989
-0.0019106641 -0.033256151 -0.026491834 4281093253
-0.001079049 -0.028505802 -0.03086753 4279390619
0.00028206781 -0.026057057 -0.033278875 4279194524
0.0020067878 -0.025141783 -0.0343832 4279390619
0.0043034293 -0.026524857 -0.033533171 4279849618
0.0058305822 -0.024843708 -0.035287045 4279852678
-0.001696784 -0.036389343 -0.02635912 4282729334
-0.00085879862 -0.031625509 -0.030726431 4282861934
0.00013432279 -0.027632602 -0.034435496 4280373644
0.0022381544 -0.028251953 -0.034238122 4279259803
0.0045395195 -0.029638939 -0.033392541 4279849618
0.0070463829 -0.031792991 -0.0319006 4280177548
0.008581806 -0.030106753 -0.033653036 4281358199
0.010306798 -0.029188812 -0.034755342 4282210919
0.00035995618 -0.030749366 -0.034293823 4280897924
0.0026580431 -0.032141097 -0.033450879 4279981198
0.0051587783 -0.034302227 -0.031962521 4280242319
0.0078701004 -0.037232161 -0.029830696 4281225853
0.0098135769 -0.037080482 -0.030289942 4282536299
0.0011441968 -0.036193497 -0.032216027 4282208369
0.0034549683 -0.037588552 -0.031379376 4281029248
0.0055846609 -0.038210146 -0.031191286 4281356413
0.0083029531 -0.041148201 -0.02906771 4282994278
-0.0037927292 -0.045242615 -0.038941327 4282600813
-0.0044803321 -0.044462748 -0.042018253 4282601068
-0.012594875 0.026285611 0.062064882 4284966703
-0.010732654 0.027100325 0.06084336 4285819933
-0.007550139 0.022658091 0.065558016 4285754398
-0.018521849 0.022816394 0.063757807 4285032239
-0.017266158 0.026274487 0.059563641 4285427744
-0.016036827 0.029730644 0.055375721 4285689884
-0.014513563 0.031865355 0.052677173 4285689118
-0.012517627 0.032020465 0.05220503 4285623583
-0.0096941628 0.028879255 0.055434171 4285689373
-0.0053307861 0.019808523 0.065313682 4285754908
-0.025919136 0.025968488 0.058015291 4285163309
-0.023764562 0.025461201 0.058283035 4285294888
-0.021604467 0.024954397 0.058549512 4285427233
-0.020198721 0.027760651 0.055105809 4285427233
-0.018350106 0.028578389 0.053890612 4285558814
-0.01682118 0.030719992 0.05119564 4285821464
-0.014988121 0.031536698 0.049984176 4285886489
-0.012997579 0.031691343 0.049513269 4285754908
-0.010511059 0.029861614 0.051258314 4285820698
-0.0071688071 0.024726823 0.056689639 4285952024
-0.0034427121 0.018273309 0.063585669 4285624349
-0.03022768 0.024660416 0.057001594 4285229864
-0.029352162 0.030139916 0.050585438 4285755419
-0.027512278 0.030958869 0.04937375 4285820444
-0.025384557 0.030447256 0.049646135 4285886489
-0.022803959 0.027941361 0.052139666 4285755163
-0.020960752 0.028760765 0.05092733 4285689629
-0.018813785 0.028250825 0.051195305 4285624094
-0.017289657 0.030398596 0.048506375 4285624093
-0.015621509 0.031881083 0.046559539 4285821464
-0.013476629 0.03137118 0.046828147 4285821464
-0.011161182 0.030198097 0.047832523 4285690138
-0.0084995069 0.027698945 0.050307218 4285624349
-0.0058163963 0.025201529 0.052776892 4285558813
-0.0022466965 0.019390542 0.058917236 4285559069
-0.03279363 0.02484943 0.054030072 4285361699
-0.03135037 0.027675636 0.050590482 4285624604
-0.029928099 0.030500278 0.047155898 4285492769
-0.028239656 0.031988271 0.045207251 4285426724
-0.026122849 0.03147357 0.045480516 4285623328
-0.02340487 0.028290886 0.048709255 4285755164
-0.021266382 0.027778 0.048977491 4285624093
-0.019122351 0.027265567 0.049244504 4285624093
-0.017443459 0.028753176 0.047298316 4285624349
-0.015774991 0.030240003 0.04535469 4285558558
-0.013792586 0.030393936 0.044885647 4285558559
-0.011645149 0.02988207 0.045152012 4285558559
-0.0093247108 0.028705034 0.046151895 4285624349
-0.0075039752 0.029525276 0.044946853 4285820954
-0.004824277 0.02701889 0.047410693 4285951768
-0.00089475885 0.019858871 0.054999772 4285885979
-0.034279723 0.019688889 0.056995388 4284901423
-0.033489216 0.025877304 0.049853016 4285427489
-0.032193925 0.029381543 0.045682292 4285756184
-0.030784201 0.032213885 0.04225729 4285755419
-0.028821919 0.032365743 0.04179262 4285755164
-0.026567306 0.031178616 0.042804364 4285821208
-0.023855742 0.027984463 0.046026271 4285886998
-0.021571498 0.026799813 0.047031064 4285624093
-0.019430432 0.026284948 0.04729702 4285689884
-0.017753858 0.027776666 0.04535472 4285624604
-0.015928406 0.028599147 0.044149984 4285624348
-0.014108066 0.029421303 0.042946514 4285558814
-0.011963572 0.028906979 0.043211881 4285624349
-0.0099808984 0.029061019 0.042742837 4285755674
-0.0083379857 0.030550499 0.040808711 4285820954
-0.0061876699 0.030036807 0.041072909 4285755163
-0.0029802509 0.025520116 0.045723479 4285820698
0.0015101023 0.016337067 0.055479873 4285952024
-0.033236515 0.022215135 0.050862703 4285361699
-0.032345954 0.027747951 0.044482719 4285493278
-0.031076025 0.03126115 0.040326323 4285756184
-0.029259663 0.03208467 0.039125059 4285755673
-0.026865032 0.030220993 0.040871341 4285755929
-0.024454232 0.028358601 0.042613897 4285689628
-0.022329602 0.027840167 0.042881999 4285689373
-0.020507064 0.028664432 0.041679483 4285689373
-0.018533189 0.028817467 0.041212279 4285689884
-0.016081724 0.026958495 0.042945419 4285689884
-0.014261287 0.02778279 0.041743536 4285558558
-0.012281522 0.027936503 0.04127511 4285624349
-0.010802891 0.030100521 0.038612019 4285952789
-0.0091702789 0.031593535 0.036683634 4285754909
-0.0070309006 0.031076767 0.036948726 4285623583
-0.0043608397 0.028552145 0.039401535 4285623584
-0.00078073516 0.022683077 0.045494471 4285689374
0.0032081529 0.015479676 0.053033013 4285689628
-0.032309849 0.015166298 0.055550251 4285163054
-0.032084864 0.024090953 0.04549386 4285427488
-0.03094637 0.028290063 0.040607367 4285493534
-0.029124591 0.029116116 0.039406437 4285559068
-0.02687097 0.027920071 0.040411685 4285558559
-0.024754811 0.027398694 0.040680055 4285624349
-0.023236927 0.02957185 0.038012307 4285820953
-0.021581162 0.031070516 0.036081456 4285886999
-0.019310791 0.029876079 0.037082899 4285952534
-0.016870666 0.028009642 0.038813692 4285755674
-0.014737573 0.027489912 0.039078306 4285624093
-0.012927454 0.02831563 0.037880566 4285624094
-0.011456262 0.030485585 0.035224207 4285821209
-0.0093226656 0.029966105 0.035488859 4286018579
-0.0073557869 0.030118991 0.035023611 4285952533
-0.0046893023 0.027585335 0.037470598 4285886998
-0.0020014159 0.025053404 0.039912563 4285755674
0.0010682382 0.021180764 0.0438031 4285493024
0.0056326576 0.011942424 0.053495456 4285493024
-0.031000126 0.016360588 0.050906893 4285228844
-0.030256961 0.022604227 0.043820594 4285361698
-0.02884746 0.02546265 0.040415522 4285493789
-0.026877243 0.025615029 0.039948899 4285559324
-0.025351081 0.027795251 0.037284099 4285689883
-0.02384064 0.029974286 0.034623116 4285821209
-0.022345912 0.032152209 0.031965859 4285755163
-0.020242725 0.031627797 0.032235749 4285952279
-0.017816592 0.029753678 0.033964835 4285886999
-0.015374344 0.027880922 0.035690114 4285689883
-0.013244022 0.027358785 0.035953794 4285558558
-0.011608284 0.028860617 0.034031201 4285558558
-0.0096443258 0.029013153 0.033566549 4285690138
-0.0076802038 0.029165782 0.033101924 4285689883
-0.0051919483 0.027296927 0.034816645 4285690393
-0.002510298 0.024755761 0.037253417 4285558813
0.00019276887 0.022216327 0.039685186 4285493279
0.0043782853 0.014292821 0.047908325 4285493279
-0.029429983 0.016213574 0.047747541 4285360933
-0.028571468 0.021796204 0.041415062 4285361953
-0.027174298 0.024662424 0.038019579 4285493278
-0.025798146 0.027527079 0.034629129 4285821463
-0.024593573 0.031068072 0.030513234 4285755419
-0.022955772 0.032574024 0.028593171 4285557539
-0.02086084 0.032046746 0.028863322 4285689119
-0.018284883 0.029488079 0.031318024 4285821209
-0.016009811 0.028285302 0.032311793 4285690138
-0.013887759 0.027760338 0.032575686 4285558813
-0.011926714 0.027912546 0.032111652 4285558813
-0.009965498 0.028064836 0.031647626 4285558813
-0.0078323372 0.027540971 0.031909071 4285558814
-0.0051703565 0.024989426 0.034343757 4285558814
-0.0026640706 0.023115467 0.036049258 4285559068
0.0002178289 0.019891582 0.039198119 4285690393
0.0040385909 0.0132927 0.045955416 4285690393
-0.028154265 0.017436139 0.043135773 4285294634
-0.027325835 0.023033928 0.03682375 4285361954
-0.026392009 0.027948257 0.031251226 4285559068
-0.025194462 0.03149958 0.027145281 4286019344
-0.023564305 0.033009216 0.025230356 4285887253
-0.021322001 0.03179938 0.026228368 4285953043
-0.018752258 0.02923147 0.028677866 4285756183
-0.01632205 0.027344558 0.030395996 4285624604
-0.014202964 0.026817147 0.030658901 4285559069
-0.012078393 0.026290242 0.030920569 4285559069
-0.010117281 0.026442479 0.030456539 4285493024
-0.0078128278 0.025237929 0.031440191 4285558814
-0.0051491074 0.022677764 0.033867795 4285690139
-0.0024639852 0.020119339 0.036290392 4285624094
0.00042210892 0.016884834 0.039429937 4285492768
0.00424603 0.010264345 0.046169836 4285558304
-0.027312104 0.011009917 0.047031213 4285163054
-0.027187649 0.02004027 0.037085071 4285558813
-0.026542123 0.026335325 0.030066825 4285493279
-0.025643911 0.031262171 0.024514444 4285558814
-0.023865972 0.032093693 0.023330569 4285493024
-0.021626819 0.030879166 0.024326015 4285624349
-0.018744458 0.026938844 0.028220385 4285558814
-0.016473059 0.025726967 0.02920831 4285624349
-0.014354277 0.025197316 0.029469598 4285690393
-0.012396079 0.025349226 0.029006179 4285952788
-0.009931542 0.023458675 0.030711304 4285821209
-0.0076222904 0.022250049 0.031690516 4285820954
-0.0049541704 0.019681457 0.034110397 4285689883
-0.0022646487 0.017114617 0.036525287 4285623584
0.00044625625 0.014549561 0.038935129 4285492513
0.0040886588 0.0085870847 0.044938568 4285427233
-0.026330743 0.0038680732 0.05163173 4285031984
-0.025955807 0.021299105 0.03251392 4285361188
-0.025192928 0.026926834 0.026244007 4285361698
-0.02370939 0.029129852 0.023609255 4285559069
-0.02162068 0.028595403 0.02387578 4285559069
-0.018736992 0.024642065 0.027759843 4285623838
-0.016463447 0.023425959 0.028743908 4285820699
-0.014342312 0.02289426 0.029002938 4285755164
-0.012215693 0.022363074 0.029260747 4285755164
-0.0099150799 0.021149296 0.030238584 4285689373
-0.0074325018 0.019253638 0.031934485 4285689628
-0.0051076673 0.018041912 0.032906726 4285689884
-0.002419062 0.01546625 0.03531516 4285558813
0.00029092655 0.012892365 0.037718549 4285427489
0.0042949766 0.0055459961 0.045143683 4285361699
-0.025180552 0.0057819486 0.046292316 4285097519
-0.025224391 0.015554238 0.035669744 4285294379
-0.024743471 0.022574119 0.027960859 4285426979
-0.023248818 0.024784494 0.02532842 4285755928
-0.021149773 0.024248637 0.025590818 4285755673
-0.018572178 0.021655023 0.028018408 4285820953
-0.016454171 0.02112079 0.028276436 4285820699
-0.014330681 0.020587061 0.028533228 4285689628
-0.012367379 0.020739291 0.028068542 4285755418
-0.01006728 0.019521073 0.029043145 4285689628
-0.0077563934 0.018303826 0.030015226 4285624093
-0.0054347217 0.017087456 0.030984864 4285624349
-0.0029260181 0.015187424 0.032669701 4285493278
-4.3328851e-05 0.011919834 0.035785045 4285493788
0.0041373 0.0038648248 0.043909531 4285296929
-0.024758611 0.0013577044 0.047962736 4285031984
-0.024642203 0.010472372 0.038083289 4285163053
-0.024295587 0.018204086 0.029664978 4285492513
-0.022941973 0.021110538 0.026313037 4285689628
-0.020835269 0.020573009 0.026571967 4285689883
-0.018723082 0.020036016 0.026829612 4285624604
-0.016605381 0.019499537 0.02708602 4285624348
-0.014807794 0.020339277 0.025902674 4285558813
-0.012519006 0.019115746 0.026876502 4285559069
-0.010387525 0.018580586 0.027129836 4285559324
-0.0080798082 0.017358657 0.028099362 4285559068
-0.0057613216 0.016137689 0.029066358 4285559323
-0.0030799024 0.013543941 0.031463146 4285362718
-0.00055582449 0.011638574 0.033139452 4285297693
0.0036168955 0.0035568029 0.041245814 4285035298
-0.024626214 -0.0017009154 0.048176359 4285097519
-0.024501961 0.0074426979 0.038316566 4285163308
-0.024147887 0.015198879 0.029914774 4285360679
-0.022788245 0.018114489 0.026568018 4285558304
-0.020831157 0.018265825 0.026104487 4285690139
-0.018716622 0.017726798 0.026359893 4285624349
-0.016756516 0.01787854 0.025895778 4285558814
-0.014796238 0.018030379 0.025431685 4285625114
-0.01267055 0.017492469 0.025684644 4285428254
-0.0107073 0.017644703 0.025219969 4285362974
-0.0082321949 0.015728693 0.026902657 4285362719
-0.0059142224 0.014503285 0.027866431 4285297438
-0.0034096129 0.01258976 0.029542271 4285232668
-0.0014245175 0.012744032 0.029072698 4285036319
-0.024638351 -0.0040743276 0.047663238 4284966704
-0.024655346 0.0057914555 0.037103951 4285163563
-0.024150033 0.012878463 0.029439062 4285295144
-0.02309056 0.017189141 0.024661012 4285558558
-0.021136228 0.017340232 0.024198115 4285624348
-0.019181732 0.017491415 0.023735233 4285559068
-0.017067309 0.01695025 0.02398904 4285494044
-0.014785033 0.015717331 0.024957646 4285559578
-0.012822043 0.015869435 0.024492949 4285035553
-0.024662416 0.0034448057 0.036609706 4284901168
-0.024301421 0.011249393 0.028242741 4285229864
-0.023089264 0.014877927 0.024191298 4285624094
-0.021286611 0.015724227 0.023011446 4285493534
-0.019175339 0.015180517 0.023264252 4285362973
-0.017218102 0.015331961 0.022800758 4285232414
-0.014936339 0.014094613 0.023766138 4285036319
-0.024452727 0.0096205696 0.027046587 4285098283
-0.023239654 0.013260044 0.023003209 4285559069
-0.021590915 0.01480579 0.021110229 4285297693
-0.019639287 0.014956672 0.020647965 4285167388
-0.023389984 0.011642419 0.021815293 4285034788
0.0039016493 0.0098312199 0.013655167 4285362464
0.0056720935 0.010684922 0.012490485 4285690393
0.008596763 0.0073337853 0.015529752 4285886233
0.013507083 -0.0030206665 0.025560964 4285951514
-0.00017185882 0.007906571 0.013393663 4285100578
0.0019739158 0.0073555186 0.013630658 4285297438
0.0033742227 0.0096184015 0.011066131 4285493278
0.0049490593 0.011177063 0.0092048422 4285558049
0.0072855018 0.0099231303 0.010141492 4285689118
0.0110025 0.003750965 0.015963111 4285820188
0.015957497 -0.0066326037 0.025958922 4285885978
-0.0095373616 0.011332974 0.008442238 4284904484
-0.0074242726 0.010776773 0.0086849891 4285361698
-0.0054826215 0.010927483 0.0082255453 4285427489
-0.0030022077 0.0089597404 0.0098672472 4285428254
-0.00087016076 0.0084053129 0.010105737 4285428253
0.0012673251 0.0078513771 0.010343067 4285493533
0.0024726391 0.010825798 0.007086765 4285953044
0.0040371232 0.012387984 0.0052312259 4285689373
0.005976744 0.012539126 0.0047727171 4285689374
0.0090893619 0.0084607303 0.0084938668 4285754909
0.012828361 0.0022707507 0.01429541 4285820953
0.017619271 -0.0074379966 0.023562405 4285689883
-0.011625476 0.0095814914 0.0077254623 4285100578
-0.0098582394 0.010440722 0.0065659396 4285624604
-0.0079221539 0.010590874 0.0061077233 4285820444
-0.0058092624 0.010032572 0.0063489173 4285951768
-0.0035115816 0.0087663829 0.0072876886 4285559068
