# .PCD v0.7 - Point Cloud Data file format
VERSION 0.7
FIELDS x y z rgba
SIZE 4 4 4 4
TYPE F F F U
COUNT 1 1 1 1
WIDTH 964
HEIGHT 1
VIEWPOINT 0 0 0 1 0 0 0
POINTS 964
DATA ascii
0.052311353 0.0043568164 -0.0064490647 4281307198
0.059694488 -0.011309743 0.0078824926 4281307198
0.068448111 -0.03056024 0.025541259 4281307199
-0.025209133 0.0087854937 -0.0015588161 4283140649
-0.023615669 0.010382481 -0.0033770259 4281702704
-0.022179421 0.012707427 -0.0058856253 4280397613
-0.020609546 0.014302872 -0.0076982602 4279872569
-0.018746007 0.014441244 -0.008125212 4280785213
-0.016572889 0.013123721 -0.0071701258 4280719934
-0.014231596 0.011079259 -0.0055269971 4281111869
-0.012034249 0.0097637475 -0.0045772959 4281504058
-0.0099888556 0.0091765076 -0.0043191114 4283401259
0.022907758 0.0086852312 -0.0089319088 4283011363
0.024383828 0.010276198 -0.010721246 4281831478
0.025636014 0.012590125 -0.013185676 4281242684
0.027304063 0.013456047 -0.01429233 4281306433
0.029622518 0.012152024 -0.013368415 4281371203
0.032172821 0.010125935 -0.011771081 4281240644
0.034962974 0.0073783398 -0.0095020607 4281306179
0.037094712 0.0068003088 -0.0092616063 4281110083
0.039231755 0.0062227547 -0.0090222228 4281110083
0.040678427 0.0078124106 -0.010804176 4281044548
0.042348959 0.0086793378 -0.011910783 4280979779
0.044014111 0.0095459446 -0.013016094 4281240644
0.045913748 0.0096906722 -0.013448536 4281306179
0.048540868 0.0076713338 -0.011868017 4281241408
0.051674269 0.0042108521 -0.0089502567 4281175873
0.058303952 -0.009341374 0.0033380222 4281241153
-0.025488604 0.0079643652 -0.0033869036 4282877999
-0.023753624 0.0088345334 -0.0045094551 4281701430
-0.022316929 0.011166021 -0.0070132259 4280785214
-0.020746786 0.012765817 -0.0088226497 4281175618
-0.019035246 0.013634544 -0.0099395923 4281305923
-0.016865302 0.012312405 -0.0089870859 4281240899
-0.014841776 0.011721164 -0.0087257642 4280981309
-0.01233324 0.0089410022 -0.0064010345 4281438523
-0.010453332 0.0090809986 -0.0068314285 4284707114
0.023180636 0.0056689382 -0.0087206066 4283336999
0.025083078 0.0058126301 -0.009154629 4281502529
0.026772477 0.0066822469 -0.010264585 4281174853
0.028456559 0.0075515807 -0.011373235 4281110849
0.030572053 0.0069698095 -0.011130979 4280980033
0.032692857 0.0063885599 -0.010889845 4280849473
0.035266362 0.0043577701 -0.0093026152 4280718658
0.037403081 0.0037779659 -0.0090649324 4280588354
0.039316081 0.0039232671 -0.0095007503 4280523074
0.040997364 0.0047930628 -0.010608249 4280588098
0.04314195 0.0042141974 -0.010372099 4280652869
0.044817813 0.0050838143 -0.011478192 4280717893
0.046727955 0.0052293539 -0.011913008 4280587589
0.048880346 0.0046514198 -0.011678384 4280913733
0.051772926 0.0019038022 -0.0094385939 4280912713
0.058153652 -0.010966703 0.0021505374 4280847433
0.073731683 -0.043913268 0.031933151 4281042508
-0.040051091 0.0016308129 0.0024048006 4284442934
-0.038283002 0.0025047734 0.0012756838 4284706604
-0.03639492 0.0026438907 0.00084229466 4284445228
-0.034506638 0.0027831271 0.00040894095 4284051253
-0.032487739 0.00218831 0.0006688768 4283986484
-0.030862559 0.0037958995 -0.0011503501 4283725109
-0.028840635 0.0032015145 -0.00089094881 4283528759
-0.027089987 0.0040747747 -0.002015614 4283463734
-0.025062386 0.0034810156 -0.0017573619 4281959743
-0.023747835 0.0065536797 -0.0049514589 4281568575
-0.022161644 0.0081588849 -0.0067613558 4281371713
-0.020585928 0.0097634792 -0.0085688177 4281175874
-0.018717352 0.0099021643 -0.0089969728 4281045569
-0.016539935 0.0085761696 -0.0080494434 4281045569
-0.014508758 0.0079832971 -0.0077915364 4281110593
-0.012312468 0.0066589564 -0.0068482165 4281436993
-0.010430042 0.0067991242 -0.0072792009 4282484024
0.025780752 0.0013318062 -0.0076006213 4281828929
0.027480854 0.0022044033 -0.0087113725 4281370949
0.028960116 0.0038045794 -0.010494654 4281306179
0.031301431 0.0024935827 -0.0095825428 4281176129
0.033211708 0.0026383176 -0.010018011 4281175364
0.035345457 0.0020559877 -0.0097813839 4280979268
0.037258346 0.0022011697 -0.010217262 4280979268
0.039400019 0.0016196817 -0.0099822627 4280783684
0.041315496 0.0017652959 -0.010418554 4280913733
0.043465063 0.0011846274 -0.010185176 4280717893
0.045383103 0.0013306737 -0.010621876 4280979013
0.047301091 0.0014768094 -0.011058477 4280847943
0.049461138 0.00089724362 -0.010827196 4280913479
0.052115962 -0.0011329129 -0.0092627676 4281108809
0.058498219 -0.014042489 0.0022963528 4281108554
0.073066249 -0.04418917 0.029341603 4281238603
-0.039830174 -0.0021408126 0.0033454588 4282872389
-0.038298558 0.00020980835 0.00082908291 4282026553
-0.036283035 -0.00038771331 0.0010880167 4281895993
-0.034389567 -0.00024812669 0.00065344479 4281830459
-0.032626126 0.00062797219 -0.00047280546 4281830204
-0.030867811 0.0015037507 -0.0015977575 4281764668
-0.028979074 0.0016432852 -0.0020310143 4281763393
-0.02695198 0.001047194 -0.0017743846 4281698368
-0.024919387 0.00045153499 -0.0015189154 4281568064
-0.023168329 0.0013272464 -0.0026419228 4281176128
-0.021422435 0.0022026151 -0.0037636356 4280851259
-0.019681696 0.0030777156 -0.0048840912 4280654909
-0.017794613 0.0032177493 -0.005316495 4280524094
-0.015599128 0.0018887594 -0.004376472 4280719679
-0.013706472 0.0020294338 -0.0048099859 4280783683
-0.011494759 0.00070183724 -0.0038734572 4281632833
-0.0097586252 0.001577124 -0.004992458 4282482749
0.026266865 -0.0024358481 -0.0067326291 4281893953
0.027974993 -0.0015604198 -0.0078435959 4281697859
0.029462505 4.4666231e-05 -0.0096254414 4281436738
0.031593278 -0.0005402863 -0.0093899565 4281306434
0.03350874 -0.00039513409 -0.0098265866 4281240644
0.035424173 -0.00024986267 -0.01026312 4281175619
0.037339583 -0.00010447204 -0.01069956 4280979269
0.03948357 -0.00068797171 -0.010466744 4280979269
0.041632853 -0.0012709945 -0.010235001 4281109574
0.043787401 -0.0018534362 -0.010004395 4280978504
0.045947213 -0.0024353713 -0.0097749094 4280978504
0.047873039 -0.0022886097 -0.010213287 4281173833
0.049798798 -0.0021417513 -0.010651563 4281044039
0.052458212 -0.0041781291 -0.0090930779 4281174344
0.058594756 -0.016399145 0.001771071 4281370694
0.066321 -0.03297741 0.01660081 4281435974
-0.039371539 -0.0074039474 0.0056616962 4281890128
-0.038070317 -0.003567569 0.0017632982 4281697348
-0.036171865 -0.0034277514 0.0013274783 4281306434
-0.034400579 -0.0025490746 0.00020101946 4281175873
-0.032504383 -0.0024092048 -0.00023412053 4281240644
-0.030740682 -0.0015308857 -0.0013586776 4281045569
-0.028576095 -0.0028672963 -0.00041545648 4281371458
-0.026676696 -0.0027268976 -0.00085110497 4281371458
-0.024636459 -0.0033241212 -0.0005990779 4281175618
-0.023020674 -0.0017081723 -0.0024092952 4281045569
-0.020977449 -0.0023049638 -0.0021577841 4281045313
-0.019226011 -0.0014269054 -0.0032790555 4281045569
-0.017177161 -0.0020230785 -0.0030286862 4280850494
-0.015276801 -0.0018819496 -0.0034640571 4280915008
-0.013063099 -0.0032138601 -0.0025314381 4281371458
-0.01099788 -0.0038085133 -0.0022845147 4281633853
-0.0092510618 -0.0029302239 -0.0034043593 4283006263
-0.0075094253 -0.0020522326 -0.0045228838 4284640303
0.026542 -0.0054837465 -0.006545899 4281698113
0.028043073 -0.0038733855 -0.0083276108 4281500998
0.029533489 -0.0022636652 -0.010106853 4281305668
0.031666581 -0.002850607 -0.0098735327 4281109829
0.033584554 -0.002705276 -0.010310736 4280979268
0.035502508 -0.0025598258 -0.010747858 4280914244
0.037420433 -0.0024142414 -0.011184872 4281110339
0.039566755 -0.0029997602 -0.010954176 4281109829
0.041718341 -0.0035847276 -0.010724635 4281109829
0.043875203 -0.0041691661 -0.010496205 4281044038
0.046037331 -0.0047531053 -0.010268895 4281174343
0.047965676 -0.0046061352 -0.010707827 4281109319
0.050135665 -0.0051892251 -0.010482123 4281239879
0.053044021 -0.0079617277 -0.0082656685 4281370694
0.058937937 -0.019489691 0.0019061835 4281566789
-0.039272431 -0.010464154 0.0058894102 4282087244
-0.03796507 -0.0066164285 0.0019977689 4281567298
-0.036061425 -0.0064762682 0.001560729 4281175619
-0.034284752 -0.0055950433 0.00043466501 4280979778
-0.032513205 -0.0047140941 -0.00069014728 4280914754
-0.030746784 -0.0038334206 -0.0018137107 4280914754
-0.028850351 -0.0036933571 -0.0022487706 4281175363
-0.026815925 -0.00429333 -0.0019971579 4281240644
-0.024776023 -0.0048927814 -0.0017467234 4281240644
-0.022730622 -0.0054917261 -0.0014974643 4281175363
-0.020825546 -0.0053506047 -0.0019341912 4281305668
-0.018920291 -0.0052093565 -0.0023708716 4281240644
-0.017014887 -0.0050680041 -0.0028075036 4281110594
-0.015109349 -0.0049265027 -0.0032440759 4281305924
-0.013047252 -0.0055237114 -0.0029981919 4281436993
-0.010820653 -0.0068589151 -0.0020717438 4281567808
-0.0092301704 -0.0052397326 -0.0038722917 4283072564
-0.007485833 -0.0043593496 -0.0049898471 4284640558
0.02447138 -0.0072159916 -0.0072664153 4284579868
0.02660678 -0.0078053176 -0.0070355553 4281567044
0.028323013 -0.0069249421 -0.0081450287 4281304904
0.030248836 -0.0067792386 -0.0085841957 4281108809
0.031957086 -0.0058992431 -0.0096916724 4280978504
0.033880234 -0.0057535172 -0.010130057 4280978504
0.035803363 -0.0056076497 -0.010568338 4280782918
0.037726466 -0.0054616705 -0.011006525 4280978504
0.039877746 -0.006048955 -0.010778656 4281371203
0.042034306 -0.0066357031 -0.010551883 4281306179
0.044429686 -0.0079549327 -0.0096614268 4281370694
0.046835635 -0.0092732161 -0.0087733399 4281304649
0.048774477 -0.0091254488 -0.0092146639 4281369929
0.050954759 -0.0097099021 -0.0089929271 4281501508
0.054116961 -0.013222523 -0.0061229304 4281305668
0.05977397 -0.024052568 0.003358596 4281436484
-0.037982184 -0.0089303255 0.0015373621 4281502273
-0.036076013 -0.0087899864 0.0010997355 4280914754
-0.034296628 -0.0079063699 -2.537109e-05 4280979778
-0.032522362 -0.0070230663 -0.001149185 4280915008
-0.030885521 -0.0053973272 -0.0029579941 4281045058
-0.028854247 -0.0059998259 -0.0027073994 4281175619
-0.026817497 -0.0066018328 -0.0024579931 4281240644
-0.024775255 -0.0072032958 -0.0022097509 4281109829
-0.02287047 -0.0070623383 -0.0026465114 4281240133
-0.020819914 -0.0076630339 -0.0023999773 4281174853
-0.018912148 -0.0075216219 -0.0028372426 4281240644
-0.016853344 -0.0081214458 -0.0025924835 4281371203
-0.014942612 -0.0079795867 -0.0030302536 4281371203
-0.012875546 -0.0085785687 -0.0027872156 4281371203
-0.011279631 -0.0069547743 -0.0045858212 4281175364
-0.0092096291 -0.0075532943 -0.0043432731 4283335723
0.024326742 -0.0088024586 -0.0084260907 4284055843
0.026671182 -0.010130957 -0.0075281877 4281238858
0.028602175 -0.0099849924 -0.0079686362 4281173579
0.030533172 -0.009838894 -0.0084089842 4281108299
0.032246798 -0.0089563131 -0.0095160399 4280847433
0.03395509 -0.0080740079 -0.010621777 4280586568
0.03610342 -0.0086639151 -0.010395044 4280847689
0.038707752 -0.010724857 -0.0088394452 4281043018
0.041327994 -0.012784436 -0.0072874264 4281239368
0.044425517 -0.016313493 -0.0044113421 4281436228
0.046616264 -0.016899697 -0.0041939118 4281370439
0.04904826 -0.018220305 -0.0033150269 4281630793
0.051013552 -0.018070519 -0.0037623672 4281238859
0.053702701 -0.020124294 -0.0022255285 4281434444
0.056895662 -0.023645401 0.00062926579 4281304394
0.061841514 -0.032303452 0.008099094 4281044294
-0.037878167 -0.011993937 0.0017610174 4281240133
-0.035966795 -0.01185324 0.0013221819 4281371459
-0.034055244 -0.011712439 0.0008833725 4281175618
-0.032531839 -0.0093361288 -0.0016112104 4281306434
-0.030627873 -0.0091956705 -0.0020481143 4281306179
-0.02872372 -0.0090551004 -0.0024849884 4281370693
-0.026819404 -0.0089144111 -0.0029218215 4281304903
-0.025054973 -0.0080292523 -0.0040414222 4281173833
-0.022867505 -0.009376809 -0.0031130873 4281239368
-0.021105427 -0.0084915906 -0.0042320359 4281175109
-0.019348484 -0.0076066703 -0.0053496789 4281109829
-0.017596703 -0.0067220256 -0.0064660572 4281174853
-0.015543398 -0.0073243231 -0.0062216017 4281305669
-0.013484653 -0.0079261214 -0.0059783123 4281240389
-0.011579107 -0.0077844337 -0.0064147376 4281305669
-0.0095121004 -0.0083854347 -0.006173132 4283334448
0.022052765 -0.0097943917 -0.0098144058 4284638774
0.023975603 -0.0096492767 -0.010253174 4283528759
0.02631684 -0.010982357 -0.0093578268 4280844628
0.028245024 -0.010836601 -0.0097976308 4280714323
0.030173212 -0.010690711 -0.010237342 4280648788
0.032101396 -0.010544695 -0.010676948 4280453458
0.033809744 -0.0096602291 -0.011781065 4280454734
0.036625195 -0.012466833 -0.009563921 4280517974
0.040137336 -0.017485552 -0.0053614033 4280843863
0.044142298 -0.023976877 0.00015829597 4281235543
0.047734171 -0.028989345 0.0043428726 4281824338
0.050197579 -0.030312061 0.0052112117 4281824339
-0.037289675 -0.018057615 0.0047204383 4281435973
-0.035114627 -0.019411206 0.0056477487 4281370949
-0.033181954 -0.019268885 0.0052040722 4281436993
-0.031249095 -0.019126415 0.0047604386 4281371458
-0.029447962 -0.018236741 0.0036337851 4281503038
-0.027651962 -0.017347291 0.0025083618 4281306179
-0.026272748 -0.014218003 -0.00066124275 4281369673
-0.024774741 -0.011836641 -0.0031447578 4281303883
-0.023149971 -0.010202639 -0.0049439538 4281108043
-0.021245297 -0.010061614 -0.0053806342 4280779094
-0.019636143 -0.0084286258 -0.0071760528 4280645729
-0.0099752657 -0.0084679127 -0.0086759608 4281687659
0.012105133 -0.011358924 -0.0094467681 4282144109
0.013831951 -0.010472059 -0.010554416 4281881713
0.015749205 -0.010327861 -0.010992276 4281096059
0.017864857 -0.010925718 -0.010762179 4280768383
0.019784845 -0.01078108 -0.011200486 4280375683
0.021908533 -0.011378035 -0.010972062 4279916684
0.023831226 -0.011232942 -0.011410808 4279522964
0.026171912 -0.012570404 -0.010518616 4278998939
0.02809995 -0.01242467 -0.010958398 4278998683
0.029813681 -0.011537835 -0.012062268 4279129753
0.031956021 -0.012132801 -0.011837652 4279064218
0.033884045 -0.011986673 -0.012277132 4279129499
0.03692349 -0.015542194 -0.0094045904 4279391894
0.041339196 -0.023536511 -0.0025672866 4279391894
0.046496186 -0.033746079 0.0062402897 4279720079
-0.024355944 -0.016405582 -0.0015778868 4281360749
-0.023147311 -0.012520924 -0.0054133278 4279721609
-0.021530103 -0.010883063 -0.0072074365 4279721354
-0.019923355 -0.0092458948 -0.0089990161 4279458448
-0.018026475 -0.0091052502 -0.0094337519 4279000468
-0.015976485 -0.0097121745 -0.0091918539 4279392914
-0.013921063 -0.010318607 -0.0089511238 4279261588
-0.012018468 -0.01017718 -0.0093869064 4278997918
-0.0099548064 -0.010782756 -0.0091478862 4279456409
-0.0080492981 -0.010640882 -0.0095841624 4279521433
-0.0059774257 -0.011245668 -0.0093468037 4279915154
-0.0040690415 -0.011103347 -0.0097835641 4279522198
-0.0019889921 -0.011707224 -0.0095479321 4279522454
0.00044492632 -0.013802908 -0.0079700034 4279588244
0.0025411136 -0.01440534 -0.0077378848 4279456664
0.0042836107 -0.013515785 -0.0088478867 4279063963
0.0058386661 -0.011880904 -0.010626527 4279129499
0.0079377443 -0.012482777 -0.010394802 4278933404
0.0098546855 -0.012338966 -0.01083287 4279064218
0.012152057 -0.013684958 -0.0099347141 4279194778
0.013881594 -0.012795746 -0.011041285 4279062943
0.015996851 -0.01339592 -0.010812892 4279063453
0.018117461 -0.013995543 -0.010585612 4279195289
0.019841805 -0.013106361 -0.011690727 4278867869
0.021967798 -0.013705328 -0.01146449 4279064219
0.023893002 -0.013560034 -0.011903794 4278801824
0.026235797 -0.014901713 -0.011015395 4278932384
0.028166343 -0.014755771 -0.011455732 4278538918
0.029668678 -0.013123415 -0.013221165 4278997663
0.031810671 -0.013720579 -0.012998121 4278604453
0.033738542 -0.013574474 -0.013437575 4278669479
0.03699892 -0.01788348 -0.0099122105 4278866339
0.04186441 -0.027386338 -0.0017727278 4279063199
0.047481224 -0.039110288 0.0083298311 4279587733
-0.023938645 -0.020991713 -2.3604371e-05 4281357688
-0.023144986 -0.014843225 -0.0058857151 4278933404
-0.021235283 -0.014701858 -0.0063235802 4278998429
-0.019620311 -0.01305972 -0.0081138108 4278998174
-0.017565478 -0.013668656 -0.0078747291 4278801569
-0.015810754 -0.012777135 -0.008986827 4279129499
-0.013750341 -0.01338543 -0.0087488592 4279063964
-0.012000654 -0.01249408 -0.0098596346 4278801314
-0.00993466 -0.013101727 -0.0096227657 4278866084
-0.0080266483 -0.012959674 -0.010059621 4278603178
-0.0057864077 -0.014315352 -0.0091525633 4278866083
-0.0038728677 -0.014172651 -0.0095905084 4278931874
-0.0016164631 -0.015526928 -0.0086869244 4278735269
0.00047663599 -0.016131893 -0.0084558418 4278735269
0.0023984425 -0.015988216 -0.0088954 4278866593
0.0041409917 -0.015096486 -0.010003777 4278866849
0.0060603097 -0.014952756 -0.010442587 4278735779
0.0081643574 -0.01555641 -0.010213639 4278801314
0.010086469 -0.015412241 -0.010652906 4278801059
0.012388591 -0.01676219 -0.0097591719 4278801059
0.014123492 -0.015870415 -0.010865337 4278735524
0.016243722 -0.016472384 -0.010639715 4278735524
0.017973393 -0.015580751 -0.011744498 4278604708
0.019697789 -0.014689371 -0.012847966 4278473638
0.021823425 -0.015290558 -0.012623302 4278539173
0.02395441 -0.015891224 -0.012399766 4278473384
0.026299324 -0.017237112 -0.011515095 4278473384
0.028232381 -0.017090991 -0.011956005 4278669988
0.030165434 -0.016944729 -0.012396823 4278473384
0.03188191 -0.01605317 -0.013497963 4278473384
0.034031529 -0.016651832 -0.013278159 4278866339
0.037073981 -0.02022887 -0.010422762 4278932383
0.042163908 -0.03050454 -0.0016460866 4279194523
-0.02380145 -0.02408886 0.00016520265 4280898689
-0.023001064 -0.017922506 -0.0056853043 4278604198
-0.021230776 -0.017028093 -0.0067995698 4278997409
-0.019465636 -0.016133934 -0.0079125548 4278473638
-0.017405841 -0.016744651 -0.0076763188 4278473638
-0.015645739 -0.015850618 -0.0087879673 4278735523
-0.013580356 -0.016460687 -0.0085528316 4278866848
-0.011667412 -0.016318522 -0.0089910114 4278604453
-0.0095938034 -0.016927749 -0.0087575847 4278604198
-0.0078411587 -0.016033813 -0.0098671773 4278342059
-0.0057620071 -0.016642392 -0.0096348366 4278473128
-0.0038459413 -0.016499504 -0.010073367 4278604198
-0.0017585978 -0.017107263 -0.0098426705 4278669733
0.00033415109 -0.017714456 -0.009613174 4278538918
0.0020793229 -0.016820483 -0.010720606 4278538918
0.0041775554 -0.017427012 -0.010492164 4278670243
0.0060993806 -0.017283097 -0.010931554 4278670243
0.0082057342 -0.017888777 -0.010704796 4278342314
0.0099432357 -0.016994894 -0.011810097 4278669988
0.012244813 -0.01834923 -0.010919529 4278735268
0.0141722 -0.018204406 -0.01135981 4278604453
0.016489837 -0.019557334 -0.010472684 4278800803
0.018224865 -0.018663079 -0.01157708 4278408103
0.020155031 -0.018517658 -0.012017707 4278539173
0.022085231 -0.018372133 -0.01245826 4278473384
0.024426926 -0.019722745 -0.011576234 4278473384
0.026362471 -0.01957655 -0.012017812 4278407849
0.028086983 -0.018682525 -0.013119305 4278866593
0.029806167 -0.017788708 -0.01421951 4278866593
0.031736404 -0.017642528 -0.014659586 4278866848
0.034104697 -0.018990517 -0.013783167 4278932129
0.037148658 -0.022578299 -0.01093633 4278867104
0.042238273 -0.032884404 -0.0021826103 4279129499
-0.024221379 -0.024173371 -0.0023514284 4280898433
-0.022999618 -0.020255215 -0.0061652521 4278669479
-0.021082204 -0.020113297 -0.0066048922 4278800549
-0.01916464 -0.019971274 -0.0070444914 4278800549
-0.017246928 -0.019829117 -0.0074840365 4278735268
-0.015633848 -0.018178225 -0.0092671001 4278800803
-0.01356614 -0.018790305 -0.0090341503 4278735778
-0.011808384 -0.017894082 -0.010143477 4278866594
-0.0095747523 -0.019259244 -0.0092416322 4278669733
-0.0078194179 -0.01836291 -0.010350249 4278669733
-0.005737938 -0.018973522 -0.010120048 4278276524
-0.0038193613 -0.018830471 -0.010559156 4278407594
-0.0017297193 -0.019440204 -0.010330695 4278407594
0.00019171089 -0.019296691 -0.010770279 4278276779
0.0022895075 -0.019905567 -0.010543494 4278604453
0.0040348172 -0.019009292 -0.011649217 4278407849
0.00613809 -0.019617513 -0.011423501 4278539173
0.0082467645 -0.02022519 -0.011198907 4278407849
0.010173887 -0.020080626 -0.011639315 4278669988
0.012290645 -0.020687461 -0.011416393 4278735268
0.014220539 -0.020542473 -0.011857263 4278604453
0.016345389 -0.021148466 -0.011635947 4278866594
0.018278029 -0.021003 -0.012077234 4278800804
0.020410914 -0.021608114 -0.011857624 4278997409
0.022549145 -0.022212692 -0.011639117 4278735269
0.02448719 -0.022066437 -0.01208135 4278866339
0.026217058 -0.021169931 -0.013182501 4278997409
0.028152462 -0.021023631 -0.013623956 4278997409
0.03030137 -0.021626897 -0.013407509 4278931874
0.032455605 -0.022229627 -0.013192165 4278998173
0.034615137 -0.022831842 -0.012977961 4278736033
0.03766593 -0.026430018 -0.010140859 4278670753
0.042312257 -0.035268351 -0.0027221143 4278998429
-0.024362672 -0.025763772 -0.0035150405 4281094528
-0.023140069 -0.021834679 -0.0073208204 4279521944
-0.021222804 -0.021692805 -0.007760453 4278669734
-0.019158509 -0.022307664 -0.0075286431 4278538408
-0.017238285 -0.022165358 -0.0079687787 4278866084
-0.015470106 -0.021266431 -0.0090790233 4278997153
-0.013397444 -0.021880329 -0.0088488711 4278538663
-0.011634309 -0.02098152 -0.0099577671 4278735524
-0.0097162165 -0.020838886 -0.010397053 4278931874
-0.0077980161 -0.020696126 -0.01083628 4279063199
-0.0057142302 -0.021308705 -0.0106083 4278866594
-0.0037931502 -0.021165475 -0.011047992 4278604199
-0.0018719733 -0.021022126 -0.011487613 4278866594
4.9300492e-05 -0.020878643 -0.011927168 4278473383
0.0021467544 -0.021489725 -0.011701955 4278735779
0.00424961 -0.022100255 -0.011477868 4278801314
0.0061764494 -0.021955997 -0.011918421 4278735014
0.0081033483 -0.021811582 -0.012358881 4278669479
0.010217045 -0.022420958 -0.012137006 4278734758
0.012146734 -0.022276089 -0.012577909 4278931874
0.014076471 -0.022131085 -0.013018738 4278866849
0.016395673 -0.02349259 -0.012138545 4278604453
0.018528171 -0.024100043 -0.011920578 4278604708
0.020666018 -0.024706967 -0.011703744 4278997409
0.023011897 -0.026066087 -0.010829359 4278669734
0.025163092 -0.026671723 -0.010615353 4278931873
0.026695635 -0.025019929 -0.012374759 4279063199
0.028638858 -0.024873033 -0.012817997 4278735268
0.030368783 -0.023974091 -0.013917312 4278866594
0.03274129 -0.025330566 -0.013048526 4278932129
0.034905788 -0.025934562 -0.012837075 4279128989
0.038403284 -0.031045832 -0.0087004416 4279063964
0.042609811 -0.038407475 -0.0026107663 4279521688
-0.02450392 -0.02735386 -0.0046784314 4280963714
-0.02313913 -0.024173319 -0.0078051887 4279325338
-0.021075327 -0.024790525 -0.007575016 4278931618
-0.018859375 -0.02616626 -0.0066762152 4278669224
-0.016931329 -0.026023373 -0.0071181427 4278801059
-0.014851157 -0.026639052 -0.0068914141 4279063964
-0.012765545 -0.027254179 -0.0066658775 4278801059
-0.011146393 -0.025593936 -0.0084435977 4278800804
-0.0093777813 -0.024692453 -0.0095520318 4278932129
-0.0076143555 -0.023791239 -0.010659191 4278997918
-0.0055256151 -0.024405628 -0.010433993 4278997408
-0.0035993718 -0.024262033 -0.010874881 4278996898
-0.0016730241 -0.024118304 -0.011315699 4279324829
0.00042665005 -0.024731517 -0.011092725 4278931363
0.0025317371 -0.02534426 -0.010870878 4278997153
0.0044636615 -0.025199734 -0.011312682 4278800293
0.0063956566 -0.025055081 -0.011754411 4279193503
0.0083277263 -0.024910301 -0.012196056 4279193503
0.010632914 -0.026277557 -0.011316299 4279586969
0.012759607 -0.026887983 -0.011098929 4279587224
0.014891658 -0.027497903 -0.010882713 4279456409
0.017029095 -0.028107315 -0.010667562 4279718294
0.018974714 -0.027960882 -0.011111833 4279456154
0.02132 -0.029324479 -0.010240749 4279324574
0.023878433 -0.031442061 -0.008714918 4279258784
0.026247688 -0.03280361 -0.0078491196 4279521689
0.028419808 -0.033409722 -0.0076414463 4279521944
0.030176353 -0.032506719 -0.0087452829 4279259803
0.032140687 -0.032358095 -0.0091932379 4279456409
0.034320787 -0.032963231 -0.0089870989 4281617279
0.036724623 -0.034321532 -0.0081286319 4281748094
0.039581243 -0.037185863 -0.0059669246 4282143343
-0.024091054 -0.03199099 -0.0031615533 4281881204
-0.022715006 -0.028800979 -0.0062842965 4280636039
-0.020497087 -0.03018105 -0.005389329 4280439434
-0.018414896 -0.030798957 -0.0051649362 4280832133
-0.016178083 -0.032177448 -0.0042740889 4281028738
-0.014082331 -0.032794118 -0.0040526241 4281618043
-0.011981118 -0.033410266 -0.0038323146 4281683324
-0.010345776 -0.031744517 -0.0056104176 4281813884
-0.0088806935 -0.029319122 -0.008051198 4283056498
0.028624661 -0.049353153 -0.012051398 4280439179
0.030039862 -0.049289435 -0.014979498 4282012018
0.00064113736 -0.043622822 -0.025454525 4282993768
-0.047618371 0.020563267 0.034330666 4285820189
-0.045585435 0.020008747 0.034617104 4285885468
-0.034967359 0.015157063 0.038204938 4285361953
-0.033900734 0.020168025 0.032690078 4285295908
-0.032485235 0.023091126 0.029354041 4285820699
-0.030565705 0.023233373 0.028914051 4285885978
-0.027708415 0.018513184 0.033529393 4285885723
-0.051909816 0.020786468 0.031865261 4285295909
-0.050518017 0.024422579 0.02778942 4285689374
-0.04904535 0.027358025 0.024446337 4285754399
-0.047374029 0.028894737 0.022560293 4285754653
-0.045038234 0.026240204 0.025029408 4285820443
-0.042680915 0.023587346 0.02749365 4285558813
-0.040537704 0.022332225 0.028504508 4285493533
-0.038624499 0.022473652 0.028065698 4285427998
-0.036957268 0.024010431 0.026180873 4285559069
-0.035551969 0.026941422 0.022853645 4285624093
-0.033910852 0.028476469 0.02097488 4285623583
-0.032018002 0.0286167 0.020540973 4285558049
-0.029456254 0.025272772 0.023709984 4285689374
-0.0263221 0.019144285 0.029752815 4285624093
-0.052863229 0.024813596 0.024895838 4285755419
-0.05128317 0.027056668 0.02228423 4285689883
-0.049718793 0.029298659 0.019676274 4285623584
-0.047950838 0.0301379 0.01852091 4285623584
-0.045738798 0.028174359 0.020262176 4285821209
-0.04362553 0.026912536 0.021276513 4285821463
-0.041266207 0.024251111 0.023733696 4285624349
-0.039366376 0.024391498 0.023297912 4285624349
-0.037835065 0.026631493 0.020697882 4285689884
-0.036445033 0.029570051 0.017380735 4286018579
-0.034563113 0.029709343 0.01694924 4285821209
-0.032550108 0.029149462 0.01723738 4285689629
-0.029997412 0.025793895 0.020400165 4285689883
-0.02728172 0.021741558 0.024275234 4285886743
-0.02245101 0.0072118193 0.038909361 4285886743
-0.053509045 0.02676538 0.020126259 4285558303
-0.051941764 0.029013958 0.017522538 4285952534
-0.050283398 0.030558296 0.015645884 4285886743
-0.048307102 0.029992837 0.015940281 4285886999
-0.04610106 0.028022286 0.017677873 4285821464
-0.043764111 0.025350362 0.020133493 4285558558
-0.041875262 0.025489807 0.01970013 4285624348
-0.040106226 0.026331563 0.018546367 4285624349
-0.038465004 0.027875084 0.01667399 4285624349
-0.036959525 0.030119728 0.014084922 4285755673
-0.035085704 0.030258361 0.013655242 4285821208
-0.033080976 0.029695686 0.013943551 4285821464
-0.030537333 0.026328493 0.017100122 4285755929
-0.027830895 0.022262339 0.020967366 4285624348
-0.023289721 0.0090874881 0.034137279 4285624093
-0.054051552 0.028033514 0.016096069 4285492769
-0.052286576 0.028876685 0.014944451 4285689628
-0.050526638 0.02971952 0.013794102 4285689628
-0.048334796 0.027741205 0.015529944 4285624094
-0.046126802 0.025764208 0.017262101 4285624349
-0.044131707 0.025198054 0.017550604 4285558559
-0.042365473 0.026041698 0.016398996 4285559069
-0.040604319 0.026885018 0.01524866 4285559068
-0.038848247 0.027728032 0.014099544 4285624349
-0.037222434 0.02927478 0.012234081 4285558559
-0.035479214 0.03011705 0.011087989 4285623839
-0.033480089 0.029551689 0.011375949 4285623838
-0.031076003 0.026876528 0.013809888 4285558558
-0.028378826 0.0227965 0.017669352 4285558814
-0.023849461 0.0095793158 0.030810503 4285493789
-0.054289211 0.027195536 0.014243219 4285558814
-0.052526768 0.028040621 0.013093853 4285624094
-0.050875772 0.029592983 0.011225456 4285689374
-0.048798975 0.028315086 0.012238026 4285623838
-0.046599615 0.026330795 0.013967205 4285624093
-0.044384096 0.024347831 0.01569269 4285624094
-0.042737428 0.025900196 0.013825528 4285559068
-0.040861819 0.026038636 0.013395188 4285559068
-0.038985986 0.026177179 0.012964858 4285624349
-0.03710993 0.026315834 0.012534546 4285558558
-0.03548893 0.027866628 0.010673523 4285755418
-0.033748057 0.02871095 0.0095296539 4285821464
-0.03148048 0.026732359 0.011243682 4285821208
-0.028789897 0.022638746 0.015094664 4285689883
-0.02482276 0.012200326 0.025354801 4285558813
-0.055996615 0.023383688 0.015703609 4285164583
-0.054425497 0.025651984 0.013113642 4285559069
-0.052766498 0.027209174 0.011246622 4285755674
-0.051011663 0.028055914 0.010100678 4286018324
-0.049044203 0.027483135 0.010391979 4286018323
-0.046848182 0.025492024 0.012116941 4285952533
-0.044750143 0.024211418 0.013121394 4285689884
-0.042874884 0.024349701 0.012691034 4285624604
-0.040999394 0.024488103 0.012260694 4285624604
-0.039123651 0.024626594 0.011830354 4285624604
-0.037497263 0.026182022 0.0099712983 4285624604
-0.035881307 0.027736802 0.0081146471 4285952788
-0.034015555 0.027874816 0.0076867938 4285952788
-0.031751316 0.025889382 0.009396594 4285952788
-0.029200103 0.022489976 0.012526618 4285821208
-0.025655564 0.014140513 0.020629873 4285755163
-0.02120262 0.0015524402 0.032982759 4285558558
0.0013021566 -0.00036080182 0.031544805 4285296163
0.0024216399 0.0033117905 0.027574191 4285623838
0.0047418773 0.0020497516 0.028529381 4285819933
0.0077848062 -0.0020292327 0.032290913 4285885469
0.010317851 -0.0039929375 0.033940472 4285622818
0.012317028 -0.003843084 0.033483513 4285229864
0.013758391 -0.00158149 0.030925492 4285427489
0.014617965 0.0027900115 0.026271945 4285362208
0.015636966 0.0064557493 0.022324899 4285427488
0.01721127 0.0080098137 0.020479588 4285820699
0.020347938 0.0039385408 0.024220286 4285885979
0.023715876 -0.00083304197 0.028651027 4285885723
-0.056133304 0.021833863 0.014569398 4285164329
-0.05476306 0.025533445 0.010547759 4285558814
-0.053005751 0.026382409 0.0094027855 4285689884
-0.051359478 0.027943097 0.007541962 4285689374
-0.049397614 0.027367655 0.0078329146 4285689373
-0.047318894 0.02608113 0.0088384096 4285886744
-0.045001391 0.023372646 0.011271907 4285755164
-0.043128867 0.023510691 0.010842144 4285624349
-0.041256141 0.023648832 0.010412391 4285558814
-0.039627049 0.025208745 0.008555878 4285624348
-0.038008351 0.026767924 0.0067018606 4285690138
-0.036400061 0.028326429 0.0048502944 4285689373
-0.034542393 0.028463788 0.0044242479 4285557538
-0.032419395 0.027181208 0.0054200944 4285689373
-0.029744681 0.023060154 0.0092548337 4285690139
-0.026624214 0.016812634 0.015211457 4285624349
-0.023174625 0.0091498569 0.022575373 4285427488
-0.019379977 7.3082745e-05 0.031342857 4285427489
-0.01668283 -0.0033261329 0.034431472 4285363483
-0.0024991371 0.0049290508 0.023771169 4285361699
-0.001222413 0.0079042017 0.020514043 4285361953
0.00037807226 0.0094637126 0.018665474 4285688863
0.0028436482 0.0074881911 0.020325335 4285624093
0.0055030771 0.0048073381 0.022682184 4285952279
0.0078229941 0.0035411268 0.023634231 4285558813
0.0097874478 0.0036883578 0.023185192 4285493533
0.011751987 0.0038356856 0.022736205 4285493789
0.013151299 0.0061007515 0.020192819 4285559323
0.014343619 0.0090704113 0.016955622 4285624349
0.015708473 0.011333056 0.014420314 4285558304
0.018039491 0.010068312 0.0153703 4285558303
0.020779382 0.0073943138 0.017709382 4285820953
0.023540616 0.0047220141 0.020043669 4285624093
0.025505558 0.0048701167 0.01959515 4285099813
-0.056563441 0.022428639 0.011283578 4285098538
-0.055200297 0.026138552 0.0072717797 4285558813
-0.05355398 0.027703434 0.0054141954 4285689883
-0.05170643 0.027839281 0.0049898885 4285623328
-0.049858633 0.027975217 0.0045655873 4285557793
-0.047677252 0.025969833 0.0062839277 4285755164
-0.045593459 0.024679355 0.0072849803 4285821208
-0.04361527 0.024103168 0.0075706355 4285624349
-0.041869666 0.024953876 0.0064303353 4285558558
-0.040250923 0.026517294 0.0045795031 4285624349
-0.038766976 0.02879288 0.0020199269 4285952788
-0.037171703 0.030354775 0.00017457176 4285689628
-0.035327423 0.030491114 -0.00024842378 4285623584
-0.033085842 0.028490853 0.0014566155 4285689373
-0.030288 0.023643728 0.0059929043 4285690138
-0.027315084 0.01808767 0.011228746 4285755928
-0.0241591 0.011823207 0.017162407 4285427488
-0.021098059 0.0062738284 0.022378238 4284968488
-0.0039798506 0.0089918375 0.01697918 4285558813
-0.0022149459 0.0098457783 0.015835747 4285886998
-0.00062749162 0.011408672 0.013993438 4285557793
0.0016491115 0.010134637 0.014951929 4285558049
0.0041140728 0.0081526116 0.016607041 4285755419
0.0065950938 0.0061718896 0.018258557 4285821208
0.0085434467 0.0063178986 0.017813185 4285624349
0.010491882 0.006464012 0.017367877 4285558813
0.011875693 0.0087344497 0.014832977 4285690139
0.013243601 0.011003807 0.012301795 4285952789
0.014789175 0.012564376 0.010469684 4285755164
0.017305244 0.01058691 0.012113659 4285689628
0.019837338 0.0086107999 0.013754025 4285755418
0.022385452 0.0066359639 0.015390847 4285690394
0.024132743 0.0074899048 0.014252508 4285296674
-0.057089966 0.02375377 0.0072919782 4285097774
-0.05573656 0.027473852 0.0032905824 4285624604
-0.054100569 0.029042296 0.0014386401 4285887253
-0.052369352 0.02989367 0.00030294526 4285886998
-0.050426666 0.029312395 0.00059487857 4285952534
-0.048145663 0.026583605 0.0030234093 4285887254
-0.045956764 0.024572268 0.004735101 4285624349
-0.043984164 0.02399344 0.0050203502 4285624349
-0.042243812 0.024845902 0.003882871 4285624349
-0.040630084 0.026413307 0.0020364188 4285558558
-0.039026771 0.027979996 0.00019246992 4285755929
-0.03756072 0.03026085 -0.0023580063 4285953043
-0.035592366 0.02968213 -0.0020714654 4285821718
-0.033486295 0.028389458 -0.0010783561 4285821973
-0.030830104 0.024240784 0.0027407585 4285624604
-0.028004322 0.019380555 0.0072590858 4285558813
-0.025000986 0.013809316 0.012474833 4285493533
-0.022240538 0.0096686035 0.016270299 4285362463
-0.0065499209 0.0093870983 0.014152892 4285165859
-0.004790388 0.010242656 0.013012286 4285690904
-0.0030360445 0.011097938 0.011872947 4285953044
-0.0012869053 0.011952974 0.010734838 4285887254
0.00098120421 0.010673881 0.011691988 4285821463
0.0032600574 0.0093957409 0.012646724 4285887509
0.0055496655 0.0081184655 0.01359912 4285624348
0.0073018633 0.0089741349 0.012460621 4285558813
0.0092341974 0.0091190338 0.012018979 4285558813
0.010978591 0.0099743009 0.010882474 4285624349
0.012717713 0.01082927 0.0097472407 4285755928
0.014451589 0.011683948 0.0086132884 4285886999
0.016572222 0.01111903 0.0088668317 4285821208
0.018896915 0.0098451674 0.0098117329 4285821463
0.021232318 0.0085721761 0.01075431 4285558814
0.022966363 0.0094273016 0.009620633 4285493789
-0.05771232 0.025815926 0.002599258 4285032239
-0.056271207 0.028826907 -0.00067756511 4285427999
-0.05464555 0.030398939 -0.0025239158 4285559069
-0.052819427 0.030533116 -0.0029433686 4285558304
-0.05077691 0.029230595 -0.0019395873 4285492513
-0.048391383 0.025774397 0.0011947202 4285558558
-0.046319213 0.024474263 0.0021917745 4285558814
-0.044468258 0.024610594 0.0017668679 4285558814
-0.042617094 0.024747007 0.001341965 4285558814
-0.040887047 0.025600925 0.00020852778 4285558814
-0.039038096 0.02573736 -0.00021572504 4285492768
-0.037568916 0.028024945 -0.0027620001 4285558304
-0.0355982 0.027444191 -0.002477672 4285426978
-0.033489991 0.026147276 -0.0014883885 4285492769
-0.030967038 0.022701994 0.0016149776 4285493024
-0.028554622 0.019975007 0.0040073805 4285493534
-0.025700901 0.015101645 0.0085077919 4285427998
-0.022952382 0.010946922 0.012296064 4285296419
-0.0071843751 0.0099401474 0.010893788 4285035043
-0.0054327361 0.010797285 0.009756621 4285493534
-0.0033478923 0.010226443 0.010015905 4285624348
-0.0016013496 0.011083402 0.0088800546 4285624093
0.00048905239 0.010513186 0.0091382228 4285624349
0.0027620643 0.0092301816 0.01009101 4285624349
0.0050458163 0.0079481304 0.011041392 4285558814
0.0067927651 0.0088055357 0.0099057704 4285559069
0.0085344836 0.009662658 0.0087714307 4285559069
0.010270953 0.010519505 0.0076383762 4285559068
0.012002151 0.011376083 0.0065065585 4285558558
0.013728108 0.012232341 0.0053760558 4285558304
0.015840426 0.011664607 0.005629845 4285558304
0.018355101 0.0096740425 0.0072643068 4285624349
0.02068463 0.0083962977 0.0082048774 4285559068
0.022617232 0.0085419416 0.0077637285 4285428254
-0.057749074 0.023572076 0.0021974733 4284966704
-0.056404557 0.027313162 -0.0017854115 4285230374
-0.054676037 0.028168574 -0.0029173549 4285295398
-0.052742142 0.027582075 -0.0026267944 4285229098
-0.05058695 0.025554977 -0.00091749616 4285427234
-0.048415583 0.023529105 0.00078818481 4285559069
-0.046228055 0.021504503 0.0024902234 4285426978
-0.044487748 0.022361185 0.0013558799 4285427233
-0.042634029 0.022497762 0.00093036983 4285427233
-0.040780079 0.022634428 0.00050486159 4285493024
-0.0386783 0.021332365 0.001492084 4285493023
-0.037198011 0.023627285 -0.0010518041 4285493278
-0.035346102 0.023764059 -0.0014766473 4285493534
-0.033493999 0.023900956 -0.0019014571 4285427233
-0.031238358 0.021882091 -0.0002145106 4285427489
-0.028966602 0.019864537 0.0014687506 4285427233
-0.026259433 0.015693542 0.0052565038 4285427233
-0.0054084547 0.0085003674 0.0092971884 4285427999
-0.0034902953 0.0086435378 0.0088582784 4285493278
-0.0017436706 0.0095026642 0.0077240542 4285558303
0.00017206743 0.0096458718 0.0072858706 4285558303
0.002264902 0.0090737343 0.0075418912 4285558559
0.0047224648 0.0070715845 0.0091838669 4285624349
0.0064668208 0.0079309493 0.008050479 4285558814
0.0083909221 0.0080752224 0.0076107085 4285559068
0.01031509 0.0082195699 0.0071709901 4285559068
0.011668433 0.010507435 0.0046579726 4285558814
0.013391785 0.011365667 0.0035297088 4285689883
0.015109878 0.012223601 0.0024027321 4285821208
0.017615825 0.010225877 0.0040341895 4285755673
0.01973591 0.0096567273 0.0042847618 4285624604
0.022064943 0.0083746612 0.0052222051 4285493533
-0.056138936 0.022906296 -5.222857e-05 4285361699
-0.054297347 0.023041442 -0.00047536008 4285492769
-0.052350458 0.022453662 -0.00018946361 4285426724
-0.050290357 0.021143664 0.00080356374 4285492258
-0.04832973 0.02055712 0.0010863906 4285623838
-0.046250578 0.019248646 0.0020752186 4285558558
-0.044391882 0.019385453 0.0016484642 4285624348
-0.042414647 0.018800382 0.001927671 4285624348
-0.040431891 0.018215809 0.0022056745 4285690394
-0.038443606 0.017631732 0.0024824729 4285690138
-0.036828604 0.019212335 0.00064572785 4285624604
-0.034966175 0.019349858 0.00021845009 4285624349
-0.033103559 0.019487489 -0.00020879973 4285558304
-0.030972246 0.01818363 0.00076855998 4285558813
-0.02869321 0.016160004 0.0024452247 4285623839
-0.026118923 0.01269684 0.0055204034 4285492513
-0.023375642 0.0085155591 0.0092899874 4285295908
-0.0053845048 0.0061993226 0.008834783 4285362208
-0.0036326237 0.0070609301 0.0077008717 4285559068
-0.0020574108 0.0086402744 0.005874509 4285821463
-0.00014445931 0.0087832436 0.005436942 4285886998
0.001768589 0.0089263245 0.0049994327 4285952789
0.0043995604 0.0061997324 0.0073297787 4285821209
0.006505549 0.005626604 0.0075812861 4285624348
0.0086169466 0.0050539747 0.0078316331 4285558813
0.0099839903 0.0073492453 0.0053203888 4285558813
0.011335138 0.0096434653 0.002812814 4285624603
0.012863141 0.011220172 0.00099785998 4285821208
0.014771391 0.011363648 0.00056201406 4285886998
0.017075878 0.010075115 0.0015016459 4285821719
0.01939103 0.0087875426 0.0024388805 4285886489
0.021716882 0.0075008273 0.0033737924 4285558558
-0.055576187 0.016305435 0.0037942044 4285295143
-0.053716127 0.016441874 0.0033667851 4285492513
-0.051855799 0.016578428 0.002939377 4285558304
-0.049995247 0.016715068 0.0025119651 4285558048
-0.048134457 0.016851816 0.0020845737 4285558048
-0.046160627 0.016264111 0.0023627505 4285492513
-0.044181269 0.01567689 0.0026397184 4285558303
-0.042196382 0.015090115 0.0029155295 4285558048
-0.040205952 0.014503889 0.0031900965 4285558559
-0.038210008 0.013918169 0.0034634639 4285558304
-0.0363346 0.014056526 0.0030331165 4285492514
-0.034716483 0.015641764 0.0011989865 4285492513
-0.032846 0.015779942 0.00076990947 4285558048
-0.03084128 0.015195228 0.001041539 4285492514
-0.028694335 0.013888225 0.002012061 4285558303
-0.026118491 0.010414258 0.0050786138 4285492513
-0.023515891 0.0069423616 0.0081391037 4285230118
-0.0056928284 0.0053355023 0.006982537 4285231393
-0.0042807497 0.0076399148 0.0044653676 4285624348
-0.0025419928 0.0085028186 0.0033361679 4285689884
-0.00080842525 0.0093653947 0.0022082897 4285623584
0.0014497004 0.0080681443 0.003154546 4285820953
0.0035393126 0.0074914917 0.0034080558 4285755674
0.0058162361 0.0061959028 0.0043501332 4285624348
0.0079193339 0.0056204423 0.0046007801 4285558813
0.0092788562 0.0079217106 0.0020961426 4285624604
0.010812376 0.0095030665 0.00028313883 4285755673
0.012335327 0.011083677 -0.0015273411 4285623838
0.014433347 0.010508314 -0.0012752544 4285557794
0.016536739 0.0099334642 -0.0010243077 4285558303
0.018645506 0.0093590617 -0.0007744804 4285820954
0.020962831 0.0080673993 0.00015903823 4285362463
0.02287909 0.0082119182 -0.00027829781 4285298968
-0.055214744 0.011129647 0.0062042978 4285426469
-0.053443495 0.011994556 0.0050674286 4285426724
-0.051572662 0.012131825 0.0046375617 4285492259
-0.049808908 0.012996346 0.0035025366 4285558049
-0.047940243 0.013133638 0.0030733049 4285492258
-0.045958761 0.012544267 0.0033480413 4285492513
-0.043971758 0.011955388 0.0036215745 4285492514
-0.042097118 0.012093388 0.0031911694 4285492513
-0.040101688 0.011505313 0.0034629107 4285492768
-0.038223963 0.011643708 0.0030319355 4285492768
-0.036220137 0.011056438 0.003301885 4285558304
-0.034467895 0.011920825 0.0021700431 4285492513
-0.032589559 0.012059554 0.0017391387 4285558304
-0.030577164 0.011473201 0.002007341 4285427234
-0.028559279 0.010887295 0.0022743959 4285492513
-0.026118379 0.0081275254 0.0046338513 4285492259
-0.0068294816 0.0080905035 0.0016748682 4285493279
-0.0052644946 0.0096776485 -0.00014266279 4285756183
-0.0033678822 0.0098192543 -0.00057660043 4285558304
-0.0012974255 0.0092387497 -0.00032053329 4285492258
0.00095484778 0.007936731 0.00062370673 4285558048
0.003038805 0.0073574632 0.00087685324 4285755674
0.0051281787 0.0067786574 0.0011288822 4285558813
0.0068541802 0.0076433122 4.6547502e-06 4285558813
0.0083879046 0.0092288852 -0.001805149 4285558813
0.010100763 0.010092735 -0.0029261597 4285953044
0.011808347 0.010956287 -0.0040458944 4285755928
0.013705689 0.011098936 -0.0044792555 4285558304
0.01540539 0.011962175 -0.0055970531 4285558559
0.017901208 0.0099441111 -0.0039780252 4285624603
0.020210009 0.0086474344 -0.0030458663 4285427999
0.022323836 0.0080714673 -0.0027986672 4285297184
-0.055152591 0.0081220046 0.0064822715 4285360678
-0.053274143 0.0082597211 0.0060505718 4285360934
-0.051499922 0.0091270581 0.0049146898 4285492259
-0.049730759 0.0099941269 0.0037800446 4285492258
-0.047856908 0.010131754 0.0033495873 4285492258
-0.04587042 0.0095405281 0.0036214944 4285492513
-0.043993469 0.0096785724 0.0031904653 4285558049
-0.042116273 0.0098167062 0.0027594436 4285492513
-0.040118512 0.0092265829 0.0030289702 4285492513
-0.037992176 0.0079087541 0.0039972495 4285558304
-0.03623208 0.0087757781 0.0028651562 4285492513
-0.034477104 0.0096425638 0.0017342754 4285558304
-0.032858226 0.011236608 -9.3407929e-05 4285492513
-0.030848812 0.010647833 0.00017381273 4285426979
-0.0288339 0.010059536 0.00043982454 4285492514
-0.026674513 0.0087447241 0.0014009643 4285361188
-0.0074670427 0.0086970627 -0.0015428439 4285362208
-0.0060779974 0.011012778 -0.004044883 4285821974
-0.0041921511 0.011153571 -0.0044763703 4285953043
-0.0023062006 0.011294484 -0.0049077924 4285821718
0.00028464571 0.0085385665 -0.0025881957 4285821719
0.0025391541 0.0072324574 -0.0016476884 4285756438
0.0044413395 0.0073748976 -0.0020825863 4285559069
0.0057910644 0.0096883774 -0.0045751743 4285559069
0.0074985884 0.010553882 -0.0056934133 4285493278
0.0092008598 0.01141911 -0.0068103597 4285624603
0.010897867 0.012284048 -0.0079260301 4285821973
0.0125896 0.013148732 -0.0090404581 4285821974
0.01467105 0.012567818 -0.008787768 4285821973
0.017158132 0.010542601 -0.0071717426 4285690649
0.019661237 0.0085186586 -0.0055592437 4285493789
0.021563921 0.0086621493 -0.0059934896 4285362718
-0.055190083 0.005837962 0.0060502738 4285294633
-0.053207476 0.0052438974 0.0063211359 4285426214
-0.051323611 0.0053820312 0.0058882069 4285426469
-0.049546372 0.0062518418 0.0047533344 4285426468
-0.047664683 0.0063900054 0.0043210536 4285492259
-0.045782756 0.0065282658 0.00388877 4285492258
-0.043900605 0.0066666454 0.0034565115 4285492514
-0.042018231 0.0068051368 0.0030242763 4285558304
-0.040135633 0.0069437176 0.0025920533 4285558048
-0.038130004 0.0063520595 0.0028581629 4285492768
-0.036369827 0.0072212517 0.0017276872 4285427234
-0.034486603 0.0073601678 0.0012955405 4285426978
-0.032603201 0.0074991956 0.00086341798 4285426979
-0.030719589 0.0076383501 0.00043133274 4285426979
-0.028835814 0.0077776015 -7.2270632e-07 4285427234
-0.026951846 0.007916972 -0.00043275021 4285361699
-0.0084341057 0.010771498 -0.0061278436 4285362464
-0.007057894 0.013092779 -0.0086220168 4285493789
-0.0051854812 0.013232544 -0.00905044 4285558813
-0.0027929358 0.011192597 -0.0074185915 4285624349
-0.00038433447 0.0091539025 -0.0057903011 4285558814
0.0020403303 0.0071165264 -0.0041655996 4285493278
0.0039370619 0.0072585493 -0.0045992569 4285493278
0.0052819215 0.0095781907 -0.0070857909 4285559069
0.0069841892 0.010445476 -0.0082011875 4285493278
0.0084918886 0.012037933 -0.0099984184 4285558814
0.01018098 0.012904435 -0.011110643 4285492768
0.012059424 0.013045654 -0.011539692 4285427233
0.014332492 0.011737347 -0.010606145 4285427489
0.017216098 0.0082560033 -0.0076329061 4285427999
0.019721113 0.00622572 -0.0060258326 4285427999
0.021421049 0.0070936084 -0.0071401042 4285231138
-0.054931585 0.0013468713 0.0077218134 4285229099
-0.053040098 0.0014854521 0.0072870478 4285164073
-0.051044304 0.00089021772 0.0075532608 4285229608
-0.049149666 0.0010292083 0.007117901 4285360933
-0.047364186 0.0019018278 0.0059828125 4285426979
-0.045471769 0.0020408332 0.0055480972 4285492769
-0.043923136 0.004379414 0.0030177599 4285492768
-0.042038228 0.004518047 0.002584911 4285557793
-0.040273096 0.0053895488 0.0014547696 4285492513
-0.03826775 0.0047956482 0.0017192746 4285493024
-0.03638221 0.0049346164 0.0012864983 4285427233
-0.03449646 0.0050736964 0.0008537462 4285295654
-0.032741126 0.0059448555 -0.00027385633 4285361189
-0.030857649 0.0060839579 -0.00070593972 4285361443
-0.029109921 0.0069547966 -0.0018316843 4285361698
-0.027228739 0.0070939288 -0.0022630934 4285164838
-0.0084081329 0.0084916875 -0.0065748249 4285098793
-0.0070288107 0.010819726 -0.0090647638 4285427998
-0.0051538721 0.01095967 -0.0094937738 4285493789
-0.0031056851 0.010370925 -0.0092376005 4285493278
-0.00052466616 0.0075968206 -0.0069289659 4285559069
0.0017207898 0.006281279 -0.0059930165 4285558813
0.0039769895 0.0049666315 -0.005059375 4285493024
0.005508747 0.0065650195 -0.0068589901 4285493023
0.0070299469 0.0081626698 -0.0086560696 4285493023
0.0085405745 0.0097597018 -0.01045068 4285493023
0.010424152 0.0099011809 -0.010880999 4285558559
0.012307782 0.010042772 -0.011311244 4285493278
0.014979813 0.0072764009 -0.0090227276 4285493279
0.017473426 0.0052385479 -0.0074180481 4285493278
0.019780617 0.0039286688 -0.0064954301 4285427489
0.021278214 0.005525358 -0.0082865003 4285361699
-0.0085474886 0.0069393963 -0.0077101407 4285098793
-0.0068324544 0.0078111738 -0.0088257678 4285492768
-0.0047820397 0.0072202981 -0.0085718427 4285492768
-0.0025532506 0.005898878 -0.0076355045 4285558303
-0.00031374022 0.0045784265 -0.0067015779 4285689628
0.0019365139 0.0032588392 -0.0057699801 4285689629
0.004197482 0.0019402131 -0.0048407959 4285689629
0.0059184171 0.0028131083 -0.0059572654 4285755418
0.0074478649 0.0044157356 -0.0077529298 4285821464
0.0091556199 0.0052879304 -0.0088662477 4285755163
