# .PCD v0.7 - Point Cloud Data file format
VERSION 0.7
FIELDS x y z rgba
SIZE 4 4 4 4
TYPE F F F U
COUNT 1 1 1 1
WIDTH 466
HEIGHT 1
VIEWPOINT 0 0 0 1 0 0 0
POINTS 466
DATA ascii
-0.0029532984 -0.006554313 0.046709016 4287247424
-0.011512645 0.0032270327 0.034719329 4288489018
-0.0096149445 0.0040817484 0.033519164 4290059309
-0.0073209628 0.0028231665 0.034476247 4289733164
-0.004470408 -0.0012510642 0.038303018 4290256424
-0.0015878007 -0.005322881 0.042122304 4288555829
-0.014192693 0.0042056367 0.031125568 4288620343
-0.012687936 0.0071826875 0.027773742 4289277734
-0.01094228 0.008744739 0.02586244 4290389534
-0.008539103 0.006773375 0.027539149 4289211690
-0.00584732 0.0033905059 0.030645065 4290322978
-0.0031287745 9.7453594e-06 0.033744726 4289276458
-0.00066656619 -0.0019569993 0.035407711 4289277479
0.0015233457 -0.0025108829 0.035637747 4289146664
0.0032782331 -0.00094753504 0.033724692 4289799719
0.0048732162 0.0013205633 0.031100821 4289275949
0.0069089308 0.0014720261 0.030618884 4289930024
0.0097188652 -0.0019013211 0.033697363 4290976034
0.012870479 -0.006682165 0.038192499 4291433504
0.015899304 -0.010755502 0.041968033 4290190888
-0.015218787 0.0074805096 0.024911366 4289277479
-0.013731919 0.010464996 0.021570243 4290259994
-0.012135327 0.012739077 0.018950276 4289277479
-0.0097540542 0.010759369 0.02062735 4289146664
-0.0072206259 0.008072421 0.023015529 4289734948
-0.0043883622 0.0039702877 0.026827324 4290585373
-0.0020894557 0.0027034804 0.027776953 4289473318
-0.0002117306 0.0035615414 0.02658505 4289342503
0.0013675764 0.0058349445 0.023969628 4289473063
0.0030804798 0.0073996782 0.022069804 4289473828
0.005238831 0.0068415403 0.022305921 4290061349
0.0078665018 0.004162237 0.024672333 4289734183
0.010830134 7.0668757e-05 0.028453521 4289930023
0.013825793 -0.0040184632 0.032227248 4289537578
0.017341204 -0.010224916 0.038119312 4288491058
0.02090456 -0.016427621 0.044000074 4288361263
-0.01574114 0.007940352 0.021582752 4289408295
-0.014389455 0.011644512 0.01753452 4290454814
-0.01293353 0.014635637 0.014207177 4290258974
-0.010832615 0.014070272 0.01445473 4290323999
-0.0081828088 0.010662153 0.01755441 4289931554
-0.0055062547 0.0072561204 0.020647839 4289800739
-0.0032264292 0.0059833974 0.021598786 4289735458
-0.0015110224 0.007552512 0.019701369 4289604643
0.00034043938 0.0084109083 0.018517353 4289997344
0.0017394498 0.011398517 0.015204016 4289669923
0.0040280148 0.010126859 0.016153194 4289146664
0.0063273609 0.0088561475 0.01709985 4288819498
0.0095799342 0.0033309385 0.022293951 4289081129
0.012715422 -0.0014819428 0.026770312 4289080364
0.016375378 -0.0084184483 0.033359122 4289145133
0.020088602 -0.015350893 0.039935455 4289537323
-0.018122651 0.0075534433 0.019448832 4288556849
-0.016262233 0.0084138736 0.018263694 4289407528
-0.014789954 0.011414886 0.014938831 4289997344
-0.013077982 0.012987576 0.013045095 4289604643
-0.011110388 0.013133161 0.012578696 4289015593
-0.0087356195 0.011139736 0.014247641 4289735458
-0.0063447431 0.0091476664 0.015912808 4289408549
-0.0042196512 0.008582145 0.016153209 4289408549
-0.0023762882 0.0094419941 0.014972627 4289343013
-0.00068428367 0.011013821 0.013084076 4289735458
0.00084837526 0.013297051 0.0104894 4290716443
0.0028200075 0.013443649 0.010022564 4290258718
0.0052544698 0.011455402 0.011677913 4289604388
0.008489415 0.005911231 0.016863223 4290127649
0.012086079 -0.0010522604 0.023450818 4289538088
0.016222522 -0.010144763 0.032142308 4289146409
0.02009847 -0.017810315 0.039407853 4289275949
-0.018756829 0.0087551773 0.015422612 4288949293
-0.016782075 0.0089009553 0.014954269 4289211434
-0.014934607 0.0097627193 0.013773803 4289211944
-0.013092197 0.01062417 0.012594663 4289800739
-0.011122093 0.010769889 0.012127627 4288884779
-0.0088808239 0.0094852149 0.013081055 4289539108
-0.0067668855 0.0089165196 0.013322391 4289474084
-0.0049289316 0.0097780526 0.012144603 4289212198
-0.0028092787 0.0092099831 0.012384728 4289670178
-0.0011223331 0.010785848 0.010500532 4289408038
0.00025675446 0.013789579 0.0072047655 4289669668
0.0022202954 0.013935536 0.0067398157 4289342759
0.0044920519 0.01265385 0.0076865517 4289538853
0.0078713745 0.0063773841 0.013567083 4289407528
0.011457965 -0.00060890615 0.020140875 4289408038
0.016231716 -0.01258409 0.031629663 4289080108
0.020107996 -0.020273879 0.038877327 4287510074
-0.020756401 0.0062369332 0.015436992 4287902008
-0.019389383 0.0099750012 0.01140907 4289865254
-0.017300703 0.0094017088 0.011654384 4290585629
-0.015333794 0.0095469579 0.011187939 4290912794
-0.012976781 0.007538721 0.012851223 4290716444
-0.011001475 0.0076848119 0.012382947 4289669668
-0.0088907033 0.0071135461 0.012623325 4289669923
-0.0070502535 0.0079773068 0.011446441 4289800993
-0.0053554624 0.0095579326 0.0095634349 4289408548
-0.0036710873 0.011137828 0.0076830108 4289408548
-0.001851283 0.012000442 0.006511217 4289277223
0.00011195987 0.012146249 0.0060462467 4289408038
0.0022265464 0.011575863 0.0062862169 4289538853
0.0046542659 0.0095738471 0.0079334006 4289211688
0.0077240169 0.004709512 0.012391374 4289734694
0.011467643 -0.0030146986 0.019652512 4289342248
0.016564146 -0.016458452 0.032518782 4289211689
0.020281646 -0.023456827 0.039045621 4288621873
-0.021496743 0.0081853867 0.010714978 4288098358
-0.019898504 0.010492221 0.0081184562 4289210923
-0.018067002 0.011356995 0.0069449209 4289342248
-0.015859239 0.010060698 0.007899534 4289538853
-0.013510905 0.0080451593 0.0095600169 4290323999
-0.011543669 0.0081906095 0.0090936199 4289473574
-0.0093061179 0.0068968087 0.010041386 4289604644
-0.0074708983 0.0077623725 0.008867342 4289474084
-0.005640775 0.0086276531 0.0076945797 4289801249
-0.0042448342 0.011650011 0.0044075251 4289670434
-0.0022872388 0.011795253 0.0039437804 4290651418
-3.2797456e-05 0.010503218 0.0048879236 4290847259
0.0025344118 0.0077750683 0.0072362497 4290520093
0.0049693808 0.0057669133 0.008876903 4289408038
0.0078892931 0.0016057342 0.012619961 4289669159
0.011635937 -0.006142579 0.019862678 4289669413
0.016249083 -0.017474994 0.03059556 4289669413
-0.023603559 0.0063962936 0.010021102 4287705659
-0.022235081 0.010156348 0.006008815 4289145134
-0.020528004 0.011745922 0.0041287728 4289472809
-0.018831305 0.013334781 0.0022513084 4288492334
-0.016637318 0.012033008 0.0032059271 4288884778
-0.014302909 0.01000981 0.004864879 4290193184
-0.012216859 0.0094321221 0.0051077493 4289996833
-0.010125287 0.0088549703 0.0053494051 4289538853
-0.0080282167 0.0082782954 0.0055898204 4289604644
-0.0062059835 0.0091451854 0.0044205226 4289800993
-0.0046745241 0.011454426 0.0018452797 4290193438
-0.0027223453 0.011599243 0.0013828017 4289800993
-0.00017746538 0.0088605136 0.0037298165 4290389788
0.0023887977 0.0061234236 0.006071886 4290716443
0.0049764961 0.0033880472 0.0084089655 4289408549
0.0080538541 -0.0015066415 0.012842543 4289800739
0.011803485 -0.0092790127 0.020066757 4289277223
0.015288871 -0.015606984 0.025878776 4287316019
-0.024675868 0.010556191 0.0031947605 4287967289
-0.023090184 0.01287514 0.00061075203 4289603369
-0.021398723 0.014467888 -0.0012623537 4290192418
-0.019469507 0.014610156 -0.0017200056 4289538853
-0.017286628 0.013303123 -0.00076599047 4289473574
-0.014963552 0.01127243 0.00089077838 4290323999
-0.012756392 0.0099673942 0.0018391851 4289996834
-0.010538414 0.0086632073 0.0027851425 4289931553
-0.0087216198 0.0095317513 0.0016186349 4289997089
-0.0067699552 0.0096763 0.0011561085 4290586139
-0.0052459985 0.01199162 -0.0014125928 4289669668
-0.0033019111 0.012135804 -0.0018731672 4288754219
-0.00091382861 0.010110654 -0.00023127533 4288623148
0.0017915219 0.006640926 0.002807226 4289081128
0.0046767965 0.0024505705 0.0065390356 4290062623
0.0080617741 -0.0039050058 0.012360122 4289669924
0.011494681 -0.010256901 0.018169951 4289081638
-0.025049426 0.010385543 0.00063431635 4288098103
-0.023231417 0.011255644 -0.00053140149 4289342249
-0.021539681 0.012852795 -0.0024013687 4289800228
-0.019486703 0.012267902 -0.0021541175 4288688684
-0.017428219 0.011683516 -0.001908116 4288361518
-0.015364207 0.011099637 -0.0016633496 4290062114
-0.013162851 0.0097896755 -0.00071677007 4290062114
-0.011219665 0.0099333525 -0.0011774711 4290258464
-0.0094134137 0.010803305 -0.0023398697 4289408038
-0.0077520609 0.012398973 -0.0042021489 4289866019
-0.0062435567 0.014719665 -0.0067623472 4290650908
-0.0043155104 0.014862642 -0.0072191441 4289408038
-0.0017963424 0.012104303 -0.0048789652 4289146408
0.0010450408 0.0078972578 -0.0011464879 4290389534
0.0042245016 0.0022427738 0.0039744545 4290390298
0.0076022521 -0.00413315 0.0097827055 4289605663
0.010869585 -0.0097808689 0.014882997 4288691234
-0.025074914 0.0080342144 0.00019606575 4287640123
-0.023254171 0.008906737 -0.00096875057 4288295728
-0.021438494 0.0097789317 -0.002132263 4288361264
-0.01925686 0.0084627792 -0.0011844747 4288819498
-0.017443404 0.0093350485 -0.0023473538 4288361519
-0.015506044 0.0094780773 -0.0028068293 4289080874
-0.013568498 0.0096211806 -0.0032662954 4289146154
-0.0118993 0.011221558 -0.0051273396 4289211178
-0.010103583 0.012092896 -0.0062856739 4289538343
-0.0085921735 0.014420338 -0.0088418545 4289211179
-0.0068119988 0.01529073 -0.0099963425 4289211179
-0.0048920438 0.015433103 -0.010451232 4288688173
-0.0023817122 0.012665227 -0.0081153745 4288623149
0.0006005764 0.0077169016 -0.0036933832 4289604389
0.0039258674 0.0013170391 0.0021127257 4289735969
0.0071436018 -0.00435213 0.0072117914 4289540384
-0.024869643 0.0042144805 0.0011621192 4287378238
-0.023040883 0.0050897151 -2.9820949e-06 4287968563
-0.021096341 0.0052329376 -0.00046440773 4288361774
-0.019028082 0.0046446845 -0.00022405572 4288296238
-0.017206624 0.0055196881 -0.0013872068 4288100144
-0.015519038 0.0071255714 -0.0032495782 4288230703
-0.013578944 0.0072688609 -0.0037096571 4287445303
-0.01204095 0.0096046478 -0.0062674824 4287379513
-0.010381915 0.011208743 -0.008122853 4287771959
-0.0069530532 0.013684802 -0.011128633 4288491314
-0.0048885271 0.01309713 -0.010886782 4287445049
-0.0023764744 0.010320544 -0.0085577928 4288099379
0.00045696646 0.0060864538 -0.0048428383 4289015594
0.0036277249 0.00039601326 0.00025436468 4289408294
0.0065304562 -0.0038326979 0.0039530825 4288231723
-0.024780795 0.0011160523 0.0014169365 4286920259
-0.023064673 0.0027280673 -0.00044934265 4287444793
-0.021117628 0.002871424 -0.00091139413 4287510328
-0.019047029 0.0022810921 -0.00067318045 4287707189
-0.017096899 0.0024248734 -0.0011358224 4287837748
-0.015275151 0.003302224 -0.002297407 4287379768
-0.013458498 0.0041792467 -0.0034576785 4286987069
-0.011646934 0.0050560087 -0.0046166573 4286725183
-0.0098404884 0.0059325024 -0.0057743322 4286463554
-0.0020772517 0.0065076798 -0.0076139942 4286463808
0.00046322495 0.0037244782 -0.0052981153 4287183163
0.003482461 -0.0012518764 -0.00090735964 4287575608
0.006383881 -0.0054939389 0.0027819835 4287185969
-0.024922997 -0.00051774085 0.00026462972 4286920514
-0.023206599 0.0010986775 -0.0015985146 4287313978
-0.021139212 0.00050576776 -0.0013612565 4287445049
-0.019189402 0.00064940751 -0.001823904 4287641654
-0.016987883 -0.00067844242 -0.0008905232 4287706933
-0.015032358 -0.00053416193 -0.0013543684 4287314488
-0.013076626 -0.00038978457 -0.0018182043 4287052604
-0.011254407 0.00048993528 -0.0029781181 4286594369
0.0003195256 0.0020924509 -0.0064487029 4286921533
0.0033372641 -0.0028994679 -0.0020688791 4286921788
-0.024835199 -0.0036288351 0.00051042065 4287052603
-0.023113236 -0.0020076632 -0.001350794 4287183163
-0.021161124 -0.0018640012 -0.001814099 4287379769
-0.019208804 -0.0017202049 -0.0022773668 4287445304
-0.017130718 -0.0023143142 -0.0020441692 4287379513
-0.015047103 -0.0029078871 -0.0018121954 4287510328
-0.013088845 -0.0027633458 -0.0022766385 4286921533
-0.010996908 -0.003356114 -0.0020464994 4286725183
-0.0093079433 -0.0017366558 -0.0038993582 4286594369
-0.0077682137 0.00061921775 -0.0064430088 4286332484
-0.0059612617 0.0015003309 -0.0075974688 4286528834
-0.0040153414 0.0016445071 -0.0080585945 4286398273
-0.0020692274 0.0017888173 -0.0085196737 4286921788
0.00017588586 0.00046070665 -0.0075991023 4286987068
0.0030400306 -0.0038106963 -0.0039203484 4286921788
-0.0248629 -0.0060074776 5.2768737e-05 4287052859
-0.02302061 -0.0051225573 -0.001109181 4287248698
-0.02106332 -0.0049785078 -0.0015737172 4287314233
-0.019105829 -0.0048343688 -0.002038233 4287445049
-0.017148115 -0.0046900809 -0.0025027171 4287641143
-0.015190199 -0.0045457184 -0.00296719 4287771958
-0.013232082 -0.0044011921 -0.0034316126 4287379514
-0.011273772 -0.0042565614 -0.003896011 4287313978
-0.0095871985 -0.0026329011 -0.0057451082 4286855998
-0.0077724233 -0.0017491505 -0.006899911 4286921279
-0.0058215111 -0.0016047433 -0.0073623201 4286725184
-0.0041582733 1.757592e-05 -0.0092056794 4286660159
-0.0022122934 0.00016185641 -0.0096667437 4286921789
-0.00011694431 -0.00043220073 -0.009438525 4287248954
0.0025913641 -0.0039788634 -0.0064571081 4286987834
-0.018758491 -0.0094424337 -0.0004172381 4286398784
-0.017040662 -0.0078125149 -0.0022708531 4286987323
-0.015205428 -0.0069254935 -0.0034292974 4287314233
-0.013375252 -0.0060387403 -0.0045863902 4287576118
-0.011550203 -0.0051522776 -0.0057422025 4287445558
-0.0097302496 -0.0042660832 -0.0068967221 4287249464
-0.0076385811 -0.0048630908 -0.0066696024 4287314743
-0.0058235601 -0.0039770305 -0.007822792 4287183929
-0.0040136799 -0.0030912384 -0.0089746779 4286987579
-0.0023553148 -0.001464799 -0.010813604 4287053114
-0.00026028603 -0.0020610988 -0.010586935 4287249973
0.0019918755 -0.00339742 -0.0096744066 4286857528
-0.010279998 -0.0036672652 -0.010115894 4286661688
-0.0080583692 -0.0050108433 -0.0091997823 4286726204
-0.0061077178 -0.0048664883 -0.0096621504 4286856763
-0.0044439733 -0.0032353699 -0.011499229 4287184694
-0.002644442 -0.0023480505 -0.012646979 4287381300
-0.00070126355 -0.0022038966 -0.013107331 4287315764
0.0013935789 -0.0028023124 -0.012882161 4286923063
0.015554793 -0.0099542588 0.01720915 4282612288
0.016919039 -0.0069156587 0.013943192 4282024258
0.018769667 -0.0060432479 0.012769662 4281761864
0.020958774 -0.0066138208 0.012987733 4280914244
0.023676731 -0.0093473941 0.015288223 4280978758
0.026416045 -0.012079239 0.017583732 4282673488
0.01393155 -0.0051343814 0.0097531769 4281961018
0.015272543 -0.0020887405 0.0064991415 4281307453
0.016761415 0.00023169816 0.0039443877 4280853299
0.01892098 -0.00034334511 0.0041678753 4280654654
0.021608792 -0.0030879825 0.0064689685 4279740989
0.024848767 -0.008000508 0.010842178 4280523584
0.028126001 -0.012910083 0.015206631 4281566533
0.031805001 -0.019262359 0.020944536 4281762118
0.034792304 -0.022720575 0.02390945 4281891913
0.011455469 -0.0055081993 0.007656347 4282614838
0.01280228 -0.0024534687 0.004407322 4281897014
0.014460236 -0.00085254759 0.0025498737 4278834973
0.015770156 0.0021996945 -0.00069029815 4281567554
0.017744672 0.0023472458 -0.0011572819 4281697348
0.020067498 0.0010437071 -0.00024138205 4281370693
0.023638166 -0.0053367913 0.0055074394 4281567809
0.027256727 -0.011713564 0.011245038 4281371968
0.031287249 -0.019536644 0.018350426 4281501764
0.034452796 -0.023731127 0.021997638 4281696839
0.010343902 -0.0028080046 0.0023194347 4282026299
0.011838689 -0.00047424436 -0.00022722594 4281373244
0.013649534 0.0004016757 -0.0013866741 4278507554
0.015286647 0.0020055249 -0.0032358449 4280068664
0.017255716 0.0021526515 -0.0037015583 4280654399
0.019572672 0.00084428489 -0.0027875472 4280458048
0.022959583 -0.0048289821 0.0022592861 4280393788
0.026747443 -0.011953771 0.0086732879 4281045059
0.030406646 -0.018347219 0.014386874 4281370694
0.0097159818 -0.0022740215 -0.00092427246 4281895484
0.011040188 0.00079664588 -0.004155146 4281308983
0.01300621 0.00094331801 -0.0046203006 4281176893
0.014635593 0.0025510043 -0.0064644944 4281241919
0.016767588 0.0019672662 -0.0062394086 4281045313
0.019252382 -7.6040626e-05 -0.0046389429 4280914243
0.022458576 -0.0050374195 -0.00029158965 4280848708
0.026238993 -0.012184836 0.0061080456 4280978759
0.029527672 -0.017139748 0.010436047 4282476628
0.0080664605 -0.0062735975 0.00045031309 4282548539
0.0092495084 -0.0024595857 -0.0034685675 4281895739
0.010731913 -0.00011353195 -0.0060027046 4281503293
0.012364086 0.0014986098 -0.0078443792 4281438014
0.014490314 0.00091211498 -0.0076196399 4281241664
0.016792804 -0.00040635467 -0.0067087105 4281241409
0.019279499 -0.0024561137 -0.0051135896 4281110594
0.022486821 -0.0074328333 -0.00077778101 4280914243
0.026088983 -0.013870373 0.0049201995 4280780368
0.0072905421 -0.0049893558 -0.0034744237 4282483259
0.0086238384 -0.0019005388 -0.0066946847 4281634874
0.010098748 0.00045153499 -0.0092221778 4281047353
0.011888534 0.0013324022 -0.01037181 4279810094
0.014177088 8.3968043e-06 -0.0094609512 4278375464
0.016817659 -0.0027840659 -0.0071809804 4280720189
0.019479565 -0.0055748224 -0.0049059605 4281045823
0.022338778 -0.0090981275 -0.0019513965 4281241918
0.02576042 -0.014821559 0.0030486695 4281498704
0.0068305954 -0.0051628277 -0.0060117124 4282222393
0.0081592351 -0.0020655692 -0.0092244474 4281374264
0.0094667822 0.0010302439 -0.0124321 4280331058
0.011248671 0.0019127131 -0.013578264 4280395319
0.013696522 -0.00015347451 -0.011983762 4279417649
0.016501293 -0.0036921203 -0.0090245483 4280329528
0.019505806 -0.0079653263 -0.0053879796 4281438523
0.022542261 -0.012236029 -0.0017588697 4281438779
0.025789082 -0.017240539 0.0025451407 4281436484
0.003946133 -0.0032521784 -0.010137188 4282875704
0.0060575232 -0.0038469285 -0.0099141477 4281569338
0.0076954588 -0.0022214353 -0.011747747 4280201009
0.0089983419 0.00088281929 -0.014947878 4281372478
0.010610014 0.0025066286 -0.016775137 4281437248
0.013049185 0.00043316185 -0.015183417 4281111613
0.01584487 -0.0031171739 -0.012230105 4281242429
0.019358791 -0.0096210688 -0.006554923 4281178169
0.022569463 -0.014643788 -0.0022537746 4281241918
0.0033397377 -0.0026576966 -0.013343032 4282548030
0.0054428428 -0.003255263 -0.013119641 4281503549
0.0070730671 -0.00162597 -0.014948221 4279548718
0.0085307211 0.00074460357 -0.017457237 4280199733
0.010137342 0.0023723692 -0.019280056 4280915773
0.012403067 0.0010334253 -0.018373473 4280524604
0.015189655 -0.0025286227 -0.015426069 4280656439
0.019039102 -0.010535359 -0.0084020831 4281242428
0.022420958 -0.01631473 -0.0034313872 4281436993
-0.012101732 -0.0069295242 -0.0094245998 4283001163
-0.010828525 -0.0030548871 -0.013325508 4282414409
-0.0086153597 -0.0044034868 -0.012410603 4282413133
-0.006672807 -0.0042597502 -0.012871063 4282805068
-0.0048734099 -0.0033703744 -0.014017287 4283066444
0.00064522028 -0.0014486909 -0.016764237 4282808384
0.0025806278 -0.0013049021 -0.017222589 4282090303
0.0043596104 -0.00041645765 -0.018363534 4281438779
0.0061333925 0.00047171861 -0.019503171 4280849729
0.0079020485 0.0013596416 -0.020641504 4280326724
0.0096654892 0.0022473484 -0.021778552 4280914243
0.011925381 0.00090350956 -0.020873765 4280783429
0.014875378 -0.0034135729 -0.017253378 4280782918
0.01854736 -0.010701522 -0.010924846 4281109573
0.021922171 -0.016499087 -0.0059653185 4281174599
-0.01237686 -0.0078110322 -0.011260855 4282413643
-0.011105448 -0.0039255768 -0.015153258 4282021453
-0.0090333223 -0.0045306757 -0.014926362 4281956173
-0.0070962012 -0.0043873489 -0.015385545 4282413134
-0.0053020418 -0.0034961775 -0.016528921 4282412623
-0.0035130307 -0.0026052594 -0.017670995 4282543184
0.0022843704 -0.0021749288 -0.01904423 4282479943
0.003747955 0.00020904094 -0.021545185 4281698114
0.0055138394 0.0010988116 -0.022681357 4281698369
0.007436268 0.001241982 -0.023136379 4281042763
0.0093588307 0.0013852939 -0.023591338 4280977739
0.011615522 3.6776066e-05 -0.022689039 4280912714
0.014561541 -0.0042937845 -0.019077348 4280978248
0.018228747 -0.0116041 -0.012763776 4281239624
0.021599181 -0.017419621 -0.0078160875 4281369929
-0.012122132 -0.011690751 -0.010352951 4282414920
-0.011246935 -0.0055420399 -0.01629312 4281891148
-0.0091751367 -0.0061494112 -0.016067784 4281891148
-0.0073784441 -0.0052559599 -0.017210234 4281825359
-0.0054439604 -0.00511273 -0.017668728 4281955663
-0.0038004741 -0.0034698918 -0.019491261 4282281298
0.0019885451 -0.0030402243 -0.02086254 4282738769
0.0036060959 -0.0013987944 -0.022678642 4282542673
0.005213201 0.00024195015 -0.024492113 4282413134
0.0071328282 0.00038489699 -0.024946483 4281824083
0.0092167407 -0.00022038072 -0.024723141 4282151759
0.011306081 -0.000825122 -0.024500987 4282282573
0.014248144 -0.005169265 -0.020897981 4281825359
0.017910562 -0.01250194 -0.014599357 4281760078
-0.012529299 -0.011818752 -0.012872376 4282282574
-0.011253595 -0.0079109818 -0.016749803 4281433423
-0.0093169138 -0.0077678412 -0.017208993 4281695308
-0.0073800683 -0.0076245591 -0.017668132 4281694798
-0.0054430589 -0.0074811578 -0.018127225 4281955408
-0.0036512911 -0.0065856576 -0.019266754 4282216018
-0.0017166138 -0.0064422041 -0.019725133 4282542163
0.0002182126 -0.0062985942 -0.020183451 4282607699
0.001999855 -0.0054035336 -0.021320332 4282542418
0.0036203191 -0.0037575364 -0.023133863 4282347089
0.0053889602 -0.0028631017 -0.024267517 4282150993
0.0074750558 -0.0034706146 -0.024046365 4282151504
0.0094026253 -0.0033269525 -0.024502523 4282020433
0.011163697 -0.0024327338 -0.025634121 4282151249
0.01376589 -0.0052897781 -0.023390155 4282151248
0.017764732 -0.014145032 -0.015757412 4282086224
-0.012671731 -0.013447911 -0.014021233 4282216784
-0.011395186 -0.0095290765 -0.01789083 4281629263
-0.0095959008 -0.0086311996 -0.019030795 4281695309
-0.0076618493 -0.0084881335 -0.019489281 4281629519
-0.0057276338 -0.0083449632 -0.019947737 4281890639
-0.0039384589 -0.0074474812 -0.02108505 4282019923
-0.002006568 -0.0073042363 -0.021542776 4282346579
-7.4528158e-05 -0.0071608573 -0.022000443 4282476883
0.0017044917 -0.0062637851 -0.0231351 4282542419
0.0034783632 -0.005366981 -0.024268456 4282216019
0.0054055229 -0.0052236021 -0.0247247 4282150994
0.0074939206 -0.0058330745 -0.024505738 4282150994
0.0092602372 -0.0049364567 -0.025637023 4282150738
0.011021331 -0.0040400624 -0.026767049 4282281553
0.013622608 -0.006905973 -0.024529289 4282478413
0.017447226 -0.015035629 -0.017587885 4282478669
-0.013077669 -0.013562009 -0.016530938 4282346324
-0.011402324 -0.011904113 -0.018351745 4281759313
-0.0096003488 -0.011003807 -0.019490797 4281563473
-0.007663779 -0.010860577 -0.019949898 4281891149
-0.0058694184 -0.0099606439 -0.021086935 4281694543
-0.0039351732 -0.0098173469 -0.021545306 4281889109
-0.002000764 -0.0096739382 -0.022003636 4282280279
0.0015625358 -0.0078751296 -0.02427109 4282541909
0.0034920648 -0.0077317059 -0.024727989 4282345814
0.0054217204 -0.0075881705 -0.025184851 4282150993
0.007673353 -0.0089548826 -0.024294451 4282346579
0.0092814341 -0.0073006675 -0.026098367 4282150738
0.011211477 -0.0071567222 -0.026555035 4282282319
0.013648227 -0.0092764571 -0.0249965 4282216783
0.016958617 -0.015166998 -0.020086147 4282476373
-0.0097419992 -0.012621351 -0.020631399 4281952859
-0.0079451054 -0.011719167 -0.021767534 4281824083
-0.0060111582 -0.011576019 -0.022225924 4281955409
-0.0040770471 -0.011432767 -0.02268428 4282215254
0.007209152 -0.0090555921 -0.026777331 4282280278
0.009138912 -0.0089117885 -0.027234029 4282150228
0.011234827 -0.0095248967 -0.027019892 4282281809
0.013673503 -0.011651121 -0.02546658 4282151758
0.013698407 -0.014029875 -0.025939621 4282541654
0.025959693 -0.02391538 -0.01892041 4282406249
0.027240478 -0.023139253 -0.022542901 4282602343
