# .PCD v0.7 - Point Cloud Data file format
VERSION 0.7
FIELDS x y z rgba
SIZE 4 4 4 4
TYPE F F F U
COUNT 1 1 1 1
WIDTH 541
HEIGHT 1
VIEWPOINT 0 0 0 1 0 0 0
POINTS 541
DATA ascii
-0.016033709 -0.0087397024 0.015752356 4289936654
-0.015538301 -0.00054839998 0.0077825245 4290393868
-0.015358943 -0.014778718 0.018668268 4289016868
-0.01539151 -0.0036219805 0.0079644173 4289737243
-0.014552582 -0.021581098 0.022251055 4286530618
-0.014700253 -0.0096531287 0.01088227 4289344543
-0.013874907 -0.01644966 0.01446485 4289605664
-0.013187841 -0.022534713 0.017342605 4285940804
-0.012492906 -0.033462957 0.019085977 4286137154
-0.01275713 -0.030148864 0.0050176363 4286006339
-0.012110244 -0.018771335 -0.013375131 4287971114
-0.012519512 -0.018829331 -0.015882162 4287446069
-0.01236045 -0.021947414 -0.015737338 4287838513
-0.012343761 -0.024304457 -0.016258428 4286856254
-0.010821048 -0.021870188 -0.018620303 4286267969
-0.017725896 -0.031832092 0.026743963 4283065933
-0.018370766 -0.032940015 0.022211939 4282476374
-0.019138228 -0.030863188 0.017576918 4282345048
-0.019395057 -0.03176783 0.015668018 4282410839
-0.01697379 -0.033889279 0.017298892 4282476374
-0.020032633 -0.030408561 0.01173518 4282279768
-0.01762275 -0.032537282 0.013363304 4282410838
-0.020415071 -0.030542061 0.0091638509 4282345304
-0.018011183 -0.032677725 0.010788234 4282476374
-0.018916424 -0.029780105 0.0055317488 4282541908
-0.019561153 -0.028374903 0.001635721 4282542163
-0.017432947 -0.029005662 0.0019128155 4282804048
-0.017955586 -0.02834706 -0.0013012756 4282542164
-0.018214066 -0.029202342 -0.0031721052 4282412114
-0.01622596 -0.029074296 -0.0035632085 4282542674
-0.018734921 -0.028521344 -0.0063695479 4282150483
-0.016620941 -0.029159501 -0.0060945172 4281566024
-0.018861104 -0.030130923 -0.007566812 4282216018
-0.016747445 -0.030771255 -0.0072933719 4281566023
-0.01898725 -0.031740203 -0.0087638665 4281822808
-0.016873911 -0.032382727 -0.0084920181 4281107279
-0.015300673 -0.029945545 -0.010864152 4282412878
-0.017133888 -0.033221707 -0.010350122 4281560159
-0.00032760575 -0.0059144348 0.048653062 4285097773
0.0009839721 -0.0022614375 0.044709571 4285754398
0.0033534504 -0.0035346821 0.045718838 4285885724
0.0065218508 -0.0083237216 0.050257202 4285820189
0.010850038 -0.018032305 0.059728283 4285426724
-0.015620586 -0.0050070062 0.046696987 4285360679
-0.013695445 -0.0041670427 0.045582939 4285754398
-0.011367496 -0.0054480657 0.046596471 4285754398
-0.008890029 -0.0074349493 0.048316207 4285557538
-0.0071031339 -0.0058879405 0.046494007 4285427233
-0.005326841 -0.0043414757 0.044673923 4285493023
-0.003414426 -0.003501825 0.043562762 4285558813
-0.0019554906 -0.00054429471 0.040334109 4285623838
-0.00051788241 0.0024119243 0.037109774 4285557793
0.001826968 0.001132749 0.038120486 4285492258
0.0048124455 -0.002967678 0.041947618 4285755163
0.008630868 -0.010592662 0.049288969 4285558049
0.012833977 -0.019623943 0.058025885 4285426724
-0.019743685 -0.0076610222 0.046967193 4285296164
-0.018321935 -0.0039801747 0.043017961 4285493534
-0.017057296 0.00040854514 0.03836577 4285755164
-0.015025746 0.0005396679 0.03796633 4285754654
-0.012586571 -0.0014564022 0.039688557 4285755163
-0.010131177 -0.0034513026 0.041407675 4285624093
-0.0083655231 -0.0019012913 0.039592914 4285624349
-0.0064665824 -0.0010604784 0.038485955 4285558813
-0.0045728944 -0.00021990389 0.037380103 4285624349
-0.0028336905 0.0013286993 0.035570771 4285886743
-0.0012570135 0.0035847053 0.033059601 4285754908
0.0012312345 0.0015925914 0.034772698 4285755164
0.0042075105 -0.0025215447 0.038591702 4285820954
0.0075359531 -0.0080484822 0.043809328 4285755674
0.011070024 -0.014279895 0.049720559 4285492513
-0.020875078 -0.0036459118 0.040055614 4285361443
-0.019346397 -0.0006673336 0.036825877 4285755674
-0.017839011 0.0023099706 0.033600401 4285689629
-0.015688024 0.0017287508 0.033909697 4285623583
-0.013260204 -0.00027457625 0.035629164 4285755164
-0.010539498 -0.0036989674 0.038755596 4285821209
-0.0087789781 -0.0021450147 0.036945179 4285624348
-0.0070290603 -0.00059159845 0.035136882 4285624348
-0.0052897558 0.00096119195 0.033330783 4285624093
-0.0035610534 0.0025134385 0.031526823 4285689883
-0.0015394874 0.0026445985 0.031129863 4285821209
0.00079101324 0.00135573 0.032136776 4285755673
0.0036036447 -0.0020619705 0.035245709 4285690138
0.0062833913 -0.0047681108 0.037648614 4285558813
0.0094720498 -0.0096013471 0.042148273 4285559069
0.01401953 -0.020106986 0.052238967 4285361954
-0.021255028 -0.0038804784 0.037406631 4285295654
-0.019986067 0.0005344376 0.032773357 4285558813
-0.018488824 0.0035197511 0.029556494 4285886998
-0.016216055 0.0022219494 0.030570783 4285886998
-0.013661433 -0.00050195307 0.032990899 4285886998
-0.011085238 -0.0032243729 0.035406847 4285755673
-0.0093325488 -0.0016665533 0.033601228 4285624348
-0.0074469298 -0.00082229823 0.032500174 4285624349
-0.0054203495 -0.00069102645 0.032102067 4285624349
-0.0035425462 0.00015293807 0.031002708 4285624094
-0.0015184321 0.00028425455 0.030605245 4285623839
0.00081427023 -0.0010088012 0.031608347 4285623839
0.0031578057 -0.0023010895 0.032609452 4285558558
0.0056717321 -0.0043044239 0.034307674 4285624604
0.0085264221 -0.0077300593 0.037400208 4285493278
0.012727793 -0.016846262 0.046072826 4285362208
-0.021260466 -0.0062550306 0.03687761 4285164073
-0.02036975 0.00032160431 0.030141879 4285493278
-0.018747356 0.002599299 0.027635939 4285558558
-0.016610362 0.0020127669 0.027944628 4285624094
-0.014197227 -4.61936e-06 0.029656984 4285623838
-0.01176789 -0.0020208582 0.031366233 4285624093
-0.0097443499 -0.001890026 0.030968547 4285624093
-0.0075773522 -0.0024741814 0.031271655 4285689884
-0.0054048635 -0.0030579045 0.031573761 4285690139
-0.003524337 -0.002211608 0.030475508 4285624349
-0.0013462864 -0.00279475 0.030776687 4285624348
0.00052908063 -0.0019485727 0.029679615 4285689883
0.0025559291 -0.0018168911 0.029281758 4285886999
0.0045828484 -0.0016850904 0.028883975 4285951768
0.0072583295 -0.0044088215 0.031274501 4285951769
0.011438537 -0.013554655 0.039929714 4285754909
0.016358435 -0.025550075 0.051355299 4285426723
-0.020244252 -0.0027555451 0.030326206 4285427998
-0.01874591 0.00024718791 0.027122352 4285559069
-0.016739003 0.00037661195 0.026727673 4285624349
-0.014731944 0.00050614774 0.026333049 4285689629
-0.012586925 -8.1904233e-05 0.026638675 4285689628
-0.010436431 -0.00066944957 0.026943259 4285755419
-0.007707715 -0.0041257814 0.030043345 4285689884
-0.005681403 -0.0039945766 0.029645257 4285624348
-0.0036549754 -0.0038632676 0.029247224 4285690139
-0.0019308962 -0.0022982061 0.027454156 4285755418
9.0364367e-05 -0.0021670088 0.027057305 4285755419
0.0021117143 -0.0020356998 0.026660521 4285754909
0.0041331425 -0.0019042641 0.026263811 4285689373
0.0066404827 -0.003921032 0.027953479 4285820443
0.010316372 -0.01094804 0.034504414 4285885978
0.015049791 -0.022265963 0.045211229 4285623329
0.019189101 -0.030715831 0.053125825 4285164073
-0.020246353 -0.005120635 0.029803585 4285362464
-0.018874373 -0.0013886765 0.025905583 4285493788
-0.016999882 -0.00053911656 0.024811313 4285624603
-0.015130606 0.00031023473 0.02371816 4285953044
-0.013128903 0.00043950975 0.023324646 4285952789
-0.010986742 -0.0001507625 0.023629207 4285952534
-0.0084100775 -0.0028990954 0.026025262 4285755929
-0.0062489249 -0.0034879148 0.026326258 4285624349
-0.0043790489 -0.0026380122 0.025233384 4285624349
-0.0025144219 -0.0017883256 0.024141625 4285689629
-0.00050133467 -0.0016576722 0.023746368 4285952533
0.0015118383 -0.0015268996 0.023351178 4285754908
0.0035250857 -0.0013960153 0.022956062 4285623329
0.0060237199 -0.0034198314 0.024642415 4285688863
0.0091963299 -0.0083149597 0.029098872 4285820443
0.012907928 -0.015361272 0.035626292 4285558049
0.016843028 -0.023121767 0.042835545 4285163564
-0.020121966 -0.008212544 0.029976986 4285164073
-0.019132201 -0.002301693 0.023990538 4285493789
-0.017260361 -0.0014501512 0.022898432 4285689884
-0.015528519 0.00012335181 0.02110998 4285623583
-0.0135323 0.00025224686 0.020717531 4285623328
-0.011395827 -0.00034058839 0.021021526 4285689374
-0.0089681819 -0.0023763031 0.022716254 4285754908
-0.0069608912 -0.0022463575 0.02232188 4285689629
-0.005249884 -0.00067365915 0.020537939 4285624094
-0.003398627 0.00017730892 0.019450452 4285689628
-0.0013990775 0.00030705333 0.019057836 4285952788
0.00075679272 -0.00028385222 0.019358534 4286018068
0.0029181056 -0.00087432563 0.019658234 4286083604
0.0054080449 -0.0029052645 0.021341357 4285952279
0.0080784149 -0.0056553409 0.023713041 4285623583
0.01060332 -0.0076837391 0.025389433 4285492768
-0.019389663 -0.0032100528 0.02207895 4285427743
-0.017916288 -0.00018285215 0.018899925 4285821719
-0.016194947 0.0013943166 0.017116848 4285886489
-0.014209591 0.0015224814 0.016726516 4285820699
-0.011944141 0.0002027154 0.017725766 4285952023
-0.0095251799 -0.0018401444 0.019417252 4286215184
-0.0075260699 -0.0017107576 0.019024465 4285689629
-0.0061189532 0.0013128221 0.015858956 4285689629
-0.0042810477 0.0021650866 0.014775744 4285624349
-0.0022950433 0.0022939593 0.014385786 4285623839
-0.00015288964 0.0016999394 0.01468749 4285689628
0.0019947104 0.0011064112 0.014988218 4285755164
0.0043091662 -0.00020934641 0.015978564 4285558303
0.0063061975 -7.930398e-05 0.015586784 4285559069
0.0074693374 0.0036623701 0.011747476 4285427743
0.018777173 -0.0095297918 0.023252744 4285754143
0.024235593 -0.023103647 0.035904869 4285623329
0.029064408 -0.033785708 0.045791678 4285492004
-0.0196467 -0.0041137487 0.020170826 4285361953
-0.018570788 0.001102224 0.014914634 4285559069
-0.016994402 0.0034095943 0.012442721 4286018068
-0.014885459 0.0028104633 0.012748688 4286017813
-0.012491386 0.00075940788 0.014439959 4286083858
-0.010081109 -0.0012905523 0.016128164 4285689629
-0.0088160373 0.0024676621 0.012276489 4285689884
-0.0078733638 0.0076756701 0.0070469696 4285624093
-0.0060649104 0.0085281804 0.0059711877 4285624094
-0.0038020946 0.0072043687 0.006968081 4285624094
-0.0012166873 0.0044310689 0.0093429275 4285624094
0.00091451034 0.0038342625 0.0096451957 4285624349
0.0028898977 0.0039627701 0.0092575699 4285624348
0.0042096116 0.0069900155 0.0061163474 4285559324
0.0048414841 0.012913913 0.00022785086 4285624349
0.0061076954 0.015937895 -0.0029026996 4285755673
0.0082123764 0.015339881 -0.0025947597 4285951768
0.011545021 0.009674713 0.0025163386 4285951513
0.01562994 0.001117304 0.010362305 4285951769
0.021399351 -0.013948217 0.024363052 4285951769
0.02728137 -0.029006287 0.03834188 4285623839
0.031422205 -0.036824286 0.045456577 4285164328
-0.019774433 -0.0057418495 0.018959802 4285427234
-0.018697444 -0.00051063299 0.013714973 4285558558
-0.017254982 0.0025320202 0.010555323 4285623839
-0.015422925 0.0033876598 0.0094761215 4285623584
-0.013456471 0.0035146773 0.0090895575 4285689373
-0.011632208 0.0043700337 0.0080120601 4285689884
-0.010683205 0.0095935315 0.0027928092 4285690139
-0.0096239299 0.014086805 -0.0017290358 4285886999
-0.0076945573 0.014211871 -0.0021079723 4285952533
-0.0053059831 0.012154415 -0.00042015593 4286018069
-0.0025898106 0.0086434186 0.002641296 4285755419
-0.00063876063 0.0087702125 0.0022583473 4285624349
0.0011512898 0.009624131 0.0011881571 4285558814
0.002280999 0.013385169 -0.002628075 4285689883
0.0035503954 0.016417935 -0.0057527125 4285755673
0.0046292841 0.020175889 -0.0095588062 4285623584
0.006712202 0.019574337 -0.0092482921 4285557794
0.0098473951 0.014616415 -0.0048306379 4285754909
0.014083114 0.0053052455 0.0036847498 4285820699
0.019467589 -0.0083559602 0.016288396 4285624348
0.025684023 -0.024912857 0.031604622 4285558559
0.030542152 -0.035658017 0.041436076 4285427489
-0.014558908 0.0070270151 0.0030689538 4285425193
-0.013464119 0.011535414 -0.0014501465 4285624348
-0.012256537 0.015311591 -0.0052739754 4285624093
-0.010928143 0.018356085 -0.0084041692 4285755163
-0.0090203471 0.018479727 -0.0087788869 4285754909
-0.0066538602 0.016414307 -0.0070917141 4285886488
-0.0039601326 0.012890995 -0.0040341495 4285952278
-0.0018724389 0.012287006 -0.0037266677 4285689883
-0.0001011081 0.013141878 -0.0047915177 4285624349
0.0013377331 0.015454561 -0.0072256201 4285624348
0.0025942996 0.018495113 -0.010341084 4285952788
0.0039984062 0.020805776 -0.01276819 4285755418
0.0062445961 0.019473001 -0.011774123 4285623838
0.0091987774 0.01522772 -0.0080497675 4285624093
0.012893084 0.0080721006 -0.0016014976 4285755674
0.017719012 -0.0034477115 0.0089284275 4285755673
0.023360126 -0.017873034 0.022167638 4285689883
0.02929347 -0.033018775 0.036066856 4285558558
0.033086911 -0.039427705 0.041778866 4285427234
-0.015241016 0.0083719268 -0.00086388644 4285427234
-0.014723931 0.015823036 -0.0081221163 4285558813
-0.013392411 0.018876299 -0.011246389 4285755419
-0.011787552 0.020463802 -0.012993008 4285623328
-0.0095932558 0.019122392 -0.011992702 4285623328
-0.0073881671 0.017781816 -0.010994485 4285623583
-0.0050169006 0.015710309 -0.0093131308 4285820954
-0.0029455833 0.015103087 -0.0090040937 4285689884
-0.0011903085 0.015959062 -0.010064159 4285624349
0.00039624795 0.017546028 -0.011806684 4285624094
0.0021382384 0.018401377 -0.012863962 4285689883
0.003706146 0.01998733 -0.014602603 4285886998
0.0059491731 0.018650003 -0.013611233 4285886999
0.0085512251 0.015852474 -0.011258963 4285755928
0.011881988 0.010135129 -0.0061871475 4285755673
0.015794121 0.0022302717 0.00091750547 4285558814
0.021040436 -0.010780483 0.012769789 4285558558
0.027492357 -0.02816356 0.028679334 4285493278
0.032385133 -0.038971476 0.038454384 4285493278
-0.015130151 0.015737265 -0.010651173 4285493533
-0.013947908 0.019533463 -0.014453495 4285756438
-0.012350868 0.021124743 -0.01619523 4285887508
-0.010165103 0.01977846 -0.015196618 4285821208
-0.0078160055 0.017698884 -0.013515981 4285952789
-0.0054507591 0.0156205 -0.01183847 4285887254
-0.0035430007 0.015744433 -0.01221296 4285624349
-0.001795724 0.016602062 -0.013269799 4285624603
0.00010948628 0.016726077 -0.013643602 4285624349
0.0016829148 0.018316597 -0.015380109 4285558558
0.0035828613 0.0184405 -0.015752705 4285558558
0.0054828487 0.018564507 -0.016125226 4285558559
0.0079047345 0.016490594 -0.014458232 4285558558
0.010696013 0.012952819 -0.011435684 4285624093
0.01405206 0.0072198734 -0.0063819839 4285624349
0.018542979 -0.0029030889 0.0027328711 4285558814
0.024955707 -0.020340852 0.018610321 4285558814
0.030935016 -0.035574652 0.032431126 4285493278
0.034746427 -0.042021334 0.038109891 4285361444
-0.015393987 0.014923505 -0.012488997 4285361953
-0.01435801 0.01946719 -0.016966641 4285558814
-0.012619149 0.02032591 -0.018020652 4285624348
-0.010586198 0.019711457 -0.017707622 4285689883
-0.0082431175 0.017624997 -0.016030822 4285689884
-0.0060389079 0.016275734 -0.015038943 4285624094
-0.0039816163 0.015663244 -0.014730476 4285558558
-0.0019189082 0.015051216 -0.014422981 4285624348
-1.3835728e-05 0.015175208 -0.014796773 4285559069
0.0017255396 0.0160347 -0.015850242 4285559068
0.0036280341 0.016158752 -0.016223345 4285558813
0.0051883459 0.017753035 -0.017953839 4285624349
0.0072593391 0.017142072 -0.017647495 4285690139
0.0095121674 0.01579693 -0.016664505 4285755418
0.01249231 0.011514544 -0.012974913 4285689883
0.016595557 0.0028282851 -0.0052317707 4285689883
0.022423649 -0.012461111 0.0085837729 4285755419
0.028738646 -0.029210977 0.023728501 4285689628
0.033658009 -0.040082112 0.033448774 4285558304
0.035769634 -0.039943285 0.033035524 4284966704
-0.015233066 0.011897027 -0.012274719 4285362209
-0.014479119 0.017932035 -0.018108364 4285493534
-0.012740217 0.018792905 -0.019160748 4285558558
-0.010857079 0.018914908 -0.019530658 4285558558
-0.008669503 0.017560102 -0.018538913 4285623838
-0.0064711422 0.01620616 -0.017549243 4285689628
-0.0041044503 0.014114901 -0.015881838 4285689374
-0.0020420551 0.013500668 -0.015575953 4285624093
-0.00013712794 0.013624653 -0.015949706 4285624348
0.0016022846 0.014486298 -0.017001545 4285624349
0.0035046339 0.014610358 -0.017374609 4285624349
0.0050651543 0.016208969 -0.019101849 4285690139
0.0067886151 0.017069936 -0.020150281 4285821209
0.0088593028 0.016456947 -0.019845491 4285820953
0.011472281 0.013634294 -0.01751508 4285886489
0.01501495 0.0071305782 -0.011813755 4286017304
0.019711822 -0.0037879795 -0.0020748936 4286082839
0.026172133 -0.021326639 0.013713861 4285951769
0.032002304 -0.035912745 0.026783813 4285820189
0.035438903 -0.040926084 0.031085156 4285360679
-0.015214067 0.0096033812 -0.012747926 4285361443
-0.014744155 0.017138347 -0.019930653 4285493533
-0.012861248 0.017260194 -0.020300623 4285559069
-0.010978244 0.017382175 -0.020670515 4285624349
-0.0090951696 0.017504252 -0.021040352 4285755164
-0.0070573203 0.016885988 -0.020731431 4285886743
-0.0046993308 0.014787696 -0.019067332 4285886744
-0.0023252033 0.012690514 -0.017406277 4285820954
-0.00042309612 0.012814298 -0.017779492 4285689628
0.0014790595 0.012938209 -0.018152621 4285624349
0.0032131895 0.013801783 -0.019201687 4285624348
0.0047712401 0.015404597 -0.020925112 4285755673
0.0064920448 0.016267553 -0.021971375 4285689373
0.0082075223 0.017130278 -0.023016507 4285557538
0.010632817 0.015037298 -0.021364907 4285623583
0.013800107 0.0099906176 -0.017022796 4285754909
0.017925682 0.001253888 -0.0093236677 4285754909
0.024357524 -0.016338706 0.0064309407 4285689374
0.030538952 -0.032446384 0.020816874 4285558049
0.034916349 -0.041166164 0.028466951 4285558049
-0.015054278 0.0065622404 -0.01254456 4285163309
-0.014721204 0.014862582 -0.020391189 4285296164
-0.013275184 0.01721406 -0.022797456 4285559324
-0.011397678 0.017335668 -0.023166277 4285755419
-0.009671919 0.018200181 -0.024212571 4285952534
-0.0076424293 0.01757925 -0.023903713 4285820953
-0.0054503307 0.016216323 -0.022919359 4285886744
-0.0030875765 0.014111876 -0.021261044 4286018069
-0.0010337867 0.013492845 -0.02095671 4285755163
0.00069496781 0.014358148 -0.022003135 4285624093
0.0024184138 0.015223198 -0.023048451 4285624349
0.0039659515 0.016829662 -0.024766512 4285952789
0.0058493279 0.016952671 -0.025135705 4285886743
0.0075567961 0.017817043 -0.026177609 4285557793
0.0099734031 0.01571694 -0.02452923 4285623329
0.012587396 0.012877129 -0.022212161 4285755418
0.016142707 0.0063353181 -0.016543018 4285886744
0.021799464 -0.0083490312 -0.0035054022 4285755418
0.028510051 -0.026728019 0.012862252 4285623838
0.034010489 -0.039916851 0.024516162 4285427233
0.036297567 -0.040519163 0.024775971 4285098538
-0.013542093 0.01643163 -0.024610618 4285427744
-0.011667408 0.016553029 -0.02497891 4285755673
-0.010247614 0.018909529 -0.027374892 4285623839
-0.0082264766 0.018285871 -0.027066052 4285557793
-0.0061999001 0.017662607 -0.026758175 4285623328
-0.0036888421 0.014806524 -0.024428293 4285689373
-0.0016434006 0.014184736 -0.024123937 4285689884
7.7344477e-05 0.015051723 -0.025167184 4285624094
0.0016250536 0.016662344 -0.026882032 4285624093
0.0031620897 0.018272385 -0.028594697 4285624093
0.0046884343 0.019881904 -0.030305209 4285953044
0.0065556169 0.020003982 -0.030671144 4285952788
0.0089581646 0.017896459 -0.029024966 4285887254
0.011739038 0.014303982 -0.026041599 4285821719
0.014914306 0.0092276409 -0.021724168 4285755418
0.019432455 -0.0010451227 -0.01273033 4285689629
0.025917219 -0.01873824 0.0029346328 4285558813
0.032530546 -0.036422707 0.018574487 4285558813
0.036160156 -0.042223714 0.023508992 4285427744
-0.013662491 0.014906332 -0.025744993 4285361698
-0.012531981 0.018764406 -0.029487373 4285689884
-0.010973725 0.020379387 -0.031201568 4285887254
-0.0089636184 0.019752823 -0.030892238 4285755419
-0.0067912303 0.018379889 -0.029910596 4285755418
-0.0044485442 0.016261123 -0.028258281 4285886999
-0.0024141371 0.015636489 -0.027953455 4285690139
-0.00053919852 0.015758619 -0.028321253 4285624349
0.0013357848 0.015880853 -0.028688977 4285624349
0.0028703362 0.017495118 -0.030397888 4285558558
0.0043942109 0.019108757 -0.03210457 4285558559
0.0062585771 0.019230649 -0.032469951 4285558303
0.0086577795 0.01711639 -0.030828092 4285492769
0.011253998 0.014258124 -0.028520815 4285558813
0.01387166 0.011401333 -0.026217613 4285624094
0.017628593 0.0040767267 -0.019913701 4285558558
0.023517933 -0.011436112 -0.00628372 4285558558
0.030478084 -0.030664131 0.010656444 4285558558
0.035439737 -0.04169485 0.020244531 4285493023
-0.013636902 0.012631655 -0.026205424 4285164074
-0.012800273 0.017999828 -0.031286649 4285559068
-0.011395797 0.020368267 -0.03366968 4285755929
-0.0093913488 0.019739166 -0.033360887 4285755928
-0.0073814802 0.019110538 -0.033053078 4285755929
-0.0048881508 0.016235888 -0.030732928 4285624603
-0.0026973896 0.014860027 -0.029758038 4285559069
-0.00082527474 0.014981955 -0.030125301 4285559069
0.0010468923 0.015104003 -0.030492473 4285559068
0.0025789626 0.016722441 -0.032197595 4285559069
0.0042731017 0.017592311 -0.033232022 4285493533
0.0063127391 0.016966447 -0.032929413 4285493279
0.0087139457 0.014845803 -0.031292923 4285493024
0.011492785 0.011231542 -0.028325684 4285493024
0.013931505 0.0091136396 -0.026696395 4285493023
0.017503085 0.002514489 -0.021075012 4285492769
0.022822166 -0.010803431 -0.0094750235 4285558304
0.029386595 -0.028595209 0.0060950574 4285426723
0.034332063 -0.039659493 0.015661504 4285492258
-0.013465837 0.009601064 -0.025996774 4285492769
-0.012919713 0.01648818 -0.032410845 4285493534
-0.011363715 0.018111631 -0.034117937 4285493533
-0.0093569122 0.017480493 -0.033811286 4285558814
-0.0073446892 0.016849846 -0.033505596 4285493023
-0.0051678605 0.01546862 -0.032531373 4285493023
-0.0028184094 0.013337404 -0.030890223 4285558814
-0.00078190863 0.012708686 -0.030589024 4285558813
0.001427196 0.011329956 -0.029620916 4285624859
0.0031373985 0.012202926 -0.03065693 4285690648
0.0050148368 0.01232554 -0.03102497 4285558304
0.0072427839 0.010948427 -0.030060258 4285492004
0.0094814822 0.0095720664 -0.029097531 4285623839
0.011911482 0.0074469894 -0.02747158 4285558559
0.014357574 0.0053230375 -0.025848646 4285492513
0.017935473 -0.0012952089 -0.02024338 4285492514
0.023070654 -0.013902754 -0.0093377801 4285492258
0.029253442 -0.030248657 0.004866017 4285426214
0.033614136 -0.039099455 0.012420218 4285426214
-0.012594238 0.012715191 -0.031524919 4285295654
-0.011030011 0.0143435 -0.033230327 4285361698
-0.0088618472 0.012957186 -0.032257937 4285360933
-0.0069955438 0.013078384 -0.032624327 4285360678
-0.0049701855 0.012446515 -0.032322787 4285492259
-0.0027777292 0.011062071 -0.031354859 4285623839
-0.00057451427 0.0096785203 -0.030388985 4285492513
0.0016394593 0.0082957298 -0.029425092 4285492259
0.0033550337 0.0091712549 -0.030460551 4285426469
0.0054100864 0.0085418969 -0.030164331 4285426469
0.0076455735 0.0071609169 -0.029204424 4285426468
0.010069545 0.0050287768 -0.027582299 4285426214
0.012509596 0.0028978586 -0.025963277 4285426213
0.014965728 0.00076806545 -0.02434727 4285360424
0.018738389 -0.006620504 -0.018096037 4285360424
0.023506904 -0.017761663 -0.0085447412 4285360679
0.029311446 -0.03265284 0.0042987894 4285294888
-0.012269773 0.008929424 -0.030648498 4285295399
-0.01069732 0.010562643 -0.032352261 4285492514
-0.0085216016 0.0091724247 -0.031384625 4285492259
-0.0064912699 0.0085385963 -0.031085812 4285492259
-0.0044555143 0.0079052374 -0.030787975 4285492258
-0.0024143532 0.0072723553 -0.030491106 4285558048
-0.00020359457 0.0058849007 -0.029529985 4285492514
0.0020179115 0.0044983104 -0.028570909 4285426724
0.0040806308 0.0038671941 -0.028277989 4285360678
0.0061487481 0.0032365173 -0.027985986 4285360678
0.0082222298 0.0026063249 -0.027695006 4285426469
0.010301091 0.0019766539 -0.027404957 4285426214
0.012565587 0.00059343874 -0.026453806 4285426213
0.015023708 -0.00154268 -0.024843194 4285426469
0.018611547 -0.0081992447 -0.019269615 4285360678
0.023188997 -0.018619686 -0.010403043 4285360424
0.028987199 -0.033554599 0.0024086665 4285229098
-0.012242198 0.0066473708 -0.031115046 4285097518
-0.010516234 0.0075270236 -0.03214984 4285360679
-0.0081823692 0.0053749532 -0.030520845 4285360678
-0.0061443113 0.0047394186 -0.030225158 4285492259
-0.0041008517 0.0041043907 -0.029930491 4285492259
-0.0020519756 0.0034698397 -0.029636785 4285492258
0.00033032894 0.0013213456 -0.028016891 4285360934
0.0022286735 0.0014450997 -0.028389208 4285360934
0.0042964257 0.00081215054 -0.028098924 4285360934
0.0061975233 0.00093629956 -0.02847161 4285360933
0.0084480755 -0.00045235455 -0.027521262 4285360934
0.010531981 -0.0010839254 -0.027233819 4285360678
0.012801316 -0.0024711043 -0.026286962 4285426469
0.014898617 -0.0031015202 -0.026002016 4285360933
0.018484727 -0.0097777024 -0.020442981 4285295143
0.023059573 -0.020228609 -0.011599017 4285229353
-0.011919376 0.0028404146 -0.03025439 4285163054
-0.010335818 0.0044830218 -0.031953726 4285295143
-0.0081503801 0.0030847639 -0.030994615 4285295398
-0.0059541799 0.0016873628 -0.030037571 4285426469
-0.00390568 0.0010504872 -0.029745555 4285360678
-0.0018517785 0.00041410327 -0.029454485 4285295398
0.00053521246 -0.0017405674 -0.027840469 4285360934
0.002605278 -0.0023756623 -0.02755239 4285360934
0.0045115389 -0.0022512972 -0.027926175 4285295398
0.0064178444 -0.0021267831 -0.028299874 4285229353
0.0086732581 -0.0035195202 -0.027353749 4285295144
0.010939404 -0.0049113408 -0.026409656 4285360933
0.013216276 -0.0063024163 -0.02546755 4285360934
0.015503865 -0.0076925978 -0.024527468 4285295399
0.018913701 -0.013629735 -0.019642819 4285294888
0.023681909 -0.024868384 -0.010165839 4285228843
-0.011745162 -0.00021667778 -0.03006674 4285228844
-0.01000578 0.00066814572 -0.03110088 4285360678
-0.0078128092 -0.00073390454 -0.030146601 4285360933
-0.0059203282 -0.00061104447 -0.03051815 4285295399
-0.0038694851 -0.0012499392 -0.03022825 4285295398
-0.001813218 -0.0018883944 -0.029939264 4285360934
0.00041210279 -0.0032878667 -0.028990965 4285295398
0.0026481934 -0.0046865493 -0.028044632 4285360934
0.0050640292 -0.0068455338 -0.026441079 4285360934
0.0073242821 -0.0082423985 -0.025499307 4285229609
0.0099440031 -0.011160061 -0.023243058 4285229354
0.012408111 -0.013315521 -0.021648675 4285229098
0.014888305 -0.015469849 -0.020057306 4285229098
0.017566973 -0.018383279 -0.017812328 4285228844
0.021007372 -0.024335697 -0.012946924 4284901678
-0.011571608 -0.0032821745 -0.029885348 4285294889
-0.0096767433 -0.0031594038 -0.030257553 4285360933
-0.0074762292 -0.0045653656 -0.029308019 4285361188
-0.0054204166 -0.0052062199 -0.029020838 4285360933
-0.0033591799 -0.0058466047 -0.028734623 4285229864
-0.0011317283 -0.0072504431 -0.027790103 4285164329
0.00094299763 -0.0078897029 -0.027506346 4285099048
0.0036877841 -0.011582613 -0.02459076 4284967213
-0.0088988915 -0.0093000829 -0.027444489 4285294888
-0.0065302141 -0.011475861 -0.025842153 4285426469
-0.0043006986 -0.01288414 -0.024901532 4285361189
-0.0017444864 -0.015824057 -0.022646647 4285164074
0.00035127252 -0.016464226 -0.022368768 4284967468
0.0027790703 -0.01863575 -0.020777633 4285032749
