# .PCD v0.7 - Point Cloud Data file format
VERSION 0.7
FIELDS x y z rgba
SIZE 4 4 4 4
TYPE F F F U
COUNT 1 1 1 1
WIDTH 681
HEIGHT 1
VIEWPOINT 0 0 0 1 0 0 0
POINTS 681
DATA ascii
-0.015878476 0.0027498379 0.0023024771 4288099124
-0.014260918 0.0050314516 -9.5425174e-05 4287969329
-0.012322817 0.0051352642 -0.00040451623 4288297003
-0.010154795 0.0037881136 0.00067636557 4288100909
-0.0082110986 0.0038924292 0.0003665369 4288297259
-0.0063876212 0.0047220886 -0.00063732639 4288035373
-0.0046924837 0.0062767118 -0.0023339707 4288165933
-0.0028823428 0.0071058609 -0.0033355495 4287904303
-0.00094913319 0.0072100163 -0.0036433907 4287512878
0.00098414719 0.0073142797 -0.0039511612 4287775528
0.0033189058 0.0052450374 -0.0021829894 4288037158
0.0053968914 0.0046255812 -0.001800389 4287120434
-0.015661784 -0.00099287182 0.0031905565 4288099124
-0.014035851 0.0012956783 0.00079630688 4288099379
-0.012089778 0.001399897 0.000485925 4288427564
-0.010028832 0.00077648461 0.00086894631 4288362539
-0.0081973374 0.0016086623 -0.0001346413 4288427818
-0.0063711442 0.002440609 -0.0011372697 4288493353
-0.004550267 0.0032723695 -0.0021389686 4288493353
-0.0026091523 0.003376849 -0.002448149 4288362029
-0.00066797063 0.0034814104 -0.0027572773 4288362028
0.001404237 0.0028592646 -0.0023756139 4288297513
0.0036155768 0.0015107989 -0.0013044011 4288362539
0.0057013892 0.00088959932 -0.00092473254 4288297769
0.0076535717 0.0009951815 -0.0012352765 4288101419
0.0097475611 0.00037463009 -0.00085674599 4287905323
0.013436105 -0.0082326829 0.0070954058 4287970603
0.019544143 -0.028451674 0.026047729 4287970603
0.025803415 -0.04866235 0.044976097 4287970603
-0.01565899 -0.0032876357 0.0026830006 4288229683
-0.014030028 -0.000992544 0.0002933275 4288229939
-0.011969473 -0.0016181991 0.00067459978 4288558124
-0.010018036 -0.0015136153 0.00036342442 4288362028
-0.0083011463 5.055964e-05 -0.0013301391 4288362029
-0.0063549168 0.00015507638 -0.0016403217 4288362028
-0.0046540461 0.0017185509 -0.0033311285 4288427308
-0.0027130619 0.0018230006 -0.0036403015 4288492843
-0.00064389035 0.0011984184 -0.0032599289 4288623658
0.0015615709 -0.00015478581 -0.0021912307 4288296749
0.0037778765 -0.0015072599 -0.00112422 4288492843
0.0057325922 -0.0014016405 -0.0014352556 4288296493
0.0078262687 -0.0020244718 -0.0010584369 4288296493
0.010067001 -0.0033753514 4.9713999e-06 4288492844
0.013906077 -0.012736388 0.0086228251 4288295983
0.01972666 -0.031559095 0.026154064 4288295983
0.025687659 -0.050374068 0.043663081 4288295983
-0.01565643 -0.0055864677 0.0021723192 4287248443
-0.013915397 -0.0040170699 0.00047805347 4288556849
-0.01196149 -0.0039124563 0.00016640313 4288753453
-0.010007478 -0.0038077459 -0.00014519505 4288754473
-0.0082877316 -0.0022391826 -0.0018358324 4288558379
-0.0063389391 -0.0021345392 -0.0021464359 4288362028
-0.0046352185 -0.00056657195 -0.0038343836 4288493098
-0.0025663935 -0.001193434 -0.0034557171 4288362028
-0.00049208477 -0.0018199384 -0.0030777995 4288492843
0.0015876666 -0.0024460033 -0.0027007125 4288427308
0.0038062483 -0.003802672 -0.0016374346 4288427308
0.0058996081 -0.0044277906 -0.0012623426 4288296493
0.0078596286 -0.0043217763 -0.0015741345 4288427308
0.010244109 -0.0064074174 0.00017122924 4288427053
0.013942391 -0.015065886 0.0080814883 4288230704
0.019908607 -0.034674853 0.026254009 4288165168
0.025272768 -0.050625205 0.040981449 4287968564
0.028928414 -0.057809129 0.047482368 4287771959
0.031088319 -0.057691604 0.047139328 4287902264
-0.01597283 -0.005685471 -0.00041029043 4288360243
-0.0141281 -0.0048465356 -0.001411194 4288884269
-0.012177024 -0.0047420934 -0.0017224122 4288754218
-0.010225847 -0.0046375543 -0.0020335708 4288885289
-0.0082745738 -0.004532896 -0.0023446549 4288688938
-0.0062034763 -0.0051620081 -0.0019682031 4288492844
-0.0044942051 -0.0035895184 -0.0036536623 4288493098
-0.0025453828 -0.0034846663 -0.0039641056 4288492843
-0.00059649721 -0.00337971 -0.0042744782 4288296749
0.0014829822 -0.004007943 -0.0038990248 4288427308
0.0037011355 -0.0053689405 -0.0028390419 4288427308
0.0056582801 -0.0052632168 -0.003150478 4288231214
0.0078927316 -0.0066231564 -0.0020928793 4288558379
0.010138005 -0.0079823658 -0.0010369653 4288558124
0.01412246 -0.018131919 0.0082206242 4288426798
0.019943278 -0.037066564 0.025664438 4288426798
0.025007913 -0.051599689 0.038989488 4288491824
0.028202873 -0.056608953 0.043427356 4288229684
-0.016182516 -0.006512329 -0.0022981074 4287969074
-0.014340479 -0.0056714043 -0.0032969173 4288557614
-0.012392234 -0.0055671334 -0.0036076959 4289017379
-0.010443889 -0.0054627657 -0.0039184149 4288951844
-0.0084954463 -0.0053582713 -0.0042290632 4289017124
-0.0064273365 -0.0059897229 -0.003853837 4288493354
-0.004476022 -0.0058848485 -0.0041647609 4288624168
-0.0023996532 -0.0065156445 -0.0037906803 4288493353
-0.00044550374 -0.006410405 -0.0041018929 4288362539
0.0015087016 -0.0063050687 -0.0044130385 4288362539
0.0033298805 -0.0054642856 -0.0054077618 4288427564
0.0055530556 -0.0068292171 -0.0043518608 4288231213
0.0076485872 -0.0074584335 -0.0039804047 4288165678
0.010031927 -0.009557046 -0.002244941 4288231213
0.013870325 -0.019002102 0.006307533 4288099889
0.01983108 -0.038727649 0.024390224 4288230704
0.024594093 -0.05183509 0.036320005 4288295729
0.027782472 -0.056859732 0.04074711 4288164148
-0.012718473 -0.0056488737 -0.0061749257 4288036903
-0.010889709 -0.0048063174 -0.0071697831 4288625954
-0.0087160021 -0.0061789751 -0.0061099585 4288560419
-0.0065314136 -0.0075509995 -0.0050517572 4288231724
-0.0045802407 -0.007446155 -0.0053626793 4287904303
-0.002628997 -0.0073412061 -0.0056735305 4288231469
-0.00067768618 -0.007236138 -0.0059843017 4287905068
0.0011434481 -0.0063933358 -0.0069774333 4288232234
0.0030921735 -0.0062881783 -0.0072876215 4288100654
0.0051765814 -0.0069202557 -0.0069161626 4288297003
0.007404767 -0.0082891062 -0.0058643324 4288231979
0.0097848326 -0.010394357 -0.0041333949 4288035373
0.014049705 -0.02207835 0.006438842 4288035119
0.01957247 -0.039651632 0.022436354 4287969583
0.024329999 -0.052798107 0.034336764 4288099889
0.027210841 -0.056365103 0.037394743 4288099889
-0.0090900697 0.027139653 0.030253053 4283204399
-0.007708367 0.030667718 0.026306637 4282225963
-0.0055110641 0.029404588 0.027447216 4280467228
-0.0021953061 0.021985028 0.035117175 4280791334
0.001305759 0.013884824 0.04350289 4280142104
0.0041009821 0.0098910891 0.047529537 4281183778
0.006666366 0.0072665662 0.050102282 4284252193
0.019124001 0.0072501786 0.048866268 4283596843
0.023579992 -0.0035607964 0.06008159 4283074858
-0.012174413 0.031635113 0.022822782 4282809148
-0.011262223 0.037920222 0.015985172 4281307453
-0.0096934997 0.040083364 0.013504533 4281048119
-0.0075398125 0.038813498 0.014648715 4281568828
-0.0047606565 0.034112904 0.019411184 4280721718
-0.0018179491 0.028728265 0.024891287 4279679278
0.0007831119 0.025404036 0.028195109 4281243448
0.0031492338 0.023453016 0.030049261 4281309239
0.0052641779 0.022874381 0.030456297 4281505079
0.0064295754 0.027094975 0.025809564 4281243959
0.0074234493 0.031999342 0.020446591 4281178169
0.0090886988 0.033475384 0.018694695 4279876139
0.012188569 0.028099753 0.024150193 4280004659
0.015773434 0.020671662 0.03175924 4279808818
0.020467412 0.0084530935 0.044396847 4279808563
-0.013286214 0.036275759 0.015108787 4281895994
-0.01205314 0.040512361 0.01046093 4280330804
-0.010617644 0.04336983 0.0072646588 4281111868
-0.0087233968 0.043471813 0.0069629624 4281438015
-0.0063379817 0.040820047 0.0095506739 4280917048
-0.0035544336 0.036104642 0.014300695 4280331569
-0.0012456737 0.034143955 0.016158849 4281112634
0.00094848499 0.032872263 0.017293379 4281373755
0.0028863586 0.032976966 0.016985025 4281243194
0.004279159 0.035832603 0.013795998 4280852789
0.0056503862 0.038687192 0.010610415 4281176894
0.0072833933 0.040165834 0.0088669639 4281763394
0.00991638 0.036832958 0.01215761 4281698369
0.013311911 0.030065898 0.019036405 4280981053
0.018409301 0.015745007 0.033805061 4280981054
-0.014171731 0.039573215 0.0088697113 4281633853
-0.012613233 0.041748635 0.0064007193 4279744814
-0.010953624 0.043232311 0.0046559181 4279743793
-0.008944951 0.042643212 0.0050761756 4279939634
-0.006808158 0.04136388 0.0062162932 4279679024
-0.0041591562 0.037323304 0.010235721 4280395064
-0.0019897707 0.036045827 0.011370802 4280981053
-7.0970505e-05 0.036149405 0.011065409 4280850493
0.0017144568 0.036943093 0.010041121 4280850749
0.0030861162 0.039806258 0.0068621486 4280003894
0.0045750439 0.041978594 0.0044047534 4279352623
0.0064724274 0.042081323 0.0041030087 4280003893
0.0090910718 0.038736865 0.0073874947 4280003893
0.012177628 0.033326022 0.012818186 4280005168
0.017402582 0.018269382 0.028271355 4280005168
0.025945939 -0.011249959 0.058740575 4279938869
-0.014385145 0.038741067 0.0069784392 4281438014
-0.012714632 0.040229559 0.0052352026 4281242428
-0.011288982 0.04310371 0.0020539407 4280916284
-0.0092859492 0.042512137 0.0024734028 4280720953
-0.0071549416 0.041228116 0.0036110952 4280916283
-0.0046374947 0.037866846 0.0069028363 4281046333
-0.0024766102 0.036584623 0.0080358367 4280915518
-0.00082718581 0.03807243 0.0062963162 4280915519
0.00094478205 0.038867541 0.0052758455 4280915519
0.002439402 0.041046575 0.0028225314 4280850494
0.0040565617 0.042532869 0.0010883193 4280263738
0.0059457421 0.042635143 0.00078787282 4280590648
0.008555457 0.039279405 0.0040653553 4280264249
0.011632625 0.033850819 0.0094840042 4280851513
0.016995657 0.018054727 0.025616601 4280851513
0.025983835 -0.013631657 0.058158088 4280198969
-0.014821269 0.03930448 0.0036525652 4281111104
-0.013272908 0.041492261 0.0011952613 4280849728
-0.011506785 0.042288728 0.00017702952 4281241408
-0.009387061 0.040999725 0.0013130344 4281242174
-0.0070117749 0.038321447 0.0038820822 4281241918
-0.004739821 0.036339216 0.0057308264 4281242174
-0.0027070567 0.035747293 0.0061440282 4281176894
-0.0009297058 0.036544763 0.0051243193 4280915773
0.00057601929 0.038730793 0.0026742332 4280850238
0.0019297265 0.041610226 -0.00048842467 4280980543
0.0035389699 0.043100402 -0.0022180136 4281111359
0.0058437064 0.041120417 -0.00037411787 4281241663
0.0083086304 0.038447656 0.0021811184 4281176894
0.011381838 0.033001527 0.0075869486 4281438524
0.01688806 0.016461961 0.024394803 4281438524
0.026325589 -0.017404169 0.058997724 4281176894
-0.015617676 0.030010261 0.010686699 4283132233
-0.014922343 0.037788033 0.0024890397 4281372223
-0.01360181 0.04137738 -0.0013972288 4278831148
-0.011841048 0.042175744 -0.0024129767 4279157039
-0.0098466016 0.041579299 -0.001995516 4279157804
-0.0074800923 0.038891904 0.00056818686 4279288873
-0.0050918944 0.036205783 0.0031284429 4281046334
-0.0028095916 0.0342177 0.0049705319 4280915773
-0.001032196 0.035017312 0.0039524827 4280915775
0.00060686469 0.036513299 0.0022213552 4280915518
0.0019637719 0.039401494 -0.0009350311 4281046334
0.0035758987 0.040896177 -0.0026617553 4279613233
0.0056005828 0.040302046 -0.0022486504 4279744559
0.0080621243 0.037620418 0.00030042045 4279809075
0.011277873 0.031461008 0.0064052101 4281113144
0.017377332 0.012086783 0.026018757 4281113144
0.026970303 -0.022580437 0.061249498 4279809075
-0.016154345 0.031270303 0.0066403337 4282155328
-0.015357088 0.038371436 -0.00082158856 4281177148
-0.013816159 0.040571727 -0.0032676253 4280785978
-0.012058042 0.041372046 -0.0042812387 4281241665
-0.01006655 0.04077331 -0.0038650502 4279808308
-0.0078254715 0.038776353 -0.0020215865 4279613744
-0.0054433458 0.03608121 0.00053292327 4280916284
-0.0032944418 0.034785353 0.0016576964 4281046589
-0.0012647957 0.034188949 0.0020681042 4280851259
0.00023889542 0.036387801 -0.00037156232 4280720698
0.0015908666 0.039284389 -0.0035204757 4280720699
0.0031977855 0.040783055 -0.0052429689 4278376484
0.005216822 0.04018645 -0.0048306566 4279549228
0.0078159347 0.03679774 -0.0015767869 4278832168
0.011027556 0.03061869 0.0045134965 4278638369
0.017567322 0.0090901591 0.026210167 4278638369
0.027006488 -0.024987385 0.060647633 4278832168
-0.017014984 0.03465442 0.00046390854 4281763138
-0.015790921 0.038968079 -0.0041220589 4279742264
-0.014030166 0.039770588 -0.005134494 4280458304
-0.012274712 0.040572897 -0.0061460175 4281175363
-0.010405365 0.04067342 -0.0064438405 4280980544
-0.0082921311 0.03937114 -0.005316901 4280003383
-0.0060433969 0.037368178 -0.003479667 4280460089
-0.00390568 0.036067333 -0.0023564557 4280981309
-0.0021471158 0.036870267 -0.0033681951 4280916538
-0.00052659586 0.038373813 -0.0050896164 4280785723
0.00094775483 0.040577613 -0.0075195143 4280394809
0.002682168 0.041379444 -0.0085271755 4281371714
0.0045520328 0.041480649 -0.008824571 4281632323
0.0072830245 0.037380233 -0.0048683556 4280850494
0.010777563 0.029780932 0.0026252903 4281046333
0.017458901 0.0074851178 0.024978954 4281046333
0.026739156 -0.025998734 0.058627393 4281046079
-0.017765325 0.037364803 -0.0049762707 4281829184
-0.016445745 0.040986318 -0.0088372305 4280850749
-0.014584802 0.041086204 -0.0091338586 4279221043
-0.012723759 0.041186169 -0.0094304439 4279676219
-0.010743558 0.040582426 -0.0090158116 4279807033
-0.0083926097 0.037868284 -0.006469937 4280003128
-0.0062688701 0.036562271 -0.0053479448 4280654908
-0.0043885782 0.036663607 -0.0056473371 4280850238
-0.0028977953 0.038874596 -0.0080749327 4281112124
-0.0014231578 0.041084755 -0.010499847 4280655164
0.00017057359 0.042591281 -0.012213625 4279677749
0.0017535537 0.044097275 -0.013925578 4280329274
0.0040290989 0.042089812 -0.012097331 4280654398
0.0066076368 0.038678404 -0.008857036 4280197949
0.010381792 0.029650085 3.371574e-05 4280133943
0.017350495 0.0058803298 0.023747936 4280133943
0.026472133 -0.027005479 0.056610692 4280458558
-0.018081449 0.037275326 -0.0075515015 4281761608
-0.016766656 0.040907342 -0.011403298 4281306179
-0.015024725 0.041713119 -0.012409394 4281502019
-0.013055686 0.041106567 -0.011994785 4281305923
-0.01108114 0.04050038 -0.011580995 4280848709
-0.008614663 0.037071448 -0.008331826 4280457540
-0.0066183433 0.036466606 -0.0079213725 4281045059
-0.0047435574 0.036567643 -0.0082198894 4281045313
-0.0035172813 0.04019548 -0.012057129 4281176639
-0.0017882809 0.041001156 -0.0130607 4281110593
-6.4652413e-05 0.041806616 -0.01406336 4280849729
0.0013779886 0.044021718 -0.016478051 4280653888
0.003366556 0.043416925 -0.016065922 4280588863
0.0056469962 0.041403346 -0.014243434 4280327488
0.0096947849 0.030937072 -0.0039613498 4280457793
0.016796216 0.0063887872 0.020402864 4280327488
0.026356757 -0.028711788 0.055301819 4280653889
-0.017749179 0.032942716 -0.0058627101 4281630793
-0.016312312 0.035877578 -0.0089988355 4281437248
-0.01455684 0.036686219 -0.01000542 4281567044
-0.012806673 0.037494656 -0.011011099 4281370694
-0.010824278 0.036886729 -0.010600252 4281435973
-0.0084719919 0.034155317 -0.0080680503 4281500998
-0.0064705163 0.033548586 -0.0076601114 4281501253
-0.0045904405 0.033649884 -0.0079594878 4281371204
-0.0030990019 0.035873823 -0.0103771 4281306179
-0.0012268946 0.035974868 -0.010675071 4281240643
0.00051028654 0.036783211 -0.01167821 4281436739
0.0018290915 0.039712586 -0.014794853 4281436229
0.0035474487 0.040520079 -0.01579486 4281305668
0.0056896694 0.039207064 -0.014682134 4281044549
0.0094463043 0.030121703 -0.0058323862 4280979268
0.016391326 0.0062039718 0.017771073 4281044549
0.026241388 -0.030417815 0.053993154 4281305668
-0.017202385 0.027171373 -0.0027712965 4281500234
-0.015748836 0.030115739 -0.0059033604 4280979523
-0.013863917 0.03021685 -0.00620386 4280978759
-0.012210723 0.031738825 -0.0079174684 4280654144
-0.010330994 0.031839829 -0.0082170051 4280913988
-0.0083298646 0.031230815 -0.0078107798 4280914244
-0.0063232444 0.030622192 -0.0074053518 4280915264
-0.004437875 0.030723758 -0.0077055823 4280914753
-0.0026818588 0.031535089 -0.0087101795 4280914753
-0.00053479895 0.030217607 -0.0076018386 4280718658
0.0012186207 0.031029016 -0.0086059226 4280588353
0.0026916377 0.033258639 -0.011015316 4280718913
0.0041484796 0.035487536 -0.013422096 4280849218
0.0063038059 0.0341709 -0.012314836 4280849473
0.0097806789 0.026475709 -0.0048924908 4281241919
0.016728718 0.0024848469 0.018653192 4281176639
0.025975006 -0.031415075 0.051983725 4280849473
-0.016657256 0.021374322 0.0003003832 4281435209
-0.015076682 0.023615297 -0.0021218006 4281109064
-0.013286032 0.024430085 -0.003130665 4281174853
-0.011616461 0.025957294 -0.0048435619 4281044549
-0.0098391175 0.026771553 -0.005850167 4280979269
-0.0079459213 0.026873339 -0.0061518019 4280848964
-0.0060526319 0.026975229 -0.0064533781 4281045058
-0.0040326901 0.02636525 -0.0060516885 4281045058
-0.0020072833 0.025755629 -0.0056508211 4281045314
-0.00010838732 0.025858104 -0.005953067 4281109829
0.0016558766 0.026672207 -0.0069571612 4280979524
0.0034147874 0.027486101 -0.0079603354 4280914243
0.0051683336 0.028299801 -0.0089625837 4280914499
0.0072020814 0.027691104 -0.0085626738 4281044548
0.010696135 0.019973166 -0.0011616256 4281110848
0.017361626 -0.0026686415 0.020925116 4280914243
0.026010711 -0.033829041 0.051376488 4281044548
-0.016436405 0.017697021 0.0012386888 4282283338
-0.014847413 0.019944929 -0.0011798525 4281240644
-0.013048638 0.020762302 -0.002188337 4281240644
-0.0113708 0.022294182 -0.0038991719 4280979269
-0.0095853209 0.023111023 -0.004905398 4280979013
-0.0078051649 0.023927711 -0.0059107468 4280979013
-0.0059065893 0.024029866 -0.006213177 4280980034
-0.0038815029 0.023417942 -0.0058139702 4280979268
-0.0019800887 0.02352044 -0.006116705 4281044548
-7.8607351e-05 0.023623031 -0.0064193793 4281045059
0.0016883798 0.024439469 -0.007422274 4281240644
0.0035872608 0.024542116 -0.0077243838 4281305924
0.0054861829 0.024644848 -0.0080264322 4281240644
0.0078130551 0.022607841 -0.006231511 4281305924
0.011318892 0.014866818 0.0011491477 4281306179
0.017993093 -0.0078435168 0.02318063 4281306179
0.026046144 -0.03624706 0.050766129 4281371203
-0.016538545 0.016158998 5.8528036e-05 4282283849
-0.014729049 0.016978979 -0.00095007755 4281371459
-0.013037644 0.01851584 -0.0026598349 4281174853
-0.01124144 0.0193353 -0.0036661746 4281110084
-0.0095687211 0.020871308 -0.0053727562 4281174598
-0.007664945 0.020973634 -0.0056761 4281110084
-0.0056375042 0.020359609 -0.0052790828 4281109828
-0.0037308671 0.020462286 -0.0055827294 4281110084
-0.0018241629 0.020565066 -0.0058863079 4281240898
-4.9095601e-05 0.021383945 -0.0068888441 4281240898
0.0017206334 0.02220263 -0.0078904592 4281240644
0.0037591867 0.021589689 -0.0074948315 4281305924
0.0059429668 0.020261541 -0.0064022876 4281240644
0.0081376061 0.018934064 -0.0053113271 4281306179
0.011649817 0.011169665 0.0020497981 4281305668
0.018179428 -0.010894336 0.023330469 4281305669
0.026081305 -0.038669109 0.0501527 4281305669
-0.016747873 0.015340738 -0.0018226486 4282349639
-0.014831107 0.01544337 -0.0021283692 4281371459
-0.012914244 0.015546098 -0.0024340302 4281240133
-0.011112608 0.016367983 -0.0034395708 4280979269
-0.0094343312 0.017908618 -0.0051437384 4281109574
-0.0075252764 0.01801122 -0.0054479307 4281175364
-0.005492691 0.01739531 -0.0050534196 4281240644
-0.0035807751 0.017498255 -0.0053579202 4281240644
-0.0016687959 0.017601293 -0.0056623602 4281240898
0.00011170655 0.018422626 -0.006664075 4281240899
0.0018868558 0.019243751 -0.0076648742 4281305924
0.0040674917 0.017911024 -0.0065752706 4281240644
0.0061193295 0.017296687 -0.006183329 4281240644
0.0083189458 0.015965201 -0.0050965808 4281240644
0.011834849 0.0081772506 0.0022454895 4281370693
0.018217448 -0.013236187 0.022779066 4281370693
0.02611619 -0.041095182 0.049536165 4281370693
-0.016635567 0.012362123 -0.0016016131 4283067973
-0.014823325 0.013186511 -0.0026073353 4281763139
-0.012903877 0.01328937 -0.002913421 4281567044
-0.011099525 0.014113531 -0.0039177276 4281304649
-0.0091825761 0.014216445 -0.0042232657 4281304649
-0.0072655417 0.014319457 -0.0045287432 4281435973
-0.0052251182 0.013701797 -0.004137178 4281697348
-0.0033052266 0.013805158 -0.0044429544 4281828164
-0.0015139654 0.014629103 -0.0054447995 4281436228
0.00040335953 0.014732532 -0.0057500098 4281502019
0.0023207366 0.014836043 -0.0060551669 4281501763
0.004374966 0.014219619 -0.005665414 4281240644
0.0064346269 0.01360359 -0.0052764462 4281436739
0.0084997304 0.012987901 -0.0048882309 4281502019
0.012164202 0.0044568852 0.0031282585 4281437758
0.018550407 -0.017021053 0.023610827 4281437758
0.026000498 -0.042805977 0.048223857 4281437758
-0.014486812 0.0087545849 -0.00099693425 4283135293
-0.012669042 0.0095815063 -0.0020017875 4282415429
-0.010626461 0.0089615025 -0.0016124863 4282154054
-0.0085783862 0.0083418861 -0.0012239842 4282285633
-0.006645266 0.0084457472 -0.0015320377 4282088519
-0.0048352294 0.0092726462 -0.0025353516 4282023238
-0.0031563677 0.010822147 -0.0042326385 4282089794
-0.0013596863 0.01164858 -0.0052337069 4281959744
0.00056291372 0.01175227 -0.0055397749 4282024768
0.002753485 0.010411315 -0.0044585159 4281827909
0.0048182383 0.0097933039 -0.0040721269 4281958979
0.0067490824 0.0098977387 -0.0043792697 4281959489
0.0088220127 0.0092803612 -0.0039940262 4281960508
0.012492713 0.00072377548 0.0040013287 4281895229
0.018882506 -0.020818546 0.024432827 4281895229
0.02603499 -0.045237973 0.047602866 4281895484
-0.017824158 -0.013444722 -0.00095708389 4283065934
-0.016495097 -0.0088932961 -0.0053784912 4281763394
-0.014764261 -0.0073072612 -0.0070577962 4281502784
-0.012821671 -0.0072033256 -0.0073676975 4281568064
-0.011106811 -0.0056179762 -0.009044243 4281633088
-0.0089362301 -0.0069951341 -0.007987299 4282154563
-0.006993372 -0.0068908557 -0.0082969973 4282482749
-0.0049284361 -0.0075266957 -0.0079245484 4282482494
-0.0028580204 -0.0081621781 -0.0075528556 4282480453
-0.0010369495 -0.0073172823 -0.008544418 4282611269
0.00090888515 -0.0072124153 -0.0088542458 4283134018
0.0027219802 -0.0063677952 -0.0098443422 4283395904
0.0048007071 -0.0070023239 -0.0094736554 4283985719
0.0070230737 -0.0083758458 -0.0084242309 4284311609
-0.017928064 -0.015016079 -0.0021629138 4282869328
-0.016598266 -0.010451727 -0.0065743728 4281110084
-0.01486728 -0.0088614002 -0.0082503567 4281045058
-0.013035905 -0.0080145225 -0.0092423744 4281110084
-0.011323597 -0.0064249858 -0.010915209 4281175364
-0.0091561303 -0.0078066662 -0.009861093 4281501508
-0.00709695 -0.0084450766 -0.0094895102 4281632578
-0.0047885776 -0.010567889 -0.0077578453 4281568064
-0.0029621683 -0.0097207427 -0.0087486496 4281698368
-0.0011410899 -0.008873716 -0.0097385459 4281828674
0.0008046031 -0.0087688714 -0.010048363 4281957959
0.0028830059 -0.0094057322 -0.0096793575 4281826633
0.0046961419 -0.0085587949 -0.010667728 4281828163
0.0066419803 -0.0084536001 -0.010977296 4281959489
0.0091508366 -0.011313759 -0.0085771279 4282024259
0.013976462 -0.026032247 0.0046514012 4282089030
0.019348495 -0.042967923 0.019892447 4282023749
0.023653939 -0.053969383 0.029704928 4281891403
0.026373373 -0.056817643 0.032072011 4282347853
-0.016595889 -0.012755267 -0.0070886975 4281043019
-0.014970269 -0.010415241 -0.0094426936 4280782664
-0.013138887 -0.00956624 -0.010433049 4280979778
-0.011312805 -0.0087174252 -0.011422481 4281045058
-0.0092593953 -0.0093584284 -0.011051751 4281305924
-0.0070814826 -0.010743693 -0.010002614 4281305668
-0.0050144121 -0.011383779 -0.0096338475 4281305668
-0.0030662864 -0.011279032 -0.0099442331 4281371203
-0.0012452044 -0.010429867 -0.010932459 4281371203
0.00083016232 -0.011069171 -0.010564751 4281371203
0.0026459545 -0.010220066 -0.01155196 4281435718
0.0044564046 -0.0093711764 -0.012538194 4281370949
0.0063993931 -0.0092661306 -0.012847313 4281435463
0.0091860332 -0.013622135 -0.0091018351 4281500743
0.013868008 -0.027640261 0.0034178682 4281435974
0.019090533 -0.043882377 0.01794596 4281435719
0.023242237 -0.054173231 0.027059577 4281500743
0.025804142 -0.056287512 0.028746866 4281759824
-0.018135726 -0.018157907 -0.004573904 4283066189
-0.016699117 -0.014315277 -0.0082858009 4281239624
-0.014857057 -0.013463683 -0.0092762811 4281305414
-0.013131056 -0.011864945 -0.010944697 4281175363
-0.011188801 -0.011760958 -0.011254492 4281240644
-0.0091302767 -0.012403846 -0.010886258 4281305668
-0.0069473982 -0.013793223 -0.0098412568 4281240644
-0.0051183514 -0.012941763 -0.010829232 4281370948
-0.0031703673 -0.012837023 -0.011139582 4281240644
-0.0012223162 -0.012732163 -0.011449869 4281305668
0.00085545331 -0.013373457 -0.011084265 4281371203
0.0028063096 -0.013268225 -0.01139482 4281370949
0.0047572181 -0.013162859 -0.01170528 4281436229
0.0067081638 -0.013057388 -0.012015664 4281304903
0.0092209727 -0.015934549 -0.0096295644 4281435464
0.013902724 -0.029993527 0.0028582215 4281239623
0.01868704 -0.044046812 0.015329801 4281305159
0.022534043 -0.052877657 0.023075476 4281435463
0.025387065 -0.056489237 0.026104327 4281954899
-0.018239513 -0.019728385 -0.0057790689 4282870604
-0.01680233 -0.015874982 -0.0094826706 4281240133
-0.014744386 -0.016520403 -0.0091163013 4281109574
-0.013012838 -0.014917128 -0.010782216 4281175363
-0.010951996 -0.015562169 -0.010416135 4281175363
-0.0091177188 -0.014708519 -0.011403441 4281305924
-0.0069325753 -0.016102023 -0.010362189 4281240644
-0.0052222572 -0.014499426 -0.012024364 4281240644
-0.0032744184 -0.014394701 -0.012334703 4281371203
-0.0014533401 -0.013541251 -0.013319592 4281371203
0.00062145665 -0.014184892 -0.012955151 4281435973
0.0027016811 -0.014828108 -0.012591546 4281436484
0.0049222745 -0.016219012 -0.0115554 4281435463
0.0068784691 -0.016113266 -0.011866625 4281304903
0.0093959495 -0.018998779 -0.0094879828 4281499978
0.013794165 -0.031603076 0.0016235113 4281435209
0.018429857 -0.044949837 0.013392085 4281434953
0.022123851 -0.053059325 0.020447206 4281566024
0.024970584 -0.056681938 0.023468632 4282281043
-0.018240828 -0.022050567 -0.0063071996 4282414408
-0.016590189 -0.019690022 -0.0086502172 4281763393
-0.014740027 -0.018833727 -0.0096386597 4281502274
-0.013005648 -0.017226003 -0.01130167 4281632833
-0.011055585 -0.017121643 -0.011612743 4281306688
-0.0091054253 -0.017017148 -0.011923738 4281306434
-0.0070365965 -0.017663702 -0.01156044 4281567554
-0.0050835796 -0.017558821 -0.011871705 4281763393
-0.0030065104 -0.018204696 -0.011509536 4281240644
-0.0011773296 -0.017348714 -0.012494 4281632324
0.00064651296 -0.016492911 -0.013477532 4281697603
0.0027291551 -0.017138124 -0.013115969 4281697859
0.0048172288 -0.017782941 -0.012755204 4281632324
0.0071856901 -0.019927651 -0.011052728 4281631813
0.0095703639 -0.022071339 -0.0093527995 4281435208
0.013828501 -0.033962175 0.0010593813 4281304138
0.018318556 -0.046597905 0.012127856 4281369419
0.022010785 -0.05473116 0.019164778 4281369673
0.024554711 -0.056865752 0.020839833 4282607444
-0.018344667 -0.023622595 -0.0075135678 4283133509
-0.016693737 -0.02125559 -0.0098515972 4282679864
-0.014843576 -0.020397171 -0.010838378 4282028339
-0.012998708 -0.019538909 -0.011824219 4282092088
-0.011046089 -0.019434415 -0.012135703 4281699643
-0.0089776367 -0.020083256 -0.011774121 4281764668
-0.0069037043 -0.020731695 -0.011413328 4281959998
-0.0048242882 -0.021379746 -0.011053253 4281893698
-0.0028632544 -0.021274336 -0.011365719 4281828674
-0.00090215355 -0.021168806 -0.011678103 4281893698
0.00092976913 -0.02031038 -0.012661293 4281828419
0.0027563572 -0.019452155 -0.013643481 4281697603
0.0047122203 -0.019346558 -0.013954759 4281828674
0.0069427751 -0.020745456 -0.012926787 4281762628
0.009464182 -0.023647912 -0.010562245 4281697094
0.013719842 -0.035573281 -0.00017651357 4281500743
0.018207263 -0.048245698 0.010863846 4281500743
0.021601513 -0.054899253 0.016546931 4281762629
0.0047417134 -0.02166447 -0.014485762 4284643108
0.0068373494 -0.022313111 -0.014129411 4284446249
0.0092181526 -0.024469875 -0.012438923 4284185383
0.013468634 -0.036429919 -0.0020792233 4284055334
0.017805453 -0.048385076 0.0082668345 4284055588
0.021192834 -0.055058353 0.013935905 4283791408
0.020784769 -0.055208541 0.011331789 4284508469
-0.0079747736 -0.044911757 -0.010806954 4284115514
-0.0058600567 -0.045575239 -0.010466112 4284187423
-0.0039798543 -0.044697501 -0.011443866 4283721538
-0.0022276677 -0.043049626 -0.013079191 4283525699
-0.00023543462 -0.042942479 -0.013396578 4283787074
0.0018849336 -0.043605156 -0.01305625 4284180283
0.0038799755 -0.0434976 -0.01337388 4284180793
0.0060085319 -0.044159628 -0.013034618 4284115769
0.0080063492 -0.044051662 -0.013352489 4284246328
0.010281917 -0.045482345 -0.01235847 4284377144
0.013276085 -0.050758608 -0.008088625 4284377653
-0.0073940307 -0.051144131 -0.0080822958 4283722049
0.016973745 -0.00017654151 0.060199965 4285295909
0.019353122 -0.0014248416 0.061315473 4285361443
0.010496441 0.0088551864 0.048002418 4284970783
0.01128922 0.015115101 0.041169178 4285036064
0.012743302 0.01795698 0.037956998 4285165603
0.015477952 0.014651228 0.041248351 4284906269
-0.016797248 -0.022820882 -0.011052761 4285229608
-0.014947087 -0.021960318 -0.012037873 4285493025
-0.012992017 -0.021855824 -0.012349848 4285493023
-0.011036847 -0.021751203 -0.012661751 4285295908
-0.0089659877 -0.022402085 -0.012302246 4285099048
-0.006889645 -0.023052581 -0.011943467 4285099559
-0.0049288198 -0.022947304 -0.012255993 4285165348
-0.0029679351 -0.022841915 -0.012568444 4285034789
-0.0007542111 -0.024246462 -0.011541568 4284970019
0.0010831133 -0.023385637 -0.01252389 4284905249
-0.016691379 -0.025902592 -0.01091085 4285426469
-0.014728464 -0.025797807 -0.011224173 4285558559
-0.012875505 -0.024934851 -0.012207981 4285558814
-0.010915089 -0.024829946 -0.012520716 4285426978
-0.0088391304 -0.025482707 -0.01216371 4285426978
-0.0068758465 -0.025377437 -0.012476735 4285361188
-0.0047916286 -0.02602952 -0.012120854 4285295653
-0.0027019531 -0.026681177 -0.011765748 4285295143
-0.00073305517 -0.02657526 -0.012079388 4285230118
0.0013648346 -0.027226232 -0.011725396 4285230629
0.0032049045 -0.026362993 -0.012706395 4285164838
0.0050396211 -0.025499932 -0.013686441 4285164839
0.0065949112 -0.023123786 -0.01599808 4285164583
0.0091121644 -0.026043706 -0.013646252 4285099048
0.013075311 -0.036525555 -0.0046437988 4284967723
0.017404258 -0.048515581 0.0056766961 4284967723
-0.018248592 -0.031379484 -0.0084505314 4284966449
-0.016481519 -0.029753082 -0.010105617 4285360934
-0.014510654 -0.029647879 -0.010420222 4285492513
-0.012649622 -0.028782353 -0.011403643 4285558304
-0.010681272 -0.028677054 -0.011717666 4285492768
-0.0088281259 -0.027811706 -0.012699641 4285492768
-0.0068623014 -0.02770631 -0.01301308 4285492513
-0.0048963837 -0.027600765 -0.013326421 4285361443
-0.0026836023 -0.029014103 -0.012306217 4285426979
-0.00071216002 -0.028908029 -0.012620263 4285427234
0.0012593381 -0.028801844 -0.012934227 4285427234
0.0030993968 -0.027936473 -0.013913549 4285426979
0.0050682947 -0.027830169 -0.014226902 4285361443
0.0067634583 -0.026206233 -0.01586936 4285295653
0.0090062022 -0.027617209 -0.014853347 4285229863
0.012824878 -0.037370786 -0.0065377513 4285164073
0.016858678 -0.04787875 0.0024300907 4285164073
-0.016376864 -0.032853588 -0.0099781314 4285426979
-0.014293678 -0.033510648 -0.0096259238 4285427233
-0.012534339 -0.031880163 -0.011276194 4285492768
-0.010673217 -0.031012326 -0.012257908 4285492768
-0.008932557 -0.029382624 -0.013905023 4285492513
-0.0069668703 -0.029277243 -0.014218439 4285426723
-0.0048805512 -0.02993352 -0.013866262 4285361443
-0.0026655011 -0.031351067 -0.012849727 4285427233
-0.00069151446 -0.031244874 -0.01316419 4285427234
0.001282528 -0.031138547 -0.013478556 4285427234
0.0031252652 -0.030270837 -0.014456668 4285426979
0.0050967075 -0.030164421 -0.014770438 4285361444
0.006794706 -0.028536029 -0.016409986 4285295654
0.0091791451 -0.030712008 -0.014735148 4285229863
0.012859032 -0.039732635 -0.0071039926 4285164074
0.016748503 -0.049510151 0.0011786539 4285164074
-0.016585451 -0.033667937 -0.011856397 4285427233
-0.014505271 -0.034327313 -0.0115054 4285427488
-0.012638848 -0.03345722 -0.012486347 4285427234
-0.010777742 -0.032587238 -0.013466385 4285426978
-0.0089219213 -0.031717472 -0.014445451 4285427234
-0.0069536977 -0.031611957 -0.014759277 4285361188
-0.0049853958 -0.031506322 -0.015073028 4285361188
-0.0028939024 -0.032164358 -0.01472325 4285361443
-0.00079695135 -0.032822005 -0.014374216 4285361443
0.0011769384 -0.032715715 -0.014688571 4285427234
0.0030196682 -0.03184586 -0.015665013 4285361444
0.004990954 -0.031739451 -0.015978757 4285426979
0.0069622807 -0.031632908 -0.016292408 4285360934
0.0093515292 -0.033815049 -0.014623352 4285295143
0.012892924 -0.04209853 -0.0076732691 4285229098
0.016783036 -0.051903889 0.00058744662 4285229098
-0.016481437 -0.036778584 -0.011736775 4285230118
-0.014502943 -0.036673002 -0.01205262 4285361699
-0.012633849 -0.035800621 -0.013032314 4285426978
-0.010770041 -0.034928434 -0.014011101 4285427233
-0.0087966509 -0.034822769 -0.014325847 4285427488
-0.0068231896 -0.034716971 -0.014640507 4285295653
-0.0048496462 -0.034611076 -0.014955112 4285229863
-0.0028760359 -0.034505025 -0.015269612 4285295398
-0.00090235844 -0.034398869 -0.01558403 4285361443
0.0011997409 -0.03505823 -0.015237437 4285427234
0.0031762198 -0.034951657 -0.015552101 4285427233
0.0051527396 -0.034844972 -0.015866688 4285361189
0.0069928579 -0.033972919 -0.016840806 4285361189
0.0095233582 -0.036926463 -0.014517897 4285295398
0.012926534 -0.044468395 -0.00824566 4285229099
0.016672753 -0.05353681 -0.00066516362 4285163308
-0.01596212 -0.042974025 -0.0089709181 4285098794
-0.013967607 -0.042867593 -0.0092893261 4285164584
-0.012301043 -0.040454581 -0.01159451 4285229608
-0.010426465 -0.039579667 -0.012573326 4285295399
-0.0085572004 -0.038704857 -0.013551245 4285360934
-0.0063409172 -0.040135488 -0.012545167 4285295144
-0.004594326 -0.038492322 -0.014183043 4285294889
-0.0027356073 -0.037617743 -0.015158934 4285295143
-0.00075668842 -0.037511311 -0.015474194 4285295399
0.001350496 -0.03817255 -0.015130093 4285426979
0.0034631342 -0.038833432 -0.014786722 4284967468
0.0054475963 -0.0387263 -0.01510256 4285033003
0.0072957724 -0.037851617 -0.016076332 4285098028
0.0096946247 -0.040046155 -0.014418872 4285228844
0.012959886 -0.04684224 -0.0088210944 4285228844
