# .PCD v0.7 - Point Cloud Data file format
VERSION 0.7
FIELDS x y z rgba
SIZE 4 4 4 4
TYPE F F F U
COUNT 1 1 1 1
WIDTH 595
HEIGHT 1
VIEWPOINT 0 0 0 1 0 0 0
POINTS 595
DATA ascii
-0.001047615 -0.00094148517 0.055123333 4281827144
0.00072699413 0.00057055056 0.053281043 4279351093
0.0041683204 -0.0054919869 0.05934215 4279285559
-0.0057080649 0.0089868605 0.042054053 4281438013
-0.0044144094 0.01257373 0.038069755 4280787253
-0.002698604 0.01408628 0.036242254 4281111103
0.00022509694 0.010072365 0.040150218 4280653888
0.003646072 0.003989026 0.046200339 4279415098
0.0066424049 -1.9952655e-05 0.050094228 4281371458
0.0093502961 -0.0026463419 0.052551743 4281306688
0.011427548 -0.0025111437 0.052146841 4281306178
0.012510475 0.001763314 0.047457714 4281045313
0.013224438 0.0074150339 0.041347925 4280784193
0.0150932 0.0082375631 0.040237535 4280064328
0.018868245 0.0014772713 0.046965461 4280131394
0.023402881 -0.0080360398 0.056530807 4280002363
-0.0078670867 0.0072045252 0.041213825 4281694544
-0.0071357414 0.01357678 0.034368653 4280982328
-0.0055719502 0.015786458 0.031829365 4281111359
-0.0038746744 0.017302077 0.030008838 4281632834
-0.0015794747 0.016045511 0.031050526 4281371969
0.00119102 0.012711499 0.034233674 4280198969
0.0039884374 0.0093793347 0.037411641 4281046334
0.0061720237 0.0088185146 0.037730657 4281046334
0.0083610453 0.0082581788 0.038048629 4281045824
0.0097277127 0.011158466 0.03480358 4280265779
0.010736495 0.015441149 0.030139014 4281045569
0.012738671 0.015571732 0.02974895 4281501254
0.015782531 0.011553343 0.033623967 4280785214
0.020092692 0.0026977882 0.04246502 4280720189
0.026441395 -0.01375585 0.059100281 4280915263
-0.0091276653 0.011120155 0.034254078 4281825868
-0.0081285127 0.016119391 0.02885776 4280655163
-0.0062872022 0.016943689 0.027755372 4279938868
-0.0043018647 0.017072435 0.02736802 4279092524
-0.001860518 0.015115991 0.029120907 4279287344
0.00044237822 0.013855603 0.030157849 4280590648
0.0029134117 0.011901308 0.03190504 4281112124
0.0047605745 0.012726385 0.030801896 4280981309
0.0067651421 0.012856837 0.030411147 4280981309
0.0082736239 0.015070055 0.027888119 4279808054
0.0099341348 0.016588237 0.026078567 4279547188
0.012096208 0.016024243 0.026400328 4280394044
0.014957428 0.012685891 0.029557921 4280132414
0.018902235 0.0051882491 0.036962491 4279872569
0.025230519 -0.011318862 0.053561676 4279872569
-0.0093980059 0.010185167 0.032317646 4281563983
-0.0084004365 0.015199516 0.026933245 4280980034
-0.0067081675 0.016723368 0.02512027 4281176128
-0.0044300891 0.015456866 0.026158515 4281242174
-0.0019893758 0.013493832 0.027906496 4281242174
0.0003130585 0.012229051 0.028940178 4281112379
0.0023119859 0.012358934 0.028550375 4281046588
0.0039913096 0.01388244 0.026740231 4281046333
0.0058225058 0.014708739 0.025641933 4280916028
0.0076484047 0.015534785 0.024544738 4280915518
0.0094689801 0.016360614 0.023448601 4280590138
0.011795983 0.015097979 0.024477914 4280328253
0.014307018 0.013140265 0.026212759 4280523839
0.018065784 0.0063138083 0.032893851 4280588864
0.025093526 -0.013028547 0.052282024 4280784449
-0.0096679404 0.0092548132 0.030384663 4280782153
-0.0086719655 0.014284227 0.025012229 4280913988
-0.006982144 0.015812237 0.023203049 4280329274
-0.004707206 0.01454116 0.024238553 4280460599
-0.001966577 0.011172488 0.027402394 4280851259
0.00033807755 0.0099034831 0.028432287 4281177404
0.0021825954 0.010732621 0.027332906 4281242683
0.0038621463 0.012260474 0.025526039 4281047099
0.0058557577 0.012390185 0.02513741 4281046333
0.0075193606 0.013917144 0.02333384 4281242430
0.0093399994 0.014745135 0.02223935 4281176383
0.011325724 0.014874619 0.021852471 4281241154
0.014003836 0.012211937 0.024289403 4281110339
0.017933831 0.0046655387 0.031660147 4280914755
0.024778107 -0.014040254 0.050297711 4280849218
-0.010218915 0.0097337663 0.027033951 4280912969
-0.0090864785 0.014075719 0.022384621 4280654143
-0.0074018054 0.015607763 0.020579722 4279221553
-0.0023984052 0.010951936 0.024769776 4278638624
5.4541975e-05 0.0089767277 0.026505407 4280982328
0.0020532422 0.009106569 0.026115626 4281242939
0.0037330277 0.010638766 0.024312042 4281243449
0.0057265125 0.010768458 0.023923423 4281047354
0.0072254799 0.013000559 0.021417227 4281112379
0.0087084211 0.015231673 0.018914279 4278506533
0.010856207 0.014660195 0.019233793 4278961199
0.013528135 0.011988435 0.021665264 4278960434
0.017977491 0.0023174733 0.031130403 4280328253
0.024641341 -0.01574719 0.049020115 4280980033
-0.011190418 0.012339637 0.021566436 4280980033
-0.0099299401 0.015989263 0.017638464 4280981054
-0.0079666302 0.016116407 0.017255276 4281632834
-0.0057060272 0.014835678 0.01828688 4281568574
-0.0029807724 0.011444256 0.021437012 4279939889
-0.00053651631 0.0094619542 0.02316932 4281112379
0.0014540143 0.0095912367 0.022781115 4281307708
0.0032853149 0.010423928 0.021687701 4281242939
0.0052733086 0.010553241 0.021300137 4280982074
0.0066026337 0.013494466 0.018095676 4280851513
0.008077912 0.015731629 0.015599169 4280850748
0.010047302 0.015860025 0.015215456 4280394043
0.017845422 0.00066757202 0.029895473 4279936829
0.024326492 -0.016751744 0.04704107 4280653634
-0.012019448 0.014265243 0.016826008 4280784703
-0.010485519 0.016511846 0.014322385 4280199224
-0.0085303746 0.016638439 0.013940781 4281046588
-0.0064267032 0.016058955 0.014264949 4280916283
-0.0038642623 0.013361908 0.016703814 4280590649
-0.0014340542 0.011372179 0.018433858 4280590648
0.00054294989 0.011500567 0.018048275 4281177404
0.0026791655 0.010923587 0.0183664 4281112123
0.0043353438 0.012462955 0.016574182 4280395828
0.0059808455 0.014001768 0.014784075 4280656439
0.0074484833 0.016244929 0.01229405 4281698114
0.0097494684 0.014963198 0.013315067 4281306178
0.012578901 0.011568468 0.016437143 4280914753
0.01718764 0.0011312589 0.026559185 4280262718
0.023478243 -0.015638895 0.042965561 4280262718
-0.013558473 0.0097054467 0.018838603 4281696584
-0.012566302 0.014795188 0.01351345 4281110848
-0.011040021 0.017047785 0.011016302 4280589118
-0.0088019073 0.015756737 0.012045562 4280264248
-0.0067012124 0.015174881 0.012368638 4280328764
-0.004444126 0.013885301 0.013394304 4280589374
-0.0021762066 0.012596469 0.014417969 4281046079
-0.00021006539 0.012724135 0.014034487 4280981309
0.0017561652 0.01285192 0.01365108 4281046589
0.0033991449 0.014394805 0.01186472 4280981563
0.0051958039 0.01522975 0.010781517 4279547698
0.0069871582 0.016064432 0.0096994191 4279677749
0.0092823021 0.014778014 0.010718187 4279872824
0.012105379 0.011371963 0.013833202 4279611704
0.016355872 0.0023149326 0.022534039 4279871804
0.022631429 -0.014508352 0.038903374 4279871804
0.029216211 -0.032029323 0.05594549 4280196673
-0.012411933 0.011783216 0.013731137 4282023239
-0.010737177 0.013331745 0.011941405 4281762884
-0.0089276657 0.014168981 0.010856815 4281435973
-0.0068272538 0.013584916 0.011178266 4281109574
-0.0047213882 0.0130013 0.011498725 4280652613
-0.0024566166 0.011707921 0.012519665 4280848454
-0.00049328059 0.011835389 0.012136724 4281242174
0.0014701411 0.011962976 0.011753853 4281307199
0.0031106621 0.013510015 0.0099712852 4281241918
0.0049046911 0.014346953 0.00889026 4281111103
0.0068602525 0.014474321 0.008509146 4281111104
0.0089853927 0.013892651 0.0088263806 4280784959
0.01163258 0.011184521 0.011235969 4280849218
0.015700422 0.0028075129 0.019219447 4280980033
0.021608444 -0.012651354 0.034157671 4280849473
0.028355574 -0.030936226 0.051857848 4280849473
-0.013537616 0.0050686821 0.017840996 4282672978
-0.012258206 0.0087627396 0.013942521 4281372734
-0.010435328 0.009602882 0.012856897 4281177659
-0.0086177327 0.010442838 0.011772342 4281177658
-0.0065095611 0.0098570436 0.012090642 4281699643
-0.0043959431 0.0092717484 0.012407908 4281635129
-0.0021236129 0.0079745427 0.013423979 4281438778
-0.0001523532 0.0081025138 0.013039485 4281243194
0.0015017428 0.0096546337 0.011257576 4281438268
0.0033064857 0.010494307 0.010176027 4281698624
0.0051059164 0.011333793 0.0090955608 4281437504
0.0072333962 0.010749958 0.0094106328 4281437503
0.0091969371 0.010877945 0.009028038 4281698114
0.011676621 0.0088726059 0.010733901 4281567553
0.015570205 0.001180537 0.018001676 4281436994
0.021474255 -0.014326312 0.032904018 4281567809
0.027676445 -0.030536011 0.048478041 4281567809
-0.012979615 -0.00011821836 0.020142831 4282541909
-0.011825744 0.004302986 0.015549131 4281047099
-0.0098497458 0.0044307485 0.01516331 4281308984
-0.0081637241 0.0059887841 0.013378046 4280983093
-0.0060451329 0.0054014847 0.013692636 4280983093
-0.0039210878 0.0048146769 0.01400619 4281049904
-0.0016385056 0.0035137758 0.015016917 4280853808
0.00034335628 0.0036424175 0.014630336 4280788529
0.0020083971 0.0051995665 0.012849603 4280985134
0.0038239174 0.0060421079 0.011767622 4280789038
0.0056341253 0.0068844482 0.010686705 4281049139
0.0077720284 0.0062991157 0.010998083 4280462129
0.0099153556 0.0057142898 0.011308433 4280005679
0.012235936 0.0044165924 0.01231231 4280200244
0.015963648 -0.002585575 0.018866051 4280656949
0.021871783 -0.018139929 0.03373098 4280526388
0.027897954 -0.033686459 0.048572998 4280526388
-0.012970611 -0.0024555176 0.019629847 4282542928
-0.011673655 0.0012613162 0.015744563 4281570104
-0.0096924119 0.0013893917 0.015357703 4281505589
-0.0077110641 0.0015175864 0.014970906 4281505589
-0.0058771521 0.0023629442 0.013886586 4281571123
-0.0037480481 0.0017742738 0.014197472 4281506354
-0.0014605634 0.00046928972 0.015203942 4281441073
0.00037092343 0.001314871 0.014120292 4281244978
0.0020388626 0.0028765276 0.012342321 4281440564
0.0040180646 0.0030051991 0.011956418 4281049139
0.0059973337 0.0031339899 0.011570586 4281309749
0.0083092973 0.0018311664 0.012572637 4281310004
0.010463048 0.0012447983 0.012879331 4281179189
0.01279388 -5.658716e-05 0.013877869 4281178678
0.016356077 -0.0063645244 0.019720886 4281700919
0.022445332 -0.022681482 0.035240196 4281700919
0.027939046 -0.036130317 0.047970314 4281177913
-0.012688577 -0.006236814 0.020509925 4283066189
-0.011522178 -0.0017888322 0.015933722 4281635383
-0.0095356964 -0.0016604289 0.015545826 4281571635
-0.0076938309 -0.00081246346 0.01446148 4281571123
-0.0057098232 -0.00068401545 0.014074221 4281506354
-0.0037257187 -0.00055546314 0.013687033 4281506608
-0.0014360249 -0.0018646494 0.014689725 4281506608
0.00039819255 -0.0010168031 0.013607241 4281441328
0.00238524 -0.00088772923 0.013219729 4281441073
0.0042115562 -4.0136278e-05 0.012138901 4281376048
0.0061960556 8.8982284e-05 0.011752037 4281441073
0.0083467625 -0.00049987435 0.012057571 4281571635
0.010671716 -0.0018060803 0.013053838 4281440564
0.01300744 -0.0031115189 0.01404814 4281570358
0.016747497 -0.010156251 0.020566162 4281504824
0.022663761 -0.025805458 0.035356164 4281635129
0.027979817 -0.038578197 0.047364611 4281570104
-0.013226435 -0.0056980699 0.017201919 4282741573
-0.012345497 0.00020635873 0.011245346 4281570358
-0.010656256 0.0017774478 0.0094693098 4281506354
-0.0086885728 0.0019047186 0.0090851504 4281701939
-0.0062791668 -0.00013225526 0.010784009 4281701939
-0.0040034615 -0.0014467612 0.011785965 4281637934
-0.0015643649 -0.0034815893 0.013479199 4281964844
0.00026990101 -0.0026315823 0.01239836 4282095403
0.0024147443 -0.0032232627 0.012703072 4281964333
0.0042437874 -0.002373375 0.01162342 4281572653
0.0059042387 -0.00080329925 0.0098536722 4281506608
0.0080519505 -0.001394473 0.010158069 4281701939
0.01003642 -0.0012651607 0.0097713694 4281898799
0.012706298 -0.0040152147 0.01214321 4281766708
0.016615823 -0.011801668 0.019334581 4281766708
0.022704819 -0.028218381 0.034777321 4281896759
0.027661497 -0.039591476 0.045379791 4281895483
-0.014308456 -0.0022487417 0.011124834 4283593274
-0.013445053 0.0036718994 0.0051849317 4284128519
-0.0048796795 0.00056038052 0.0071197208 4283411714
-0.002302248 -0.0022051409 0.0095023178 4282749478
-0.00016851351 -0.0027998388 0.0098074414 4282814758
0.0019706488 -0.0033940896 0.010111578 4282683688
0.0034735017 -0.0010968968 0.007654503 4282161194
0.0049603172 0.001199387 0.0052005835 4281641503
0.0067627095 0.0020499155 0.0041279495 4282748205
0.0092337281 1.1302531e-05 0.0058104564 4282746419
0.012063209 -0.0034702197 0.0088658556 4282290989
0.016136475 -0.012003005 0.016728278 4281702704
0.022039428 -0.02774851 0.031447653 4281572653
0.027164338 -0.039878555 0.042712077 4281506608
0.0022238307 0.0023721009 0.0016335137 4284379948
0.0035293214 0.0053984448 -0.0014997311 4284510253
0.015136838 -0.010023184 0.012071278 4284578339
-0.011916038 0.0059700683 0.0027221218 4284910348
-0.014680959 0.0078945532 -0.0015450343 4285230884
-0.013031494 0.0094716772 -0.003306617 4285558559
-0.011104282 0.0095962808 -0.0036829077 4285820189
-0.0084426589 0.0060920194 -0.00060386211 4285623838
-0.0057541244 0.0025896057 0.0024700109 4285164583
-0.0033431426 0.00053993613 0.004158726 4284967724
-0.0012258179 -5.8032572e-05 0.0044653546 4284901934
0.021022407 -0.025817499 0.026757419 4285231394
0.026488867 -0.039432868 0.039366301 4285362974
-0.016737096 0.0061996654 -0.0023432914 4285361954
-0.015498117 0.0099668503 -0.0061757006 4285558558
-0.013861846 0.011547424 -0.0079313964 4285689374
-0.011804156 0.010942996 -0.0076151229 4285755419
-0.0093009397 0.0081550926 -0.0052315407 4285755674
-0.0066268034 0.0046408996 -0.0021631848 4285624348
-0.004229892 0.0025837868 -0.00047674589 4285559069
-0.0024357326 0.0034377128 -0.0015448239 4285559069
-0.0008042641 0.0050186142 -0.0032990929 4285493533
0.00065644085 0.0073260888 -0.0057380237 4285493533
0.0024266839 0.0081787258 -0.0068011601 4285886489
0.0046879835 0.006850861 -0.0058058649 4285886233
0.0071281902 0.0047972724 -0.0041273888 4285951768
0.010096971 0.00056559592 -0.00039780699 4285690138
0.014138972 -0.0080212876 0.0074307993 4285624094
0.020007156 -0.023864396 0.022083715 4285362208
0.025993336 -0.039699703 0.036713734 4285362209
0.02973745 -0.046092957 0.042446665 4285231139
-0.017811414 0.0097457096 -0.0083479732 4285690139
-0.01617505 0.011330545 -0.010100495 4285624093
-0.014408123 0.012184266 -0.011161989 4285623328
-0.012358781 0.011577118 -0.010845762 4285623328
-0.010010943 0.0095100999 -0.0091549046 4285623838
-0.0074977279 0.006714277 -0.0067798533 4285689883
-0.0051148534 0.004649736 -0.0050956728 4285558813
-0.0030249469 0.0040456578 -0.0047870232 4285493278
-0.0017157979 0.0070893243 -0.00790786 4285624349
-0.00010818988 0.0086731613 -0.0096541084 4285689628
0.0014887638 0.010256357 -0.011398152 4285623839
0.0039014593 0.0081943199 -0.0097193532 4285557794
0.0063302778 0.0061334819 -0.0080436599 4285623838
0.0092871748 0.0018879995 -0.004321699 4285689883
0.013489529 -0.0074540898 0.0041719805 4285558813
0.019697705 -0.024802141 0.020154737 4285558813
0.025498521 -0.039957449 0.034067884 4285558814
0.02905418 -0.045642808 0.039106227 4285427489
-0.018612023 0.011856489 -0.012953129 4285559324
-0.016850553 0.012711942 -0.014012039 4285821719
-0.014953323 0.012834456 -0.014382597 4285821208
-0.012768649 0.011492059 -0.013379689 4285886999
-0.010426823 0.0094181374 -0.011692664 4285952789
-0.0082178488 0.0080775693 -0.010694381 4285690138
-0.0058463588 0.0060057864 -0.0090129785 4285624348
-0.0037674792 0.0053988025 -0.0087038521 4285624349
-0.0023114309 0.0077188313 -0.011132002 4285624348
-0.0010311492 0.01076939 -0.014240474 4285952789
0.00055261329 0.012356061 -0.015978619 4285820954
0.0027861297 0.011017732 -0.014984628 4285689374
0.0053660013 0.0082183406 -0.012628647 4285689628
0.0084787793 0.0032281354 -0.008232384 4285755419
0.013014313 -0.0076041594 0.0016041249 4285755673
0.01938862 -0.025735199 0.018229205 4285755673
0.025182953 -0.040936448 0.032108728 4285689884
0.028371988 -0.045179248 0.035775814 4285427233
-0.020102058 0.0072494075 -0.010988841 4284901168
-0.019004535 0.01178376 -0.015481913 4285493534
-0.017248359 0.012640972 -0.016538095 4285624093
-0.015215814 0.012028262 -0.016222024 4285624094
-0.013034306 0.010681324 -0.015221836 4285689628
-0.010841988 0.0093352124 -0.014223725 4285624348
-0.0087877028 0.0087242424 -0.013911646 4285558558
-0.0064249076 0.0066453964 -0.01223354 4285624349
-0.0045085922 0.0067696795 -0.012607409 4285624349
-0.0030628815 0.0090955198 -0.015028559 4285624349
-0.0014736094 0.010686763 -0.016764544 4285689884
0.00010498986 0.012277458 -0.018498421 4285821463
0.0024976023 0.010201104 -0.016825698 4285886999
0.0047387294 0.008859016 -0.015836379 4285886998
0.0080123916 0.0031201541 -0.010770152 4285689883
0.012712795 -0.0084779486 -0.0002776701 4285623838
0.019255579 -0.027396187 0.016985994 4285623838
0.024689427 -0.041178361 0.029474817 4285623839
-0.020356756 0.0064354613 -0.012836218 4284966958
-0.019261014 0.010982595 -0.017318953 4285559069
-0.017645441 0.01257899 -0.019057427 4285689629
-0.015618559 0.011963747 -0.018741917 4285623839
-0.013442904 0.010612108 -0.017743975 4285623838
-0.010964412 0.0077878907 -0.01538223 4285624094
-0.0089104436 0.0071747154 -0.015071765 4285624349
-0.0066996589 0.0058256611 -0.014080368 4285624348
-0.0049401969 0.0066858977 -0.015135033 4285624604
-0.0034994744 0.0090178922 -0.017550237 4285624349
-0.0019153617 0.010613166 -0.019281935 4285624094
-0.00017982349 0.011472188 -0.020331671 4285558559
0.002209451 0.0093891099 -0.018663302 4285558303
0.0044474043 0.0080425218 -0.017676741 4285623838
0.007886976 0.0015509129 -0.011944759 4285624349
0.01275726 -0.010816969 -0.00080066174 4285558814
0.01912256 -0.029056869 0.015743013 4285558814
0.024196612 -0.041411191 0.026847616 4285558813
-0.020743508 0.0063657984 -0.015363976 4285032238
-0.019652221 0.010925643 -0.019835869 4285559069
-0.018179595 0.013265409 -0.022252912 4285820954
-0.016161054 0.01264745 -0.021937445 4285886744
-0.013850752 0.010551848 -0.020259349 4286084114
-0.011232626 0.0069797188 -0.017221782 4285755419
-0.0090331435 0.0056255087 -0.016231656 4285689884
-0.0068228394 0.0042720512 -0.015243515 4285624348
-0.0052172244 0.0058728084 -0.016976275 4285624604
-0.0037787892 0.0082111135 -0.019385993 4285624348
-0.0023563765 0.010548539 -0.021792546 4285689884
-0.00062616542 0.011409357 -0.022839593 4285820954
0.0019216761 0.008581765 -0.020497428 4285755418
0.0043237247 0.0064931735 -0.018836496 4285689628
0.0077615976 -1.8030405e-05 -0.013119149 4285558558
0.012628775 -0.012422912 -0.0020027068 4285559069
0.019164892 -0.031454213 0.015175819 4285559069
0.023882516 -0.042371817 0.02490221 4285559069
-0.021261778 0.0070470795 -0.018567301 4285493024
-0.020042706 0.010877714 -0.022346094 4285559069
-0.018575046 0.013223603 -0.024757143 4285886743
-0.016421877 0.011861712 -0.02376157 4285886743
-0.014114909 0.0097594038 -0.022087814 4285952533
-0.011209149 0.0046941414 -0.017698582 4285886998
-0.009304136 0.0048174337 -0.018070448 4285689884
-0.0070969984 0.0034594461 -0.017085018 4285624349
-0.0056475475 0.0058048666 -0.019492041 4285624349
-0.0040577315 0.0074090436 -0.021218307 4285689883
-0.0026376173 0.0097527429 -0.023619398 4285886743
-0.00091004744 0.010615572 -0.024664255 4285886743
0.0014698543 0.0085189119 -0.023004098 4285886743
0.0042000823 0.0049441382 -0.019996013 4285952534
0.0074664727 -0.00084721297 -0.014968242 4285755164
0.012500316 -0.014028557 -0.0032045282 4285558814
0.018856615 -0.032377265 0.013257761 4285558814
0.023568803 -0.043327741 0.022960309 4285427744
0.026375959 -0.046146363 0.025245868 4284901679
-0.021778975 0.0077416673 -0.021760589 4285558814
-0.020701986 0.012326557 -0.026209807 4285624604
-0.018969778 0.013190813 -0.027254708 4285623584
-0.016962569 0.012567762 -0.026940377 4285557794
-0.014521495 0.0097150132 -0.024591383 4285689373
-0.011767913 0.0053773597 -0.0208905 4285755163
-0.0097229034 0.0047570243 -0.020583259 4285755419
-0.0076724663 0.0041372031 -0.020277034 4285624093
-0.0062306784 0.0064886287 -0.022677574 4285624348
-0.0044924878 0.0073540583 -0.02372304 4285755674
-0.0033951178 0.011188641 -0.027468996 4285755418
-0.0015166812 0.011310756 -0.027835255 4285623584
0.0010187738 0.0084650293 -0.025503984 4285755164
0.0037426241 0.0048789829 -0.022502996 4285820954
0.0073413216 -0.0024133772 -0.016140558 4285689373
0.01237189 -0.015633889 -0.0044061206 4285558558
0.018548725 -0.033295721 0.011343228 4285558558
0.023255453 -0.044278942 0.021021873 4285427488
0.026059076 -0.047106452 0.023301464 4284901423
-0.022690866 0.010688394 -0.026980968 4285558814
-0.020956066 0.011554856 -0.028024808 4285887253
-0.019226503 0.01242109 -0.029067539 4285821209
-0.017222289 0.011795666 -0.028754298 4285755163
-0.014927331 0.0096795633 -0.027088189 4285886743
-0.012470912 0.0068192407 -0.024748774 4285952789
-0.010436941 0.0061960816 -0.02444108 4285689884
-0.0082468651 0.0048283413 -0.023459036 4285624349
-0.0069660842 0.0079305917 -0.026527926 4285624349
-0.0052385814 0.0087974966 -0.02756964 4285821208
-0.0039924979 0.011897709 -0.030631598 4285755164
-0.0019608475 0.011274919 -0.030322975 4285623329
0.00040433556 0.0091643259 -0.028669912 4285623329
0.0032858849 0.0048229024 -0.025003262 4285689374
0.0068773478 -0.0024916306 -0.018656002 4285755164
0.011899281 -0.015751638 -0.0069497935 4285755419
0.017891642 -0.03272257 0.0080909263 4285755419
0.022587562 -0.043738969 0.01774675 4285427488
0.025202136 -0.045832559 0.01935178 4284900913
-0.024808396 0.009799242 -0.028429795 4285099048
-0.023337174 0.012164623 -0.030826822 4285493534
-0.021478627 0.012284301 -0.031190082 4285559069
-0.01961996 0.012404103 -0.031553276 4285690394
-0.017621398 0.011776086 -0.031240562 4285755929
-0.015474927 0.010400869 -0.030253585 4285755929
-0.013172504 0.0082788616 -0.028593844 4285558813
-0.011297379 0.008400172 -0.028959913 4285624349
-0.0092716813 0.0077744052 -0.028652195 4285624349
-0.0077000633 0.0093902051 -0.030364992 4285624349
-0.0061391108 0.011005446 -0.032075685 4285690138
-0.0047473423 0.013366815 -0.034456339 4285953044
-0.0027267262 0.012741134 -0.034147233 4285886998
-0.00020901859 0.0098769292 -0.031825811 4285887253
0.0028298795 0.0047757626 -0.027496763 4285887509
0.0065833367 -0.0033068061 -0.020494698 4285755928
0.011771258 -0.017352 -0.0081476653 4285690139
0.01741023 -0.032881647 0.0055175889 4285558558
0.021743445 -0.042440094 0.013813101 4285493024
0.024346627 -0.044540979 0.015415411 4284966958
-0.025056247 0.009035036 -0.030240564 4285098538
-0.023587327 0.011406712 -0.032632183 4285361954
-0.021731596 0.011526212 -0.0329949 4285493279
-0.019875746 0.01164582 -0.033357553 4285493023
-0.017880175 0.01101549 -0.033045962 4285426979
-0.015736863 0.009635672 -0.032061666 4285493023
-0.013582747 0.008256726 -0.031079423 4285493023
-0.011713121 0.0083776712 -0.031444423 4285558814
-0.0098434202 0.0084987432 -0.031809349 4285558814
-0.0082796402 0.010118335 -0.033517316 4285558814
-0.0065708309 0.010988332 -0.034552075 4285493023
-0.0050256848 0.012606986 -0.036256284 4285558559
-0.0028470233 0.01123026 -0.035278268 4285624094
-0.00049387664 0.0091059133 -0.033632822 4285558558
0.0022081845 0.0054859892 -0.030652519 4285559069
0.0057824887 -0.001872912 -0.024335142 4285493278
0.011299737 -0.017456032 -0.01068115 4285558814
0.016929559 -0.033031754 0.0029510427 4285558814
0.021254977 -0.042618774 0.011226444 4285427743
0.023672329 -0.043979086 0.01215861 4284966958
-0.02331147 0.0076423883 -0.031737566 4285360679
-0.021581914 0.0085149631 -0.032775424 4285492769
-0.019857626 0.0093873516 -0.033812217 4285427234
-0.017720245 0.0080027133 -0.032830171 4285492769
-0.01542994 0.0058668107 -0.031178135 4285492769
-0.013268281 0.0044839978 -0.030200709 4285492768
-0.011538234 0.0053571761 -0.03123823 4285493023
-0.010113779 0.0077332556 -0.033615582 4285492768
-0.0083996505 0.0086056441 -0.034649815 4285493024
-0.0068463273 0.010229044 -0.036352374 4285493024
-0.0049872659 0.010349758 -0.036714964 4285493023
-0.0028064139 0.008968845 -0.035740703 4285493024
-0.00061480328 0.0075888038 -0.034768492 4285493279
0.0017537959 0.0054590181 -0.033130929 4285427743
0.005320847 -0.0019219443 -0.026828796 4285493279
0.01117212 -0.019051433 -0.011875305 4285493279
0.017146654 -0.036172755 0.0030542631 4285493279
0.021121128 -0.044288106 0.0099770315 4285361699
0.023358345 -0.044903122 0.010241274 4284967213
-0.022905353 0.0031103715 -0.030180018 4285425958
-0.021031152 0.0032310337 -0.030546352 4285426468
-0.019430038 0.0048610121 -0.032255568 4285558304
-0.017421696 0.0042271018 -0.031949777 4285558559
-0.015124016 0.0020852312 -0.030304205 4285426469
-0.012954801 0.00069854409 -0.029331531 4285558048
-0.011216704 0.0015744343 -0.03036901 4285623838
-0.009633854 0.0032037869 -0.032074161 4285624093
-0.0079089813 0.0040789992 -0.033108842 4285624093
-0.0061894022 0.0049539953 -0.034142405 4285623839
-0.0043170974 0.0050755665 -0.03450758 4285623838
-0.0024447329 0.0051972717 -0.034872673 4285624093
-0.00057232007 0.0053190961 -0.03523767 4285623839
0.0016322322 0.0039356723 -0.034271229 4285624348
0.0050286762 -0.0027145371 -0.0286505 4285624093
0.011044525 -0.020646527 -0.013069236 4285624093
0.017014902 -0.037817836 0.001822954 4285624348
0.020810533 -0.045205109 0.0080642551 4285558559
0.023224186 -0.046574317 0.0089905038 4284967213
-0.022631649 -0.00068157911 -0.029306158 4285426214
-0.020615797 -0.0013174042 -0.029003683 4285426468
-0.018730927 -0.0011959597 -0.029372033 4285426723
-0.016845942 -0.0010744035 -0.029740322 4285426979
-0.014819082 -0.0017091259 -0.02943977 4285492513
-0.012786776 -0.002343379 -0.029140189 4285623584
-0.010896157 -0.0022211 -0.029509306 4285558048
-0.0093050748 -0.00058690459 -0.031212747 4285623584
-0.007419657 -0.00046471506 -0.031580664 4285557793
-0.0056893453 0.00041317195 -0.0326147 4285558049
-0.0038064755 0.00053542852 -0.03298194 4285558049
-0.002084069 0.0014129952 -0.034014218 4285558049
-0.00020376965 0.0015353262 -0.034380767 4285558049
0.002008345 0.00014802068 -0.033419073 4285558049
0.0054111071 -0.006521225 -0.027814522 4285557793
0.011088196 -0.022995777 -0.013599892 4285557794
0.016709264 -0.03870827 -7.061474e-05 4285557794
0.020500315 -0.046117462 0.0061549731 4285294634
-0.022489805 -0.0037270561 -0.029111058 4285295653
-0.020468932 -0.0043646768 -0.028811261 4285295398
-0.018578846 -0.0042429045 -0.029180646 4285426469
-0.016549721 -0.0048797801 -0.028882299 4285426723
-0.014656752 -0.0047575831 -0.029252052 4285492513
-0.01261941 -0.0053937063 -0.028955135 4285623584
-0.01072358 -0.0052710846 -0.029325277 4285623583
-0.0088276751 -0.0051483437 -0.029695336 4285623583
-0.006779369 -0.0057834312 -0.029400237 4285623584
-0.0048806444 -0.0056602731 -0.029770665 4285558049
-0.0029818453 -0.0055369958 -0.030141015 4285557794
-0.0014037043 -0.003898792 -0.031838287 4285557794
0.00032681599 -0.0030184239 -0.032870393 4285557794
0.0025491305 -0.0044093356 -0.031914044 4285557794
0.0057925209 -0.010340594 -0.02698811 4285492514
0.010960478 -0.024592422 -0.014794984 4285492259
0.016230252 -0.0388375 -0.0026216153 4285426468
0.019837633 -0.045512445 0.002928447 4285163308
-0.022479344 -0.0060194209 -0.029589882 4285426979
-0.020589504 -0.0058977976 -0.029959319 4285427234
-0.018563475 -0.0065371469 -0.029662112 4285426723
-0.016531996 -0.0071760193 -0.029365877 4285492514
-0.014495067 -0.0078144893 -0.029070593 4285558049
-0.012452681 -0.0084524378 -0.028776316 4285623583
-0.01055165 -0.0083295032 -0.029147485 4285492258
-0.0086505301 -0.0082064345 -0.029518558 4285558049
-0.0065972023 -0.0088433251 -0.02922616 4285558049
-0.0048480853 -0.0079599395 -0.030260505 4285557793
-0.0027892701 -0.0085962191 -0.029968971 4285557794
-0.0010453872 -0.007712923 -0.031002106 4285492003
0.00085604191 -0.0075892434 -0.031372793 4285492259
0.0029230416 -0.008224614 -0.031082576 4285426468
0.0061729252 -0.01417274 -0.026171179 4285360679
0.010661907 -0.025429912 -0.016649621 4285360424
0.015925542 -0.039716423 -0.0045065684 4285360424
0.019528514 -0.046411119 0.001029402 4285097518
-0.022208061 -0.0098431185 -0.028739747 4285360423
-0.020310346 -0.0097210035 -0.029110733 4285425958
-0.018276609 -0.010362037 -0.028816702 4285491748
-0.016237412 -0.011002593 -0.028523648 4285557794
-0.014192764 -0.011642672 -0.02823157 4285492003
-0.012286615 -0.011519544 -0.028603831 4285557794
-0.01038038 -0.011396281 -0.028976025 4285558048
-0.0084740557 -0.01127287 -0.029348122 4285426468
-0.006567657 -0.011149354 -0.029720152 4285426468
-0.0046611987 -0.011025704 -0.030092103 4285492259
-0.0027546734 -0.01090195 -0.030463973 4285492259
-0.00084809214 -0.010778032 -0.03083575 4285492513
0.00089585781 -0.0098924711 -0.031867161 4285426468
0.0029652156 -0.010529868 -0.031579062 4285360678
0.0062162317 -0.016495198 -0.02668117 4285426214
0.010705139 -0.027784772 -0.017184472 4285294633
0.015794598 -0.041351549 -0.0057304269 4285294634
0.019219771 -0.047305122 -0.00086614862 4285031984
-0.019499939 -0.016619407 -0.025616342 4285359659
-0.017447788 -0.017261408 -0.025327573 4285360423
-0.015390165 -0.017903015 -0.025039757 4285360168
-0.013609294 -0.01701384 -0.026077518 4285426214
-0.011689905 -0.016889848 -0.026452368 4285492004
-0.0097704306 -0.016765729 -0.026827142 4285426213
-0.0078508742 -0.01664149 -0.027201843 4285491749
-0.0060830377 -0.01575271 -0.028236629 4285426213
-0.004474964 -0.014099918 -0.029929949 4285426468
-0.0024060868 -0.014739893 -0.029643713 4285426468
-0.00049162656 -0.014615461 -0.03001702 4285557794
0.0014228895 -0.01449094 -0.030390264 4285557794
0.0035026297 -0.015129805 -0.030105842 4285426214
0.0065949596 -0.020348474 -0.025880065 4285360424
0.011089135 -0.031670116 -0.01640928 4285360424
0.015836898 -0.043749355 -0.0062980382 4285228844
