# .PCD v0.7 - Point Cloud Data file format
VERSION 0.7
FIELDS x y z rgba
SIZE 4 4 4 4
TYPE F F F U
COUNT 1 1 1 1
WIDTH 970
HEIGHT 1
VIEWPOINT 0 0 0 1 0 0 0
POINTS 970
DATA ascii
0.01397714 -0.011596341 0.022965511 4287642928
0.019903798 -0.025187206 0.036760189 4287577393
0.0017661341 -0.0056702234 0.015422611 4288496414
0.0044483691 -0.0082900077 0.017842365 4288692254
0.0064059943 -0.0081495568 0.017407482 4289084954
0.0089312159 -0.010077383 0.019108357 4288887838
0.011280637 -0.011314671 0.020094397 4288821284
0.014807846 -0.016685534 0.025342437 4288362538
0.020349542 -0.028942008 0.03768225 4288231469
-0.012646783 -0.0054867081 0.014429512 4288756768
-0.010711391 -0.0053486526 0.013998972 4288888094
-0.0084405579 -0.0065969154 0.014998602 4288953374
-0.0063292794 -0.0071512647 0.015281426 4289345818
-0.004212562 -0.0077051297 0.015563102 4289280029
-0.0020904094 -0.0082585067 0.01584365 4289541658
0.00021548942 -0.0095038712 0.016835773 4289738009
0.0021701716 -0.0093638524 0.016401382 4290064408
0.0046758875 -0.011299882 0.018101553 4290129944
0.0068250336 -0.01185092 0.018376397 4289475614
0.0093575493 -0.0137848 0.020070715 4289279009
0.01209778 -0.016408931 0.022471292 4289082148
0.015248042 -0.020414036 0.026285468 4288493098
0.020794161 -0.032709781 0.038594939 4288296493
-0.012297649 -0.0091816261 0.015422435 4290063643
-0.010354381 -0.0090430304 0.014990134 4289802268
-0.0082435198 -0.0095997378 0.01527133 4289868824
-0.0061272271 -0.01015595 0.015551383 4289933593
-0.0041782744 -0.010016661 0.015118031 4290129943
-0.00205376 -0.010572132 0.015396455 4290129943
0.00043242425 -0.012516346 0.017095877 4290261014
0.0025731176 -0.01307046 0.017370848 4290129944
0.0049026683 -0.014318291 0.018354563 4289802523
0.007056836 -0.014871206 0.018626643 4290129944
0.0094052069 -0.016117509 0.019606376 4289736478
0.011955749 -0.018056612 0.021291872 4289016868
0.015298862 -0.022768516 0.025804089 4288427563
0.020844087 -0.035103973 0.038084514 4288231214
-0.013263512 -0.015821364 0.019694803 4286267969
-0.012273479 -0.011493523 0.014979878 4289931808
-0.010163061 -0.01205257 0.015259454 4290194203
-0.0083817281 -0.011215914 0.014114147 4290260759
-0.0062657483 -0.011774372 0.014392627 4290457108
-0.0043169223 -0.011635106 0.01395929 4290260504
-0.0020174496 -0.012889866 0.014946235 4290456854
0.00029276684 -0.014143702 0.01593083 4290457109
0.0026137419 -0.015396725 0.01691314 4290063899
0.0047621951 -0.015952338 0.017184796 4290129178
0.0071019791 -0.017203759 0.018163035 4290194713
0.0092639066 -0.017758247 0.018431885 4289409058
0.011813749 -0.01970401 0.020112654 4288689448
0.015155401 -0.024431411 0.024613803 4288231468
0.020893661 -0.03750227 0.037571073 4288100398
0.027131831 -0.051956367 0.051915437 4288100398
-0.013243351 -0.01815084 0.019240348 4286660668
-0.012249649 -0.013809565 0.014534345 4290258973
-0.010136876 -0.014370706 0.014811805 4289997853
-0.0083528161 -0.013531636 0.013667451 4289933083
-0.0064042248 -0.013392504 0.013234081 4290129433
-0.0042831004 -0.013952758 0.013509901 4290129689
-0.0019814782 -0.015211727 0.014493058 4289868058
0.00033091381 -0.016469877 0.015473938 4290587924
0.0026540384 -0.017727118 0.016452467 4290194713
0.0048048347 -0.018284794 0.016721955 4289998875
0.0067752935 -0.018143471 0.016284181 4289736988
0.0089342222 -0.018700358 0.016552014 4289540384
0.011289634 -0.019954886 0.017523734 4288624424
0.014818225 -0.025396105 0.022719359 4288362793
0.020353641 -0.037811462 0.03494332 4288100398
0.026980491 -0.053707559 0.050662026 4287969839
-0.012064572 -0.016832206 0.014795778 4290128413
-0.010111008 -0.016692948 0.01436113 4289933084
-0.0083242096 -0.015851539 0.013217831 4290587923
-0.0063730814 -0.015712243 0.012783885 4290392084
-0.0044218414 -0.01557285 0.012349978 4290392594
-0.0022956133 -0.01613481 0.012623053 4290523409
1.3589859e-05 -0.017397564 0.013601335 4290196244
0.002153337 -0.017958384 0.013871605 4290000404
0.0044813603 -0.019219574 0.014845861 4289935379
0.0064490288 -0.019078467 0.014408702 4290197264
0.0087931901 -0.020338278 0.015379531 4289216023
-0.013521414 -0.02141254 0.016904747 4287119668
-0.012202952 -0.018454093 0.013634427 4290325018
-0.010577604 -0.016905945 0.011784324 4290456854
-0.0084626563 -0.01747128 0.012058087 4290458128
-0.0065116547 -0.017332021 0.011624146 4290392849
-0.0043885075 -0.017896522 0.011896189 4290262289
-0.0024346337 -0.017756846 0.01146177 4289739284
-0.00030330196 -0.018320549 0.01173215 4289085464
-0.013818894 -0.022335928 0.01502992 4287905579
-0.012663648 -0.018661957 0.011059785 4289933849
-0.010879513 -0.01781648 0.0099202245 4289934613
-0.0087675676 -0.018384222 0.010192961 4290001423
-0.0066501684 -0.018951487 0.010464616 4288627228
-0.013424397 -0.035383355 0.0027246755 4288954139
-0.012606587 -0.041377869 0.005709447 4288427308
-0.011790987 -0.047398608 0.0086755026 4286856764
-0.011295456 -0.051978763 0.010247292 4286006339
-0.010246567 -0.049814936 0.0051897038 4287708974
-0.0095513426 -0.048407797 -0.0232591 4287773744
-0.010021776 -0.048479762 -0.025730558 4287576883
-0.010427874 -0.057816293 -0.019785162 4286464829
-0.0096557662 -0.05234902 -0.0248712 4287576373
-0.010893513 -0.057896119 -0.022263672 4286005828
-0.009457808 -0.055467669 -0.024684396 4286594878
-0.0082075633 -0.05227695 -0.027764164 4286464829
-0.011985492 0.0048444755 0.020613929 4281888598
-0.012612682 0.0052850246 0.0172909 4281762628
-0.011626735 -0.0094655491 0.030313822 4282673233
-0.013564862 0.0071086213 0.012532324 4281305924
-0.012888499 -0.0062974915 0.024087092 4282869328
-0.013700642 0.005519934 0.01139481 4281568063
0.0012278706 0.0079850443 0.0065617952 4281821279
0.0035088249 0.0067514852 0.007569436 4282412114
0.0059900768 0.0048337281 0.0092898626 4282542673
-0.013836369 0.0039315298 0.010257488 4281831223
-0.012916911 0.0082016699 0.0055193882 4282025279
-0.011525247 0.010403357 0.0029430892 4281689698
-0.0068825819 0.0072312802 0.0056887772 4281627479
-0.0042770617 0.0046145767 0.0081318486 4282086223
-0.0018288083 0.0026874654 0.0098544322 4282152013
0.00045418367 0.001449395 0.010858258 4283001929
-0.01315948 -0.0011134744 0.012709489 4282352443
-0.011564992 0.00040622428 0.010846836 4282548283
-0.0094775222 -0.00014770776 0.011136519 4282480709
-0.0073845796 -0.00070118159 0.01142511 4283853374
0.0084641688 -0.021273192 0.013504872 4284508469
0.010625176 -0.021834228 0.013769055 4283330879
0.0137584 -0.025906581 0.017538184 4283070269
0.019079974 -0.037700269 0.029006938 4283004733
0.025883131 -0.054401178 0.045355827 4283004733
-0.00061976537 -0.019238833 0.0098663326 4282288438
0.0015139915 -0.019804467 0.010134619 4282223668
0.0034706593 -0.019664276 0.0096998103 4281895993
0.0057977475 -0.020934287 0.010667872 4281439543
0.0081355572 -0.022203382 0.011633588 4281570104
0.010293581 -0.02276684 0.011896802 4281895228
0.013422862 -0.026852679 0.015657043 4282090558
0.018934218 -0.039388549 0.027798513 4281828418
0.025335634 -0.054734182 0.042712517 4281893698
-0.014050495 -0.032616686 0.022776639 4282803794
-0.014115937 -0.023254555 0.013158428 4282872389
-0.013123538 -0.018860724 0.0084917303 4283072053
-0.011508338 -0.017304588 0.0066503994 4282746674
-0.0094047002 -0.017875131 0.0069233514 4282287929
-0.0072956197 -0.018445168 0.0071951766 4282157623
-0.0051811226 -0.01901472 0.0074658617 4281962039
-0.0028868467 -0.020291936 0.0084376317 4281962548
-0.00075882301 -0.020860311 0.0087054726 4281636659
0.0013746135 -0.021428164 0.0089721978 4281244978
0.0033311434 -0.021288011 0.0085374042 4281310259
0.005657725 -0.022562463 0.0095023196 4281440564
0.0079950131 -0.023835998 0.010464894 4281440564
0.010343023 -0.025108662 0.011425167 4281634873
0.013473691 -0.029207598 0.015175333 4282025533
0.018984159 -0.041783143 0.027287779 4281959234
0.025383878 -0.057177234 0.042166337 4281959234
-0.014191281 -0.034270804 0.021592116 4282804558
-0.014412552 -0.024168488 0.011290362 4282089029
-0.013260994 -0.02047288 0.0073373206 4281699389
-0.011482086 -0.019623432 0.0062021352 4281634108
-0.009542238 -0.019485135 0.0057705566 4281570358
-0.0074334778 -0.020057414 0.0060408041 4281440053
-0.0054907613 -0.019918699 0.0056087449 4281572143
-0.0031996816 -0.021200497 0.0065779202 4281768494
-0.00089783594 -0.02248146 0.007544836 4281637168
0.0014147349 -0.023761522 0.0085093882 4281376304
0.0035559349 -0.024330977 0.0087728743 4281375284
0.0057025291 -0.024899896 0.0090352017 4281179953
0.0078545101 -0.025468301 0.0092964228 4281439543
0.010392137 -0.027454618 0.010950631 4281764413
0.013716962 -0.032275591 0.015387135 4281895484
0.019229185 -0.044890601 0.027469909 4281828674
0.025233656 -0.058915783 0.040921971 4281958723
-0.014176704 -0.036638465 0.021110957 4282676039
-0.014392808 -0.026505049 0.01083079 4281502784
-0.013237786 -0.022798244 0.0068850722 4281374263
-0.011292864 -0.0226597 0.0064522736 4281571379
-0.00934783 -0.022521053 0.0060195215 4281507118
-0.0074026771 -0.022382285 0.0055868272 4281701938
-0.0052861534 -0.022956129 0.0058537908 4281832498
-0.0031641908 -0.023529511 0.0061196703 4281702703
-0.00086020678 -0.024814699 0.007082792 4281637933
0.0014545321 -0.026099022 0.008043671 4281506608
0.0037799925 -0.027382445 0.0090021845 4281376558
0.0057469867 -0.027241435 0.008565139 4281441583
0.0080885701 -0.028523486 0.0095202345 4281440819
0.010250956 -0.029093284 0.0097776409 4281766964
0.013189118 -0.032507364 0.012813369 4281830968
0.017325565 -0.040185485 0.020008897 4282025024
0.022114493 -0.049991731 0.029272562 4282415173
0.026175696 -0.056949962 0.035747372 4283065933
-0.014317565 -0.038294192 0.019925265 4282481983
-0.014373396 -0.028845768 0.010368293 4281634109
-0.013214916 -0.025127698 0.0064298827 4281635639
-0.010941271 -0.026420053 0.0073961299 4281311279
-0.0089883618 -0.026280869 0.006961612 4281702449
-0.0072037838 -0.025426429 0.0058285538 4281768494
-0.0054244362 -0.024572227 0.0046966914 4281899054
-0.0033027939 -0.025147837 0.0049610138 4281768748
-0.00099932775 -0.026437458 0.0059209932 4281704234
0.0014939718 -0.028440606 0.0075749587 4281704234
0.0034580939 -0.028299931 0.0071384516 4281964079
0.0052378699 -0.027445164 0.006006958 4281703214
0.0071994551 -0.027304452 0.0055711772 4281702703
0.0091610923 -0.027163614 0.0051354822 4281768239
0.011122789 -0.027022656 0.0046998542 4282354994
0.013669737 -0.029021215 0.0063423645 4282810424
0.016825952 -0.033157673 0.010057749 4283459653
-0.014613282 -0.039231319 0.018039798 4283659064
-0.014511887 -0.030472483 0.0092034023 4281569593
-0.013192344 -0.027461331 0.0059717689 4281440564
-0.011079472 -0.028040197 0.0062360186 4281442349
-0.0089611337 -0.028618556 0.0064991396 4281440819
-0.0075103119 -0.026327033 0.0039730016 4281702704
-0.0060753636 -0.024036583 0.0014505126 4282225964
-0.0044827498 -0.022464063 -0.00037255697 4282097443
-0.0020195507 -0.024476085 0.0012831204 4282297618
0.00045971572 -0.02648684 0.0029353164 4282363918
-0.014753845 -0.040884208 0.016856125 4283787838
-0.014650334 -0.032098886 0.0080387332 4281831734
-0.013490245 -0.028358776 0.0041161757 4281571889
-0.011705782 -0.027500216 0.0029862039 4281767218
-0.010091912 -0.025922183 0.00116143 4281836835
-0.008992739 -0.022186112 -0.0027472759 4281452803
-0.0079200976 -0.018451829 -0.0066499943 4283208733
-0.0063538849 -0.016876813 -0.0084639629 4284640304
-0.014788728 -0.033724975 0.0068742763 4283663908
-0.013787698 -0.029251542 0.0022639968 4284250663
-0.017338101 -0.058597323 -0.0019012205 4282345048
-0.015948437 -0.060224917 -0.0060349414 4282476374
-0.014115758 -0.061717387 -0.0076430263 4282476628
-0.014725119 -0.061076682 -0.01082303 4282412624
-0.012602285 -0.061694559 -0.010590371 4282805833
-0.01517665 -0.061182339 -0.013324525 4282281553
-0.013218801 -0.061043177 -0.013760421 4282678334
-0.015470907 -0.062040847 -0.015152329 4282346324
-0.013675041 -0.061140072 -0.016254228 4282025024
-0.012046177 -0.059477892 -0.018020894 4283395903
-0.016233675 -0.060602006 -0.018973671 4281630028
-0.014289439 -0.060463827 -0.019406553 4281762629
-0.014585134 -0.061306607 -0.021222252 4282608464
0.0023567379 0.038956117 0.062274806 4281161083
-0.012434591 0.039429259 0.060326219 4280635784
-0.010307129 0.038947321 0.060658142 4280832643
-0.0076769367 0.036597576 0.063291915 4282274669
-0.0056988969 0.036739621 0.062852599 4282471274
-0.0037207156 0.036881723 0.062413275 4281553783
-0.0024374016 0.039512537 0.05891034 4278931618
-0.0024102665 0.046495724 0.050054975 4278799274
0.00092156231 0.048639238 0.046901785 4278535604
-0.018163044 0.036118582 0.062002011 4281226108
-0.017897464 0.043142803 0.053111441 4279849109
-0.015939835 0.050925307 0.043042086 4278337724
-0.013705768 0.049811933 0.044151522 4278337978
-0.010964226 0.046824422 0.047556899 4279126184
-0.0083640926 0.044463716 0.050190769 4279061923
-0.0064260028 0.044602897 0.049760319 4278538408
-0.0048348904 0.045990895 0.047801279 4278407339
-0.0023999736 0.051260807 0.040837772 4279454113
-0.00030655786 0.050774455 0.04117579 4279650718
0.002897732 0.046546765 0.0460843 4279060393
0.0072609447 0.038581233 0.055552572 4278536113
-0.021019686 0.037478719 0.057424881 4279719313
-0.020736236 0.044528425 0.048548251 4278866083
-0.019737888 0.048434258 0.043518946 4278734504
-0.01861405 0.051710036 0.039263055 4279193249
-0.016876649 0.052473664 0.03807582 4279651228
-0.014656372 0.051354844 0.03918501 4278733229
-0.011763822 0.047728032 0.04334987 4278864809
-0.0093432106 0.045984626 0.045215838 4278668714
-0.007418517 0.046122812 0.044788338 4278996389
-0.0058404244 0.047514264 0.042835437 4278865319
-0.021308724 0.036480084 0.055492096 4281094783
-0.021481361 0.045445122 0.044335902 4278407594
-0.010320351 0.047527898 0.040256903 4278865318
-0.0084090643 0.047665082 0.039832361 4278734248
-0.0066708177 0.048431154 0.038646698 4278603178
-0.0051136427 0.04982553 0.036701716 4278865319
-0.0030315034 0.049333852 0.0370389 4278733483
-0.0011250935 0.049470868 0.036615573 4278275504
0.0011491068 0.048351806 0.03770975 4278537898
0.0034340918 0.047233522 0.03880161 4278734504
0.0074325874 0.04046692 0.046709195 4278735014
-0.021466736 0.04321678 0.043957762 4279062943
-0.020937119 0.049045775 0.036658257 4278668713
-0.017626915 0.051213354 0.033528738 4278340529
-0.015577819 0.050716799 0.033871412 4278274994
-0.013193283 0.048957389 0.035735555 4278930854
-0.01096024 0.047830619 0.036835432 4278996134
-0.0088867024 0.047335953 0.037172772 4278930853
-0.0069806837 0.047472771 0.036749415 4278800038
-0.0050745495 0.047609646 0.036326058 4278734504
-0.0031682998 0.047746576 0.035902709 4278930854
-0.0014429428 0.048514038 0.034721628 4278472363
0.00046082214 0.048650879 0.034298897 4278406064
-0.020846654 0.038444869 0.046627291 4279980944
-0.021072585 0.047467884 0.035528637 4278407083
-0.019648496 0.049506873 0.032823101 4278538153
-0.017761935 0.049642041 0.032403864 4278669224
-0.016037311 0.050411295 0.031224309 4278536879
-0.014317878 0.051180232 0.030045955 4278340274
-0.012268748 0.050681528 0.030387023 4278405553
-0.0097037815 0.048282817 0.033002548 4278668969
-0.0072901137 0.046518978 0.034855396 4278472874
-0.0053867064 0.046655625 0.034432627 4278472874
-0.0033050664 0.046159443 0.034766614 4278471853
-0.0021219812 0.048827235 0.031318605 4278405808
-0.019623395 0.03110273 0.052325375 4281487993
-0.020438392 0.042705916 0.038201623 4278735269
-0.01931363 0.046025772 0.033978075 4278275758
-0.017737608 0.047434412 0.032038376 4278668969
-0.012738205 0.050384223 0.027748732 4278337724
-0.0079443194 0.046840806 0.031451918 4278733993
-0.0058737136 0.046341542 0.031786673 4278734503
-0.004331477 0.047748063 0.029854776 4278602923
-0.0014620237 0.051193748 0.02524413 4279060905
0.00060363114 0.050694324 0.025580125 4279520923
0.0032405742 0.048292264 0.028173359 4279061159
0.0070466809 0.042086832 0.035275079 4278799019
-0.019806046 0.037921876 0.040858805 4280636294
-0.019605424 0.045086998 0.032090314 4278538408
-0.018508945 0.048415881 0.027881222 4278406574
-0.017115556 0.050465934 0.025192311 4278734248
-0.01557361 0.051876575 0.023263542 4279259039
-0.013373926 0.050734095 0.024360908 4278274484
-0.010823958 0.048316576 0.026966644 4278864299
-0.0084249228 0.046538405 0.028812846 4278733484
-0.0067100674 0.047311559 0.027638866 4278996134
-0.0053559355 0.049359068 0.024958951 4278930854
-0.00027453899 0.051674496 0.021451337 4278337978
-0.019329067 0.033757068 0.042742863 4281029248
-0.020209197 0.045435045 0.028692344 4278865574
-0.0090769194 0.046884954 0.025427124 4278602668
-0.0075448416 0.048299514 0.02350389 4278603178
-0.0058457665 0.049073771 0.022335066 4278799783
-0.0043321438 0.050487075 0.020416064 4278734249
-0.0024633333 0.050621312 0.02000103 4278668203
-0.00059442967 0.050755616 0.019586017 4278733229
0.0018392466 0.048973601 0.021419847 4278667694
0.0042890348 0.04719276 0.023250183 4278996134
0.0081099272 0.04094423 0.030315964 4278865574
0.013750505 0.028955586 0.044100441 4278735014
-0.018546846 0.028287644 0.046125747 4281357433
-0.020343702 0.043866616 0.027569463 4278538408
-0.011940107 0.048395403 0.020962963 4278733738
-0.0098997541 0.047887199 0.021299427 4278865319
-0.0082033277 0.048663393 0.020132771 4279062179
-0.0061574169 0.048155706 0.020468084 4278669479
-0.0044661202 0.04893164 0.019302642 4278800038
-0.0024146736 0.048424453 0.019636808 4278800294
-0.00091390684 0.049841341 0.017723991 4278734249
0.001140371 0.049334466 0.018057605 4278996389
0.0060387067 0.04575951 0.021708729 4278797488
0.010668594 0.036928937 0.0317377 4278928814
-0.020010669 0.040361706 0.028707338 4280112013
-0.020021003 0.048241243 0.019251345 4278407083
-0.018483598 0.049664639 0.01733326 4278603943
-0.016629051 0.049797431 0.016921083 4278735014
-0.014774393 0.049930274 0.016508913 4278537898
-0.012750428 0.049418606 0.016847325 4278668969
-0.010892846 0.04955177 0.016434589 4278537898
-0.0086861402 0.04839661 0.017520642 4278407083
-0.0064686351 0.047242247 0.018604388 4278407083
-0.0044202097 0.04673256 0.018937534 4278407083
-0.0023663491 0.046223316 0.019269517 4278603433
-0.00086260214 0.047644816 0.017359288 4278668458
0.0045509338 0.0486908 0.015369175 4278337468
0.0085717812 0.041755769 0.023146054 4278272189
-0.018589277 0.032309338 0.035099484 4280963968
-0.019520517 0.04410281 0.021148449 4278866593
-0.018133122 0.04617878 0.018480351 4278407083
-0.01659793 0.047606461 0.01656604 4278407338
-0.006779436 0.046333406 0.016743993 4278538154
-0.0049135834 0.046467312 0.016329529 4278472874
-0.0030476488 0.046601277 0.015915086 4278407083
-0.00025384501 0.050096791 0.011362029 4279192229
0.0012183227 0.051520519 0.0094621461 4279455388
0.0034518614 0.050363261 0.010539262 4278602924
0.0068701692 0.045337453 0.01607245 4278536878
0.012512993 0.033223137 0.029763369 4278536878
-0.016860746 0.022912778 0.042960651 4281356923
-0.01902153 0.03994678 0.023032939 4279718549
-0.018426847 0.045278143 0.016621323 4278472873
-0.016894009 0.046710029 0.014710775 4278865318
-0.0074433908 0.046726122 0.013395628 4278668713
-0.0054061711 0.046211164 0.013727957 4278603433
-0.0039099045 0.047640849 0.011825845 4278799784
-0.0011366308 0.05114584 0.007285526 4278403513
0.0005152896 0.051925786 0.0061338134 4278863788
0.0027403831 0.050763443 0.0072095711 4279258274
0.0059535801 0.046366423 0.011990322 4279061159
-0.018208142 0.034469157 0.026401183 4280767109
-0.018720131 0.044382129 0.014765592 4278472874
-0.016167525 0.049208008 0.0087151341 4278930343
-0.014666136 0.050642144 0.0068149064 4279586713
-0.012832791 0.050773483 0.0064074863 4279192229
-0.010477528 0.048952285 0.0082339924 4278864298
-0.0060772114 0.046614565 0.010389438 4278668713
-0.004588645 0.04804809 0.0084922854 4278668969
-0.0029260665 0.048830822 0.0073397774 4278668458
-0.0014560372 0.050263185 0.0054467879 4278338743
0.0022226758 0.050527662 0.0046299752 4278337978
0.0052338466 0.046763971 0.0086609554 4278272698
0.0086730011 0.041704431 0.014163384 4278340019
0.013759941 0.0314564 0.025566021 4278865829
-0.016923778 0.027002374 0.031990275 4281225853
-0.018852588 0.0428367 0.013659151 4278735779
-0.015302327 0.051077012 0.0034900699 4278272698
-0.0087677278 0.047552027 0.0067279153 4278865319
-0.0065679811 0.046378739 0.0078024734 4278472363
-0.0050844438 0.047816291 0.005909685 4278537898
-0.0032426789 0.047948528 0.0055006128 4278407083
-0.0015879273 0.048732992 0.0043514613 4278538154
0.00044108555 0.048213214 0.0046825651 4278538154
0.0022830628 0.048345655 0.0042735841 4278537898
0.004905466 0.045871988 0.006817786 4278603433
0.0075492896 0.043399885 0.0093573313 4278603943
0.011417117 0.037022386 0.016314818 4278866339
-0.015012611 0.016869996 0.040530913 4281291643
-0.018504348 0.039322667 0.014786096 4279063708
-0.018756915 0.047984958 0.0047018267 4278342058
-0.017588824 0.05073943 0.0013220441 4278668458
-0.015769094 0.050869677 0.00091756694 4278668204
-0.013949238 0.050999999 0.00051311031 4278471599
-0.011608619 0.049164455 0.0023330357 4278799273
-0.0092519037 0.047330167 0.0041493848 4278734504
-0.0072368346 0.046806935 0.0044816937 4278603434
-0.0053979047 0.046938889 0.0040731914 4278734503
-0.0033746436 0.046416339 0.0044038277 4278669224
-0.0017197803 0.047202997 0.0032562688 4278734759
0.00030895695 0.046680972 0.0035857875 4278800039
0.002150856 0.046813399 0.0031768195 4278537898
-0.0173571 0.032503147 0.019617712 4281357434
-0.018236686 0.043828908 0.0065804608 4278538664
-0.017387941 0.047909215 0.0017213598 4278472874
-0.015562959 0.048039805 0.0013156906 4278473129
-0.013908543 0.048828185 0.00016960129 4278603433
-0.011912633 0.04830122 0.0005044248 4278602669
-0.010087311 0.048432041 9.8830089e-05 4278274484
-0.0077257976 0.046591476 0.0019092951 4278536879
-0.0057109147 0.046066083 0.0022400562 4278800038
-0.0036906153 0.045541126 0.0025696494 4278407083
-0.0018515997 0.045673195 0.0021612141 4278603689
-1.2516975e-05 0.045805339 0.0017528087 4278472363
0.0014425516 0.047249909 -0.00012695603 4278602923
-0.015253861 0.021684062 0.02887146 4281488504
-0.017230429 0.03767379 0.010668408 4280243084
-0.015525363 0.04586133 0.00096818246 4278407083
-0.0085709728 0.047703855 -0.0021308027 4278271169
-0.005842343 0.044538736 0.0011467058 4278536624
-0.0038223155 0.044011548 0.0014747232 4278603688
-0.0021698922 0.044802375 0.00033099577 4278866084
-0.0007119216 0.04625148 -0.0015462171 4278733993
0.0021721534 0.049147658 -0.0052934503 4278996388
0.0041898228 0.048620645 -0.0049646525 4279390364
0.0064127333 0.047436222 -0.0039046211 4278931363
0.010266576 0.040991567 0.0030070469 4278800039
0.016225809 0.027976375 0.01721848 4278800038
-0.016226768 0.031487774 0.014734296 4281160574
-0.016658358 0.040897593 0.003978299 4278931618
-0.01582339 0.045003388 -0.0008581616 4278537644
-0.014509384 0.047120441 -0.0034756018 4278931108
-0.013211273 0.049236465 -0.0060895002 4278997154
-0.01140213 0.049366087 -0.0064915279 4278997154
-0.0065166689 0.044995755 -0.0021511782 4278865064
-0.0043212771 0.043804552 -0.0010886658 4278341293
-0.0028604046 0.045258202 -0.0029633166 4278865318
-0.0015991516 0.047371998 -0.0055687195 4278799784
-0.014901485 0.02394101 0.020252982 4281357689
-0.016789556 0.039366417 0.0028820522 4279063453
-0.016623348 0.046143766 -0.0048899977 4278275759
-0.01351323 0.048395999 -0.0079017645 4278537133
-0.011531394 0.047861408 -0.0075687086 4278472873
-0.0095441118 0.047327276 -0.0072368132 4278341039
-0.0050029047 0.044270106 -0.0043783057 4278472363
-0.0033636168 0.045064379 -0.0055158725 4278734248
-0.0021072105 0.047184426 -0.0081153186 4278668713
-0.00086674467 0.049303368 -0.010711122 4278603178
0.00074603409 0.050095949 -0.011842643 4278603179
0.0029439367 0.048900861 -0.010783696 4278275504
0.0081804618 0.043864846 -0.0057584411 4278537644
0.011240419 0.04002551 -0.0017969068 4278538408
0.01702971 0.027586544 0.011613619 4278735013
-0.012769923 0.01301869 0.029422598 4281357689
-0.016591523 0.036501512 0.0032564923 4280046479
-0.017254453 0.0466353 -0.0081742527 4278538408
-0.0078617893 0.045950469 -0.0087179905 4278472618
-0.005866617 0.045414817 -0.0083893919 4278800293
-0.0040519685 0.045545075 -0.0087924609 4278472874
-0.0026144646 0.047005903 -0.01065537 4278669478
-0.00099630281 0.047800988 -0.011786522 4278800804
0.0010044686 0.047266047 -0.011458938 4279062944
0.0030106157 0.046731554 -0.011132502 4279194014
0.0056200027 0.044204045 -0.0086244568 4279259549
0.0080488175 0.042342436 -0.006848081 4279128478
0.010902919 0.039153874 -0.0036224388 4278800803
0.016063914 0.028664285 0.0075811036 4278669733
-0.015572142 0.030281929 0.0072932336 4281291644
-0.017049022 0.043795366 -0.0077833766 4278931873
-0.01625612 0.047937803 -0.012581091 4278799529
-0.01446069 0.048066288 -0.012980184 4278603690
-0.012315005 0.046858009 -0.011916619 4278668968
-0.010158543 0.045650534 -0.010855349 4278800038
-0.0078109205 0.043775905 -0.0090663321 4279062434
-0.0056302771 0.042570315 -0.008010325 4279062944
-0.0039961338 0.043368589 -0.0091435174 4278866083
-0.0021788366 0.043499097 -0.0095471302 4279194014
-0.00017040223 0.042962402 -0.0092229526 4278669734
0.0018434227 0.042426184 -0.0088999076 4278342059
0.0040590726 0.041223485 -0.007851393 4278407849
0.0085224733 0.038820721 -0.0057614073 4278277034
0.011179101 0.036287941 -0.0032702647 4278538663
0.016549379 0.025097063 0.0086309481 4278604454
-0.01389854 0.0213459 0.014236284 4281488249
-0.016176764 0.038261835 -0.0044726096 4279063199
-0.015875455 0.044431806 -0.011457125 4278603944
-0.014072113 0.044560835 -0.011857994 4278603689
-0.011918902 0.043348663 -0.01079938 4279128223
-0.0093998052 0.040796403 -0.0082847932 4278931619
-0.0072197318 0.039586302 -0.0072320392 4278800548
-0.0052117743 0.039047085 -0.0069095185 4278407594
-0.0037550889 0.040518049 -0.0087702861 4278276524
-0.0015560947 0.039309509 -0.0077215126 4278407849
0.0028740652 0.036895044 -0.0056310305 4278277034
0.0069493353 0.035821788 -0.0049985703 4278473383
0.0091965832 0.034617148 -0.0039602667 4278801314
0.011863016 0.032076254 -0.0014778245 4278736543
0.017654423 0.019511729 0.011839269 4278736543
-0.011900991 0.011014018 0.022605615 4281750388
-0.014973365 0.031355083 0.00027904101 4281226108
-0.014818463 0.03821975 -0.0074252458 4278800548
-0.013168562 0.039023139 -0.0085589932 4278407849
-0.0086429343 0.035920296 -0.0057299733 4278277034
-0.0066300258 0.035379179 -0.0054102959 4278538918
-0.0044289865 0.034166194 -0.0043653678 4278407848
-0.0027733147 0.034970433 -0.005500149 4278407849
-0.00055878982 0.033758581 -0.0044580968 4278801059
0.0014757589 0.033219345 -0.0041429857 4278932129
0.0037090667 0.032009043 -0.0031050313 4278932384
0.0057570748 0.031470887 -0.0027927477 4278801314
0.0074130185 0.03227555 -0.0039272914 4278932384
0.0098691806 0.03039605 -0.002171671 4278866849
0.012341388 0.028517796 -0.00041954219 4278867359
0.018343758 0.015241139 0.013586657 4278736289
-0.011055175 0.0053556822 0.025831288 4281816688
-0.01377295 0.02441304 0.0050054882 4281356923
-0.013764072 0.031976834 -0.003415402 4279587478
-0.012267251 0.03345906 -0.0052788882 4278932129
-0.010082964 0.032240219 -0.0042336825 4278538918
-0.007887926 0.03102226 -0.0031908583 4278473638
-0.0060418025 0.031154551 -0.0036010901 4278735779
-0.0041955933 0.031286918 -0.0040112864 4278735779
-0.0025344789 0.0320937 -0.0051456057 4278735779
-0.00031511113 0.030877812 -0.0041079484 4278866593
0.0019150004 0.029662753 -0.0030725598 4279063198
0.0041558333 0.028448569 -0.002039548 4279128989
0.0060156956 0.028582335 -0.0024524666 4279260059
0.0078755952 0.028716195 -0.0028653275 4278998429
0.010137908 0.027503764 -0.0018368531 4278932894
0.012818608 0.024946304 0.0006293375 4279129499
0.018618541 0.012298591 0.013882639 4279195034
-0.011029813 0.0030613244 0.025401371 4281884263
-0.013407066 0.02082514 0.0060729533 4281292663
-0.013388216 0.028413907 -0.0023322906 4279849364
-0.011883099 0.029901067 -0.0041943332 4279521943
-0.0098656192 0.029355662 -0.003879087 4278998429
-0.0080196857 0.029487841 -0.0042893486 4278932894
-0.0061736628 0.029620098 -0.0046995748 4278998429
-0.0041452348 0.029075736 -0.0043865684 4278867359
-0.0022963881 0.029208366 -0.0047972975 4278932384
-0.00025981665 0.028664745 -0.0044859834 4278997918
0.0019724853 0.027445417 -0.0034543509 4278997918
0.0042154975 0.026226977 -0.0024250895 4279128989
0.00627359 0.025685119 -0.0021183155 4279194524
0.0079403892 0.026494956 -0.0032520201 4279195034
0.010204889 0.02527828 -0.0022272877 4278998429
0.0128874 0.022712087 0.00023202226 4279063453
0.018892564 0.0093474649 0.014172403 4279063453
-0.013540655 0.019264478 0.0049555581 4281161338
-0.013351027 0.026197709 -0.0027076583 4279652503
-0.011671506 0.027009759 -0.0038431482 4279587478
-0.0098231062 0.027142003 -0.0042540412 4278801824
-0.0077978224 0.026595017 -0.0039421106 4278998429
-0.0059465654 0.026727641 -0.0043535074 4278801824
-0.0040952191 0.026860354 -0.0047648614 4278867359
-0.0022438094 0.026993152 -0.0051761735 4278998429
-0.00020485371 0.026447447 -0.0048669809 4278998173
0.0020296201 0.025223894 -0.0038391463 4279260058
0.0042748228 0.024001155 -0.0028135888 4279587478
0.0063352808 0.023457302 -0.0025090221 4278997918
0.0085992403 0.02223612 -0.0014875494 4278997918
0.011275519 0.019660577 0.00096656196 4279326104
0.014990522 0.013699576 0.0070003103 4279260569
0.021433374 -0.0010617413 0.022335039 4279063964
-0.013674185 0.01770407 0.0038383361 4281423479
-0.013314154 0.023977278 -0.0030859942 4279325594
-0.011460621 0.024109783 -0.0034981044 4279325593
-0.009606991 0.024242384 -0.0039101709 4279194778
-0.0077532642 0.024375075 -0.0043222001 4279260314
-0.0057201758 0.023826519 -0.0040135765 4279129243
-0.0036816746 0.023278432 -0.0037060976 4279259804
-0.0016377568 0.022730822 -0.0033997521 4279260313
0.00022429228 0.022864455 -0.0038133748 4279653269
0.0024662912 0.021636991 -0.0027904296 4279522198
0.004719004 0.020410415 -0.0017698519 4279391639
0.0071777143 0.018504459 -3.4498051e-05 4279326105
0.010048356 0.015239738 0.0031302683 4279588244
0.01414937 0.0078980997 0.010584388 4279850129
0.019325515 -0.0028374009 0.021601977 4279981199
0.026440568 -0.019681562 0.039032824 4280177293
-0.013807662 0.016143911 0.0027212799 4281357944
-0.013277624 0.021752695 -0.0034673801 4279718038
-0.011250459 0.021201231 -0.0031592771 4279718039
-0.009044107 0.019966256 -0.0021320786 4279521944
-0.0071798153 0.020099681 -0.0025464697 4279391128
-0.0051363558 0.019549642 -0.0022417959 4279194524
-0.0029057376 0.018316712 -0.0012198389 4279391383
-0.000664372 0.017084602 -0.00020015612 4279326104
0.0015877374 0.015853386 0.00081715919 4279915919
0.0038505755 0.014623035 0.0018321592 4280046988
0.0063165575 0.012710892 0.0035609361 4279654033
0.0091887601 0.0094351731 0.0067171417 4279851148
0.013274197 0.0020680502 0.014156772 4280179588
0.019622948 -0.012797136 0.029440509 4280310659
0.026495315 -0.029017519 0.04612571 4280508029
-0.013609987 0.013210528 0.0030451808 4281228658
-0.012568545 0.016777731 -0.0009725187 4280373898
-0.010528345 0.016224973 -0.00066895969 4279260313
-0.0083091483 0.014986485 0.00035210885 4279391128
-0.0062554143 0.01443487 0.00065278821 4280702849
-0.0040173717 0.013197951 0.0016697552 4281098098
0.0075045042 -0.023064081 -0.0015675444 4285693708
0.0092525184 -0.022209045 -0.0026901001 4285495573
0.01080035 -0.020638827 -0.0045025507 4285558049
0.013325313 -0.0226455 -0.00285991 4285754398
0.016466931 -0.026796024 0.00084901787 4285754398
0.022075118 -0.039522428 0.012823002 4285754144
0.028601462 -0.05510046 0.027530769 4285688609
0.033787601 -0.065668583 0.037395492 4285426468
-0.0012874193 -0.021635476 -0.0044606114 4284967724
0.00082047656 -0.022216115 -0.0041963002 4284968234
0.0025657117 -0.021359447 -0.0053168805 4285165349
0.0044923723 -0.021221261 -0.0057449164 4285296419
0.0060403533 -0.019646864 -0.0075543197 4285362463
0.0073857121 -0.017355327 -0.010051346 4285493278
0.0089097992 -0.015782427 -0.011855284 4285755163
0.01121271 -0.017080028 -0.010900961 4285820188
0.01432639 -0.021245752 -0.007195591 4285820444
0.018890901 -0.03042854 0.0013170876 4285885979
0.025578253 -0.046774972 0.016686099 4285885979
0.031764153 -0.060962353 0.029968286 4285820443
0.036371194 -0.069410011 0.037739091 4285426468
-0.012981035 -0.024058145 -0.0030340953 4285560089
-0.011715963 -0.021033112 -0.0062404824 4284902188
-0.010807816 -0.01656599 -0.010829793 4285297184
-0.0094199665 -0.014265697 -0.013332123 4285624093
-0.0078748278 -0.012687828 -0.015138164 4285886233
-0.0054609962 -0.014716562 -0.013481261 4285951514
-0.0028525926 -0.017465036 -0.01113636 4285886233
-0.00040397421 -0.019491088 -0.0094870375 4285690139
0.0015091635 -0.019353982 -0.0099121509 4285493533
0.003235843 -0.018496301 -0.011026951 4285559324
0.004957255 -0.017638918 -0.012140451 4285559069
0.0064815618 -0.016061772 -0.013941225 4285821463
0.0079952255 -0.014485236 -0.015739601 4285557793
0.010286957 -0.01578803 -0.01478605 4285557539
0.012989037 -0.01852886 -0.012461277 4285623839
0.016927427 -0.025583703 -0.0060241213 4285689628
0.022560438 -0.038387265 0.0058859643 4285689629
0.029328533 -0.054778244 0.021199809 4285689629
0.035166755 -0.067566767 0.033064559 4285623838
-0.012841556 -0.018276487 -0.011535062 4285427744
-0.011780728 -0.014521185 -0.015419068 4285494044
-0.01023544 -0.012939062 -0.017221939 4285624349
-0.0087007061 -0.011357587 -0.019022383 4285689375
-0.0066495687 -0.01194692 -0.018748887 4285623839
-0.0040580407 -0.014705416 -0.016406743 4285821209
-0.0016261265 -0.016739186 -0.01475862 4285689884
0.00063819811 -0.018048923 -0.013802661 4285558814
0.0021679513 -0.016467195 -0.015601624 4285558814
0.0040650778 -0.016331021 -0.016023016 4285558813
0.0051956587 -0.013305698 -0.019192174 4285953298
0.0068879053 -0.012447994 -0.020297403 4285952534
0.0091657899 -0.013756182 -0.019344034 4285886744
0.012053274 -0.01722851 -0.016337432 4285821208
0.015574345 -0.022863258 -0.011282855 4285886744
0.020162921 -0.03210124 -0.0028176978 4285624093
0.026481878 -0.047102984 0.011099514 4285624093
0.033333354 -0.063538313 0.026357619 4285493024
0.03796478 -0.072036728 0.034084089 4285229864
-0.0134704 -0.017672133 -0.01473658 4285427489
-0.012584228 -0.013180245 -0.01930153 4285559324
-0.011049356 -0.011594456 -0.021098895 4285624349
-0.0093522333 -0.010735128 -0.022204267 4285492258
-0.0073094144 -0.011327263 -0.021930555 4285557794
-0.0047267713 -0.014095169 -0.019592933 4285755674
-0.0023035482 -0.01613621 -0.017947709 4285887253
-0.00023121387 -0.016725902 -0.017680308 4285690139
0.0012881309 -0.015140515 -0.019473704 4285624604
0.0029856637 -0.014280487 -0.020578669 4285624348
0.0046779178 -0.013420697 -0.021682361 4285624349
0.0063648894 -0.012561198 -0.022784807 4285689884
0.0088336915 -0.014598224 -0.021149244 4285755418
0.011318516 -0.016634028 -0.019517105 4285755419
0.014425695 -0.020839635 -0.015839431 4285559069
0.017769646 -0.025766339 -0.011486305 4285559068
0.023432791 -0.038646642 0.00035873614 4285559069
0.030662613 -0.056581702 0.016951242 4285559069
0.036749024 -0.070169464 0.029430432 4285493789
0.039274238 -0.071463332 0.030326331 4285296164
-0.013604168 -0.019239973 -0.015859229 4285427234
-0.013051599 -0.013278056 -0.021792943 4285559068
-0.011691757 -0.010960106 -0.024274424 4285756183
-0.009829957 -0.010827165 -0.02468849 4285887254
-0.0077927932 -0.011421923 -0.02441516 4285821464
-0.0053943358 -0.013471399 -0.022769433 4285953043
-0.0027992055 -0.016247075 -0.020440996 4285690138
-0.00073252246 -0.016839374 -0.020173965 4285624348
0.00096767768 -0.015977066 -0.021277981 4285558813
0.0024739988 -0.014388163 -0.023065118 4285559068
0.0041609704 -0.0135266 -0.024166042 4285624349
0.0064244457 -0.014844675 -0.023216089 4285624349
0.0086986087 -0.01616187 -0.022268431 4285624094
0.01098346 -0.017478239 -0.021323025 4285558558
0.013278993 -0.018793654 -0.020379931 4285624349
0.016198955 -0.022285361 -0.017396603 4285558813
0.021010842 -0.032304678 -0.0082968324 4285493534
0.028206427 -0.05029713 0.0082627349 4285493534
0.034897476 -0.066104397 0.022755643 4285493534
0.038261808 -0.070303962 0.026367011 4285362208
-0.013409026 -0.022269066 -0.01560541 4285492768
-0.013351068 -0.014097374 -0.023590254 4285493534
-0.01216324 -0.011042569 -0.02675336 4285559069
-0.01047932 -0.010179814 -0.027852565 4285624093
-0.0082753897 -0.011507396 -0.026893251 4285624093
-0.0058829524 -0.013563927 -0.02525102 4285624093
-0.0031136237 -0.017078478 -0.022243127 4285624350
-0.0010499433 -0.017673198 -0.021977063 4285624349
0.0010191277 -0.018267404 -0.0217121 4285558813
0.0023399442 -0.015944857 -0.024179442 4285624604
0.0044091158 -0.016538803 -0.023914322 4285559068
0.0064836517 -0.017132264 -0.023650313 4285558813
0.008759968 -0.018453751 -0.022706343 4285624348
0.010250676 -0.016861077 -0.024486465 4285755418
0.012134224 -0.016725305 -0.024904424 4285886998
0.014630977 -0.018773187 -0.023284499 4285886744
0.019421391 -0.02882478 -0.014202686 4285951768
0.026173927 -0.045418691 0.000965368 4285951768
0.03304901 -0.062003609 0.016106347 4285951514
0.03746599 -0.069853753 0.023097465 4285557793
-0.01298245 -0.017843205 -0.022640336 4285163819
-0.011786014 -0.014779005 -0.025798868 4285427998
-0.010094073 -0.013913523 -0.026898261 4285558814
-0.0082324632 -0.013780493 -0.027312204 4285558558
-0.0063707754 -0.013647344 -0.027726082 4285624094
-0.0039683431 -0.01570962 -0.026090924 4285689629
-0.0015498474 -0.017770652 -0.024459185 4285624093
0.00088468194 -0.019830387 -0.022830974 4285689629
0.0025823563 -0.018963773 -0.023931107 4285690138
0.0044656433 -0.018828485 -0.024349356 4285558813
0.0061554126 -0.017962214 -0.025447566 4285624604
0.0080361106 -0.017826874 -0.025865056 4285690138
0.0095190704 -0.016230423 -0.027640181 4285821209
0.011394486 -0.016095225 -0.028056325 4285820953
0.013882518 -0.018150281 -0.02643938 4285951768
0.017627768 -0.024583701 -0.02076333 4286083094
0.023725845 -0.039040741 -0.0076563163 4286083094
0.030779254 -0.056408118 0.0081307478 4286083094
0.036456488 -0.068660572 0.019162344 4285820443
0.039831512 -0.072885603 0.022752011 4285164073
-0.011409897 -0.018528353 -0.024853688 4285493789
-0.010226063 -0.015456241 -0.028002817 4285624603
-0.0085393265 -0.01458877 -0.029099386 4285690138
-0.0070351996 -0.012987349 -0.030876663 4285952534
-0.0046414509 -0.01505686 -0.029244386 4286018069
-0.0020489655 -0.017858941 -0.026934821 4285952534
0.00037952885 -0.019925732 -0.025310092 4285886744
0.0022599585 -0.019790772 -0.025727794 4285624348
0.0041404329 -0.019655708 -0.026145421 4285624349
0.0054408647 -0.017321188 -0.028598379 4285624094
0.0071174018 -0.016453538 -0.029691933 4285886999
0.0085899495 -0.014853459 -0.031461503 4285623839
0.010655906 -0.015451569 -0.031198572 4285557794
0.012727208 -0.016049173 -0.030936742 4285623839
0.016043924 -0.021039162 -0.026622921 4285689373
0.021072656 -0.03188191 -0.016917968 4285689374
0.027665334 -0.047841083 -0.0025103195 4285689374
0.034589875 -0.064523205 0.012545165 4285689374
0.039463602 -0.07388261 0.020842126 4285492769
0.041766599 -0.074462712 0.021053152 4285031984
-0.011373263 -0.020816643 -0.025282148 4285361953
-0.010358021 -0.01699866 -0.029107172 4285624603
-0.0088457614 -0.015392374 -0.030883159 4285689629
-0.0073440671 -0.013786744 -0.032656655 4285754909
-0.0053134002 -0.014390539 -0.032388214 4285689119
-0.0027297921 -0.017202068 -0.03008312 4285820699
-0.00031001493 -0.019276034 -0.028461371 4285952533
0.0015622787 -0.019141678 -0.028877277 4285689883
0.0034346171 -0.01900718 -0.029293094 4285624349
0.0047275014 -0.016666677 -0.031739466 4285624349
0.0062002465 -0.015062269 -0.033505969 4285821463
0.0078608692 -0.014193449 -0.034594275 4285952789
0.0097173452 -0.014059644 -0.035006233 4285755419
0.011981491 -0.015394796 -0.034069024 4285755673
0.014669253 -0.018197719 -0.031786304 4285755418
0.018424084 -0.024669807 -0.026141487 4285755674
0.023921367 -0.037010025 -0.015125202 4285624348
0.031225007 -0.055213731 0.0012483299 4285624348
0.038010392 -0.071206927 0.015577773 4285558559
-0.011675008 -0.021630514 -0.027074877 4285361444
-0.011176646 -0.015584614 -0.032931484 4285558814
-0.0095004663 -0.014713529 -0.034022473 4285886999
-0.0081835166 -0.012365434 -0.036469862 4285689119
-0.005984176 -0.013710689 -0.035522357 4285623329
-0.0039564446 -0.014316771 -0.035254803 4285623584
-0.0011833608 -0.017874751 -0.032279987 4285689628
0.00086578727 -0.018479045 -0.032017007 4285755164
0.0027299896 -0.018345166 -0.032431036 4285624349
0.0042082667 -0.016736094 -0.034195613 4285624348
0.0054802969 -0.01439039 -0.036632404 4285624350
0.0069346689 -0.012782793 -0.038391486 4285755673
0.0085793771 -0.011912819 -0.039474566 4285821464
0.010829665 -0.013253327 -0.038537573 4285821463
0.013709515 -0.016802665 -0.035585754 4285690138
0.016615985 -0.020349931 -0.032639798 4285493278
0.021453686 -0.030520696 -0.023659129 4285493278
0.028508794 -0.048045721 -0.0079891114 4285493278
0.036125615 -0.067032903 0.0089926291 4285493534
0.039927904 -0.072769269 0.01389466 4285361699
-0.011976324 -0.022439729 -0.028864205 4285228589
-0.011650756 -0.015635099 -0.035386041 4285427488
-0.010153987 -0.014021199 -0.037152059 4285821464
-0.008667808 -0.012407888 -0.038915679 4285821463
-0.0066537708 -0.013017315 -0.03864675 4285821464
-0.0044522323 -0.014366668 -0.037702892 4285953044
-0.0016855747 -0.017936062 -0.034734815 4285953044
0.00035790727 -0.018542964 -0.034472205 4285558813
0.0022166371 -0.018409479 -0.034885023 4285558813
0.0034970529 -0.016056713 -0.0373189 4285558813
0.004956957 -0.014444437 -0.039076053 4285558558
0.0066043548 -0.013572212 -0.040158201 4285624349
0.0084472261 -0.013439376 -0.040567134 4285493023
0.010696985 -0.014784303 -0.039633263 4285558814
0.013163522 -0.01686715 -0.038030881 4285559069
0.016063567 -0.02042583 -0.035091601 4285427744
0.020258823 -0.028412756 -0.028140556 4285361698
0.027081767 -0.045253519 -0.013174425 4285361698
0.034677461 -0.064299211 0.0037698522 4285361698
0.039339751 -0.073005617 0.011334112 4285295654
-0.011781476 -0.017163407 -0.036480308 4285361699
-0.010806356 -0.013315301 -0.040272012 4285558813
-0.009327922 -0.011698227 -0.04203064 4285624094
-0.0073222145 -0.012310404 -0.041761529 4285624349
-0.005311124 -0.012922075 -0.041493528 4285558814
-0.002740819 -0.015760761 -0.039204855 4285558814
-0.00052371994 -0.017113145 -0.038267519 4285559069
0.0015141554 -0.017722588 -0.038005158 4285558813
0.0031721853 -0.016847584 -0.039088257 4285558813
0.0050201938 -0.016714621 -0.039498508 4285624604
0.0068682171 -0.016581547 -0.039908681 4285624859
0.008916866 -0.017189708 -0.039648347 4285624603
0.010970842 -0.017797332 -0.03938916 4285558813
0.01344198 -0.019886423 -0.03779266 4285558813
0.015929092 -0.021974172 -0.036199637 4285492768
0.02012209 -0.029985387 -0.029265933 4285492513
0.026084863 -0.043915313 -0.01700576 4285492513
0.033881329 -0.063759372 0.00056674704 4285492514
0.03875237 -0.07323277 0.0087800678 4285360678
-0.01156994 -0.020182755 -0.036223713 4285295654
-0.010936245 -0.014832299 -0.041358136 4285493278
-0.0092811361 -0.013956103 -0.042439472 4285493023
-0.0074521936 -0.013825227 -0.042846013 4285558559
-0.0052596852 -0.015183996 -0.041906636 4285558814
-0.0030564554 -0.016541947 -0.04096951 4285558814
-0.00065546483 -0.018643457 -0.039362974 4285492769
0.0011923239 -0.018510748 -0.039773349 4285426723
0.0032325648 -0.019122083 -0.039513044 4285426724
0.0052781515 -0.019732896 -0.039253902 4285426723
0.0075268224 -0.021086913 -0.038326461 4285492259
0.0097861774 -0.022440065 -0.037401244 4285426468
0.011853121 -0.023048956 -0.037146557 4285426214
0.014131127 -0.024400491 -0.036225356 4285360168
0.016419791 -0.025751177 -0.035306379 4285295143
0.01998538 -0.031557675 -0.030391067 4285360934
0.02594436 -0.045529526 -0.01816085 4285360934
0.033302728 -0.063948303 -0.0019614436 4285360934
0.037946768 -0.072708607 0.0055679698 4285228843
-0.010545336 -0.018592048 -0.040424649 4285164073
-0.0088822022 -0.017713089 -0.041506149 4285493279
-0.0070454217 -0.017581668 -0.041914444 4285493023
-0.0050270185 -0.018197205 -0.04165132 4285492769
-0.0030032247 -0.018812235 -0.041389298 4285426978
-0.00060027838 -0.020920243 -0.039788015 4285492259
0.0014395788 -0.021533873 -0.039529379 4285426468
0.0036770068 -0.022893336 -0.038602874 4285492259
0.0059251375 -0.024251949 -0.037678607 4285492514
0.0081839263 -0.025609616 -0.03675665 4285492514
0.01025318 -0.026220631 -0.036504172 4285426723
0.012327794 -0.026831213 -0.036252771 4285360679
0.01461325 -0.028186586 -0.03533645 4285294633
0.01649298 -0.028050724 -0.035753287 4285360679
0.020270402 -0.03461967 -0.030186312 4285360934
0.02601739 -0.047888231 -0.018651467 4285360934
0.033157289 -0.065617353 -0.0031557279 4285295398
0.03692349 -0.071426451 0.0017024446 4285163308
-0.00998215 -0.023114618 -0.038828887 4285163308
-0.0083083361 -0.022232655 -0.039911181 4285492513
-0.0061036088 -0.023599502 -0.03898105 4285492513
-0.0040695705 -0.024216119 -0.038723029 4285492513
-0.0020301454 -0.024832223 -0.038466096 4285492513
1.4659017e-05 -0.025447879 -0.03821025 4285492513
0.0020648316 -0.026062954 -0.037955523 4285426723
0.004504405 -0.028174613 -0.036367103 4285492258
0.0065706186 -0.028788354 -0.036115725 4285426723
0.0086421818 -0.029401522 -0.035865471 4285426468
0.010519072 -0.029266242 -0.036281958 4285426469
0.012395978 -0.029130828 -0.036698356 4285426469
0.014683567 -0.030490424 -0.035785742 4285360679
0.016773803 -0.031101767 -0.035539281 4285360934
0.020765349 -0.0384374 -0.029324338 4285295398
0.02673004 -0.052492063 -0.017156944 4285229098
0.033011869 -0.067286059 -0.0043497728 4285229098
-0.0095936395 -0.026902374 -0.037915528 4285097518
-0.0080876574 -0.025265824 -0.039667331 4285360424
-0.0056996122 -0.027388405 -0.038072728 4285360678
-0.0036579184 -0.028006669 -0.03781803 4285426469
-0.0016108528 -0.028624427 -0.03756443 4285426468
0.00044158846 -0.02924167 -0.037311934 4285426468
0.0024993978 -0.029858407 -0.037060529 4285492259
0.0045625865 -0.030474667 -0.036810186 4285426723
0.0068256147 -0.031840932 -0.035895742 4285426469
0.0087049939 -0.031705584 -0.036312871 4285426468
0.010584395 -0.031570118 -0.036729909 4285426469
0.012463812 -0.03143454 -0.037146874 4285295398
0.014753526 -0.032798361 -0.036237977 4285360678
0.017053902 -0.034161326 -0.035331309 4285360934
0.021259157 -0.042268004 -0.028471641 4285360424
0.027014907 -0.055614766 -0.016997043 4285228844
-0.0093792416 -0.029948842 -0.037679784 4285163053
-0.0076920316 -0.029061597 -0.038761787 4285360679
-0.0052967258 -0.031190183 -0.037173696 4285360679
-0.0036093891 -0.0303027 -0.038255557 4285360934
-0.0015599951 -0.030922476 -0.038004093 4285426469
0.00030844659 -0.030788448 -0.03841918 4285492003
0.0027438961 -0.032913689 -0.036839589 4285492258
0.0050036944 -0.034284707 -0.035927776 4285426469
0.0070798658 -0.034902055 -0.035681885 4285426469
0.0087674484 -0.034013774 -0.036763225 4285295399
0.010848992 -0.034630496 -0.03651835 4285295399
0.013138171 -0.035998907 -0.035612624 4285360934
0.015847918 -0.038870405 -0.033386588 4285295144
0.018578961 -0.04174022 -0.031165168 4285229354
0.022382695 -0.048366401 -0.025647767 4285229099
-0.0091655739 -0.033003781 -0.037450183 4285228844
-0.0074729994 -0.032113988 -0.038531769 4285294888
-0.00525124 -0.033492718 -0.037615195 4285360934
-0.003380388 -0.033358734 -0.038030982 4285361188
-0.0016929545 -0.032468926 -0.039111145 4285426724
0.00054760277 -0.033846002 -0.038198445 4285426724
0.0029876418 -0.035977442 -0.036624782 4285360934
0.0052522458 -0.037352528 -0.035717227 4285295654
0.0071392842 -0.037216764 -0.036136143 4285230118
0.0090263411 -0.037080865 -0.036554981 4285294889
0.011910629 -0.040717732 -0.033669181 4285228844
-0.0089526176 -0.036067296 -0.037226643 4285229098
-0.0069040842 -0.036691908 -0.036978513 4285295143
-0.0048501678 -0.037316006 -0.036731489 4285295398
-0.002790872 -0.037939597 -0.036485571 4285361189
-0.00090947747 -0.037804734 -0.036903612 4285295653
0.0019016862 -0.041458454 -0.03401015 4285360933
