# .PCD v0.7 - Point Cloud Data file format
VERSION 0.7
FIELDS x y z rgba
SIZE 4 4 4 4
TYPE F F F U
COUNT 1 1 1 1
WIDTH 968
HEIGHT 1
VIEWPOINT 0 0 0 1 0 0 0
POINTS 968
DATA ascii
0.0019630343 0.0022205859 0.017237991 4289737753
0.0040930435 0.0016153231 0.017622955 4289410078
0.0065907836 -0.0011269376 0.020120539 4288231979
0.0091101974 -0.0038679019 0.022614699 4287970094
0.011777461 -0.0073198378 0.02580918 4287904303
0.015116014 -0.014330298 0.03251528 4287838769
-0.017020524 -0.010490552 0.02911976 4286660414
-0.015244924 -0.0082336813 0.026670646 4286988089
-0.014140539 -0.00096517801 0.019274414 4286988088
-0.012801088 0.0041528568 0.014006838 4287249718
-0.011301279 0.0078374147 0.010157865 4288100399
-0.0092181452 0.0072268918 0.010548141 4289736223
-0.0072338842 0.0073322281 0.010232233 4290064918
-0.0049281903 0.0052916259 0.012031265 4290065174
-0.002715975 0.0039672256 0.013123222 4289999128
-0.00049284846 0.0026434585 0.014213555 4289737244
0.0017411858 0.0013204142 0.015302189 4289279264
0.0041040331 -0.00071674585 0.017092444 4289148449
0.0064831674 -0.0027529523 0.018880174 4288297769
0.008755289 -0.0040736794 0.019962978 4288101674
0.011290304 -0.0068223998 0.022448074 4287774508
0.014619194 -0.01385498 0.029138938 4287774254
-0.015533507 -0.0084353089 0.024008773 4286923318
-0.014152855 -0.0033001527 0.018746313 4286726713
-0.012809828 0.0018331558 0.013489883 4287053878
-0.011207871 0.0048106834 0.010353364 4288558378
-0.0092211552 0.0049160346 0.010036975 4290063388
-0.0071300529 0.0043038502 0.010424361 4290260248
-0.0049264729 0.00297454 0.011514239 4289999128
-0.0028216168 0.002363272 0.01189959 4290194968
-0.00059890002 0.001035139 0.012986623 4289540638
0.0016347282 -0.00029226393 0.014071953 4289606428
0.003879264 -0.0016190335 0.015155666 4289410078
0.0061346889 -0.0029450729 0.016237687 4288364069
0.0084010065 -0.0042704865 0.017318096 4288167718
-0.014352001 -0.0041984245 0.016807515 4286857529
-0.012914807 0.00022962689 0.01226645 4287315508
-0.011312395 0.0032157972 0.0091365464 4288427563
-0.0092243962 0.002601169 0.0095226616 4289867294
-0.0070267543 0.0012671053 0.010610037 4290129433
-0.0049249902 0.00065339357 0.01099411 4290129689
-0.0029272139 0.00075959414 0.01067616 4290195223
-0.00070489943 -0.00057289749 0.011759892 4290785293
0.0015283115 -0.001904659 0.012841921 4290196499
0.0037724338 -0.0032357946 0.013922334 4289084954
-0.014178135 -0.0079822764 0.017680801 4286727224
-0.012827978 -0.0028184578 0.012446694 4287249464
-0.011219747 0.00017666072 0.009322498 4288820264
-0.0093291365 0.0010043532 0.0083043911 4290782744
-0.0071319044 -0.00033406913 0.0093884654 4290259738
-0.0050304085 -0.00094997883 0.0097708888 4290261013
-0.0030327588 -0.0008438006 0.0094529502 4290261524
-0.00092293322 -0.0014590994 0.0098342411 4289346328
0.0014219359 -0.0035167709 0.011612106 4288758554
-0.01142288 -0.00069757551 0.0074031558 4289017124
-0.0094338395 -0.00059217215 0.0070863348 4291045649
-0.0073408373 -0.0012108162 0.0074683428 4290063643
-0.011625677 -0.00156717 0.0054873507 4288623913
-0.0097404532 -0.00073545426 0.0044733714 4289671453
-0.0056610033 -0.017591223 0.00082705542 4288495649
-0.010473792 -0.014204063 -0.0045507867 4288887838
-0.007975772 -0.017817117 -0.0014475137 4289606428
-0.0056611523 -0.019941621 0.00028455444 4289672219
-0.0043017305 -0.01537507 -0.0041333698 4291439113
-0.010478158 -0.016541414 -0.0050823279 4289540893
-0.0081831142 -0.018673562 -0.0033522751 4289671199
-0.0059768707 -0.020059116 -0.002306506 4289736734
-0.0042987317 -0.0177164 -0.0046694726 4289083168
-0.010383211 -0.019630887 -0.0049359035 4288754729
-0.0084923916 -0.018777452 -0.0059340671 4290063388
-0.0063969344 -0.019419797 -0.0055709518 4290128923
-0.0042959675 -0.020061746 -0.0052086338 4290980369
-0.010089912 -0.024229236 -0.0034370217 4287969584
-0.0085968189 -0.020372622 -0.0071511269 4289147174
-0.0066064708 -0.020267211 -0.00746819 4289408294
-0.0044009686 -0.021661289 -0.0064289682 4290326039
-0.0097977147 -0.028844573 -0.001951104 4287511858
-0.0082932785 -0.024976626 -0.0056586787 4288296749
-0.0065016374 -0.023366332 -0.0073312391 4288688684
-0.0043985471 -0.024012558 -0.0069725886 4290063644
-0.0094074644 -0.034231462 0.00019794516 4287969839
-0.0078889728 -0.030352019 -0.0035035294 4287642418
-0.0059791878 -0.029491059 -0.0044996608 4287315509
-0.004181914 -0.027876072 -0.006169701 4287839279
-0.0094145872 -0.036612675 -0.00036706962 4288035373
-0.0076894462 -0.034235545 -0.0027126651 4287445813
-0.0058759674 -0.03261552 -0.0043820422 4287118649
-0.0040731728 -0.030995987 -0.0060495865 4287118904
-0.009520825 -0.03823901 -0.0016079489 4287054898
-0.0076938532 -0.03661415 -0.0032762084 4286921788
-0.0057732984 -0.03574834 -0.0042707417 4287052604
-0.0039649606 -0.034124188 -0.0059358794 4287118393
-0.0021673217 -0.032500513 -0.0075991731 4287183928
-0.0079013407 -0.037474953 -0.0051842574 4286790974
-0.0060876012 -0.03584636 -0.006847037 4286921789
-0.0040709153 -0.035739481 -0.0071682502 4287118139
-0.0022731349 -0.034111507 -0.0088282358 4287053113
-0.00059825182 -0.031723596 -0.011155473 4287512370
-0.0082097873 -0.037568033 -0.0077579003 4286661433
-0.0061933547 -0.037461296 -0.008079173 4286791484
-0.0041768253 -0.037354462 -0.008400375 4287118903
-0.0022695512 -0.036484815 -0.0093892682 4287249718
-0.00070375949 -0.033327825 -0.012379335 4287904303
0.00084055215 -0.030171834 -0.015365881 4287839024
-0.004282698 -0.038969107 -0.0096322689 4287250229
-0.0023754463 -0.038097344 -0.010619497 4287839024
-0.00069732219 -0.035696395 -0.012937265 4287838768
0.0008501038 -0.032531656 -0.015917638 4287250229
0.002376046 -0.029367968 -0.018894451 4287185458
-0.0046013147 -0.03904926 -0.012193764 4287577903
-0.0025903806 -0.038942598 -0.01251399 4287838768
-0.00080291182 -0.037302144 -0.014162296 4287315509
0.00085940212 -0.034895502 -0.016472401 4287184693
0.0025056228 -0.032489531 -0.018779876 4287119413
0.0042556077 -0.030850753 -0.020421891 4287185204
-0.00090846419 -0.038907595 -0.015387109 4287119413
0.00075411797 -0.036494516 -0.017692262 4287250228
0.0024006069 -0.034082077 -0.019994771 4287249973
0.0041507185 -0.032438979 -0.02163347 4287511859
0.0060125291 -0.031564675 -0.022609713 4287904304
-0.0011254773 -0.039741613 -0.017272459 4287054388
0.00064886361 -0.038093187 -0.018911878 4287119413
0.002295617 -0.035674326 -0.02120945 4287315509
0.0040458553 -0.034026921 -0.022844831 4287576628
0.00602993 -0.033921078 -0.023160307 4287445558
0.0077641234 -0.032274246 -0.024792997 4287577649
0.0020739175 -0.036493234 -0.023082139 4288231214
0.0039410256 -0.035614535 -0.024055945 4287903794
0.0060470775 -0.036281422 -0.023714004 4287576629
0.0080337487 -0.036175318 -0.024029801 4287315253
0.0091278106 -0.030662037 -0.028941443 4287578159
0.0020857342 -0.038857855 -0.023638083 4287642418
0.0040748119 -0.038751893 -0.02395446 4287314999
0.0063079372 -0.040195517 -0.022959223 4287314744
0.0085519105 -0.041638508 -0.021965595 4287249463
0.010042436 -0.038433172 -0.024903072 4286792503
0.0043272078 -0.042674772 -0.023204746 4286791738
0.006689813 -0.044899337 -0.021559952 4287118138
-0.0041651279 0.037767876 0.042209022 4281631304
-0.0021596402 0.037875075 0.041890301 4279414844
-0.0087923594 0.039291289 0.037910692 4281892678
-0.0075336397 0.044087861 0.032409828 4281569084
-0.0063126199 0.048882443 0.02691504 4280590393
-0.0042484552 0.048317119 0.027344201 4280196418
-0.00093785301 0.040386498 0.035905004 4279154233
-0.015340693 0.040734597 0.033935223 4282413899
-0.013652496 0.042857874 0.031399943 4281436229
-0.01188118 0.044307828 0.029607099 4281176894
-0.010324229 0.047102004 0.026337225 4280787254
-0.0088932998 0.050567292 0.022331879 4280395574
-0.0073819906 0.053359155 0.019069359 4281371713
-0.0051224418 0.051446497 0.020976864 4281437249
-0.002283223 0.04617586 0.02657013 4280719424
0.0015222877 0.035534535 0.038054377 4280328253
-0.020370267 0.046360914 0.025212154 4279937849
-0.018513761 0.047139578 0.024162833 4280329529
-0.016381644 0.045893136 0.025331419 4279352878
-0.014431186 0.045996986 0.025021128 4281177148
-0.012579575 0.046775613 0.023972683 4281112379
-0.010936603 0.048903018 0.021449756 4281242684
-0.0094141364 0.051704049 0.018192112 4280199733
-0.0076989159 0.053155527 0.016411617 4279808308
-0.0055550933 0.051910076 0.017578628 4279743793
-0.002950266 0.047969498 0.021687888 4279287344
3.279373e-05 0.042009294 0.027998745 4280328763
0.0030646101 0.036051761 0.034301903 4281045569
-0.02403684 0.041876383 0.027592953 4281306943
-0.022761948 0.047400858 0.021372188 4281241408
-0.021177836 0.050213389 0.018111192 4280787508
-0.019252107 0.050315756 0.017804705 4280853809
-0.016952351 0.047709703 0.020447593 4279746344
-0.014823146 0.046458799 0.021613296 4280916793
-0.012781836 0.045885414 0.022040781 4281112123
-0.011039659 0.047342457 0.02025928 4281176893
-0.0096209645 0.050828695 0.016272642 4281046589
-0.0079082325 0.052284338 0.014495879 4281111614
-0.005767487 0.051034357 0.015659988 4281046588
-0.0032786801 0.047756679 0.019025397 4281177148
-0.00076272711 0.044480518 0.02238654 4281046843
0.0011914559 0.044585042 0.022076029 4281112634
0.0038686544 0.040635511 0.026163839 4280982839
0.008303009 0.027230132 0.040503211 4280982073
-0.026097775 0.04019729 0.026702862 4281699389
-0.024800405 0.045740172 0.020491876 4281046078
-0.023205191 0.048561841 0.017235745 4280525113
-0.02163139 0.051382475 0.01398303 4281307708
-0.01980716 0.052163713 0.012942098 4281437759
-0.017521553 0.049548164 0.015580527 4280526133
-0.015118159 0.046254687 0.01895079 4279875119
-0.012983754 0.044999745 0.020112317 4281111869
-0.011142671 0.045782086 0.019068945 4280981053
-0.0095150769 0.047921702 0.016558494 4280981053
-0.0076899156 0.048703335 0.015517756 4280915518
-0.0057604909 0.04880631 0.015211005 4280850493
-0.0034942478 0.046874501 0.017102305 4280916284
-0.001326602 0.04562173 0.018258855 4280916538
0.0003814064 0.047081683 0.016486388 4280134964
0.0023193918 0.047185384 0.016178481 4279874610
0.0054879114 0.040511928 0.02318028 4280264758
0.010345295 0.025033016 0.039670423 4280134709
-0.026121378 0.0379401 0.026237398 4281632578
-0.024902627 0.044182494 0.019303471 4281045058
-0.023562141 0.049058542 0.013847969 4280590139
-0.021995954 0.051887386 0.010603152 4280003384
-0.020089291 0.051988661 0.010299642 4279743539
-0.017809749 0.04936409 0.012932278 4279873844
-0.015412547 0.046059422 0.016295101 4280981053
-0.013283923 0.044799846 0.017454118 4281045823
-0.011448167 0.045584042 0.016413245 4281111360
-0.0097216591 0.047048911 0.014640965 4281111104
-0.0078991279 0.047832534 0.013602298 4280980798
-0.0059724897 0.047935333 0.013295967 4281111358
-0.0038215593 0.046677276 0.014451694 4281177149
-0.0020040721 0.047460843 0.013413996 4280460599
-0.00030937418 0.048924394 0.011646982 4280850493
0.0016150065 0.049027335 0.011341214 4281632834
0.0040310845 0.046410792 0.013952721 4281436738
0.0075992942 0.037677739 0.023120712 4281046078
0.012520928 0.022152506 0.039562039 4281242174
-0.025429398 0.029519401 0.032379504 4281957194
-0.024429157 0.037835412 0.023253869 4281697094
-0.023408584 0.045463949 0.014872283 4281502528
-0.022009075 0.049669772 0.010166302 4281241154
-0.020190127 0.050454929 0.0091295466 4281045569
-0.018004261 0.048505269 0.011023171 4281046079
-0.015802041 0.046556577 0.012914199 4280915518
-0.013878755 0.046658907 0.012608174 4281111614
-0.012056462 0.047444507 0.011571094 4280525369
-0.010135576 0.047546837 0.011265554 4280525368
-0.0081080198 0.046966311 0.011690252 4280785468
-0.006293416 0.047751717 0.010654561 4281176383
-0.0042602047 0.047171637 0.011078473 4281176639
-0.0024507642 0.047956899 0.010043707 4280525369
-0.00064662471 0.048741948 0.0090098344 4279352368
0.0013923235 0.048162386 0.0094329938 4280394809
0.0036822818 0.046219029 0.011310659 4280655419
0.0064903647 0.041548967 0.016094621 4280525624
0.0098490268 0.034153853 0.023779817 4280460599
0.014314134 0.021308992 0.037266463 4280460599
-0.024502039 0.018995933 0.040687144 4282087754
-0.023629256 0.028712589 0.030110937 4281762883
-0.023001447 0.039797805 0.018082794 4281437249
-0.021759935 0.045389667 0.011921011 4280783683
-0.020200714 0.048235439 0.008690726 4280980033
-0.018012658 0.046279371 0.010578942 4281045824
-0.016095012 0.04638128 0.010273729 4280850494
-0.014373817 0.047854364 0.0085087977 4280460599
-0.01266326 0.049326919 0.0067456737 4279419179
-0.010652274 0.048743248 0.0071712565 4279679789
-0.0065046176 0.046892006 0.0087481067 4281176893
-0.0045861341 0.046994381 0.0084430836 4280981308
-0.0027820431 0.047781505 0.0074108299 4281046589
-0.0011004582 0.049252972 0.0056525916 4280460089
0.0010500588 0.047986358 0.0068018343 4280590394
0.0034566931 0.04535193 0.0094013549 4280460343
0.0060103498 0.042034663 0.012723044 4280982074
0.0087191314 0.038034983 0.016765606 4281307708
0.012244739 0.029934257 0.025151301 4281373499
-0.023895279 0.011171028 0.046027064 4282542674
-0.022750452 0.018853597 0.037662506 4281891403
-0.022088066 0.029975269 0.025655653 4282023748
-0.021162488 0.038339268 0.016582306 4281632578
-0.0200314 0.044635523 0.0097077526 4281306178
-0.018206768 0.045425303 0.0086734407 4281111614
-0.016482823 0.046902761 0.0069113616 4280785978
-0.014769517 0.048379675 0.0051510688 4280721464
-0.01306688 0.049856137 0.0033924878 4281242173
-0.011064224 0.049269788 0.0038177334 4280656439
-0.0088435486 0.047309309 0.0056959148 4279809839
-0.0068244338 0.046724021 0.0061186068 4280721464
-0.0049114451 0.046826072 0.0058144368 4280981564
-0.0029983483 0.046928212 0.005510306 4280915518
-0.00096807256 0.046343699 0.0059314426 4280654398
0.0011874624 0.045073047 0.0070764665 4281176383
0.0035988316 0.042430192 0.009668503 4280980033
0.0061570816 0.039102327 0.012981046 4280980545
0.0087424368 0.035775993 0.016289342 4281176893
0.011877194 0.029707264 0.022485573 4281112889
0.017592955 0.010610439 0.042403832 4281112889
-0.023686536 0.0067616552 0.047689557 4282739278
-0.022120424 0.011014938 0.042987086 4282022473
-0.021178037 0.020100795 0.03318895 4281892423
-0.020305648 0.029183004 0.023402005 4281697603
-0.019593194 0.038951878 0.012898456 4281502273
-0.018215321 0.043195479 0.0082261972 4281241408
-0.016869687 0.047437437 0.003559133 4280395828
-0.015164308 0.048918262 0.0018033888 4280721209
-0.013469562 0.050398573 4.9447641e-05 4281242173
-0.011371858 0.049120031 0.0011999439 4281241918
-0.0090509765 0.046463236 0.0037992913 4280786234
-0.0069259927 0.045186304 0.0049455669 4280394808
-0.0047900751 0.043909982 0.0060902033 4280981309
-0.0027574487 0.043323375 0.0065091662 4281046333
-0.00060238689 0.042048223 0.0076508708 4280849983
0.0016831867 0.040085051 0.0095139556 4281241919
0.0041074045 0.03743422 0.012097225 4281372479
0.0068033747 0.033407766 0.016121577 4281503804
0.0092764013 0.0307597 0.018697202 4281699388
0.012423269 0.024672132 0.024876386 4281568318
-0.023715727 0.0044143423 0.047155261 4282869584
-0.021982841 0.0072948933 0.043917239 4282348619
-0.020524435 0.012252748 0.03850152 4281957194
-0.019364797 0.019286543 0.030912068 4281827143
-0.018797569 0.030472469 0.018974148 4281762373
-0.017946705 0.038884502 0.0099530518 4281567553
-0.016970173 0.045908801 0.0023929235 4281307199
-0.015460312 0.048778027 -0.00080927089 4280199224
-0.013770781 0.050262384 -0.0025590993 4280199733
-0.011678852 0.048979141 -0.0014110189 4280265014
-0.0094700195 0.047004983 0.00045892037 4280003893
-0.0071361884 0.044340275 0.0030495282 4281111869
-0.0047806017 0.04167679 0.0056367274 4281307199
-0.0024032965 0.039014541 0.0082205385 4281306944
-4.2691827e-06 0.036353525 0.010800947 4281437759
0.0022969991 0.034384646 0.012656532 4281437249
0.0046145767 0.032416753 0.014509544 4281306943
0.0071982108 0.029068567 0.017801225 4281634109
0.0098089501 0.025721911 0.021088667 4281436739
0.01296794 0.019615505 0.0272508 4281436993
-0.022009082 0.0049522296 0.043385968 4282413644
-0.020378627 0.0085354783 0.039432175 4281957194
-0.018861912 0.012812216 0.034757741 4281761353
-0.01800473 0.021949816 0.025016915 4281827653
-0.017309912 0.031778332 0.014563177 4281436739
-0.01678554 0.042297322 0.0033978242 4281567554
-0.015560262 0.047258265 -0.0019687042 4281372224
-0.013770111 0.04805281 -0.0029923972 4281241663
-0.011572756 0.046071447 -0.0011257548 4281372223
-0.0092532076 0.043397211 0.0014603268 4281372223
-0.0066948831 0.039336924 0.0054860059 4281045313
-0.0042152368 0.035971958 0.0087855086 4281241918
-0.0017084666 0.032608464 0.012080792 4281176894
0.00047553331 0.031326201 0.013211101 4281242429
0.0026704557 0.030044604 0.014339745 4281307454
0.0048762746 0.028763626 0.015466757 4281371969
0.0074672028 0.02540499 0.018748872 4281567554
0.0098303482 0.023433149 0.020589758 4281698113
0.013120778 0.016614836 0.027454622 4281567298
-0.020401791 0.0061996579 0.038905598 4282414664
-0.018621273 0.0083986036 0.036410548 4281761863
-0.017393634 0.014777705 0.029580936 4281957959
-0.016306594 0.021850973 0.02203666 4281827398
-0.015747778 0.032404162 0.01089102 4281958979
-0.014879525 0.040167592 0.0026445705 4281697859
-0.013268292 0.042357903 0.00017681345 4281763138
-0.01115822 0.04106696 0.0013152044 4281634109
-0.0088258311 0.038384724 0.0038925037 4281503549
-0.0063633509 0.035007916 0.0071862545 4281308984
-0.0038737133 0.031632628 0.010475744 4281177914
-0.0015845299 0.029649917 0.012323014 4281830203
0.00060449168 0.028363574 0.013449159 4281633088
0.0026852377 0.027773079 0.013855536 4281698113
0.0048933625 0.026487928 0.01497877 4281633344
0.007361576 0.023813497 0.017534908 4281698368
0.0098514818 0.021140326 0.020087667 4281697859
0.013013069 0.014995072 0.026219137 4281828674
-0.018554978 0.0053661242 0.03660702 4282022984
-0.017052762 0.0096680485 0.031955037 4281893189
-0.015582755 0.0139683 0.027308285 4281892679
-0.014902875 0.023856584 0.016903933 4281958214
-0.014103569 0.032343838 0.0079514757 4281762629
-0.012667984 0.035938781 0.0040458124 4281502784
-0.010642223 0.03534269 0.004458867 4281114419
-0.0081887729 0.031954471 0.0077455752 4281309494
-0.0059246756 0.029963788 0.0095916092 4281374264
-0.0035332963 0.02727617 0.01215291 4281570104
-0.0013474748 0.025985189 0.013276167 4281569593
0.00073291734 0.025392458 0.013680805 4281698624
0.0029378608 0.024102699 0.0148011 4281698369
0.0051537082 0.022813566 0.015919778 4281698369
0.0075048842 0.02082802 0.017752349 4281763394
0.009872362 0.018843401 0.019582454 4281763394
0.013294946 0.011285085 0.0271281 4281763904
-0.016980812 0.006640397 0.032154128 4282544203
-0.015320882 0.0095518939 0.02895467 4282153288
-0.014249943 0.016667582 0.021446537 4281891913
-0.013524726 0.02588271 0.011792243 4281826634
-0.012169607 0.030190054 0.0071740225 4281959234
-0.010333288 0.03099357 0.0061479621 4281766454
-0.0080806352 0.028995629 0.0079907365 4281831223
-0.0058116652 0.026998643 0.0098309852 4281831734
-0.0036371648 0.025702666 0.010952555 4281831223
-0.0014517345 0.024407305 0.012072492 4281765688
0.00074461102 0.023112658 0.01319072 4281699133
0.0029518604 0.021818683 0.014307279 4281828928
0.0054132119 0.019126464 0.016850986 4281763394
0.0077719651 0.017134782 0.018677354 4281958469
0.010401014 0.013745774 0.021928255 4282155073
0.013965134 0.0054652542 0.030166697 4282416448
-0.016998433 0.0043076947 0.031628855 4283917888
-0.015335336 0.0072279572 0.028435569 4282283338
-0.014260374 0.014365457 0.020943563 4281957450
-0.013336413 0.022203062 0.012743589 4281957450
-0.012072302 0.027226605 0.0074177831 4281893953
-0.01012798 0.027329896 0.0071082935 4281831734
-0.0078677647 0.025325853 0.0089448169 4281831989
-0.0056991875 0.024025109 0.010063875 4281831734
-0.0036303177 0.023427229 0.010466829 4281831734
-0.001329232 0.021425616 0.012297045 4281896248
0.00087210536 0.020126883 0.013411097 4281698878
0.0033218823 0.017425295 0.015949849 4281829184
0.0056719035 0.015426554 0.017772492 4281893698
0.0081623867 0.012727316 0.020304915 4282024003
0.010928266 0.0086267032 0.024257697 4282873154
0.014504045 0.00032084435 0.032474134 4282873409
-0.015166789 0.0034892038 0.029344995 4282609228
-0.014082424 0.010648776 0.021868233 4282088010
-0.013342917 0.019920811 0.012255244 4281761353
-0.011975504 0.024254691 0.0076551475 4281893190
-0.010128308 0.025063045 0.0066306591 4281634364
-0.0078659281 0.023052607 0.0084617846 4281766198
-0.005695045 0.021747645 0.0095771141 4281766964
-0.0035132095 0.020443313 0.010690805 4281767474
-0.0012072623 0.018435493 0.012515157 4282029104
0.00099909306 0.017132644 0.013625093 4282613819
0.0034535713 0.014422629 0.016156357 4283135294
0.0060510784 0.011010103 0.019395333 4283788349
-0.014187768 0.0090415105 0.020641975 4282675529
-0.013446517 0.01834172 0.011050496 4281826633
-0.012078367 0.022688571 0.0064603202 4281893444
-0.010231134 0.02349906 0.005437484 4281830714
-0.0078643262 0.02077527 0.0079756379 4281831224
-0.0055834576 0.018759388 0.0097988322 4281767474
-0.0032862648 0.016744498 0.011619452 4282224689
-0.00097275898 0.014730524 0.013437588 4282486064
0.0013570748 0.012717515 0.015253201 4283335469
-0.013356611 0.015344057 0.011269186 4282153799
-0.011982322 0.019704174 0.0066880733 4281828418
-0.010129642 0.020517051 0.0056660771 4282093109
-0.0077581257 0.017784838 0.0081967451 4282224433
-0.00536488 0.015053917 0.010723989 4282224178
-0.0029499121 0.012324203 0.013247889 4283335214
-0.00051321089 0.0095957257 0.015768394 4284250153
-0.011787504 0.015999909 0.0076190066 4283200318
-0.0097227395 0.015392791 0.0080156066 4283726638
-0.022335045 -0.015601061 0.03775287 4283003460
-0.024592631 -0.016657799 0.036103621 4282219080
-0.022683702 -0.015115306 0.034355015 4281828674
-0.020785362 -0.013573229 0.032608133 4283003969
-0.024546102 -0.019758001 0.036251497 4282085713
-0.02279155 -0.01677303 0.033090092 4281502018
-0.020975716 -0.014507882 0.030639343 4282219078
-0.01917588 -0.012243524 0.028191254 4283067718
-0.024654314 -0.02142407 0.03498017 4282347343
-0.022899322 -0.018430486 0.031825371 4281436993
-0.021165699 -0.015437923 0.028674055 4281826889
-0.019368283 -0.013167202 0.026231319 4281891403
-0.017411023 -0.012338623 0.025200546 4283067209
0.008170329 -0.0051771179 0.015379056 4283396159
0.010570124 -0.0072249845 0.017153591 4282676548
0.013756659 -0.013583034 0.023114912 4282283593
0.018171895 -0.026403777 0.035348706 4282088264
-0.024685465 -0.023813248 0.034413785 4282869583
-0.022927344 -0.020810895 0.031265154 4281566533
-0.02127298 -0.017086461 0.027416147 4281696073
-0.01930508 -0.016255274 0.026385263 4281956939
-0.017430186 -0.014701396 0.024652246 4282349895
-0.015656389 -0.012425333 0.022218462 4283199809
0.0056799054 -0.0047447905 0.012368955 4282808893
0.0079399869 -0.0060791597 0.013443582 4282546498
0.010587644 -0.009575367 0.016607564 4282350404
0.014031999 -0.017394193 0.023946755 4282088008
-0.024870545 -0.024755344 0.032438155 4282803793
-0.022955582 -0.023195371 0.030701842 4281826889
-0.021215707 -0.020185284 0.027562864 4281696329
-0.019412279 -0.017901406 0.025129206 4281957450
-0.01762487 -0.01561825 0.022698134 4281957193
-0.015853465 -0.013335809 0.020269703 4282480198
-0.0011406317 -0.002340652 0.0079120696 4283072054
0.0012009814 -0.0044050366 0.0096854493 4282549813
0.0034415722 -0.0057450309 0.010759696 4282354484
0.0056930445 -0.0070842877 0.011832252 4281700154
0.0078326836 -0.0076997206 0.012207393 4282155838
0.010479495 -0.011206776 0.015363127 4282351169
0.01405026 -0.019772306 0.023379046 4282481729
-0.02322226 -0.023401111 0.028032463 4283135803
-0.021405235 -0.021110125 0.025601525 4281826123
-0.019689001 -0.018092588 0.022473078 4281760589
-0.017819196 -0.016530454 0.020747557 4281957194
-0.016140379 -0.013514675 0.017625242 4281891659
-0.01466877 -0.0090461746 0.013108741 4282152779
-0.0055602603 -0.0019773617 0.0052350257 4284183344
-0.0034618862 -0.0025976896 0.0056146383 4282942769
-0.0011344329 -0.0046694353 0.0073851477 4282419764
0.0012093112 -0.0067401528 0.009153109 4282420019
0.0034521893 -0.0080843419 0.010223635 4282158898
0.0057059377 -0.0094278157 0.011292461 4282158388
0.007848002 -0.010045297 0.011665531 4282092598
0.010496665 -0.013563044 0.014812589 4282091323
0.013940286 -0.021429434 0.022115014 4282612798
-0.023409031 -0.024327651 0.026069254 4284247093
-0.02159442 -0.022030368 0.023643687 4282283848
-0.019880466 -0.019004345 0.020522274 4281957194
-0.018013187 -0.017438047 0.01880049 4281957450
-0.016426682 -0.013684608 0.014987595 4281891659
-0.015052512 -0.0084743425 0.0097846426 4281891148
-0.013525061 -0.0047238171 0.0059813149 4282937158
-0.007861238 -0.0022219345 0.0029431302 4282614073
-0.0056651197 -0.0035733581 0.0040174108 4282222649
-0.0035670213 -0.0041958988 0.004395362 4282158898
-0.0010168478 -0.0077302381 0.007549284 4281963314
0.0012174025 -0.009079352 0.0086177215 4282486064
0.003462553 -0.010427706 0.0096844845 4282356269
0.005479116 -0.010320164 0.0093638115 4282420274
0.0079855062 -0.013122424 0.011813089 4282355248
0.010388438 -0.015196048 0.013566934 4282681139
0.013446834 -0.020904683 0.018776361 4283072054
0.016679022 -0.027337931 0.024670172 4283202103
-0.021701433 -0.023677737 0.022386633 4284313904
-0.019987054 -0.0206431 0.019271828 4283072053
-0.018032417 -0.019804016 0.018249728 4281957193
-0.016352735 -0.016770996 0.015140615 4281957450
-0.014972299 -0.011545382 0.0099484101 4281826378
-0.01343888 -0.0077837184 0.0061524492 4282153289
-0.011932291 -0.0040234327 0.0023608766 4281959488
-0.0098483227 -0.0046492442 0.0027391985 4281700409
-0.0078622364 -0.0045439824 0.0024228748 4281635383
-0.0056638308 -0.0058995932 0.0034933686 4282158389
-0.0035633147 -0.006524168 0.0038692597 4282290224
-0.0010112822 -0.010069214 0.0070144981 4282356014
0.001339443 -0.01215259 0.0087713078 4282224943
0.0035895631 -0.013505034 0.0098339058 4282421293
0.0054917932 -0.012667455 0.0088211447 4282551854
0.0077555999 -0.014018968 0.0098817982 4282943024
0.0099052712 -0.014640279 0.010250375 4283270698
-0.020009205 -0.023015358 0.01871676 4284313903
-0.018138938 -0.021440335 0.017001152 4282089028
-0.016369067 -0.019132219 0.014592953 4281957194
-0.015077546 -0.013157971 0.0087179951 4281957194
-0.013543546 -0.0093855336 0.004930282 4282153798
-0.011938512 -0.0063475743 0.001840042 4281764668
-0.00985213 -0.0069753975 0.0022162441 4281766198
-0.0078634657 -0.0068700165 0.0018994883 4281897269
-0.0056627914 -0.0082298443 0.0029662587 4282158898
-0.0035598353 -0.0088564679 0.0033400804 4282160173
-0.001005955 -0.012412272 0.0064766742 4282486829
0.0014609434 -0.01523421 0.0089185163 4282617133
0.0034825429 -0.015126534 0.0085969344 4282684454
0.0047875233 -0.010627039 0.0041378904 4283271463
0.0065487996 -0.0090564117 0.0024407115 4284250918
-0.018332325 -0.022340558 0.015059687 4284379949
-0.016475238 -0.02076181 0.013349537 4282873918
-0.015090398 -0.015505813 0.0081800148 4282022218
-0.013743177 -0.010251634 0.0030165445 4282350405
-0.012140401 -0.0072051585 -6.6701323e-05 4281765434
-0.010056991 -0.0078353658 0.00030832738 4281636404
-0.0078649409 -0.0092001036 0.0013730153 4281898033
-0.0057677999 -0.0098293051 0.0017459877 4282288948
-0.0035566017 -0.011192851 0.0028078463 4282486828
-0.0011120886 -0.014024772 0.0052465051 4283204909
0.0011262856 -0.015386611 0.0063041635 4284185639
-0.016581364 -0.022391081 0.012106352 4284313138
-0.015287846 -0.01638227 0.006257819 4282350405
-0.013942473 -0.01111313 0.0011063293 4282219844
-0.012244396 -0.0087955892 -0.0012801662 4281765434
-0.010261532 -0.0086906627 -0.0015961155 4281636659
-0.0080726035 -0.01005993 -0.00053424388 4282027828
-0.0058727562 -0.011428468 0.00052593648 4282486318
-0.0037703663 -0.012059473 0.00089646131 4282943534
-0.015392937 -0.017993979 0.0050280504 4284117044
-0.013857231 -0.014189176 0.0012651123 4282612033
-0.012153454 -0.01186493 -0.0011172425 4282419764
-0.010265473 -0.011020318 -0.0021216813 4283009068
-0.0080742724 -0.01239375 -0.0010635704 4283858474
-0.01415088 -0.014306016 -0.0013298579 4283331389
-0.012452237 -0.011975564 -0.0037064385 4283531563
-0.014255032 -0.01590202 -0.0025476199 4284508469
-0.01898919 -0.034520179 0.007020494 4284574003
-0.019009441 -0.036906891 0.0064538363 4283725618
-0.017322816 -0.033787563 0.0034103207 4284574259
-0.01911559 -0.038542368 0.0052058455 4282152523
-0.017428555 -0.035414398 0.0021689478 4282610759
-0.015580826 -0.033797503 0.00049035437 4284442423
-0.019307218 -0.039420076 0.0032815021 4282283083
-0.017710678 -0.035526343 -0.00042453595 4282283848
-0.015868202 -0.033905379 -0.0020989943 4283200318
-0.01949852 -0.040293135 0.0013606865 4282348108
-0.017816037 -0.037148237 -0.0016621482 4282283083
-0.015973426 -0.03552299 -0.0033333134 4282283848
-0.013861038 -0.03617581 -0.0029816423 4282480963
-0.019774742 -0.040399782 -0.0012299325 4282020689
-0.018009298 -0.03800822 -0.0035724137 4282152013
-0.016078614 -0.037140287 -0.004567394 4282218059
-0.014059849 -0.037033923 -0.0048894156 4282153798
-0.01194492 -0.03768865 -0.0045397375 4283657533
-0.020050362 -0.040497534 -0.0038137082 4281889619
-0.018114433 -0.039627351 -0.0048079211 4282020433
-0.016274251 -0.037993662 -0.0064720456 4282021454
-0.014258333 -0.037887447 -0.0067936201 4281760844
-0.012146398 -0.038544454 -0.0064451862 4282545990
-0.010127518 -0.038437836 -0.0067670401 4283852354
-0.020410344 -0.039820209 -0.007060701 4281755488
-0.018394843 -0.039714269 -0.0073824022 4281431128
-0.016469568 -0.038842402 -0.0083731655 4281824594
-0.014456488 -0.038736351 -0.0086943004 4281694544
-0.012443289 -0.038630165 -0.0090153571 4282021709
-0.010528386 -0.037758492 -0.010004194 4282282829
-0.018674657 -0.039792292 -0.0099500138 4281365594
-0.016574353 -0.04045447 -0.0096032713 4281562964
-0.014747247 -0.038812824 -0.011258522 4281890893
-0.012739576 -0.038706951 -0.011578707 4281890893
-0.010928385 -0.037065856 -0.013231276 4282282829
-0.0088248774 -0.037727378 -0.012884663 4282937158
-0.016859256 -0.040526025 -0.012164848 4281755999
-0.01503741 -0.038880311 -0.013815975 4281955408
-0.013130747 -0.038004912 -0.014800267 4281890383
-0.011327505 -0.036359958 -0.016448243 4281956174
-0.0093332157 -0.036254562 -0.016766114 4282086988
-0.0070281699 -0.038457267 -0.015092751 4282414918
-0.015419595 -0.038166754 -0.017030386 4282084949
-0.013330378 -0.038833655 -0.016685007 4282020433
-0.011333659 -0.038728274 -0.017003374 4282021454
-0.0094375536 -0.037850998 -0.017984187 4281956174
-0.0074433014 -0.037745483 -0.018301947 4282479688
-0.0052367449 -0.03918273 -0.017296361 4282805833
-0.011535831 -0.039552502 -0.018884173 4281955153
-0.0096424222 -0.038673289 -0.019862862 4281759568
-0.0077542923 -0.03779421 -0.02084058 4281891149
-0.0055535734 -0.039236031 -0.019837456 4281891148
-0.0033419579 -0.040677167 -0.018835904 4281892678
-0.011737689 -0.040372163 -0.020761421 4281889619
-0.0099474154 -0.038714945 -0.022397211 4281694289
-0.00796156 -0.038609892 -0.022713663 4281956429
-0.0058697946 -0.039280437 -0.022371696 4281435209
-0.003555499 -0.041501798 -0.020714669 4281566024
-0.0014473721 -0.04217124 -0.020375112 4283329859
-0.010251816 -0.038747631 -0.024924794 4281887834
-0.0081685223 -0.039420947 -0.024583204 4281824339
-0.0059740655 -0.040871717 -0.023585757 4281108808
-0.003660351 -0.043099545 -0.021933636 4281306688
-0.0014414489 -0.044548742 -0.02093987 4282155839
0.00033327192 -0.042887412 -0.022569356 4283002694
-0.0083751641 -0.040227361 -0.02644928 4281759313
-0.0061838366 -0.041682638 -0.025454639 4280912968
-0.0038734153 -0.043917067 -0.023807043 4281109828
-0.0016576424 -0.045370758 -0.022816071 4282804303
-0.008684203 -0.040246882 -0.028965643 4281954133
-0.0063933022 -0.042488948 -0.027319992 4281565258
0.020766033 -0.0050969645 0.0026643332 4285426213
0.023631118 -0.0093471929 0.0064811334 4285819934
0.027702529 -0.019404978 0.01580175 4285754143
-0.025423683 -0.027553856 0.026532337 4285097518
-0.0236746 -0.024517596 0.023411836 4285163818
0.011932731 -0.014531828 0.0099282227 4285361189
0.017273255 0.00047863275 -0.0051244982 4285426723
0.01896457 0.0020419732 -0.0068133119 4285754909
0.021364577 -3.7565827e-05 -0.0050633941 4285820189
0.024660358 -0.0064861402 0.00080576912 4285885978
0.029497679 -0.020213947 0.013532579 4285885979
-0.023623593 -0.027635016 0.023545463 4285360423
-0.021890074 -0.024590865 0.020434193 4285099049
0.013220698 -0.0013158992 -0.0057050493 4285098794
0.014651597 0.0017142743 -0.0087664258 4285427489
0.016199283 0.0040125176 -0.011137759 4285623838
0.017871853 0.0055791661 -0.012820246 4285558304
0.020108633 0.0042228028 -0.011758028 4285558048
0.022795584 0.00067557395 -0.008641514 4285624093
0.026702726 -0.0087129697 -5.0166622e-05 4285558559
0.031439312 -0.021748669 0.011952389 4285558559
-0.023809642 -0.028551951 0.021589473 4285294634
-0.021996841 -0.026235491 0.019179225 4285294379
-0.020284295 -0.02318377 0.016078047 4285229099
0.0024426877 -0.01087369 0.0018532425 4285297439
0.006696891 -0.00027988851 -0.0087198885 4285557283
0.0086592883 -0.00017493963 -0.0090317158 4285492258
0.010491632 0.00066369027 -0.010029736 4285493024
0.012318633 0.0015020967 -0.011026776 4285559069
0.014004786 0.0030735806 -0.012708232 4285690139
0.015541963 0.0053777173 -0.015072888 4285821463
0.01720389 0.006948106 -0.016750336 4285689629
0.019285843 0.0063196197 -0.016373763 4285689373
0.021958431 0.0027608424 -0.013263345 4285689628
0.025254039 -0.0037264749 -0.0074241981 4285886489
0.02905336 -0.012408212 0.00045572408 4285689629
0.033380669 -0.023283005 0.010372553 4285493023
0.038417369 -0.037081651 0.023004439 4285493023
-0.023759231 -0.0316796 0.021715276 4285229099
-0.022103548 -0.027879804 0.01792448 4285228843
-0.020306468 -0.025557578 0.015521787 4285163308
-0.018525399 -0.023236088 0.013121724 4284901168
-0.0017735437 -0.011953376 0.00057863444 4285557794
0.0019533858 0.0023549721 -0.013413966 4285621799
0.0036555752 0.0039310604 -0.015095064 4285885979
0.0057207309 0.0032987371 -0.014718099 4285820444
0.0079186223 0.0019309297 -0.013656884 4285886488
0.009737473 0.0027709827 -0.014651095 4285690138
0.011683647 0.0028752759 -0.014960183 4285558558
0.013223786 0.0051858872 -0.017320322 4285558813
0.015023883 0.0060252771 -0.018311288 4285690394
0.016677864 0.0075995401 -0.019984137 4285821464
0.019038357 0.005498454 -0.018243028 4285755674
0.021415064 0.0033983961 -0.01650444 4285821463
0.024254564 -0.00090480596 -0.012723555 4285558814
0.026974898 -0.0044715628 -0.0096288966 4285493278
0.03033925 -0.010974355 -0.0038155541 4285493534
0.034536969 -0.021145664 0.005391648 4285493534
0.03992784 -0.036451466 0.019346014 4285427744
-0.02370932 -0.03481555 0.021834664 4285163309
-0.021966428 -0.031745128 0.018741898 4285163563
-0.020328887 -0.027935453 0.01496242 4285294634
-0.018718116 -0.024127059 0.011187311 4285229354
-0.016955465 -0.021800034 0.0087953098 4285097773
-0.0013592206 -0.0038447753 -0.009872037 4285623584
-9.5363706e-05 0.00069123507 -0.014294584 4285493023
0.0012552217 0.0044871569 -0.018027233 4285558558
0.0028223544 0.0068051293 -0.020387074 4285755164
0.0049954504 0.0054316074 -0.019325402 4285755419
0.0073065422 0.0033207387 -0.017581977 4285820953
0.0092444271 0.0034244582 -0.017889852 4285755928
0.011182357 0.003528282 -0.01819765 4285624348
0.012985121 0.0043698549 -0.019187452 4285558813
0.014782529 0.0052111968 -0.020176282 4285558814
0.016574569 0.0060523674 -0.021164177 4285558558
0.018791176 0.0046819523 -0.020108812 4285558558
0.021310626 0.0018382147 -0.017694345 4285558558
0.023702977 -0.00026740134 -0.015963132 4285624349
0.025808696 -0.00089859962 -0.015593424 4285624349
0.028073933 -0.0022659898 -0.014545378 4285690139
0.031447627 -0.0087875649 -0.0087484745 4285755164
0.036305469 -0.021932758 0.0031447262 4285754654
0.041909311 -0.038017116 0.017733835 4285689118
-0.021992326 -0.034137972 0.018171694 4285031983
-0.020435333 -0.029574871 0.013711426 4285294888
-0.018824004 -0.025755703 0.0099445656 4285294889
-0.017150268 -0.022680007 0.0068697687 4285032494
-0.015589878 -0.018863298 0.0031112041 4284967214
-0.010369655 -0.012612335 -0.0033363476 4285100324
-0.0022571944 -0.00023115426 -0.01585876 4285492768
-0.00077914074 0.0028352812 -0.018901529 4285558813
0.00067740679 0.005900681 -0.021940788 4285821208
0.0023556054 0.0074840859 -0.023611395 4285623839
0.0043959133 0.0068461001 -0.02323385 4285557793
0.0068226084 0.0039879754 -0.020811956 4285623838
0.0088819303 0.003351219 -0.020437269 4285755928
0.01107908 0.0019749552 -0.019382458 4285624349
0.012881845 0.0028186813 -0.020370597 4285558813
0.014817026 0.0029225871 -0.020677783 4285559068
0.016752243 0.0030266121 -0.020984875 4285559068
0.018973824 0.0016520992 -0.019933617 4285559068
0.021206213 0.00027833879 -0.018884014 4285558813
0.023152282 0.00038328022 -0.019192578 4285690139
0.024795823 0.0019660667 -0.020856719 4285755419
0.02658253 0.0028096586 -0.021841666 4285886488
0.029303819 -0.00077838451 -0.018763712 4285885978
0.033167623 -0.0095338598 -0.010954008 4285885724
0.037744448 -0.021238901 -0.00044987351 4285885979
0.042901892 -0.035153531 0.012067791 4285820188
0.047324553 -0.045372501 0.021192912 4285360679
-0.02054172 -0.031213991 0.012460656 4285229353
-0.018929832 -0.027384043 0.0087020472 4285360424
-0.01734475 -0.023555391 0.0049477965 4285229099
-0.015694708 -0.020472236 0.001883544 4285163818
-0.0028131157 0.0011838302 -0.019775564 4285361443
-0.0014614612 0.0050012246 -0.023491766 4285558813
0.00021950528 0.0065889806 -0.025159556 4285821718
0.0018897504 0.0081763119 -0.026825605 4285887509
0.003797546 0.0082781836 -0.027128881 4285821718
0.0060859099 0.0061531439 -0.025391906 4285887508
0.0083905198 0.0040290803 -0.023657421 4285690139
0.010711368 0.0019060448 -0.021925474 4285624349
0.012778595 0.0012677833 -0.021553531 4285624349
0.014438391 0.0028551817 -0.023217356 4285624348
0.016508386 0.0022172853 -0.02284568 4285624348
0.018583808 0.0015798137 -0.022474773 4285559068
0.020810377 0.00020138174 -0.021427555 4285624349
0.022602485 0.001047194 -0.022411853 4285755674
0.023935832 0.0041159466 -0.025423821 4285689373
0.025709044 0.0049609691 -0.026404949 4285557793
0.027946407 0.0035836175 -0.025359128 4285689119
0.031149868 -0.0022366419 -0.020265399 4285754909
0.034720317 -0.0095353276 -0.013829466 4285754908
0.039003171 -0.019792177 -0.0047057196 4285558303
0.044198141 -0.033745594 0.0077743232 4285427488
-0.020564541 -0.033599637 0.011895407 4285032239
-0.019035615 -0.029012077 0.0074597504 4285097773
-0.017272115 -0.026665695 0.0050826017 4285097774
-0.015707888 -0.02282729 0.0013401192 4285163308
-0.0025754645 -0.0026001409 -0.018915087 4285426724
-0.0015628375 0.0034637228 -0.024664685 4285493278
-0.00023750588 0.0072905943 -0.028368253 4285558814
0.0014247932 0.0088817403 -0.030029668 4285558303
0.0035723411 0.0074939057 -0.028973985 4285624349
0.0058574304 0.0053622201 -0.027241511 4285558558
0.0082881562 0.0024871528 -0.024833569 4285558558
0.010344259 0.0018460304 -0.024461621 4285624093
0.012271024 0.001949355 -0.024767566 4285624093
0.01419783 0.0020528138 -0.025073424 4285689884
0.016124658 0.0021563768 -0.025379198 4285689884
0.0181944 0.0015164241 -0.025009071 4285624093
0.020123973 0.0016203746 -0.0253151 4285558558
0.021608733 0.0039544702 -0.027645996 4285690138
0.023077304 0.006287761 -0.029974194 4286018069
0.024683347 0.0078772977 -0.031625658 4285755164
0.026904093 0.0064947084 -0.030580504 4285689374
0.0297719 0.0021417961 -0.026843945 4285624093
0.032672074 -0.0022092313 -0.023112414 4285690138
0.036098011 -0.008785814 -0.017368678 4285493279
0.041077003 -0.022040501 -0.0055846497 4285427744
0.047172301 -0.039742805 0.01021345 4285427744
-0.01905527 -0.031388611 0.0069008712 4285097519
-0.017377563 -0.028286971 0.0038454961 4285097519
-0.015629813 -0.025934823 0.001475906 4285097773
-0.0021125302 -0.0078915432 -0.016706496 4285360424
-0.0012011677 -0.0010624528 -0.023123488 4285624604
-0.00010138005 0.0042700022 -0.028176624 4285558814
0.0014453232 0.0066126958 -0.030513184 4285493533
0.0034712888 0.0059674606 -0.030138385 4285559068
0.0056292526 0.0045759603 -0.029087631 4285559069
0.0077980869 0.0031851158 -0.028038472 4285690138
0.0094499737 0.0047805011 -0.029694587 4285689883
0.011360411 0.004882969 -0.029997932 4286018324
0.013545558 0.0034933314 -0.028951107 4285952533
0.015741535 0.0021044388 -0.027905943 4286018069
0.017662849 0.0022078231 -0.028210754 4285755674
0.019293323 0.0038025975 -0.029862979 4285624349
0.020913005 0.0053969622 -0.031513434 4285558558
0.02237108 0.0077361539 -0.033834949 4285690138
0.02412001 0.0085841678 -0.034808896 4285821719
0.026175996 0.0079419091 -0.034437802 4285821464
0.028873067 0.0043203607 -0.031380996 4285755673
0.031435482 0.0014451444 -0.028999569 4285558813
0.034676753 -0.0044072941 -0.023938399 4285493278
0.039297327 -0.016213089 -0.013521302 4285493023
0.045701422 -0.035457455 0.0035813618 4285493023
-0.01730568 -0.031409584 0.0039708167 4284901423
-0.015369572 -0.030552082 0.0029667374 4285163819
-0.01334469 -0.030445293 0.0026438106 4285163563
-0.00026254356 -0.0093526244 -0.018211173 4285294378
0.00050745904 -0.0017560348 -0.02528576 4285228843
0.0017076023 0.0028413907 -0.029647874 4285427489
0.0034939684 0.0036923289 -0.030627048 4285559324
0.0056542158 0.0022966042 -0.02957996 4285559068
0.0073089004 0.0038963333 -0.031233264 4285558813
0.0089528561 0.0054955706 -0.032884728 4285755418
0.010855045 0.0055975541 -0.033186793 4285754909
0.01316886 0.0034549758 -0.031468596 4285623583
0.015359007 0.0020614192 -0.030425811 4285886488
0.017417379 0.0014165491 -0.030057229 4285821209
0.019045293 0.0030154958 -0.0317057 4285624348
0.020662423 0.0046140179 -0.03335242 4285558558
0.022118092 0.0069595501 -0.035668537 4285558558
0.02401771 0.0070622116 -0.035969555 4285558558
0.026073411 0.0064177811 -0.035600089 4285624349
0.02876961 0.0027854368 -0.032551497 4285558814
0.031331301 -9.8444521e-05 -0.030176645 4285493278
0.034407068 -0.0052213594 -0.025797788 4285493024
0.039022475 -0.017061934 -0.015406568 4285624349
0.045419902 -0.036362611 0.0016536545 4285624349
-0.015475228 -0.032174952 0.0017284248 4285163819
-0.013356589 -0.032820873 0.0020841137 4285294379
0.00032714754 -0.015426703 -0.015353832 4285294379
0.0013509393 -0.0093105137 -0.021064986 4285294379
0.0023316555 -0.0031964555 -0.026769228 4285558303
0.0036399625 0.00066202134 -0.03044486 4285427744
0.0050476193 0.0037681758 -0.033442695 4285559069
0.0066916533 0.0053716451 -0.035090961 4285755929
0.0083249621 0.0069746152 -0.036737394 4285755419
0.010081865 0.0078265667 -0.037709877 4285623329
0.012381613 0.0056767613 -0.035994474 4285623329
0.014837325 0.0027776286 -0.033610217 4285623583
0.017029766 0.001380004 -0.032571055 4285755418
0.018942717 0.001483053 -0.032874454 4285624349
0.020707835 0.0023360625 -0.033847831 4285624860
0.022317031 0.0039385408 -0.035489812 4285559324
0.024375143 0.0032919794 -0.035122484 4285493533
0.026594589 0.0018963888 -0.034087155 4285493278
0.029300712 -0.0017462 -0.031048503 4285426979
0.031872466 -0.0046381205 -0.028681904 4285492513
0.035121888 -0.010524519 -0.023648798 4285360678
0.039581567 -0.021650158 -0.013953094 4285229099
0.045477554 -0.038760506 0.0010627825 4285229099
-0.00073203444 -0.023893625 -0.010178302 4285163053
0.00068449602 -0.020019002 -0.013863088 4285229099
0.0018381029 -0.014638528 -0.018889662 4285228843
0.0028333031 -0.0085064694 -0.024582844 4285294888
0.003785409 -0.0023766086 -0.030269094 4285426469
0.0048205405 0.0029978901 -0.035276566 4285427489
0.0062044002 0.0061115101 -0.038263835 4285624604
0.0078297444 0.0077183917 -0.039905705 4285887509
0.0095785633 0.0085720569 -0.040875241 4285821463
0.011732742 0.0071678236 -0.039833531 4285755928
0.014037333 0.0050119385 -0.038123824 4285887508
0.016500451 0.0021047071 -0.035747338 4285756183
0.018695161 0.00070306659 -0.034711823 4285558813
0.020900682 -0.00069793314 -0.033677898 4285559068
0.022816204 -0.00059451908 -0.033981524 4285493533
0.025191013 -0.0027460977 -0.032282464 4285559068
0.027737778 -0.0056481734 -0.02991882 4285493278
0.030306123 -0.0085489973 -0.027558453 4285426214
0.032734845 -0.010697298 -0.02586766 4285360678
0.035671376 -0.015097909 -0.022181887 4285295143
0.039972916 -0.025504373 -0.013178007 4285294889
0.0006952025 -0.022360571 -0.014400923 4285229099
0.0020881072 -0.018476337 -0.01807351 4285229099
0.0033335462 -0.013837807 -0.022412729 4285360678
0.00417687 -0.0069345087 -0.028758494 4285426469
0.0049716942 -3.3691525e-05 -0.035096467 4285426978
0.0061040334 0.0045991465 -0.039417438 4285493279
0.0075981617 0.0069653615 -0.041725285 4285558813
0.0093442798 0.0078210309 -0.042692713 4285624348
0.011221796 0.0079218149 -0.042990766 4285690138
0.013657186 0.0050043836 -0.04061665 4285624604
0.016114183 0.0020882115 -0.038245872 4285558813
0.018592771 -0.00082663447 -0.035878476 4285558813
0.020945411 -0.0029860958 -0.034181099 4285624603
0.023314241 -0.0051445588 -0.032486182 4285624348
0.025699243 -0.0073020086 -0.030793799 4285558049
0.028256083 -0.010212176 -0.028438378 4285492513
0.030676147 -0.012367532 -0.026751321 4285492004
0.033112373 -0.014521874 -0.025066715 4285360934
0.035892233 -0.018181749 -0.022056248 4285360679
0.04019697 -0.028618172 -0.01307625 4285360424
0.00082069635 -0.025464259 -0.014271577 4285359914
0.0023372918 -0.022326842 -0.017266966 4285426213
0.0038324036 -0.019190423 -0.02025884 4285492259
0.0049366057 -0.013782226 -0.025254004 4285229354
0.0054997951 -0.0053460151 -0.032917183 4285294633
0.0062607527 0.0015724823 -0.039234646 4285361188
0.0074981116 0.0054597706 -0.042873695 4285427233
0.0092442259 0.0063175932 -0.043839462 4285559324
0.011258215 0.0056614876 -0.043470703 4285493278
0.013556268 0.0034922734 -0.041769944 4285427489
0.016296566 -0.00094570965 -0.038073856 4285426978
0.018924538 -0.0046254098 -0.035048343 4285426723
0.021432096 -0.0075472221 -0.032692079 4285557793
0.023661017 -0.0089553967 -0.031668492 4285623583
0.026053544 -0.011118941 -0.029982265 4285557538
0.028462239 -0.013281457 -0.028298493 4285557539
0.030728906 -0.01468724 -0.027280606 4285426468
0.033006348 -0.016092353 -0.026264288 4285360678
0.035948921 -0.020518459 -0.022599515 4285295144
0.040420443 -0.031740256 -0.012980891 4285294889
0.0023504682 -0.024669848 -0.017806411 4285425959
0.0038486868 -0.021524683 -0.020792115 4285295143
0.0054483935 -0.01914034 -0.023106977 4285294888
0.0064035505 -0.012958564 -0.028753549 4285229098
0.0070588477 -0.0052600056 -0.035726015 4285294633
0.007922411 0.00091712922 -0.041357838 4285426978
0.0096793063 0.0017776713 -0.042323653 4285427999
0.011703797 0.0011199713 -0.041958228 4285559323
0.01415123 -0.0018140525 -0.0395994 4285624858
0.016762134 -0.0055055395 -0.036579613 4285558303
0.019400023 -0.009195447 -0.033564001 4285426214
0.021770382 -0.011366874 -0.031879455 4285426214
0.024006952 -0.012778945 -0.03086042 4285557538
0.026254326 -0.014190353 -0.029842962 4285491748
0.02851247 -0.015601017 -0.028827161 4285492004
0.030781388 -0.017010979 -0.027812965 4285426469
0.033382583 -0.01993572 -0.025477745 4285360679
0.036659118 -0.025889553 -0.020502329 4285294888
0.0057130903 -0.02299583 -0.022307493 4285228844
0.0070539527 -0.019081734 -0.025946472 4285228843
0.0075984746 -0.010599121 -0.033569831 4285294889
0.0084765218 -0.0044040009 -0.03919059 4285360679
0.009979628 -0.0020178556 -0.041484766 4285295143
0.012284584 -0.0041997358 -0.039795227 4285426469
0.014744774 -0.0071416721 -0.037445087 4285360678
0.017368294 -0.01084324 -0.034435652 4285360423
0.019729953 -0.013021722 -0.032754838 4285360679
0.022254933 -0.015959799 -0.030414697 4285360934
0.024202224 -0.015854679 -0.030723359 4285491749
0.026607048 -0.018030398 -0.029049132 4285492259
0.028717635 -0.018684752 -0.028698362 4285426724
0.031465229 -0.022378884 -0.025708027 4285426469
0.034239784 -0.026071489 -0.022721825 4285294889
0.037857778 -0.033561207 -0.016443668 4285097518
0.0073264763 -0.022938721 -0.025149647 4285229099
0.0082647912 -0.016723312 -0.030766744 4285294888
