# .PCD v0.7 - Point Cloud Data file format
VERSION 0.7
FIELDS x y z rgba
SIZE 4 4 4 4
TYPE F F F U
COUNT 1 1 1 1
WIDTH 649
HEIGHT 1
VIEWPOINT 0 0 0 1 0 0 0
POINTS 649
DATA ascii
-0.0058877505 -0.0070573986 0.051367804 4288619324
-0.0031818114 -0.0096940696 0.053712286 4286854723
-0.011853982 -0.001382947 0.04330755 4286528323
-0.010133822 0.00018158555 0.04137212 4289013553
-0.0081073977 0.00034105778 0.040866725 4289733673
-0.0054368116 -0.0023072585 0.043213494 4289733674
-0.0022539981 -0.0070590377 0.04769215 4289865508
0.0011323355 -0.012509376 0.052873328 4290322213
-0.013082523 0.0018456653 0.037107907 4288883249
-0.011380594 0.0034131259 0.035180219 4289145134
-0.0095309354 0.0042755306 0.033967286 4289080364
-0.0070432536 0.0023208186 0.035601623 4289014828
-0.0040492453 -0.001744464 0.039364405 4289472808
-0.00085725263 -0.0065109432 0.043829501 4288884014
0.0018658526 -0.009163633 0.046156906 4288817968
0.0044389255 -0.011111155 0.047770217 4289145134
0.0070280582 -0.013057336 0.049379647 4286594369
-0.016002174 0.0035345256 0.032852985 4289275948
-0.014308099 0.0051057041 0.030930372 4289865254
-0.012779679 0.0073829368 0.028299244 4290585373
-0.010951091 0.008245796 0.027093204 4289342503
-0.0086458959 0.0069891587 0.028018178 4289538853
-0.0055138431 0.0022024065 0.032486774 4290323998
-0.0026763119 -0.0011693016 0.03552898 4289866019
-0.0001491569 -0.0031271949 0.037148774 4289473574
0.0020517446 -0.00367257 0.037350133 4289276968
0.0044319071 -0.0049228221 0.038256846 4289276458
0.0069992729 -0.0068772584 0.039866902 4288949038
0.010478105 -0.012355037 0.044999391 4288752689
-0.018304233 0.002409488 0.0314539 4288360499
-0.016607452 0.0039851516 0.029533746 4289210923
-0.014768589 0.0048507974 0.028326595 4289604134
-0.013400037 0.0078432932 0.02499182 4289800739
-0.011579309 0.0087077245 0.023789341 4289146408
-0.0092825778 0.0074459687 0.02471316 4289669668
-0.0061600469 0.0026430264 0.029172761 4290323999
-0.0036629178 0.00067594647 0.030795095 4289277223
-0.0014863349 0.00012631714 0.031000813 4289408293
0.00018287078 0.0017006248 0.029088149 4289931809
0.0023624264 0.0011513978 0.029293315 4290192928
0.0048999041 -0.00081199408 0.030905878 4289472808
0.0081689544 -0.0056027472 0.035329431 4289406763
0.011656735 -0.011097357 0.040446803 4289995303
0.014818665 -0.015175037 0.044148944 4289929259
-0.020600062 0.0012898818 0.03005681 4289145133
-0.018900555 0.0028699487 0.028139146 4289145644
-0.016912248 0.0030259714 0.02764293 4289669923
-0.015228171 0.0046050474 0.025729282 4289408549
-0.013709348 0.0068947151 0.023110187 4289342759
-0.01173367 0.0070500448 0.022617349 4288950058
-0.009597633 0.0064946637 0.022831285 4289081128
-0.0069677345 0.0038078651 0.025162252 4289866274
-0.0048128404 0.0032541677 0.025371635 4289604644
-0.00248437 0.0019907579 0.026284559 4289474084
-0.00099885091 0.0042784438 0.023674229 4289997344
0.00064434484 0.0058551505 0.021771407 4289866019
0.0026291572 0.0060119554 0.021276833 4288754219
0.0055075027 0.0026219264 0.02429303 4289473318
0.0089564286 -0.0028933957 0.02940709 4289930788
0.012079891 -0.0069873855 0.033109061 4289473575
0.014675405 -0.0089523643 0.034702629 4289211434
0.016908403 -0.0094989091 0.034893349 4289342759
-0.022748221 -0.00053893775 0.029371588 4286790208
-0.021331493 0.0024744496 0.026037456 4289864743
-0.019348819 0.0026298836 0.02554254 4289604134
-0.017067205 0.0013576522 0.026463291 4290978074
-0.015230823 0.0022274405 0.025259944 4290520604
-0.01339953 0.0030969158 0.024057934 4289800738
-0.011416052 0.0032528266 0.023563126 4289539108
-0.0094323643 0.0034088865 0.023068352 4289343014
-0.007285919 0.0028521791 0.023278119 4289604388
-0.0054644607 0.0037213191 0.022078888 4289604388
-0.0033123828 0.0031652898 0.022287415 4289408294
-0.0020074807 0.0061709806 0.018981906 4290324509
-0.00055042654 0.008463107 0.01638359 4290585629
0.0014183819 0.0086186081 0.015892992 4289538853
0.0041011982 0.0059278086 0.01820475 4289146408
0.0073486902 0.0011045709 0.022611035 4290323999
0.0097145438 -0.00015961379 0.02351181 4289669668
0.011904705 -0.00071185082 0.023711434 4289147174
-0.024032991 0.003522642 0.022523085 4288818478
-0.022348996 0.0051101819 0.020615606 4289603624
-0.020382296 0.0052643344 0.020124661 4288950313
-0.018117052 0.0039863363 0.021046279 4290193184
-0.015841048 0.0027093515 0.021965252 4290193438
-0.013554256 0.0014332309 0.022881636 4290062624
-0.011413809 0.00087362528 0.023091102 4289343014
-0.0097470917 0.0024604425 0.021188414 4289539364
-0.0080907829 0.0040464923 0.019288423 4289604388
-0.0062798522 0.0049169734 0.018093402 4289408038
-0.004138682 0.0043578595 0.01830302 4289538853
-0.0025030263 0.0059426054 0.016408425 4289866018
-0.0010507591 0.0082409233 0.013816141 4290062113
0.00091261789 0.0083959848 0.013326878 4288753963
0.0034109205 0.0064096674 0.014934704 4289473574
0.0059252419 0.0044247732 0.016538562 4289670179
0.0079049058 0.0045814738 0.016045503 4289149213
-0.027857352 0.00012116879 0.023753827 4287247423
-0.026434395 0.0031524226 0.020430842 4289145643
-0.024891328 0.0054631457 0.017819867 4289734694
-0.023076568 0.0063353255 0.016624844 4289081129
-0.021266889 0.0072071478 0.015431195 4288950314
-0.018717501 0.0044869483 0.017762341 4289604643
-0.016298357 0.0024866983 0.01938423 4290520603
-0.013708908 -0.00023012608 0.021705544 4289932064
-0.011882592 0.00064343959 0.020507997 4289539364
-0.010380406 0.002951704 0.017907765 4289474084
-0.0087317638 0.0045415685 0.016012859 4289735458
-0.0065990277 0.0039793923 0.0162229 4289473574
-0.0044608451 0.0034177974 0.016431613 4289408038
-0.0028275587 0.0050067976 0.014540784 4289408038
-0.0012046881 0.0065950453 0.012652686 4289669668
0.0011093616 0.0053175762 0.013559617 4289146409
0.003078036 0.0054731444 0.013069103 4289342503
0.0050468594 0.0056288317 0.012578627 4290653714
-0.02868833 0.002070792 0.019048905 4288622129
-0.027139712 0.0043884739 0.016441254 4289669925
-0.025465917 0.0059838071 0.014542721 4290258209
-0.023945924 0.0082994327 0.011942364 4290193184
-0.022003282 0.0084516481 0.011457371 4289669668
-0.019614149 0.0064422786 0.013081795 4290585884
-0.016906191 0.0029935911 0.016107183 4289997344
-0.014633704 0.0017075166 0.017020635 4289539363
-0.01266383 0.0018622503 0.016529137 4289735714
-0.011171747 0.0041763261 0.013936209 4289604643
-0.0093714111 0.0050502047 0.012746958 4290585629
-0.0072469674 0.0044852123 0.012957381 4289931554
-0.0049498044 0.0032016411 0.013865013 4290847259
-0.0029817112 0.0033568069 0.013374383 4289996833
-0.001013454 0.0035121068 0.012883795 4289800483
0.00095492601 0.0036674961 0.012393242 4290062114
0.0027456246 0.0045412928 0.011206882 4289669923
-0.029111195 0.0018714443 0.016474439 4288165425
-0.027567375 0.0041953102 0.013872819 4288753709
-0.025757942 0.00507126 0.012682281 4289538600
-0.024240118 0.0073932707 0.010087293 4289800228
-0.022154335 0.0068222508 0.010305172 4289081129
-0.019914497 0.0055289492 0.011223339 4290127648
-0.017663907 0.0042366609 0.012138858 4289866273
-0.015556369 0.0036676601 0.012351546 4289735969
-0.013756324 0.0045434758 0.011163799 4289539620
-0.011961374 0.0054190084 0.0099774152 4289473828
-0.010333318 0.007015951 0.0080941208 4289211943
-0.0080580153 0.0057261437 0.0090038832 4288819498
-0.0054378696 0.0029946193 0.011304941 4290258463
-0.0031358115 0.0017071143 0.012208181 4289866019
-0.001167696 0.0018623695 0.011717606 4289669925
0.00045058504 0.0034591183 0.0098371711 4289800994
0.0018807836 0.0057756826 0.0072650891 4290980624
-0.028992657 -0.0012227818 0.016719572 4287707189
-0.027443055 0.0011080876 0.014121339 4288557614
-0.025909085 0.0034378245 0.011527136 4288884778
-0.024390776 0.0057664514 0.0089368559 4289211689
-0.02245101 0.0059183612 0.008452531 4289473574
-0.020362709 0.0053453967 0.0086682104 4289866019
-0.018268917 0.0047729537 0.0088826548 4289997088
-0.016630549 0.0063748136 0.0069997367 4289539363
-0.01453374 0.0058028623 0.0072135311 4289408548
-0.013067123 0.0081280172 0.0046366733 4290062368
-0.011616211 0.010452121 0.0020637689 4288557868
-0.0095241778 0.0098801032 0.0022790013 4288819498
-0.0065924414 0.0056909174 0.0059698466 4289081129
-0.0034593306 0.00078108162 0.010347502 4290193438
-0.0013218708 0.00021297485 0.010551643 4289866273
-0.00022767112 0.0039828643 0.0065941606 4289671198
-0.028874848 -0.0043256208 0.016958682 4287706169
-0.027319495 -0.0019877329 0.014363829 4287903283
-0.025779758 0.00034905225 0.011772968 4288165679
-0.023969959 0.0012294278 0.010585589 4288492333
-0.022310738 0.0028369427 0.0087004844 4288623404
-0.0203656 0.0029893517 0.0082148872 4288950313
-0.018571083 0.0038689151 0.0070315097 4289081128
-0.016781647 0.0047481284 0.0058495328 4289342759
-0.015153367 0.0063536242 0.003972467 4289866019
-0.013852913 0.0094111934 0.00070648547 4289996833
-0.012412097 0.011741072 -0.0018590624 4289931554
-0.010166977 0.010439992 -0.00094824564 4289277224
-0.0072445534 0.0062368885 0.0027351594 4289670179
-0.0042902492 0.002036415 0.0064106975 4289932318
-0.0025075786 0.002915889 0.0052309837 4290588688
-0.028892551 -0.0067065582 0.016491521 4287903540
-0.02705932 -0.0058223531 0.015299747 4287837748
-0.025371168 -0.0042083859 0.013410436 4288230704
-0.023693364 -0.0025951639 0.011523828 4288165168
-0.022025947 -0.00098260492 0.0096398517 4288950314
-0.020220947 -0.00010020286 0.008455433 4288623149
-0.018571619 0.0015111119 0.0065761767 4288622893
-0.016779494 0.0023927614 0.005395066 4288885034
-0.015148278 0.0040028766 0.0035204999 4289015849
-0.014002983 0.0077980682 -0.00043406431 4289473574
-0.012561683 0.01013454 -0.0029949052 4289538853
-0.010644693 0.010285363 -0.0034730295 4288884778
-0.0080618002 0.0075244308 -0.0011821492 4289539618
-0.0054576136 0.004765287 0.0011034962 4289344289
-0.028776061 -0.0098242536 0.016720014 4287705913
-0.026937466 -0.0089374855 0.015528489 4287902773
-0.025103945 -0.0080510005 0.014338307 4288165168
-0.023275498 -0.0071648061 0.013149472 4288099633
-0.021597225 -0.0055470318 0.011265989 4289015083
-0.019781593 -0.0046616197 0.010080514 4288426544
-0.01842216 -0.0015822127 0.0068124756 4288295729
-0.016624633 -0.00069800764 0.0056316759 4288295729
-0.015299197 0.0023789629 0.0023722854 4288164914
-0.013678122 0.0039928034 0.00050349534 4288950314
-0.012228381 0.0063364878 -0.00205456 4288754219
-0.010303605 0.0064878985 -0.0025346475 4289277734
-0.0083786733 0.0066394284 -0.0030146902 4289344289
-0.028526012 -0.013685443 0.017639495 4287444028
-0.026953321 -0.011326484 0.01505482 4287836984
-0.025117088 -0.010437615 0.013865558 4287903284
-0.023285922 -0.0095490441 0.012677636 4288099379
-0.021604735 -0.0079266801 0.010796644 4288688429
-0.019933905 -0.0063050389 0.0089183729 4288230449
-0.018423613 -0.0039504394 0.0063496698 4288230194
-0.016623382 -0.0030638501 0.005169794 4288295473
-0.014983702 -0.0014443398 0.0032995306 4288033843
-0.013354424 0.0001745224 0.0014319103 4288099633
-0.01173554 0.001792632 -0.00043299049 4288558124
-0.010453839 0.00487528 -0.0036747642 4289081638
-0.008861091 0.006491594 -0.0055330317 4288625699
-0.026559297 -0.015930332 0.016662624 4287444283
-0.024991188 -0.013565056 0.014084011 4287706679
-0.023296688 -0.011937425 0.012202874 4288230194
-0.021757256 -0.0095741823 0.0096315611 4288688174
-0.01993883 -0.0086842105 0.0084485877 4288295728
-0.018275458 -0.0070586875 0.0065754633 4288230449
-0.016469885 -0.0061694607 0.0053958129 4288164913
-0.01497988 -0.0038096979 0.0028372165 4288099634
-0.013189781 -0.0029215142 0.0016616266 4288164914
-0.011565354 -0.0012985393 -0.00020147488 4288427053
-0.010277685 0.0017933547 -0.0034382883 4288886053
-0.008845184 0.0041490421 -0.0059822141 4288168228
-0.023307819 -0.014329918 0.011725189 4286921788
-0.021620777 -0.01269839 0.0098492093 4288230448
-0.01994412 -0.011067502 0.0079758707 4287838004
-0.018277828 -0.0094373748 0.0061052423 4288034609
-0.016621921 -0.0078078881 0.0042372569 4287969074
-0.014666338 -0.0076544806 0.003749175 4288230704
-0.013183605 -0.0052886084 0.0011973111 4288231214
-0.011395935 -0.0043983236 2.4009496e-05 4288100654
-0.010102283 -0.0012971833 -0.0032078288 4288885544
-0.0086640157 0.0010655895 -0.0057483949 4287841318
-0.019509036 -0.015676431 0.0095673297 4287118905
-0.018130999 -0.01256045 0.0063204598 4287642673
-0.01662172 -0.010186173 0.0037666317 4288165933
-0.014818478 -0.0092926547 0.0025908491 4288100399
-0.01286285 -0.009139128 0.002102836 4288296749
-0.011227291 -0.0075065866 0.00024342816 4288231469
-0.0096021481 -0.0058747455 -0.001613305 4288624168
-0.0084836371 -0.0020264164 -0.0055206236 4288234019
-0.015279789 -0.0094463676 6.1771832e-05 4287054133
-0.013329592 -0.0092933029 -0.00042491127 4287970094
-0.011379238 -0.0091400817 -0.00091152731 4288689449
-0.009753827 -0.0075038597 -0.0027651088 4288165934
-0.011690844 -0.010029428 -0.0027488777 4288035884
-0.0099054463 -0.0091326535 -0.0039167004 4288166188
-0.018432964 -0.013464652 0.0044692326 4283591233
-0.018883597 -0.013619371 0.0019361218 4282676548
-0.017684851 -0.0097434521 -0.0019754777 4282742594
-0.019333359 -0.01376491 -0.00059056748 4281761098
-0.018290576 -0.0091316551 -0.0051760087 4281565258
-0.016354036 -0.0089798048 -0.0056593837 4281761353
-0.014260482 -0.0095741153 -0.0054610269 4281630794
-0.012320969 -0.0094217882 -0.0059449645 4282415684
-0.010543454 -0.0085234642 -0.0071092332 4283593274
-0.019484807 -0.015399612 -0.0017465595 4281826123
-0.01828957 -0.011502035 -0.0056411447 4281369164
-0.016350526 -0.011349998 -0.006125153 4281499979
-0.014411319 -0.011197828 -0.0066091167 4281630793
-0.012631241 -0.010297231 -0.0077725025 4281827144
-0.010856304 -0.0093969405 -0.0089345211 4281892934
-0.0090864934 -0.0084968582 -0.010095202 4283136568
-0.0074890368 -0.0068494454 -0.011931968 4284247604
-0.01963621 -0.017034017 -0.0029023457 4281761353
-0.018440064 -0.013125375 -0.0067890747 4281434699
-0.01650117 -0.012973376 -0.0072730645 4281434698
-0.014718544 -0.012070522 -0.0084355669 4281369673
-0.012941044 -0.011167951 -0.0095966952 4281696838
-0.011330415 -0.0095153153 -0.011433744 4281631304
-0.0094014667 -0.0093636215 -0.011914902 4281698113
-0.0079733916 -0.0069621354 -0.014423785 4281959744
-0.0060520805 -0.0068107918 -0.01490285 4282286144
-0.0041306354 -0.0066593289 -0.015381866 4283266874
-0.019935858 -0.017914556 -0.004736891 4281694798
-0.018288616 -0.016255185 -0.0065801567 4281565259
-0.016498182 -0.015349604 -0.0077431328 4281565513
-0.014712844 -0.014444351 -0.0089046936 4281369418
-0.01293264 -0.013539389 -0.010064901 4281565513
-0.011319105 -0.011882149 -0.011899439 4281696583
-0.0093876459 -0.011730276 -0.012381249 4281566789
-0.0077896602 -0.010074072 -0.014211704 4281697094
-0.0062021054 -0.0084185377 -0.016039453 4281828163
-0.0044529177 -0.0075153783 -0.017191529 4282024769
-0.0023593791 -0.0081155226 -0.016997378 4283006518
-0.00026045367 -0.0087150708 -0.016804524 4284118318
-0.020235065 -0.018790372 -0.0065680984 4281694034
-0.018439446 -0.017882355 -0.0077308025 4281629774
-0.016648937 -0.016974606 -0.0088921916 4281565003
-0.014863547 -0.016067162 -0.010052161 4281630539
-0.013083283 -0.015160032 -0.011210794 4281565514
-0.011308145 -0.014253139 -0.012368021 4281565513
-0.0095381476 -0.013346516 -0.013523941 4281631559
-0.0077733137 -0.012440227 -0.014678457 4281566279
-0.0063520856 -0.010025993 -0.017175853 4281696838
-0.0046028309 -0.0091206431 -0.018326335 4281696584
-0.002684202 -0.008969292 -0.018804576 4281762374
-0.00058826804 -0.0095713437 -0.018612571 4281828418
0.0016928799 -0.010926045 -0.017752342 4282417469
0.0038022362 -0.011526726 -0.017563526 4283136313
0.0057318918 -0.011374012 -0.018044148 4284181559
-0.016952846 -0.017841764 -0.010715583 4282280279
-0.015014198 -0.017689683 -0.011199443 4282216274
-0.01339234 -0.016023219 -0.013029682 4281629264
-0.011458669 -0.015871301 -0.013512125 4281434188
-0.01001614 -0.013449028 -0.016010242 4281631559
-0.0079237111 -0.014053978 -0.015819361 4281632068
-0.0065020211 -0.011633158 -0.018312044 4281696839
-0.0047527216 -0.010725625 -0.019460943 4281566533
-0.0030085482 -0.0098183826 -0.020608399 4281697859
-0.00073864311 -0.011178546 -0.019748654 4281567554
0.00136232 -0.011782221 -0.019559473 4281829184
0.0038331747 -0.013895877 -0.018036967 4282350913
0.0059502199 -0.014498085 -0.017851559 4282418488
0.0076975599 -0.013589941 -0.018999403 4284117299
0.0092495345 -0.011927471 -0.020811114 4284377144
-0.013859231 -0.016122282 -0.015516927 4282019669
-0.011930991 -0.015970819 -0.015998034 4281889618
-0.010329705 -0.014301337 -0.017819738 4281630028
-0.0082402863 -0.014908738 -0.017629741 4281762119
-0.0066519268 -0.013240032 -0.019448044 4281566533
-0.0049025603 -0.012330279 -0.020595327 4281371204
-0.0029842369 -0.01217898 -0.021073513 4281436738
-0.0010657795 -0.012027547 -0.021551639 4281632579
0.0013910122 -0.014149055 -0.020030519 4281697348
0.0038637444 -0.016269222 -0.018513298 4282024513
0.006537132 -0.019145228 -0.016334893 4281830458
0.0088570975 -0.020505287 -0.015490515 4283004733
0.018210217 -0.018218748 -0.019240377 4284573238
-0.008556392 -0.01575876 -0.019436779 4281757274
-0.0066331662 -0.01560732 -0.019916365 4281500488
-0.0045385621 -0.016216278 -0.019729117 4281631558
-0.0027863421 -0.015304051 -0.020875366 4281501509
-0.001039315 -0.014392115 -0.022020254 4281762884
0.0010609441 -0.015000232 -0.021834113 4281696073
0.0038939379 -0.018646605 -0.018992567 4282154054
0.0065689795 -0.021531291 -0.01682104 4282350149
0.0088910125 -0.022895552 -0.015980417 4282414919
0.010844175 -0.022740759 -0.016466727 4283067464
0.01260503 -0.021826945 -0.017614475 4283200573
-0.0069516189 -0.016452871 -0.021719398 4282477394
-0.0048599951 -0.017064266 -0.021533014 4282282574
-0.0029366724 -0.016912572 -0.022012448 4281826633
-0.001365941 -0.015236065 -0.023819679 4281892424
0.0010892861 -0.017370909 -0.022307882 4281827144
0.00374211 -0.020266257 -0.020137364 4282219078
0.006231904 -0.022398092 -0.018633978 4282545224
0.0085507147 -0.023767002 -0.017795781 4283131979
0.00075970218 -0.018217064 -0.024107935 4282151759
0.0035903193 -0.021885566 -0.021281937 4282740553
0.01515105 0.0024486557 0.019923227 4285360424
0.017535914 0.0011863858 0.020819658 4285426979
0.021310452 -0.0050458685 0.026585227 4285294888
0.011109225 0.0077471808 0.012274032 4285623839
0.012504186 0.010041721 0.0096966624 4285886233
0.01485407 0.0087723061 0.010598503 4285951258
0.018198583 0.0039420202 0.014969781 4286016793
0.022577435 -0.0044459179 0.022800511 4285951513
0.026413664 -0.010692872 0.028536322 4285492004
0.0086128898 0.0073714107 0.010206951 4285623328
0.0098222308 0.010387897 0.0069387518 4285820954
0.011201784 0.012687854 0.004370017 4285623329
0.013341296 0.012127452 0.004579274 4285558049
0.016469106 0.0079947487 0.0082513504 4285689375
0.019827977 0.0031503215 0.012607744 4285689374
0.023022156 -0.00097689778 0.016263532 4285558303
0.025839116 -0.0036735609 0.018529754 4285426979
0.029091667 -0.0077958629 0.022171153 4285098284
0.0053958669 0.0098772272 0.0053655095 4285557538
0.0069720559 0.011466771 0.0034926385 4285689628
0.0085377842 0.013055556 0.0016224971 4286018068
0.0099019371 0.015360877 -0.0009375615 4285820953
0.012218934 0.01408001 -3.4033321e-05 4285755164
0.014939368 0.011366494 0.0022494616 4285821208
0.018278129 0.0065050274 0.0065995678 4285755929
0.020847365 0.0045121238 0.0081807524 4285558813
0.023432557 0.0025206432 0.0097579956 4285493278
0.025619783 0.0019624606 0.0099541396 4285427489
0.027393159 0.0028362945 0.0087731332 4285361698
0.03001032 0.00084768981 0.010342751 4285557029
0.033503018 -0.0040007606 0.014655054 4285491238
0.0031149611 0.0088113621 0.0040033776 4285491238
0.0045110285 0.011125393 0.0014400044 4285624350
0.0062624738 0.011998646 0.00026523788 4285624093
0.0078205429 0.013591215 -0.001599771 4285820953
0.0097498633 0.013744205 -0.0020800931 4285820954
0.012066301 0.012458883 -0.0011796681 4285820953
0.014589593 0.010455489 0.00040790718 4285755418
0.01732767 0.0077346712 0.0026806081 4285558558
0.01968408 0.0064528659 0.0035713315 4285558558
0.021847073 0.0058903918 0.0037718453 4285624604
0.023395162 0.0074830279 0.0019098828 4285558558
0.024723336 0.0097928345 -0.00063573848 4285820698
0.026883859 0.0092305616 -0.00043439027 4285820443
0.030123185 0.0050811321 0.0031911097 4285885723
0.034915708 -0.004086934 0.011599798 4285885723
0.039117135 -0.011098035 0.017940132 4285426214
0.0018817745 0.011516742 -0.0013008816 4285623583
0.0034451783 0.013113886 -0.0031641601 4285624094
0.0051834732 0.013988286 -0.0043340391 4285689374
0.0074806325 0.012696736 -0.0034321984 4285623839
0.0094071589 0.012849502 -0.0039118333 4285623839
0.0117204 0.011559509 -0.0030138595 4285558303
0.01404433 0.010270439 -0.0021184226 4285558559
0.016577527 0.0082613751 -0.00053814333 4285558558
0.018724199 0.0076952428 -0.00033529755 4285558558
0.020672344 0.0078503266 -0.00081986468 4285690139
0.022000935 0.01016669 -0.0033608628 4285755419
0.023104522 0.013202101 -0.0065826541 4285558048
0.02503432 0.013356045 -0.0070624193 4285623584
0.028036579 0.0099113584 -0.0041245138 4285623584
0.032151002 0.0028711781 0.0022211671 4285623584
0.036098629 -0.0034453049 0.0078715794 4285558559
0.040761225 -0.011915237 0.015554881 4285493024
-0.00019821897 0.0097483844 -0.0019625658 4285623838
0.0010108911 0.012799658 -0.0052051106 4285951513
0.0029289983 0.012951374 -0.0056829182 4285952278
0.0048472248 0.013103224 -0.0061606681 4285952789
0.0071411878 0.011807017 -0.0052612787 4285689884
0.0092553832 0.011235692 -0.005052357 4285558558
0.011761151 0.0092175677 -0.003470297 4285624349
0.013891429 0.0086477026 -0.0032651676 4285558813
0.016027074 0.0080784112 -0.0030613458 4285559069
0.017766017 0.0089557245 -0.0042292094 4285558814
0.019499745 0.0098327771 -0.0053957393 4285624348
0.020815592 0.012154676 -0.007928676 4285952789
0.022115611 0.014475487 -0.010457623 4285820698
0.024246309 0.013906412 -0.01025211 4285623584
0.027025159 0.011171937 -0.0080019934 4285755163
0.030692909 0.0055522472 -0.0030318685 4285755674
0.034403048 -6.3963234e-05 0.0019277968 4285558814
0.039266631 -0.0092833266 0.010276914 4285493023
-0.0024521165 0.0087078437 -0.0033142874 4285556774
-0.0012345202 0.01176846 -0.0065525724 4285558303
0.00014169142 0.014100596 -0.009096601 4285623838
0.0020490922 0.014251448 -0.0095717525 4285623583
0.0043265074 0.012949407 -0.0086715696 4285821209
0.0068022013 0.010922067 -0.0070870509 4285755419
0.0091036446 0.0096221641 -0.0061926758 4285624349
0.011415761 0.0083232597 -0.00530092 4285624604
0.013347495 0.0084766373 -0.0057816985 4285559068
0.01547749 0.007904686 -0.005578089 4285624603
0.017010387 0.0095090047 -0.0074267192 4285558558
0.01873624 0.010387577 -0.0085896319 4285558558
0.020250741 0.011990704 -0.010433561 4285755419
0.021545965 0.014317676 -0.012956428 4285755673
0.023671012 0.013745941 -0.012751139 4285821464
0.026443582 0.011002161 -0.010505925 4285821209
0.030104209 0.0053642914 -0.0055469866 4285689884
0.034026574 -0.00099383295 8.0566853e-05 4285493023
0.039328624 -0.011689328 0.009766819 4285427488
-0.0048713796 0.0084024444 -0.0053533646 4285558048
-0.0034737624 0.010742567 -0.0078980168 4285624603
-0.002268713 0.01381097 -0.011126718 4285821209
-0.00054631382 0.014690399 -0.012287942 4285558559
0.0013529956 0.014840603 -0.012761093 4285558558
0.0041761398 0.011347316 -0.0098039014 4285755929
0.0066510662 0.0093133152 -0.0082240505 4285821718
0.0091419853 0.0072806552 -0.0066480557 4285624348
0.011070836 0.0074336827 -0.0071282047 4285624349
0.012804445 0.0083146766 -0.0082917288 4285689884
0.01433488 0.0099231079 -0.010136644 4285689629
0.016256049 0.010075882 -0.01061461 4285755164
0.01797403 0.010956019 -0.011773965 4285689373
0.019892689 0.011108823 -0.012251141 4285623838
0.021185752 0.013442218 -0.014768618 4285623839
0.023518994 0.012141444 -0.013884737 4285558558
0.026504423 0.0086623803 -0.010966952 4285558814
0.030598862 0.0015546009 -0.0046648644 4285493279
0.034746263 -0.0055488124 0.0016241623 4285493023
0.040055603 -0.016276769 0.011284368 4285164074
-0.0072787516 0.0081071854 -0.0073885671 4285359914
-0.0057068504 0.009722054 -0.0092414105 4285492768
-0.0041453876 0.011336252 -0.011091623 4285558813
-0.0029475801 0.014412858 -0.014312063 4285953299
-0.0012330525 0.015293829 -0.015469727 4285821719
0.00084007159 0.014712237 -0.015255735 4285755929
0.0038412884 0.010476477 -0.011620495 4285821719
0.0063128062 0.008435607 -0.010044652 4285624348
0.0088003017 0.0063960478 -0.008472681 4285624349
0.010533899 0.0072791427 -0.0096346512 4285689883
0.012067154 0.0088920593 -0.011477138 4285689883
0.013392169 0.011234082 -0.013998087 4286018069
0.015503008 0.01065632 -0.013792868 4285952534
0.017619226 0.010079123 -0.013588886 4286083859
0.019946493 0.0087731928 -0.012706949 4285820954
0.021659371 0.0096553564 -0.013863239 4285689373
0.024 0.0083507225 -0.012984387 4285558558
0.027205817 0.0041325986 -0.009399116 4285493279
0.031308584 -0.0029965192 -0.0031152815 4285427743
0.035902195 -0.011577673 0.0045073908 4285295654
-0.0074283816 0.0065036789 -0.0085221659 4285556773
-0.0060273223 0.0088571683 -0.011058121 4285426723
-0.0044682212 0.010475524 -0.012904474 4285493278
-0.0032723583 0.013560764 -0.016117958 4285558814
-0.0012023412 0.012976587 -0.015904915 4285493023
0.00069139525 0.013126321 -0.016376693 4285558814
0.0035068877 0.0096104145 -0.013433791 4285493023
0.0057880282 0.0082955435 -0.012544188 4285558814
0.008269459 0.0062489659 -0.010975588 4285558813
0.0098055564 0.0078663379 -0.012815601 4285690139
0.011331167 0.0094829798 -0.014652914 4285755418
0.012451157 0.012563139 -0.017846823 4285623583
0.014551062 0.011982314 -0.017640498 4285623584
0.017062038 0.0099386424 -0.016078766 4285886743
0.019588936 0.0078963861 -0.014520953 4285755673
0.02192365 0.0065867454 -0.013643973 4285624093
0.024479773 0.004547067 -0.012093242 4285493278
0.028332416 -0.0018762425 -0.0064922278 4285361699
0.032448806 -0.0090262666 -0.00022795144 4285163819
0.036836896 -0.016902357 0.0066976603 4285295653
-0.0072414614 0.0034272298 -0.0082849562 4285491238
-0.0060054995 0.0065241307 -0.011502117 4285492259
-0.0044435076 0.0081471354 -0.013346015 4285492003
-0.0028919317 0.0097693875 -0.015187184 4285558303
-0.00099316612 0.0099193901 -0.015660312 4285624859
0.00090572238 0.010069512 -0.016133387 4285493534
0.0029888339 0.0094844028 -0.015925055 4285559324
0.0048906021 0.009634994 -0.016398676 4285559324
0.0071712695 0.0083158463 -0.015512145 4285558814
0.0088864677 0.0092018545 -0.016666319 4285624349
0.010401763 0.010822065 -0.018497843 4285821718
0.011709202 0.013175927 -0.021004759 4285623839
0.013800815 0.012592219 -0.020798009 4285558048
0.016303066 0.010541238 -0.019238964 4285623839
0.019231834 0.0070242956 -0.016331639 4285690139
0.021979187 0.0042430833 -0.014106218 4285624349
0.025379483 -0.00073609501 -0.0098616816 4285558813
0.029456537 -0.0079114139 -0.0036038579 4285493534
0.033154815 -0.013616599 0.0012939153 4285361699
0.036895469 -0.019318335 0.0061812829 4285163054
-0.0070553012 0.00034222752 -0.0080537349 4285360169
-0.0058133863 0.0034484044 -0.011265974 4285426468
-0.0042458214 0.0050761849 -0.013108 4285492259
-0.0025127269 0.0059651062 -0.014265604 4285492258
-0.00042752922 0.0053776652 -0.014059547 4285690394
0.0013005175 0.0062664226 -0.015215725 4285559068
0.002839487 0.0078924224 -0.017050268 4285559324
0.0043679737 0.0095177442 -0.018882159 4285493279
0.006453611 0.0089308396 -0.018675845 4285559069
0.0079690777 0.010555387 -0.020504307 4285559069
0.0096685551 0.011442445 -0.021652881 4285756183
0.011165686 0.013065733 -0.023476563 4285821973
0.013251655 0.012479357 -0.02327003 4285756183
0.015747834 0.010421358 -0.021714371 4285756438
0.018875189 0.0061569661 -0.018138953 4285559323
0.02203434 0.0018952861 -0.014571387 4285427743
0.026277117 -0.006041117 -0.0076455553 4285361953
0.030152138 -0.012502216 -0.0020792121 4285097519
-0.0056220554 0.00036411732 -0.011035897 4285426469
-0.0038758032 0.0012561008 -0.012195218 4285492259
-0.0021346994 0.0021477863 -0.01335318 4285492258
-0.00022035465 0.002298981 -0.013830211 4285558304
0.0015130639 0.0031903014 -0.014986079 4285558049
0.003057573 0.0048211664 -0.016818821 4285426214
0.0044052973 0.0071908608 -0.0193264 4285426978
0.0061152168 0.0080807358 -0.020476177 4285493279
0.0076283179 0.0097094104 -0.022300791 4285493279
0.0089366324 0.012076393 -0.02479833 4285559069
0.010623027 0.012964733 -0.025941946 4285493023
0.012703348 0.012375705 -0.025735628 4285493278
0.01539569 0.0095722526 -0.023509663 4285427998
0.018928725 0.0038181692 -0.018597011 4285427998
0.022711646 -0.0026703328 -0.01302252 4285362464
0.027172711 -0.011367992 -0.005444807 4285229863
-0.0056017525 -0.0019857213 -0.011491783 4285426469
-0.0038528107 -0.0010913163 -0.012650222 4285492259
-0.0021090023 -0.00019721687 -0.013807237 4285492514
-1.3947487e-05 -0.00078824162 -0.013606925 4285492258
0.0017248057 0.00010569394 -0.01476251 4285426468
0.0034583919 0.00099933892 -0.015916716 4285426469
0.0046283714 0.0041181073 -0.019097582 4285426469
0.005966071 0.0064937323 -0.021597784 4285624348
0.0074794404 0.0081268474 -0.023419227 4285624604
0.0089823231 0.009759225 -0.025237985 4285624859
0.01086814 0.0099090263 -0.025707293 4285493533
0.012953389 0.0093181804 -0.025503822 4285493278
0.015650041 0.006506294 -0.023285393 4285427998
0.019595843 -0.00074576586 -0.017043754 4285427998
0.023801904 -0.0087335482 -0.010144458 4285296163
-0.0055818446 -0.0043396428 -0.011950634 4285295399
-0.0038301833 -0.0034428835 -0.013108097 4285492769
-0.001908306 -0.0032912195 -0.01358711 4285558303
1.3671815e-05 -0.0031394437 -0.014066063 4285492514
0.0017551333 -0.0022430718 -0.015220761 4285426468
0.0034914128 -0.0013470128 -0.016374018 4285492258
0.0050365925 0.00029273331 -0.018200353 4285492514
0.0061941333 0.0034194216 -0.021371586 4285492513
0.0077130385 0.0050573871 -0.023191229 4285492513
0.009221483 0.0066945925 -0.025008142 4285492513
0.01111244 0.0068447962 -0.025478724 4285492258
0.012804314 0.0077380538 -0.026620399 4285427489
0.015903577 0.0034317896 -0.023067225 4285296164
0.019852426 -0.0038419738 -0.016842503 4285098028
0.024268426 -0.012596078 -0.0092924768 4285163818
-0.0057321526 -0.005950205 -0.013089207 4285033769
-0.003807921 -0.0057985112 -0.01356892 4285295653
-0.0018835701 -0.0056466684 -0.014048562 4285558303
-0.00013687462 -0.0047478825 -0.015203014 4285558304
0.001604639 -0.0038493201 -0.016356111 4285426979
0.003707163 -0.0044439584 -0.016160671 4285426978
0.0052578785 -0.0027993396 -0.017985202 4285427234
0.0067981258 -0.0011554733 -0.019807 4285426978
0.0083278827 0.00048775226 -0.021626115 4285493024
0.010040823 0.0013846308 -0.022771604 4285558304
0.011748549 0.0022812113 -0.023915699 4285558304
0.013451066 0.0031775087 -0.025058407 4285558303
0.016559504 -0.0011411905 -0.021517202 4285361188
0.02051669 -0.008436285 -0.015310721 4285295399
-0.002034124 -0.0072569922 -0.015186892 4284902444
-0.00010978803 -0.007105045 -0.015666444 4285230629
0.0018146597 -0.0069529638 -0.016145945 4285492513
0.0039221011 -0.0075493753 -0.015953403 4285361188
0.0058494173 -0.0073968396 -0.016433436 4285492769
0.0072123334 -0.0049994588 -0.018925384 4285426979
0.0087503009 -0.0033512712 -0.020743292 4285492769
0.010277778 -0.001703769 -0.022558488 4285426979
0.011794753 -5.6929886e-05 -0.02437102 4285492259
0.013499971 0.00084177405 -0.025512783 4285295398
0.016811024 -0.0042371899 -0.021314226 4285360934
0.020567227 -0.01080703 -0.015791368 4285164074
0.001663845 -0.0085630193 -0.017283995 4285033003
0.0039535798 -0.0099125281 -0.016422581 4285361188
0.0056980737 -0.0090091676 -0.017572995 4285426724
0.0072494298 -0.0073556378 -0.019391097 4285361188
0.0085997023 -0.0049525723 -0.021874975 4285427234
0.010320686 -0.0040506646 -0.023019232 4285492769
0.011840563 -0.0023992285 -0.024829268 4285295398
0.013945557 -0.0029973239 -0.024637133 4285360934
0.017061751 -0.0073417649 -0.021117259 4285295143
0.02082121 -0.013931133 -0.015609747 4285164074
0.0086395331 -0.0073059648 -0.022339556 4285361189
0.010363217 -0.0064016655 -0.023482885 4285360933
0.011886019 -0.0047456473 -0.02529037 4285360933
0.014191587 -0.0060975477 -0.024435591 4285361189
0.017311674 -0.010454871 -0.020926367 4285164074
0.010791019 -0.010265715 -0.022620127 4284966448
0.012126535 -0.0078504011 -0.02509046 4285360424
0.014436826 -0.0092063174 -0.024240077 4285426469
0.017761551 -0.014330328 -0.020078799 4285164073
