# .PCD v0.7 - Point Cloud Data file format
VERSION 0.7
FIELDS x y z rgba
SIZE 4 4 4 4
TYPE F F F U
COUNT 1 1 1 1
WIDTH 434
HEIGHT 1
VIEWPOINT 0 0 0 1 0 0 0
POINTS 434
DATA ascii
-0.0033352748 0.0036550388 0.029479716 4287248698
-0.00084549934 0.00090947747 0.03190032 4291303708
0.0019011796 -0.003272295 0.035730831 4290387749
0.0050410852 -0.0096077919 0.041674435 4290584099
-0.007736966 0.0031663552 0.027673304 4288752434
-0.0062602013 0.0069037601 0.023729138 4289146919
-0.0045857206 0.0091968402 0.021203469 4290389788
-0.0021234974 0.0064406618 0.023623135 4289538853
0.00047779828 0.002964966 0.026743971 4289669414
0.0035866275 -0.0033922866 0.032679155 4290257443
0.0069894269 -0.011187695 0.04001347 4288948783
0.010074742 -0.016817607 0.045224376 4288882993
-0.011811405 0.00051603466 0.027990635 4288294199
-0.010200992 0.0035419688 0.024754986 4288883504
-0.0088249743 0.008014448 0.020111658 4289343524
-0.0070436969 0.009590067 0.018296812 4290062368
-0.0052729249 0.011165127 0.016484108 4289539109
-0.0029394999 0.0091226175 0.018195685 4289277224
-0.00058984756 0.0070812702 0.019904077 4289408295
0.0022559464 0.0021489039 0.024422549 4289408038
0.0053846613 -0.0042267218 0.030339103 4289800993
0.0088123754 -0.012044489 0.037650503 4289145643
0.012043096 -0.018413313 0.043546654 4288163384
-0.018947296 0.005728744 0.020938825 4290976034
-0.016852908 0.0051294789 0.021241352 4289733673
-0.014851369 0.0052572861 0.020836782 4289799973
-0.012950689 0.006111674 0.01972675 4289277479
-0.011055164 0.0069658086 0.018617809 4289342759
-0.0092712268 0.0085458234 0.016805571 4289343013
-0.0076068565 0.010851227 0.014291602 4290324253
-0.0060701519 0.013881497 0.01107756 4290651164
-0.0038678795 0.01255694 0.01208475 4290062369
-0.0014204383 0.0097823292 0.014494401 4290258463
0.0012881681 0.005558677 0.018303275 4290585884
0.004151538 0.00061219186 0.022806853 4289604133
0.0073028281 -0.0057815984 0.028704267 4289276713
0.01050245 -0.012172177 0.034592018 4289734693
-0.023245007 0.0052866712 0.019141182 4289274929
-0.021703459 0.0090602711 0.015207757 4289079599
-0.019816786 0.0099156275 0.014101871 4289603113
-0.017744057 0.0093127266 0.014407176 4289669414
-0.015469275 0.0072526783 0.016120277 4290389278
-0.013480999 0.0073797181 0.015718441 4289604389
-0.011492528 0.0075068623 0.01531664 4289604643
-0.0097163841 0.0090907142 0.013509209 4289800993
-0.0080596805 0.011402182 0.011001636 4289800739
-0.006530419 0.0144407 0.0077955974 4289342759
-0.0043366328 0.013111144 0.0088012675 4289211944
-0.0018980429 0.010327168 0.011206166 4289473574
0.0008013919 0.006089814 0.015007055 4289604389
0.003166154 0.0040364414 0.016702738 4289539620
0.005922094 -0.00019707531 0.020492386 4289408038
0.0088379458 -0.0051553249 0.024974119 4289146663
0.01113975 -0.0064772591 0.025958497 4286988344
-0.025447682 0.0042501315 0.017649479 4288686898
-0.023982368 0.008766979 0.013016758 4289341484
-0.022278666 0.011087246 0.010504083 4289407784
-0.020498045 0.01267527 0.0086985519 4289015594
-0.018346228 0.011337914 0.0097088935 4289015593
-0.016183503 0.010001406 0.010717063 4289604389
-0.0140099 0.0086656585 0.011723098 4290323999
-0.011928804 0.0080613717 0.012025275 4289473828
-0.01005438 0.0089186132 0.010923847 4289669923
-0.0084026232 0.011236265 0.0084221931 4289473574
-0.0066552907 0.012822881 0.0066239247 4289146409
-0.004576087 0.012218885 0.0069267945 4289211944
-0.0020241961 0.0086960867 0.010024943 4289539363
0.00043515116 0.0059047565 0.012419191 4289408295
0.002427496 0.0060328767 0.012017145 4289277224
0.004669629 0.0047025159 0.013010065 4289866529
0.007305108 0.001185514 0.016091663 4289605154
0.0097071454 -0.00087170303 0.017775178 4288363048
-0.025826588 0.0048132762 0.014350136 4287902518
-0.02419395 0.0078749359 0.011135493 4289210669
-0.022672318 0.011669077 0.0072223181 4290454558
-0.020899497 0.013260953 0.0054215975 4290062369
-0.018851399 0.012652025 0.0057285642 4289735204
-0.01650399 0.0098439083 0.0081382794 4290520093
-0.014336199 0.0085033923 0.0091422042 4289538853
-0.01226075 0.0078965649 0.0094438279 4289931809
-0.010391608 0.0087555945 0.0083451224 4289408293
-0.0084190369 0.0088818744 0.0079466412 4289277478
-0.0064462572 0.0090082586 0.0075481934 4289343013
-0.0043593422 0.0084025785 0.0078478204 4289015593
-0.0021502748 0.0070652887 0.0088439239 4289538853
-0.00028824061 0.0079244673 0.0077470196 4289669924
0.0015686229 0.0087833479 0.0066512665 4290716443
0.0037942454 0.0074474737 0.0076442873 4290651674
0.0062853545 0.004649736 0.010025847 4290520348
0.0089280084 0.0011223629 0.013097933 4290848023
0.011332214 -0.00094116479 0.01477614 4287840043
-0.025866874 0.0024447814 0.013870061 4286202434
-0.024492167 0.0077236518 0.0085557615 4287968309
-0.022975184 0.011528455 0.0046515949 4289604134
-0.021207459 0.013124324 0.0028551985 4289146408
-0.019069947 0.011777259 0.0038618129 4288884779
-0.016823761 0.0096955597 0.0055660261 4289669668
-0.014762171 0.0090855062 0.005868719 4290062113
-0.012695037 0.0084758773 0.0061704116 4289604643
-0.01062236 0.0078667626 0.0064710258 4289343013
-0.0085441545 0.0072581097 0.0067706062 4289604643
-0.0064604059 0.0066498816 0.0070691267 4289212454
-0.0044849068 0.0067765191 0.0066701872 4289539364
-0.0025092214 0.0069032907 0.0062712999 4289996833
-0.00089073926 0.009232305 0.0037864046 4290127393
0.00095545501 0.010092728 0.0026943823 4289866019
0.0031699017 0.0087517351 0.0036863862 4288950058
0.0056494996 0.005944483 0.0060637435 4289604644
0.0081506222 0.0031387433 0.0084368428 4289604899
0.010673299 0.00033453852 0.010805636 4289277989
-0.025823183 -0.00066629797 0.014087847 4286071363
-0.024528988 0.005366616 0.0080833426 4286790974
-0.023098171 0.0099206641 0.0034869006 4289799973
-0.021238014 0.01078292 0.0023928322 4289211688
-0.019098267 0.0094315559 0.0033957707 4289604389
-0.016947627 0.0080810413 0.0043965494 4289996834
-0.015086837 0.0089436322 0.003302577 4289931554
-0.013128258 0.0090687498 0.0029067332 4290651418
-0.011063904 0.0084568709 0.0032073734 4290520604
-0.0089940056 0.0078454688 0.0035069799 4289801249
-0.0070295259 0.0079712644 0.0031101638 4289539620
-0.0050648525 0.0080971867 0.0027133962 4289212199
-0.0032162741 0.0089596659 0.0016223928 4289538853
-0.0014918223 0.010558143 -0.00016126968 4290650909
0.00034370273 0.011420034 -0.0012495369 4289408039
0.0024226829 0.010809824 -0.0009512268 4289146409
0.0048880726 0.0079928711 0.0014224565 4289211943
0.0072453469 0.0059130341 0.0031002564 4289866274
0.0098834783 0.0023635477 0.0061570397 4289212708
0.012548499 -0.0011840984 0.0092084697 4288886564
-0.024392642 0.0015244335 0.0090052029 4286202434
-0.022952922 0.0060921237 0.0044167498 4289015339
-0.02126883 0.0084374025 0.0019274903 4289669669
-0.019316353 0.0085617825 0.0015326189 4289996578
-0.017266244 0.0079464242 0.0018343003 4289735204
-0.01551085 0.0095505491 4.7032721e-05 4291044119
-0.013560422 0.0096751079 -0.00034719426 4290520603
-0.011609793 0.009799771 -0.00074138213 4290586139
-0.0095508918 0.0091854408 -0.00044120569 4290782488
-0.0075972229 0.0093105361 -0.00083584432 4289735714
-0.0055299252 0.0086969212 -0.00053715799 4289211943
-0.0035732165 0.0088224113 -0.00093225483 4289735204
-0.0018539354 0.010424979 -0.0027116654 4290258463
-0.00014515966 0.012026921 -0.00448883 4289800484
0.0018013269 0.012152098 -0.0048816209 4289408295
0.0040015876 0.010801531 -0.0038932604 4289996833
0.0064716637 0.007976234 -0.001526949 4289474084
0.0093597248 0.002939634 0.0029035499 4289409059
0.012015723 -0.00061955303 0.0059486618 4289082148
0.014286086 -0.001965113 0.0069232387 4287970348
-0.024084128 -0.0038160905 0.011311908 4286071364
-0.022808619 0.0022506788 0.0053372411 4286464574
-0.021391831 0.0068301335 0.00076318812 4289081385
-0.019628607 0.008438848 -0.0010225317 4289539363
-0.017681383 0.0085629746 -0.0014162874 4289866528
-0.016033687 0.010912783 -0.0038931039 4290063134
-0.014196657 0.011778288 -0.004978972 4289146919
-0.012154274 0.011160605 -0.0046771751 4289997343
-0.0098905042 0.0090606287 -0.0029909243 4290193694
-0.0078317225 0.0084441826 -0.0026922901 4290128158
-0.0059939548 0.0093101636 -0.0037779924 4289670178
-0.0040453896 0.0094351321 -0.0041714539 4290127904
-0.0023339167 0.0110415 -0.0059460071 4289735204
-0.00051169097 0.01190687 -0.0070283711 4289015594
0.0014293194 0.012031674 -0.0074200667 4288950314
0.0036237612 0.010676287 -0.0064337631 4289669668
0.0060876682 0.0078418255 -0.0040727225 4289277223
0.0089690387 0.0027895048 0.00034768041 4289015848
0.011618681 -0.00078104436 0.0033859219 4288558379
-0.022576205 -0.0023483709 0.006943305 4286268223
-0.021331303 0.0037340224 0.00098789763 4286791738
-0.01994013 0.0083249956 -0.0035711234 4288885034
-0.018289581 0.010681428 -0.0060437177 4290586394
-0.016854338 0.014525034 -0.0098985657 4289277989
-0.014831141 0.013903774 -0.0095946249 4288950568
-0.012697339 0.012539238 -0.0085999854 4288819754
-0.010229386 0.0089449063 -0.0055340682 4289997343
-0.0080658272 0.0075825304 -0.0045453394 4289866528
-0.0062306896 0.0084505081 -0.0056289029 4290127904
-0.0042849481 0.0085752681 -0.0060218167 4290062368
-0.0025759563 0.01018589 -0.007792667 4289800484
-0.00051410496 0.0095678121 -0.0074959253 4289342759
0.0014294237 0.0096927658 -0.0078881457 4289015849
0.0037525222 0.0075908527 -0.0062182257 4288950313
0.0062209442 0.0047479197 -0.0038646134 4288230959
0.0089745149 0.00042249262 -0.00014271308 4288296493
0.01135686 -0.0016752854 0.0015155654 4288034864
-0.021362975 0.0013761893 0.00051360484 4286006083
-0.020156704 0.0074736923 -0.0054209316 4287707444
-0.018605337 0.010582879 -0.0085798651 4289539364
-0.017373875 0.015929617 -0.013808034 4290389788
-0.015259415 0.014559381 -0.012812892 4289473828
-0.013134092 0.013189904 -0.011819813 4289343013
-0.010567553 0.0088383183 -0.0080706785 4290258719
-0.0085200593 0.0082167462 -0.0077730427 4289866274
-0.0066929087 0.009086363 -0.0088533843 4289734948
-0.0045241117 0.0077201054 -0.0078687714 4289538853
-0.0025810227 0.0078447834 -0.0082610818 4289277479
-0.00027493387 0.0057349727 -0.0065927999 4288558124
0.0018000975 0.0051157102 -0.0063003087 4288427053
0.0041332394 0.0030078143 -0.0046372721 4288361773
0.0064825639 0.00090109557 -0.0029774061 4288165168
0.0089797154 -0.0019486621 -0.00063602813 4287969328
0.011229746 -0.0033088401 0.00033274852 4288034608
-0.02018474 0.0051294565 -0.005885941 4286333503
-0.018920384 0.01049345 -0.01110949 4289473574
-0.017494388 0.014358297 -0.014946226 4289343013
-0.015380405 0.012983635 -0.013954254 4288885033
-0.013150804 0.010861628 -0.012275871 4288623149
-0.01079756 0.0079928711 -0.0099127116 4289735204
-0.0086429641 0.0066211 -0.0089287171 4289342503
-0.0065902621 0.0059977099 -0.0086336518 4289081128
-0.0044166073 0.004627414 -0.0076533267 4288950313
-0.0023501962 0.0040051565 -0.0073609063 4288950569
-0.00015751272 0.0026362613 -0.0063842246 4288754474
0.0019225702 0.0020151213 -0.0060943863 4288100143
0.0041342676 0.00064773858 -0.0051214001 4288427053
0.006356813 -0.00071888417 -0.004150474 4287969073
0.0089845881 -0.0043238476 -0.0011323523 4287969328
0.011102661 -0.004942067 -0.00084982254 4288034609
-0.018848419 0.007409811 -0.010878359 4287445049
-0.017317146 0.010535307 -0.014020232 4289407783
-0.015297525 0.0099071935 -0.013720501 4289211944
-0.013063207 0.0077789277 -0.012047944 4288819498
-0.010812692 0.0056518242 -0.010378637 4288688939
-0.0086558908 0.0042757764 -0.0093983123 4288362029
-0.0066008195 0.0036503822 -0.0091054002 4288231214
-0.0043097138 0.0015262142 -0.0074440474 4288362029
-0.0021203235 0.00015261024 -0.0064700334 4288427308
0.00020050257 -0.001969479 -0.0048144734 4288623658
0.0021676719 -0.0018430576 -0.0052115037 4288296749
0.0041350052 -0.0017165169 -0.0056084744 4288100399
0.0062310919 -0.0023385882 -0.0053233295 4288035119
0.0084639713 -0.0037087649 -0.0043577049 4288034353
0.0105737 -0.0043297261 -0.0040751416 4287969073
-0.018680714 0.0035647228 -0.009966501 4286202434
-0.017041802 0.0059465989 -0.012417194 4288229683
-0.01511354 0.0060696006 -0.012807054 4289146153
-0.012767442 0.0031827912 -0.010455606 4288819499
-0.010721043 0.0025543347 -0.010162731 4288558124
-0.0084496289 0.00042211264 -0.008502447 4288362029
-0.0062744245 -0.00095702708 -0.0075290143 4288427053
-0.0042034462 -0.0015835017 -0.0072408705 4288296494
-0.0021269843 -0.0022095218 -0.0069537703 4288427564
-4.5008957e-05 -0.0028350577 -0.0066676792 4288296749
0.0020424649 -0.0034601763 -0.0063825753 4288754729
0.0040096566 -0.0033336505 -0.0067795273 4287969583
0.005976975 -0.0032070205 -0.0071764234 4287904303
0.0080755427 -0.0038310215 -0.0068933386 4287773233
0.010045819 -0.0037039518 -0.007290652 4287511603
-0.016767763 0.0013406649 -0.010826719 4287575608
-0.014930509 0.0022191778 -0.011902974 4288099634
-0.012577228 -0.00067601353 -0.0095594767 4288295983
-0.010523111 -0.0013061091 -0.009269828 4288558123
-0.0083538815 -0.0026901364 -0.0082985219 4288230958
-0.0062860772 -0.0033191517 -0.0080114845 4288492844
-0.0043276772 -0.0031936839 -0.0084070284 4288165679
-0.0022515208 -0.003821902 -0.0081214849 4288427564
-0.00016985834 -0.004449673 -0.007836977 4288297003
0.0020402446 -0.005830504 -0.0068735052 4288624934
0.0037587136 -0.0041971579 -0.0086298231 4288035373
-0.016692482 -0.0017681792 -0.010615161 4287379003
-0.014748462 -0.0016442165 -0.011008227 4287641144
-0.012492031 -0.0037907586 -0.0093548615 4288034353
-0.010432877 -0.0044227913 -0.0090678241 4288165168
-0.0083682016 -0.0050543025 -0.0087818522 4288296493
-0.0064101145 -0.0049289912 -0.0091774333 4288362029
-0.0045666173 -0.0040473416 -0.010252928 4288034353
-0.0027283058 -0.0031658635 -0.011327328 4288166188
-0.00053486973 -0.0045522749 -0.010363845 4287905068
0.0015466288 -0.0051821321 -0.010080846 4288037414
-0.016814947 -0.0033666119 -0.011773018 4287379513
-0.01476983 -0.0040019229 -0.011484994 4287575863
-0.012615271 -0.0053958371 -0.010517465 4287969073
-0.01055643 -0.0060300827 -0.010232003 4288100399
-0.0084920749 -0.0066638067 -0.0099476036 4288231469
-0.0065341219 -0.0065385178 -0.010343162 4288100654
-0.0046905801 -0.005654715 -0.011417063 4287382064
-0.01683899 -0.0057263896 -0.012250656 4287313978
-0.014791496 -0.0063637123 -0.011964737 4287771958
-0.012634732 -0.0077619329 -0.011000877 4288034609
-0.010573544 -0.008398205 -0.010717576 4288231469
-0.0085068271 -0.009033978 -0.010435292 4287969839
-0.016666867 -0.0096179098 -0.011374345 4287837238
-0.014611654 -0.010256961 -0.011091629 4287902773
-0.01244738 -0.011659041 -0.010132588 4287576373
-0.010484695 -0.0115337 -0.010529294 4287315509
0.01318635 -0.0063451901 0.025545843 4282415938
0.015775859 -0.0091186538 0.027920883 4281437758
0.01880201 -0.014069311 0.032380745 4281112889
0.021865752 -0.01901748 0.03683313 4282544204
0.014695339 -0.00571125 0.021827903 4283465009
0.017701417 -0.010678612 0.026280429 4280790059
0.020885929 -0.016371645 0.031419646 4282154309
0.013752624 -0.0030035675 0.016451225 4282939964
0.016603269 -0.0072567239 0.020202618 4281829693
0.019626848 -0.012238182 0.024640292 4281633089
0.022544641 -0.016486757 0.028378345 4282022218
0.015645437 -0.004536584 0.014838974 4283594549
0.018370569 -0.0080691427 0.017886616 4281762628
0.02140896 -0.013064831 0.022309937 4281436229
0.024339084 -0.017325677 0.02603586 4281891658
0.017397761 -0.0053343549 0.01253759 4283004479
0.020275749 -0.0096118003 0.016264115 4281566789
0.023331635 -0.014621578 0.020672593 4281630793
0.016286902 -0.0018357411 0.0065200133 4283200828
0.018859252 -0.0046538487 0.0088661453 4281371713
0.022180796 -0.01115407 0.01464193 4281111359
0.024957757 -0.014704831 0.017663114 4281826889
0.015458494 0.00021541864 0.0018975018 4282939199
0.017873965 -0.0018732771 0.0035542678 4280979524
0.021177746 -0.0083943605 0.0093189785 4279608899
0.024233714 -0.013434686 0.013704726 4279673669
0.027025823 -0.016995288 0.016714811 4282345304
0.014771685 0.001547426 -0.0020241784 4282807873
0.017175786 -0.0005486086 -0.00037003495 4281175619
0.020031616 -0.0048668012 0.0033317227 4280979524
0.023215368 -0.010664716 0.0083932215 4281045313
0.026291478 -0.015718915 0.012763613 4281305923
0.028945509 -0.018548764 0.015080632 4282150738
0.014365632 0.0014099553 -0.0045667267 4282809149
0.016621374 5.0500035e-05 -0.0035988293 4281306434
0.019177966 -0.0027948096 -0.0012689885 4280850239
0.022051439 -0.0071248785 0.0024195332 4280915519
0.025107473 -0.012195744 0.0067826333 4281241409
0.027894959 -0.01577843 0.00977745 4281371459
0.013960294 0.0012816191 -0.0071027288 4282743614
0.015925862 0.0014088005 -0.0074987942 4280981819
0.018326074 -0.00070051104 -0.0058535538 4280915009
0.020889953 -0.0035539642 -0.0035315882 4281372478
0.023625515 -0.0071510896 -0.00053454377 4281437503
0.02654079 -0.011491321 0.0031359801 4281436229
0.029643789 -0.016574211 0.0074784169 4282281808
0.012142319 -0.0019572899 -0.0065153148 4283919419
0.013555679 0.0011623502 -0.0096321078 4281958723
0.015515748 0.0012891516 -0.010027074 4281044293
0.017909955 -0.0008270964 -0.0083854962 4280914244
0.020320296 -0.0029421374 -0.006747121 4281569084
0.022896796 -0.0058034286 -0.0044341329 4281437504
0.026105575 -0.011652008 0.00058345962 4281302608
0.029357232 -0.017497651 0.0055925222 4282149719
0.01174324 -0.0020758286 -0.0090456065 4283461694
0.01356924 -0.0011985898 -0.010119995 4281763394
0.015531849 -0.0010716319 -0.010515483 4280979269
0.01792806 -0.0031943098 -0.0088791866 4281110338
0.020193227 -0.0045660734 -0.0079227928 4281436739
0.022768892 -0.0074361637 -0.005616134 4281566279
0.02612865 -0.014051728 6.4355321e-05 4281367888
0.029226251 -0.019165583 0.0043851109 4282541654
0.0095189735 -0.0030646175 -0.010496421 4282807364
0.011481214 -0.0029379576 -0.010892028 4281892679
0.013582513 -0.0035636127 -0.010610858 4281175874
0.015547633 -0.0034365132 -0.01100686 4281240389
0.017801527 -0.0048135221 -0.010051483 4281370184
0.020066194 -0.006189689 -0.0090982448 4281696329
0.022641018 -0.0090685859 -0.0067979265 4281696074
0.025846723 -0.014952369 -0.0018057441 4281564494
0.0073008612 -0.0040481985 -0.011944907 4282936904
0.0092601404 -0.0039218515 -0.012340007 4281696074
0.011355676 -0.0045502111 -0.0120594 4281434698
0.013595488 -0.0059327707 -0.011104641 4281174343
0.015563119 -0.0058055148 -0.011501158 4280979524
0.017675024 -0.006432429 -0.011223564 4281370184
0.019939199 -0.0078130141 -0.010273485 4281565258
0.022363678 -0.0099467561 -0.008652458 4281499724
0.025412995 -0.015094467 -0.0043448983 4281499213
0.0011766851 -0.0052781999 -0.012601627 4282872899
0.0030074567 -0.0043947026 -0.013672637 4282415428
0.0048330203 -0.0035114363 -0.014742451 4281761864
0.0069146082 -0.0041431263 -0.014460841 4281630793
0.0092682689 -0.0062887818 -0.012830997 4281565514
0.011230186 -0.0061621517 -0.013226556 4281500233
0.013330854 -0.0067922324 -0.012948515 4281238858
0.015154358 -0.0059084892 -0.01401745 4281109574
0.017404582 -0.0072945133 -0.013067862 4281370184
0.019665584 -0.0086796582 -0.012120379 4281369164
0.022236042 -0.011576362 -0.0098322136 4281563728
0.024979994 -0.015227489 -0.0068774177 4281236054
-0.0032103285 -0.0048551261 -0.015004667 4282938944
-0.0012627169 -0.004730165 -0.015397878 4282088263
0.00080744177 -0.0053651705 -0.015115885 4282088263
0.0027580112 -0.0052397624 -0.015509522 4282023238
0.0047086999 -0.0051142201 -0.015903091 4281369928
0.0069204271 -0.0065077469 -0.014949461 4281631049
0.0090098456 -0.0071410015 -0.014670962 4281434698
0.01124052 -0.0085329935 -0.013721006 4281369419
0.013205074 -0.0084060878 -0.014117019 4281566534
0.015169732 -0.008279033 -0.014512943 4281174088
0.017278325 -0.0089106038 -0.014237909 4281565259
0.019538835 -0.010300182 -0.013293592 4281563219
0.022108451 -0.013205655 -0.011011745 4282018904
-0.0047099218 -0.010394126 -0.012394281 4283264069
-0.0032169446 -0.007217966 -0.015488936 4282154563
-0.0015059859 -0.0055679679 -0.017230919 4281631048
0.00068346411 -0.0069675967 -0.016276347 4281566534
0.0026338696 -0.0068422332 -0.016669976 4281566534
0.0047120303 -0.0074786469 -0.016391018 4281565768
0.0066653639 -0.0073528513 -0.016785046 4281566278
0.0088847652 -0.0087501183 -0.015836118 4281630028
0.010979317 -0.0093851164 -0.015560204 4281760333
0.013079338 -0.010019638 -0.0152853 4281433168
0.014902879 -0.0091315508 -0.01635102 4281431639
0.017152105 -0.010526396 -0.015407735 4282149209
-0.0062374398 -0.01595635 -0.0097941933 4282544969
-0.0047200322 -0.012769997 -0.012887365 4282219334
-0.0031070858 -0.010349751 -0.015303066 4281696328
-0.0013906136 -0.008694984 -0.017042959 4281631559
0.00068159401 -0.0093342289 -0.016764624 4281370438
0.0026345402 -0.0092087016 -0.017158752 4281566023
0.0047150552 -0.0098472163 -0.016881878 4281696328
0.0068010166 -0.01048521 -0.016606042 4281630794
0.0087596849 -0.010358952 -0.017001064 4281890893
0.010853931 -0.010996148 -0.016726712 4282282318
0.012815509 -0.010869443 -0.017122122 4282281298
0.014636394 -0.0099793524 -0.018185688 4281821789
-0.0066959932 -0.015275829 -0.012986316 4282413389
-0.004958272 -0.013615616 -0.014727456 4282153289
-0.0033476427 -0.011188917 -0.017137853 4281697094
-0.0016336367 -0.0095300078 -0.018873977 4281632324
0.00055751204 -0.010938294 -0.017926266 4281500999
0.0025102943 -0.010812782 -0.018320376 4281631558
0.0045904964 -0.011453509 -0.01804506 4281565004
0.0066761598 -0.012093723 -0.017770795 4281955408
0.008767277 -0.012733452 -0.017497549 4282150738
-0.0050823987 -0.01522591 -0.015893731 4282476883
-0.0034713969 -0.012792654 -0.018299341 4281498959
-0.0017571971 -0.011129379 -0.020032268 4281172303
6.8202615e-05 -0.010235503 -0.021094142 4281694035
0.0021372512 -0.010879226 -0.020818347 4281561434
-0.0035951287 -0.014396124 -0.019460637 4281628754
-0.0019996539 -0.011957251 -0.021858111 4282148698
0.023581505 -0.019591071 -0.016126957 4282406248
-0.0038130134 -0.021571092 -0.036178507 4282929254
-0.004169561 -0.021565847 -0.038627386 4282862443
