# .PCD v0.7 - Point Cloud Data file format
VERSION 0.7
FIELDS x y z rgba
SIZE 4 4 4 4
TYPE F F F U
COUNT 1 1 1 1
WIDTH 938
HEIGHT 1
VIEWPOINT 0 0 0 1 0 0 0
POINTS 938
DATA ascii
0.013558671 -0.01144775 0.032264337 4288556593
0.0047222488 -0.010762416 0.02957393 4290128159
0.0067735948 -0.010654047 0.029230425 4290127139
0.0088250414 -0.010545559 0.028886991 4289865509
0.011259798 -0.012551732 0.030689163 4289670688
0.012536906 -0.0082138702 0.026056113 4289083169
0.0016290657 -0.0068992451 0.022995548 4289345818
0.0035391003 -0.0060845912 0.02194065 4288558889
0.0055660456 -0.0059775338 0.021601221 4288558123
0.0078428909 -0.0072848946 0.022689955 4289932064
0.010130618 -0.0085915923 0.023777002 4289539873
0.011777744 -0.006362617 0.021296481 4289410333
0.0027166381 -0.003495872 0.016476111 4289212964
0.0049713999 -0.0048089698 0.017565245 4289605408
0.0074865595 -0.0075404048 0.020077633 4290194203
0.0097684599 -0.0088518262 0.021162393 4290325784
0.011540644 -0.0073257014 0.019399146 4289605918
0.0023728162 -0.003728196 0.013877889 4289475359
0.0046217702 -0.0050460845 0.014964828 4289801759
0.0071308352 -0.0077866912 0.017471844 4289867038
0.0094069242 -0.0091028661 0.018554369 4289474849
0.011303857 -0.0082840472 0.017505171 4289475869
0.00014651567 -0.0047711879 0.012331838 4287972133
0.0020296052 -0.0039513707 0.01128622 4289605408
0.0042727441 -0.0052739605 0.012370886 4289735969
0.006775707 -0.0080237687 0.014872508 4289539618
0.0090459883 -0.0093447268 0.015952846 4289343778
0.011067394 -0.0092376471 0.015614567 4289606429
0.011895828 -0.0027088076 0.0089045297 4288693273
4.1805208e-05 -0.0064202547 0.011162398 4288102948
0.0019248873 -0.0055982322 0.010118367 4289475103
0.0041675977 -0.00692527 0.011199908 4290651928
0.0061725266 -0.0068193227 0.010864206 4290586393
0.008558616 -0.0088613331 0.012650508 4289932829
0.010701522 -0.0094705671 0.013020445 4289605154
0.011790533 -0.0043535382 0.0077383295 4289280539
-0.0002950877 -0.0066313893 0.0085781273 4288496159
0.0014637932 -0.0050887689 0.0068294536 4290456599
0.0035765022 -0.0057021827 0.0072025787 4290193949
0.0056946948 -0.0063152462 0.0075749103 4290259483
0.0080721378 -0.0083643049 0.0093578286 4291241489
0.01020667 -0.0089762509 0.0097276047 4289736479
0.011552997 -0.005280003 0.0058674701 4289476889
-0.00074735284 -0.0061122924 0.0052943509 4289019418
0.00076626241 -0.003123939 0.0021391716 4289605408
0.0027438626 -0.0030195713 0.0018079448 4288820009
0.0048455931 -0.0036356673 0.0021813903 4289277989
0.007459797 -0.0071332157 0.0053706486 4289670689
0.0095832571 -0.0077479854 0.0057406612 4290063644
0.010919385 -0.0040412545 0.0018902663 4289345564
-0.0011987388 -0.0055795759 0.0020202287 4289150489
0.00018870085 -0.0018596873 -0.0018312074 4289998109
0.0019129552 -0.00031000376 -0.0035675857 4288558123
0.0041221455 -0.0016520172 -0.0024899673 4288688938
0.0069752261 -0.0066067576 0.0020989012 4290455578
0.0092196167 -0.0079466626 0.0031708088 4289866529
0.0106829 -0.0049515367 3.0869618e-05 4289736478
-0.0018805936 -0.0035823211 -0.002649853 4289998618
-0.00026930496 -0.0013027415 -0.0050863922 4290259738
0.0014469884 0.00025096536 -0.006818302 4289408804
0.0036476851 -0.001095973 -0.0057424214 4289604899
0.0063650757 -0.0053417683 -0.0018642452 4290258973
0.0087274164 -0.0074114725 -9.3061477e-05 4289539364
0.010578588 -0.0065817237 -0.0011250246 4289932318
-0.0019832924 -0.0052009895 -0.0037977602 4289605664
-0.00025347993 -0.0036423206 -0.0055287834 4289212708
0.0015865788 -0.002811484 -0.0065576006 4288950824
0.0036686063 -0.0034352839 -0.0061856676 4289016360
0.0062613785 -0.0069671571 -0.0030167978 4289408549
0.0086231455 -0.0090435371 -0.0012503173 4289604899
0.010869436 -0.010392085 -0.00018504448 4289539618
0.012588963 -0.008833237 -0.0019138288 4288232489
0.031105362 -0.020321026 0.0072416961 4287119669
-0.0019705445 -0.0075492412 -0.0042457748 4288754218
-0.00011980534 -0.0067157596 -0.0052748863 4288754473
0.0018464252 -0.0066120476 -0.0056042504 4288754473
0.0039362386 -0.0072376728 -0.005235238 4288820008
0.0062838867 -0.0093215704 -0.0034712758 4288689193
0.0086477734 -0.011404477 -0.0017099446 4288951079
0.010896325 -0.012757346 -0.00064825453 4289081638
0.012887198 -0.012651712 -0.00098129921 4288754728
0.014878135 -0.012545943 -0.0013142619 4288493353
0.017008767 -0.013168663 -0.00095153786 4288624168
0.01900249 -0.013062522 -0.0012848061 4288297004
0.021141294 -0.013684601 -0.00092322938 4288427819
0.023285519 -0.014306217 -0.00056250207 4288493099
0.025886439 -0.017111562 0.0018788688 4288754474
0.029427655 -0.024282977 0.0084769391 4288557613
0.033022773 -0.031451389 0.015066089 4287903283
-0.0017275065 -0.011365861 -0.0033004945 4288427818
0.00024925917 -0.011261739 -0.0036317324 4288492588
0.0021054745 -0.010425635 -0.0046600653 4288623914
0.004326418 -0.011784747 -0.0035972139 4288754728
0.006684266 -0.013874769 -0.0018397747 4288820008
0.0088008866 -0.014500946 -0.0014766669 4289081894
0.010922961 -0.01512669 -0.0011143722 4289016614
0.012782261 -0.014289841 -0.0021428009 4288820263
0.014909856 -0.014915064 -0.0017812653 4288558889
0.017182402 -0.016270727 -0.00072645396 4288558889
0.01918136 -0.016164288 -0.0010605864 4288558889
0.021325253 -0.016788282 -0.00070150569 4288493099
0.023474567 -0.017411835 -0.0003432259 4288558378
0.026380718 -0.021686301 0.0034755021 4288558123
0.029931121 -0.02887933 0.010056067 4288688938
0.033535421 -0.036069334 0.016627742 4288427054
-0.0036947355 -0.013830923 -0.0034257816 4288496158
-0.0016003996 -0.01446116 -0.0030609509 4288689193
0.00049941987 -0.015090927 -0.0026969863 4288492844
0.0023636967 -0.014252231 -0.0037251031 4288492844
0.0045922957 -0.015615359 -0.0026667295 4288427308
0.0065799542 -0.015510306 -0.0029995283 4288427308
0.0086962841 -0.016138718 -0.0026379703 4288754473
0.010686785 -0.016033232 -0.0029710559 4288950824
0.012945313 -0.017394327 -0.0019172868 4288492844
0.015077993 -0.018021509 -0.001558206 4288558379
0.017355479 -0.019381292 -0.0005074665 4288492844
0.019359678 -0.019274592 -0.00084248185 4288623659
0.021363907 -0.019167751 -0.0011774041 4288558379
0.023663066 -0.020526052 -0.00012997165 4288296493
0.026573582 -0.024813488 0.0036784261 4288558124
0.030127782 -0.032028407 0.010242406 4288492333
-0.0036855489 -0.016196132 -0.0038852459 4288823578
-0.0017037913 -0.016091868 -0.0042174151 4288427818
0.00039573759 -0.016723886 -0.0038550114 4288427308
0.0023803785 -0.016619235 -0.0041874861 4288492843
0.0044881739 -0.017250568 -0.0038262857 4288231214
0.0066014305 -0.017881483 -0.0034659086 4288362029
0.0087201558 -0.018511996 -0.0031063659 4288689194
0.010713197 -0.018406406 -0.0034398837 4289016359
0.012840144 -0.019036263 -0.0030814847 4288492843
0.014836006 -0.018930256 -0.0034152931 4288362029
0.017110359 -0.020294629 -0.0023672208 4288558379
0.0191117 -0.020188093 -0.0027017668 4288558379
0.021257695 -0.020816371 -0.0023462176 4288492844
0.023556411 -0.022179127 -0.0013019033 4288427053
0.026465913 -0.02647987 0.0024970807 4288950569
0.030018527 -0.033716947 0.0090453923 4288427054
-0.0037887394 -0.017826498 -0.0050415015 4289804819
-0.0018071532 -0.017722279 -0.0053736595 4288624678
0.00029209256 -0.018356532 -0.0050128167 4288362539
0.0022765771 -0.018251896 -0.0053452617 4288362539
0.0043840781 -0.018885463 -0.0049856221 4288428074
0.0063714348 -0.018780425 -0.0053183725 4288623659
0.008743789 -0.020889439 -0.003577631 4288492843
0.010739367 -0.0207837 -0.0039115697 4288689193
0.013136089 -0.022891127 -0.0021747723 4288558379
0.01513987 -0.022784725 -0.0025099143 4288623403
0.017421868 -0.024153143 -0.0014662668 4288492334
0.019431137 -0.024046198 -0.0018021427 4288295983
0.021440443 -0.023939103 -0.0021379218 4288753963
0.023744099 -0.025305927 -0.0010976531 4288950314
0.026657965 -0.029619709 0.0026910268 4288557359
0.030061824 -0.036141917 0.0085356738 4288230194
-0.0041159391 -0.017974332 -0.0075821197 4288953884
-0.001910463 -0.019352376 -0.0065296805 4288690213
7.1085989e-05 -0.019248024 -0.0068617454 4288429094
0.0021728128 -0.019884259 -0.006502836 4288494119
0.0042800121 -0.020520046 -0.006144736 4288624934
0.0063926876 -0.021155417 -0.0057874583 4288624678
0.0087671503 -0.023270957 -0.0040518641 4288558888
0.01102699 -0.024645343 -0.0030080378 4288231469
0.013297662 -0.026019052 -0.0019658767 4288100399
0.015442915 -0.026652187 -0.0016136952 4288231214
0.017871484 -0.028764337 0.0001132302 4288099379
0.020032994 -0.029396348 0.0004628934 4288034098
0.022344258 -0.030767336 0.0014985949 4288034098
0.024519306 -0.031398356 0.0018461905 4288361009
0.027148902 -0.034246355 0.0042508654 4288033588
0.030104872 -0.038571015 0.0080231037 4287706679
-0.0020137504 -0.020982131 -0.0076854862 4288299554
0.0041759834 -0.022154316 -0.0073036291 4287447853
0.013992332 -0.032124251 0.00098530203 4287381554
0.016289543 -0.033500791 0.0020198785 4287184694
-0.014048338 0.0077077374 0.033016644 4281828164
-0.012621403 0.011959344 0.028290497 4280133688
-0.010310739 0.0099922642 0.030146426 4280785214
-0.0071480274 0.0025010556 0.037841886 4280003383
-0.032912277 0.010647386 0.029013863 4281370438
-0.031287774 0.014223389 0.025009753 4281045568
-0.029612601 0.017103821 0.021743415 4280327234
-0.027398251 0.015124261 0.023610139 4280326724
-0.025084771 0.012451716 0.026206451 4279219004
-0.022749528 0.0097803399 0.028799208 4281370183
-0.020921476 0.011272468 0.026999919 4281044039
-0.019194864 0.013457745 0.024471486 4281044803
-0.017671317 0.017029122 0.020484796 4281242684
-0.016270787 0.021292467 0.015772631 4281046589
-0.01450669 0.02278167 0.013984308 4280588098
-0.012041822 0.019419339 0.017301923 4280588353
-0.0092368647 0.013979934 0.022801185 4279416373
-0.0055324882 0.0030010939 0.034119271 4280395319
-0.035497002 0.013772905 0.023048723 4282347853
-0.034021229 0.0187531 0.017588278 4281176639
-0.032284744 0.020944953 0.015062565 4281111104
-0.030564196 0.023135994 0.012539614 4281240389
-0.028459944 0.021844581 0.013675349 4280979524
-0.026262075 0.019857582 0.015540084 4280654144
-0.023962542 0.017175488 0.018132361 4280719424
-0.02208133 0.017974257 0.017071931 4280914753
-0.020386726 0.020164426 0.01455369 4280849729
-0.018801525 0.023049545 0.011309227 4279090229
-0.017141625 0.025238115 0.0087968912 4280458813
-0.01510255 0.024644479 0.0091994405 4281371203
-0.012956433 0.02335595 0.010328729 4281306179
-0.010382667 0.01928778 0.014364721 4280785978
-0.0069213808 0.0096618459 0.024208726 4280590393
-0.035943955 0.015635327 0.018232958 4281827399
-0.034480758 0.020630348 0.012785807 4280982073
-0.032608613 0.021430355 0.011728127 4280002874
-0.030895844 0.023627657 0.0092112254 4280719423
-0.028879866 0.023029882 0.0096155368 4280524093
-0.026775777 0.02173404 0.010748185 4279025203
-0.024490394 0.019042317 0.01333642 4280914753
-0.02253475 0.019144423 0.013008069 4280914753
-0.020850629 0.021340642 0.01049635 4280718913
-0.019089252 0.022838309 0.0087146983 4280523584
-0.017338455 0.024335478 0.0069349408 4279546423
-0.015400991 0.024437007 0.0066099092 4279611449
-0.013260677 0.023143753 0.0077369027 4279611449
-0.010797307 0.019759234 0.011038801 4279481398
-0.007559672 0.011496037 0.019411916 4281046079
-0.0027251355 -0.0065220371 0.037919261 4281046079
-0.036113903 0.014714792 0.016352555 4281696584
-0.034795716 0.021127623 0.0094580427 4281176639
-0.033005871 0.022630479 0.0076743606 4280590139
-0.031226605 0.024132896 0.0058924668 4280198969
-0.029218942 0.023532446 0.0062965546 4280068663
-0.027041003 0.021531034 0.0081549734 4280785214
-0.02484671 0.019530576 0.010010719 4280980289
-0.022899263 0.019632209 0.0096837152 4280914753
-0.021132514 0.021134451 0.0079042576 4280653634
-0.01928322 0.021936107 0.0068524741 4280784193
-0.017534971 0.023437534 0.0050763097 4280719168
-0.015600309 0.023538891 0.0047517363 4280588863
-0.013463095 0.022241015 0.0058760308 4280915008
-0.011003248 0.018845208 0.009170495 4281176384
-0.007983312 0.011953965 0.016078079 4280915518
-0.0033792295 -0.0047238767 0.033099681 4280915518
-0.036214739 0.013095409 0.015203757 4282022984
-0.03489542 0.019528199 0.0083234217 4280523074
-0.033179566 0.021738764 0.0058154631 4281045313
-0.031402826 0.023245417 0.0040372163 4281241153
-0.029398106 0.022642549 0.0044401698 4281306688
-0.027305596 0.02133717 0.0055683069 4281241153
-0.025117233 0.019329756 0.0074201729 4281045313
-0.023175299 0.019431058 0.0070940629 4281046079
-0.021323472 0.020234939 0.0060433596 4280981053
-0.019383878 0.020336326 0.0057177879 4280981053
-0.017539792 0.021139991 0.0046685189 4281111360
-0.015799299 0.022645555 0.0028968696 4280915008
-0.013665177 0.021343023 0.0040185079 4281176384
-0.011312604 0.01863768 0.0065831654 4281240899
-0.0084060505 0.012425512 0.012753967 4281241665
-0.0042501688 -0.0015001968 0.026853083 4281176128
-0.036384135 0.012182102 0.013328459 4282153288
-0.035066381 0.018634684 0.0064627361 4280588353
-0.033426896 0.021557257 0.003234176 4280915264
-0.031655379 0.023068026 0.0014599711 4279417393
-0.029815055 0.023873128 0.00041243993 4279547954
-0.027569577 0.021152504 0.0029880814 4280655163
-0.025471881 0.019843012 0.0041121878 4281110848
-0.023450695 0.019239042 0.0045109577 4281046334
-0.02160424 0.020044819 0.0034627244 4280981309
-0.019670159 0.020145878 0.0031380523 4280851003
-0.017831445 0.020951509 0.0020912252 4280785723
-0.016096182 0.022461146 0.00032366998 4278505004
-0.014068775 0.021858007 0.00072175637 4279026224
-0.011724979 0.019143298 0.0032814573 4278960944
-0.0090405196 0.014318332 0.0079987235 4280786234
-0.0053371191 0.0031622574 0.01918892 4281438778
-0.00087709352 -0.012210526 0.034681536 4281569084
-0.03641624 0.0098574758 0.012906723 4282282829
-0.035165809 0.017038032 0.0053300597 4280783938
-0.033525907 0.019969411 0.0021077767 4280654144
-0.031907327 0.022899814 -0.0011108443 4279872314
-0.030072361 0.023706786 -0.0021558451 4279612469
-0.027914859 0.021684274 -0.00030846149 4278373934
-0.025741033 0.019662745 0.0015362017 4281045823
-0.023812801 0.019763276 0.0012123529 4281242684
-0.021884397 0.019863918 0.00088854507 4281242683
-0.019955836 0.019964665 0.00056478381 4281243449
-0.018122487 0.020772137 -0.00047953054 4280916793
-0.016294368 0.02157943 -0.0015228968 4280199733
-0.01437071 0.021680221 -0.0018456187 4281306689
-0.012032971 0.018956333 0.00070869923 4279482673
-0.0095673725 0.015527636 0.0039782263 4280525369
-0.0060948655 0.0057472214 0.013708362 4281242939
-0.0023236386 -0.00544063 0.024861673 4281700663
0.00084839761 -0.01239007 0.031695969 4283005499
-0.036721885 0.010369688 0.0095878281 4282281554
-0.035549298 0.018282071 0.0013051815 4280588354
-0.033919714 0.021221749 -0.0019089971 4280979524
-0.03215865 0.022740744 -0.0036751051 4281175109
-0.030249946 0.022839941 -0.0039959056 4281175874
-0.028095692 0.020810619 -0.0021528443 4280980289
-0.026009567 0.019491605 -0.0010332391 4280589628
-0.02408684 0.019591823 -0.0013561882 4281046843
-0.02216395 0.01969216 -0.0016790852 4281243194
-0.020333447 0.020501554 -0.0027214205 4280917558
-0.018603422 0.022019669 -0.0044818539 4280135728
-0.016688131 0.022119887 -0.0048032738 4281242174
-0.014672026 0.021511666 -0.0044065313 4281632834
-0.012443714 0.019486986 -0.0025752662 4281372223
-0.010093056 0.016755 -2.9459596e-05 4280981308
-0.0068508908 0.0083591938 0.0082468837 4280721208
-0.0034324825 -0.00074112415 0.017228788 4281568828
-0.00040036812 -0.007006228 0.023335552 4282286909
-0.036958426 0.010183014 0.007000586 4281565259
-0.035789825 0.018119492 -0.0012638401 4280717894
-0.034165204 0.021067724 -0.0044708187 4279479359
-0.032333083 0.021878839 -0.0055123186 4280132159
-0.03026928 0.020554006 -0.0043923259 4280392768
-0.028276153 0.019941658 -0.0039938437 4279480379
-0.026193127 0.018618025 -0.0028769374 4280328254
-0.024273217 0.018718064 -0.0031994311 4280719933
-0.022442877 0.019529581 -0.0042402763 4280915773
-0.020802602 0.021763273 -0.0067159198 4280916794
-0.018988088 0.022574179 -0.0077539524 4280266033
-0.017080992 0.022673942 -0.0080740107 4280005168
-0.015073232 0.022063009 -0.0076774377 4280329528
-0.012956753 0.020741887 -0.0065656714 4280329528
-0.010405779 0.016579449 -0.0025930777 4280589884
-0.0073879808 0.0095773339 0.004234951 4280915518
-0.0039823279 0.00044758618 0.013198145 4281176384
-0.001190342 -0.0044179559 0.017864002 4281567808
-0.037534669 0.013578951 0.00081779994 4282543693
-0.036454245 0.022253357 -0.0081460886 4280717893
-0.034777269 0.024494912 -0.010623669 4280326979
-0.032811716 0.023878679 -0.01022232 4280327233
-0.030761756 0.022548679 -0.0091032144 4280588609
-0.028700851 0.021219388 -0.0079859206 4280588099
-0.026628986 0.019890718 -0.0068703536 4280784194
-0.024806879 0.020703897 -0.0079083126 4280784959
-0.022989988 0.021516852 -0.008945277 4280915518
-0.021270588 0.023043055 -0.010697611 4280981309
-0.01937186 0.023142267 -0.011016354 4280981308
-0.01737529 0.022528447 -0.010619638 4281241663
-0.015373185 0.021915026 -0.010223772 4281241409
-0.013262495 0.020589106 -0.0091142077 4281241409
-0.010717884 0.016413018 -0.0051501617 4280784194
-0.0078154728 0.010101005 0.00094938464 4280914753
-0.0044198483 0.0009419024 0.0098935198 4280980033
-0.0016370788 -0.0039395988 0.014549674 4281567044
-0.037701368 0.012704797 -0.0010297764 4282804813
-0.036551513 0.020688884 -0.009255968 4280913479
-0.034800932 0.022220455 -0.011010913 4280456008
-0.032908931 0.022318576 -0.011329055 4280913734
-0.030859374 0.020984106 -0.010213092 4281044548
-0.028880246 0.02036652 -0.0098155122 4281044548
-0.026895538 0.019749343 -0.0094187846 4281045313
-0.025165565 0.021280292 -0.011169866 4281045314
-0.023267277 0.021379236 -0.01148871 4281044804
-0.021368831 0.021478288 -0.011807503 4281110339
-0.019185692 0.019430995 -0.0099833626 4281110595
-0.017181322 0.018815301 -0.0095895287 4281045058
-0.015271634 0.018915258 -0.0099099819 4281175874
-0.013258904 0.018300265 -0.0095174424 4281110593
-0.010818169 0.014825903 -0.006275773 4280980034
-0.0081337467 0.0099234581 -0.0016144561 4280980288
-0.0047454983 0.00073524565 0.0073100943 4281698624
-0.0020829365 -0.0034476519 0.011245046 4283198533
-0.03643728 0.016967811 -0.0082152653 4281435974
-0.034678474 0.01850415 -0.0099683842 4280847178
-0.03270267 0.017883949 -0.0095720068 4280913478
-0.030721299 0.017264158 -0.0091764834 4280849219
-0.02881559 0.017363161 -0.0094968099 4280849729
-0.026825763 0.016743943 -0.0091025252 4280915009
-0.025090255 0.018279627 -0.010851406 4280784448
-0.023186706 0.018378824 -0.011171147 4280654144
-0.021190986 0.017760277 -0.010777673 4280653889
-0.018905625 0.014988951 -0.0082468484 4280523073
-0.016793355 0.013654001 -0.0071441289 4280328509
-0.014870338 0.013754636 -0.0074668322 4280523073
-0.012844399 0.013138093 -0.0070781223 4280718913
-0.010707453 0.011804804 -0.0059793489 4281044549
-0.0081269369 0.0076040849 -0.0020404039 4281241409
-0.0050705373 0.0005377233 0.0047332142 4281893954
-0.0024143383 -0.0036587566 0.0086595919 4283394373
-0.035972163 0.0096276402 -0.0036076633 4281370694
-0.034191675 0.011169493 -0.0053612581 4281174343
-0.03234604 0.011989988 -0.0063986909 4280848453
-0.03034877 0.011368766 -0.0060074674 4280848709
-0.028508134 0.012189217 -0.0070439074 4280980288
-0.026588917 0.01228898 -0.007366458 4281045313
-0.024755999 0.013109267 -0.0084015019 4280849218
-0.022749938 0.012488887 -0.0080114044 4280784193
-0.020738333 0.011868924 -0.007622215 4280849473
-0.018532082 0.0098095089 -0.0058115805 4280653634
-0.016503982 0.0091905817 -0.0054249568 4280719169
-0.014470384 0.008572109 -0.0050392235 4280718913
-0.012533888 0.0086735263 -0.0053641321 4280914753
-0.010491922 0.0080557019 -0.004979643 4281241154
-0.0081203654 0.0052805692 -0.0024692947 4281566534
-0.0052842461 -0.00036970526 0.0028712712 4281828163
-0.0027451441 -0.003860727 0.0060806815 4283722559
-0.035789981 0.0051459521 -0.0018796576 4281436229
-0.033998579 0.0066927671 -0.0036319131 4281175619
-0.032142162 0.0075160339 -0.0046696337 4281305924
-0.030134395 0.0068930835 -0.0042817434 4281175363
-0.028121054 0.0062705651 -0.0038947621 4281240644
-0.026185811 0.0063711479 -0.0042200172 4281370949
-0.024336725 0.0071944147 -0.0052561546 4281109828
-0.022492871 0.0080175474 -0.0062913848 4280979779
-0.020470761 0.0073958635 -0.0059055286 4280914243
-0.018443108 0.0067746341 -0.0055205608 4280979523
-0.016312823 0.0054317713 -0.0044273371 4280914499
-0.014271393 0.004811421 -0.0040444816 4281240899
-0.012326963 0.0049132407 -0.004370735 4281240898
-0.010277189 0.0042935982 -0.0039891647 4281371203
-0.0080061406 0.0022314787 -0.0021938095 4281567554
-0.0053870492 -0.0019937009 0.0017195474 4281827144
-0.0029620603 -0.0047746673 0.0042146966 4283918144
-0.035889074 0.0035493821 -0.0030123433 4281567554
-0.034097508 0.0051005781 -0.0047614658 4281307709
-0.032241091 0.0059260353 -0.0057976069 4281175874
-0.030077323 0.0038504228 -0.0039898613 4281110594
-0.028139696 0.0039509833 -0.0043156231 4281305924
-0.026201889 0.0040516704 -0.0046413289 4281305668
-0.024263903 0.0041524693 -0.0049669938 4281174853
-0.02241464 0.0049780384 -0.0060015032 4281044294
-0.020479016 0.0050789416 -0.0063266093 4281044294
-0.018543236 0.0051799566 -0.0066516632 4281044804
-0.016510323 0.004556857 -0.0062691243 4281305668
-0.014372215 0.0032100379 -0.0051802853 4281305668
-0.012427911 0.0033118278 -0.0055065351 4281240899
-0.010273367 0.0019661486 -0.0044203335 4281436738
-0.0081079304 0.0006211102 -0.0033358987 4281436229
-0.0056002587 -0.0028937906 -0.00013727881 4282153798
-0.035918199 0.0012252331 -0.0034343526 4281241153
-0.034123793 0.0027809739 -0.0051807771 4281045313
-0.032114059 0.0021535829 -0.0047965692 4281306434
-0.030098744 0.0015265942 -0.004413222 4281175873
-0.028158575 0.0016272664 -0.0047394307 4281371203
-0.026134811 0.0010008663 -0.0043573137 4281371203
-0.024191581 0.0011019185 -0.0046838727 4281436484
-0.022248171 0.0012030825 -0.0050103907 4281240644
-0.020396061 0.0020311475 -0.0060437573 4281240133
-0.018455021 0.0021324158 -0.0063697146 4281371459
-0.016416989 0.0015073121 -0.0059895953 4281240644
-0.014373451 0.00088265538 -0.0056103673 4281306179
-0.012324378 0.00025838614 -0.0052319933 4281632833
-0.010269783 -0.00036545843 -0.00485445 4281502274
-0.0082096681 -0.00098890066 -0.0044777524 4281371203
-0.0060337298 -0.002337724 -0.0033981372 4282415173
-0.036017314 -0.00037297606 -0.004568221 4281957703
-0.034150288 0.00045724213 -0.0056030247 4281044803
-0.0322133 0.00055751204 -0.0059288647 4281241153
-0.030276105 0.00065791607 -0.0062546488 4281371203
-0.028419293 0.0014879182 -0.0072875144 4281436993
-0.026401192 0.00085904449 -0.0069060996 4281437503
-0.024291612 -0.00049870461 -0.005819289 4281502019
-0.02225972 -0.001126647 -0.0054400414 4281566789
-0.020313598 -0.0010252595 -0.0057669487 4281371203
-0.018273324 -0.0016525388 -0.0053889435 4281240644
-0.016420886 -0.00082210451 -0.0064205918 4281240644
-0.01447431 -0.00072035193 -0.0067473371 4281371203
-0.01242552 -0.0013468415 -0.0063705165 4281632833
-0.010266431 -0.0027011782 -0.0052914899 4281503038
-0.0082038939 -0.0033267811 -0.0049167741 4281763904
-0.0060257092 -0.0046798885 -0.0038407911 4283004734
-0.036116384 -0.0019709021 -0.0057018884 4283856434
-0.03417702 -0.0018706396 -0.0060282219 4283661359
-0.032237463 -0.0017702579 -0.0063545071 4283597608
-0.030297719 -0.0016697645 -0.0066807531 4283792683
-0.028438196 -0.00083743781 -0.0077124964 4283922734
-0.02641768 -0.00146842 -0.0073331054 4284383009
-0.024391606 -0.0020990521 -0.0069545172 4284447524
-0.02235999 -0.0027292445 -0.006576838 4284511783
-0.020414002 -0.0026278794 -0.0069037322 4284707623
-0.018374003 -0.0032574013 -0.0065272953 4284576043
-0.022185497 -0.021407016 -0.0075965561 4283984698
-0.020574398 -0.018317744 -0.010698892 4283660593
-0.018798873 -0.016722552 -0.012412942 4283399474
-0.016842812 -0.016620539 -0.012741449 4282874683
-0.014788345 -0.017264664 -0.012378528 4282809148
-0.012728363 -0.017908379 -0.012016434 4282743614
-0.010766514 -0.01780571 -0.012345657 4282351168
-0.0086981952 -0.01844874 -0.011984792 4282286143
-0.0066243857 -0.019091353 -0.011624757 4281828928
-0.0044333413 -0.020479128 -0.010576382 4281958979
-0.0023458526 -0.021120779 -0.010218464 4281958979
-0.00036999583 -0.021016769 -0.01054959 4282024513
0.0016059503 -0.020912625 -0.010880642 4281958469
0.0037044846 -0.021553315 -0.010524303 4281959744
0.0059336834 -0.022938445 -0.0094818622 4281827144
0.0084294863 -0.025812253 -0.0070683211 4282023493
0.011338621 -0.030918419 -0.00260041 4282415684
0.01428552 -0.036022514 0.0018613171 4283132233
-0.022024684 -0.025276437 -0.0066724941 4282872899
-0.020495169 -0.021428972 -0.010461092 4282090049
-0.018806905 -0.019080356 -0.012863599 4281764159
-0.016848288 -0.018978238 -0.013192549 4281829439
-0.014889531 -0.018876001 -0.01352144 4281829439
-0.01282984 -0.019521952 -0.01316091 4281698369
-0.010868147 -0.019419298 -0.013490114 4281697603
-0.008693926 -0.020812601 -0.012442347 4281698113
-0.0066176914 -0.021457352 -0.012084279 4281500998
-0.004535988 -0.022101641 -0.011727069 4281435973
-0.0025630817 -0.021997921 -0.012057804 4281306179
-0.00059007108 -0.021894068 -0.012388468 4281240388
0.0015027002 -0.02253738 -0.012032833 4281436229
0.0034785792 -0.022433132 -0.012363795 4281500998
0.0055795908 -0.023075774 -0.012009371 4281436229
0.0081970282 -0.026705638 -0.0089163333 4281370183
0.011232764 -0.032574251 -0.0037744986 4281826888
0.01431163 -0.038440466 0.0013602022 4283001419
-0.021951899 -0.028407544 -0.006447725 4282414918
-0.020596318 -0.023046583 -0.011608548 4281501509
-0.019000366 -0.019940406 -0.014695477 4281370438
-0.017044619 -0.01983846 -0.015023969 4281371459
-0.014990702 -0.02048704 -0.014664147 4281370949
-0.013031982 -0.020384669 -0.014992952 4281305669
-0.011073127 -0.020282209 -0.015321698 4281370693
-0.0090080798 -0.020929828 -0.01496347 4281370438
-0.0069375485 -0.021577045 -0.014606092 4281435464
-0.0048615113 -0.022223845 -0.014249533 4281305414
-0.0027799867 -0.022870295 -0.013893772 4281305158
-0.00092666596 -0.022016868 -0.014909074 4281110084
0.0011604317 -0.022662766 -0.014554068 4281109828
0.0031307712 -0.022558808 -0.014884103 4281174854
0.005351007 -0.023953214 -0.013846595 4281109319
0.0078372955 -0.026845172 -0.011444207 4281239369
0.010866348 -0.032731801 -0.0063140104 4281956938
-0.022315122 -0.027779959 -0.0096714497 4282283594
-0.020697415 -0.024663895 -0.012755796 4281304903
-0.019008607 -0.022302061 -0.015148871 4281239368
-0.016955122 -0.022953004 -0.014790673 4281240134
-0.014896125 -0.023603529 -0.014433295 4281435974
-0.012831628 -0.024253666 -0.014076777 4281370438
-0.010968074 -0.023398161 -0.015092611 4281305668
-0.0090038776 -0.023295298 -0.015422173 4281370184
-0.0070395544 -0.023192286 -0.015751656 4281239369
-0.0049638227 -0.023841336 -0.015396655 4281239623
-0.0028825887 -0.024490006 -0.015042447 4281304903
-0.00091258064 -0.024386309 -0.015372608 4281174343
0.0011768937 -0.025034256 -0.01501964 4281044038
0.0031497777 -0.024930157 -0.015350088 4281174088
0.0052474998 -0.025577396 -0.014998317 4281174089
0.0079879835 -0.029980868 -0.011238758 4281238603
0.010760833 -0.034382567 -0.0074845077 4281826124
-0.022590518 -0.027894497 -0.012198608 4281956428
-0.020798489 -0.02628091 -0.013902836 4281173833
-0.019017063 -0.024667799 -0.015605167 4281304649
-0.01696118 -0.025320858 -0.015248988 4281239623
-0.01489979 -0.025973484 -0.014893621 4281305159
-0.012832873 -0.026625738 -0.014539056 4281370439
-0.010760464 -0.027277544 -0.014185369 4281173069
-0.0089999288 -0.025664896 -0.015883803 4281303884
-0.007033065 -0.02556175 -0.016213708 4281238604
-0.0050660968 -0.025458485 -0.016543549 4281107533
-0.0028713048 -0.026863627 -0.015508495 4281238349
-0.00089876354 -0.026759826 -0.015839092 4281238348
0.0011931211 -0.027409822 -0.015488107 4281304139
0.0031685308 -0.027305603 -0.015818994 4281499979
0.0053932816 -0.028708652 -0.014788583 4281238348
0.0080108121 -0.032371625 -0.01171948 4281368654
0.010655332 -0.036033019 -0.0086547928 4282019668
-0.022952154 -0.027241975 -0.015404653 4281693524
-0.021078549 -0.026382178 -0.016419455 4281042254
-0.019117981 -0.026280135 -0.016748864 4281173069
-0.017062381 -0.026935384 -0.016394205 4281369164
-0.015001275 -0.02759026 -0.016040411 4281696583
-0.012934648 -0.028244764 -0.015687402 4281631304
-0.010965489 -0.028141759 -0.016017888 4280845649
-0.0089961961 -0.028038621 -0.016348299 4280780113
-0.0071351454 -0.027178586 -0.017360419 4281302863
-0.0051683486 -0.027075335 -0.017690238 4281237839
-0.0030876957 -0.027728461 -0.017339125 4281107023
-0.0010015965 -0.028381139 -0.016988877 4280780879
0.0010899752 -0.02903337 -0.016639441 4281042508
0.0029434413 -0.028173134 -0.017649781 4281368909
0.0052895471 -0.030336648 -0.015943009 4281171794
0.0079062134 -0.034010686 -0.01288172 4281171029
-0.023139559 -0.02809608 -0.017233498 4281757528
-0.021268643 -0.027234241 -0.018246271 4281172048
-0.019310929 -0.027132362 -0.018575203 4281302609
-0.017258301 -0.027789995 -0.018221658 4281628753
-0.01520016 -0.028447211 -0.017868947 4281497428
-0.013136521 -0.029104024 -0.017517071 4281758549
-0.011170201 -0.029001191 -0.017847091 4281494878
-0.0092037693 -0.028898224 -0.018177044 4281494369
-0.0072372109 -0.028795123 -0.018506914 4281886558
-0.0053814501 -0.027933091 -0.019516427 4282017374
-0.021837138 -0.029762141 -0.023706716 4282275179
0.020724773 0.0098203644 0.029893896 4285163054
0.022898562 0.0092422515 0.030279966 4285688353
0.02566883 0.0059200004 0.033563733 4285754144
0.034007523 0.0056719258 0.032920688 4285493278
0.035087783 0.0098941997 0.028244631 4285558558
0.036135685 0.014114797 0.023574082 4285886233
0.038317688 0.013537936 0.023959363 4286017049
0.041521132 0.0088515952 0.028670045 4286017048
0.015328646 0.014131933 0.022862328 4285426979
0.017053831 0.015616119 0.021078458 4285493278
0.018910494 0.016411237 0.020020353 4285624093
0.020906735 0.016517647 0.019686764 4285689883
0.023345862 0.014559068 0.02152242 4285821209
0.025951516 0.011913285 0.024078051 4285689628
0.028272759 0.010644898 0.02518581 4285558813
0.030293398 0.010753013 0.024848433 4285559069
0.031838838 0.012924552 0.022347407 4285689883
0.033368088 0.015095368 0.019849109 4285821209
0.034717344 0.017952897 0.016633248 4285689629
0.037044007 0.016685277 0.017740512 4285623839
0.03988903 0.013356768 0.021004388 4285689374
0.044479944 0.003159292 0.0314539 4285689373
0.013486508 0.010990292 0.023473291 4285098283
0.014265805 0.017317459 0.016627705 4285689883
0.016111638 0.01811412 0.015572941 4285755673
0.01795214 0.018910546 0.014519179 4285557794
0.020076841 0.018325359 0.014910227 4285557793
0.022354454 0.017049961 0.016021958 4285689373
0.024943229 0.014394395 0.018574005 4285755673
0.027247872 0.013120681 0.019681325 4285689628
0.029252201 0.013227925 0.019346675 4285624349
0.030940015 0.014715262 0.017572762 4285624093
0.03261704 0.016202182 0.015800694 4285952533
0.034119621 0.018378273 0.013311759 4285755163
0.036437768 0.01710581 0.014417203 4285689373
0.038935747 0.015144587 0.016238848 4285689628
0.043167368 0.0062915981 0.025232101 4285755674
0.012978781 0.011414208 0.020132178 4285098539
0.013751142 0.017760947 0.013302147 4285362463
0.015449673 0.019252598 0.011529079 4285690904
0.017563269 0.018664449 0.011920344 4285887254
0.019682311 0.018076748 0.012310738 4285886999
0.02210144 0.016103804 0.014140129 4285886998
0.02438676 0.01482451 0.015247392 4285755419
0.026530176 0.014238432 0.01563395 4285689884
0.028212745 0.0157298 0.013864029 4285624093
0.030042654 0.016528502 0.012814088 4285624093
0.031867165 0.01732707 0.011765087 4285755418
0.03368628 0.0181254 0.010717098 4285886998
0.035832413 0.017539978 0.011103572 4285821463
0.038490642 0.014879987 0.013638144 4285755928
0.041856848 0.0094552785 0.019032622 4285690394
0.012873046 0.0097645 0.018962482 4284900914
0.013510168 0.016826831 0.011426538 4285427999
0.015206158 0.018322766 0.0096570831 4285493534
0.017174996 0.018427588 0.0093279798 4285624349
0.019432858 0.017142154 0.010436526 4285624093
0.021554366 0.016552463 0.010824976 4285624094
0.023981057 0.014573365 0.012648374 4285624094
0.026118807 0.013984755 0.013034265 4285624094
0.027796134 0.015480332 0.011268385 4285624348
0.029936617 0.014892027 0.011654016 4285624349
0.031600472 0.016387112 0.0098905452 4285623838
0.033580277 0.016493365 0.0095602237 4285623838
0.035394005 0.017293721 0.0085148066 4285623839
0.038046133 0.014624558 0.011044003 4285624093
0.041062731 0.01056923 0.014998222 4285558558
0.046201549 -0.0018072203 0.027513066 4285493534
0.013542011 0.01450181 0.01099137 4285361954
0.01510191 0.0167 0.0085065402 4285493789
0.016928963 0.017502323 0.0074598007 4285624348
0.01875069 0.018304482 0.0064140446 4285689628
0.021155205 0.016317487 0.0082362201 4285755164
0.02357595 0.014331445 0.010055814 4285689628
0.025860472 0.013043314 0.011156935 4285624093
0.027535256 0.014543176 0.0093946736 4285689883
0.029830599 0.013255849 0.010494148 4285624348
0.03149461 0.014755361 0.0087338462 4285624093
0.033474285 0.014861614 0.0084035471 4285755163
0.034956183 0.017056689 0.0059325062 4285820953
0.037433594 0.015074424 0.0077431835 4285886743
0.040269788 0.011701256 0.010976631 4285755164
0.045221064 -1.9989908e-05 0.022752693 4285689884
0.013845831 0.010772541 0.011987243 4285295908
0.014997683 0.015077531 0.0073562004 4285624859
0.016541757 0.017281562 0.0048789233 4285690138
0.018358089 0.018085688 0.0038356148 4285952789
0.020609766 0.016791157 0.0049388669 4286018069
0.023171447 0.014098674 0.0074698143 4285952533
0.025602434 0.012106657 0.0092829205 4285755163
0.027739661 0.01151365 0.0096658245 4285689884
0.029724592 0.011619955 0.0093344841 4285624349
0.031228388 0.013822652 0.0068644434 4285689883
0.032715991 0.01602459 0.0043971837 4285755418
0.034353185 0.017527267 0.0026447568 4285886744
0.036821935 0.015537947 0.0044520497 4285886489
0.039649189 0.012153178 0.0076790266 4285886744
0.044415899 0.0010917708 0.018718967 4285886488
0.01374092 0.0091370493 0.010827642 4285426468
0.014616173 0.01485958 0.0047761817 4285493534
0.016296498 0.016368046 0.0030189976 4285624093
0.017966092 0.017876022 0.0012637302 4285557794
0.02021195 0.016576789 0.0023647118 4285623329
0.022618085 0.014576651 0.0041771345 4285820698
0.025192576 0.011876099 0.0066996217 4285689373
0.02716927 0.011981852 0.0063695777 4285689629
0.028988447 0.012788847 0.0053278357 4285624093
0.030481746 0.014997616 0.0028643422 4285689884
0.03228474 0.015803955 0.0018254537 4285886998
0.033751059 0.018011495 -0.00063338503 4285557538
0.036042832 0.016715549 0.00046060048 4285492003
0.03885844 0.01331915 0.0036814958 4285558303
0.043264471 0.00362207 0.013279874 4285624094
0.012956906 0.011024341 0.0060990714 4285492004
0.013819687 0.016763866 6.2519684e-05 4285689884
0.015627902 0.017571807 -0.00097628683 4285821464
0.017286859 0.019083671 -0.0027266219 4285623839
0.01952152 0.017779373 -0.0016269293 4285623583
0.0219163 0.015772022 0.00018254668 4285755164
0.024327289 0.013765618 0.0019894447 4285755673
0.02644507 0.01316718 0.0023723468 4285689629
0.028096069 0.014679119 0.00062377378 4285624349
0.02973628 0.016190633 -0.0011229627 4285624348
0.031365708 0.017701663 -0.002867762 4285887254
0.032984331 0.01921225 -0.0046107341 4285821208
0.035264894 0.01791127 -0.0035180766 4285755673
0.038068857 0.014503181 -0.00030323118 4285755674
0.041941203 0.0068818405 0.0071523432 4285821209
0.047635574 -0.0077594593 0.021668913 4285755419
0.012310039 0.012227349 0.0020987876 4285688354
0.013163041 0.017984122 -0.0039233733 4285558558
0.014819399 0.019500151 -0.0056701694 4285821719
0.016608801 0.020309411 -0.0067041535 4285886998
0.018832255 0.019000076 -0.0056058001 4285821463
0.021364853 0.016279444 -0.0030891951 4285887254
0.023615323 0.014971823 -0.0019952282 4285624348
0.025567487 0.015076265 -0.0023211781 4285558813
0.027362403 0.015886374 -0.00335568 4285558558
0.029151935 0.016696312 -0.0043891985 4285558814
0.03109872 0.016800798 -0.0047140084 4285558814
0.032714799 0.018315688 -0.0064533483 4285624604
0.034992248 0.01701013 -0.0053633638 4285624604
0.037451178 0.015000477 -0.0035687387 4285558813
0.040793419 0.0094683021 0.001753062 4285493534
0.045587778 -0.0016977638 0.012711741 4285493278
0.012645792 0.018513635 -0.0071862619 4285558558
0.014435153 0.019324996 -0.0082187243 4285624603
0.016219176 0.020136185 -0.0092502106 4285624093
0.018436804 0.018822126 -0.0081541333 4285558558
0.020814288 0.01680053 -0.0063513182 4285493023
0.023056243 0.015488021 -0.0052591339 4285493023
0.025154602 0.01488407 -0.0048761442 4285558814
0.026944127 0.015696153 -0.0059081893 4285559068
0.029047891 0.015092708 -0.0055259466 4285559069
0.030669525 0.016612202 -0.0072631016 4285559069
0.032610774 0.016716525 -0.0075868908 4285493533
0.034719892 0.016113758 -0.0072053373 4285493278
0.037175566 0.014097244 -0.0054149292 4285427234
0.039820667 0.011374816 -0.0029227501 4285427744
0.044071145 0.0022927672 0.0059012678 4285427743
0.012819912 0.0155017 -0.0068961792 4285493023
0.014473882 0.017026454 -0.0086361859 4285558813
0.016404081 0.01712928 -0.0089587867 4285559069
0.01862669 0.015811034 -0.0078666918 4285624859
0.021008987 0.013783082 -0.0060695261 4285624604
0.023104351 0.013176642 -0.0056877192 4285624603
0.025050845 0.013280787 -0.0060127154 4285690394
0.027311277 0.011965051 -0.0049266582 4285624858
0.02926318 0.012069725 -0.0052523874 4285558814
0.031377438 0.01146479 -0.0048734536 4285624603
0.033166971 0.012279376 -0.0059036165 4285690394
0.035118844 0.012384385 -0.006229097 4285559068
0.037241139 0.011780217 -0.0058512567 4285559068
0.039541945 0.010467306 -0.0047713825 4285559069
0.043436021 0.0027742386 0.0026279166 4285558048
0.049531754 -0.01342161 0.018440315 4285558048
0.012993485 0.012481228 -0.0066122301 4285492258
0.014793638 0.013297565 -0.0076433141 4285557794
0.01687514 0.012687877 -0.0072610788 4285557794
0.018962063 0.012078583 -0.0068796724 4285557793
0.021351885 0.010044359 -0.0050885165 4285624093
0.023455042 0.0094361603 -0.0047096508 4285557793
0.025563607 0.0088283718 -0.0043316102 4285492003
0.027677584 0.0082209483 -0.0039543426 4285558304
0.029796951 0.0076139569 -0.003577943 4285492514
0.031759493 0.0077193081 -0.0039053718 4285492259
0.033557124 0.00853654 -0.0049352823 4285492769
0.035349332 0.0093536675 -0.0059642447 4285558558
0.037647046 0.0080360472 -0.004887131 4285558559
0.039955497 0.006719172 -0.003811772 4285492769
0.04403162 -0.0017091334 0.0042697117 4285492768
0.049599487 -0.015822276 0.017943135 4285558304
0.013442136 0.0080212578 -0.004923326 4285492259
0.015253078 0.0088403821 -0.005954613 4285558049
0.017201874 0.0089441836 -0.0062803319 4285558558
0.019442495 0.0076180696 -0.005197688 4285558303
0.021842528 0.0055777654 -0.0034130244 4285558304
0.024107471 0.0042531788 -0.0023342827 4285558304
0.02607525 0.004358463 -0.002662831 4285558049
0.027886359 0.0051782876 -0.0036936561 4285492769
0.030010832 0.0045693815 -0.0033196853 4285492513
0.032140695 0.0039608628 -0.0029465491 4285492258
0.03394641 0.0047807544 -0.0039762063 4285558048
0.035914183 0.0048866272 -0.0043043355 4285492768
0.038052078 0.0042788982 -0.0039322777 4285558049
0.040713895 0.001530841 -0.0014620554 4285558559
0.044801619 -0.0069233477 0.0065983478 4285492768
0.013752017 0.0042614937 -0.003950716 4285491748
0.015571028 0.0050832927 -0.0049818074 4285557793
0.017670836 0.0044700876 -0.0046058008 4285492514
0.019921809 0.0031401142 -0.0035280818 4285492513
0.022183597 0.0018108189 -0.0024520876 4285492258
0.024305061 0.0011991337 -0.0020794384 4285492513
0.026278086 0.0013046861 -0.0024088752 4285492514
0.028094582 0.0021270663 -0.0034390287 4285492513
0.029905705 0.0029492229 -0.0044681663 4285492513
0.032035276 0.0023384839 -0.0040965723 4285492513
0.034005616 0.0024443716 -0.0044252137 4285558303
0.036143258 0.0018342733 -0.0040547429 4285558304
0.038286261 0.0012246072 -0.0036851373 4285558049
0.040780041 -0.00081624091 -0.0019201394 4285493023
0.045043956 -0.010012537 0.0068185385 4285360678
0.013648488 0.0026483908 -0.0050944285 4285557029
0.015747949 0.0020328909 -0.0047200853 4285557539
0.01799576 0.00069817901 -0.0036451295 4285492513
0.019963175 0.00080308318 -0.0039738845 4285558048
0.022078924 0.00018880516 -0.0036020055 4285492513
0.024049088 0.00029408187 -0.003931053 4285492513
0.026172977 -0.0003195703 -0.0035603177 4285558049
0.027989473 0.00050501525 -0.0045888778 4285558049
0.029800592 0.0013293773 -0.0056164199 4285492513
0.031929873 0.00071643293 -0.0052463673 4285558048
0.034064554 0.00010383129 -0.0048770886 4285558048
0.036204591 -0.00050830841 -0.004508663 4285492513
0.038350001 -0.0011200458 -0.0041410476 4285492513
0.041018456 -0.0038854256 -0.0016846936 4285361189
0.045285746 -0.01311031 0.0070327129 4285361189
0.013544995 0.0010356307 -0.0062379036 4285425958
0.015644167 0.00041787326 -0.0058651306 4285557793
0.017891549 -0.00092126429 -0.00479329 4285558049
0.020004276 -0.0015380606 -0.0044226069 4285557538
0.022122443 -0.0021544695 -0.0040526818 4285623074
0.024246015 -0.0027704239 -0.0036836229 4285623073
0.026374988 -0.0033859909 -0.0033153985 4285426214
0.028353125 -0.0032800287 -0.0036455896 4285426469
0.030490208 -0.0038949028 -0.0032785255 4285361443
0.032632686 -0.0045094043 -0.0029122327 4285361188
0.035109192 -0.0065647736 -0.0011542309 4285360933
0.037100784 -0.0064576119 -0.0014863219 4285229608
0.039262071 -0.0070706829 -0.0011229385 4285294888
0.041773554 -0.0091238394 0.00062953867 4285294888
0.046052281 -0.018376842 0.0093242824 4285229098
0.013853237 -0.0027498007 -0.0052835699 4285425449
0.015960209 -0.0033693463 -0.0049136896 4285491749
0.018215246 -0.0047125593 -0.0038462933 4285426468
0.020335775 -0.0053311363 -0.003478501 4285557794
0.022461716 -0.0059493035 -0.0031115245 4285557028
0.024593091 -0.0065671057 -0.0027453359 4285360169
0.026883271 -0.0079078898 -0.0016834792 4285359914
0.029340349 -0.0099713504 7.2741881e-05 4285360679
0.031972393 -0.012756966 0.0025219638 4285295144
0.034464501 -0.014818251 0.0042724758 4285164329
0.036972776 -0.016878575 0.0060204305 4285097774
0.020521253 -0.0084111094 -0.0032398906 4286146078
-0.014475882 -0.0030537769 -0.0071817134 4284904229
-0.012526609 -0.0029517934 -0.0075088423 4285231904
-0.010367945 -0.0043105781 -0.0064329449 4285165603
-0.0083056837 -0.0049384087 -0.006059777 4285165094
-0.036284894 -0.0028340369 -0.0075411294 4285165094
-0.034203947 -0.0042027086 -0.0064563211 4285033003
-0.032336727 -0.0033679456 -0.0074879657 4285164073
-0.030241944 -0.0047356784 -0.0064053256 4285361189
-0.028457329 -0.003166914 -0.0081404094 4285229864
-0.026268475 -0.0052676424 -0.0063559581 4285295908
-0.024320245 -0.0051663965 -0.0066834036 4285295909
-0.022371866 -0.0050650239 -0.007010797 4285295908
-0.020423323 -0.0049635619 -0.007338142 4285296419
-0.018474638 -0.0048619583 -0.0076654311 4285230118
-0.016429365 -0.0054933354 -0.0072914008 4285361188
-0.014576793 -0.0046583861 -0.0083198324 4285361444
-0.012627669 -0.0045564324 -0.0086469483 4285361444
-0.010573916 -0.0051870048 -0.008274084 4285361444
-0.0085146502 -0.0058171749 -0.007902069 4285361188
-0.036314346 -0.0051658601 -0.0079686139 4285229354
-0.034231119 -0.0065388456 -0.0068873931 4285426724
-0.032361194 -0.0057018176 -0.0079178754 4285360678
-0.030264154 -0.0070738345 -0.0068388674 4285426468
-0.028316416 -0.0069728643 -0.0071664173 4285426723
-0.026120037 -0.0090798512 -0.0053880308 4285492513
-0.024249405 -0.0082423091 -0.0064183678 4285426978
-0.022295773 -0.0081406832 -0.0067466516 4285361188
-0.020432882 -0.0073033646 -0.0077754781 4285426978
-0.018388055 -0.0079371184 -0.0074030776 4285427233
-0.016337678 -0.0085704848 -0.0070314687 4285361443
-0.014479727 -0.0077330247 -0.0080592595 4285427234
-0.012525357 -0.0076308101 -0.0083872695 4285492513
-0.010675214 -0.0067935586 -0.0094135311 4285558304
-0.008509174 -0.0081607699 -0.0083451625 4285492514
-0.036205567 -0.0089797154 -0.0069937278 4285229098
-0.034258522 -0.00887914 -0.0073214155 4285492513
-0.032385893 -0.0080397949 -0.0083507802 4285492258
-0.030286573 -0.0094161183 -0.0072753532 4285492513
-0.028256282 -0.010053396 -0.0069025112 4285492513
-0.026055083 -0.012166783 -0.005129748 4285492259
-0.024179056 -0.011326835 -0.006159368 4285492513
-0.022220194 -0.011224955 -0.006488557 4285492513
-0.020351917 -0.010385178 -0.0075167073 4285492513
-0.018208534 -0.011758536 -0.0064482009 4285492513
-0.01624652 -0.01165615 -0.0067776656 4285492514
-0.014383174 -0.010816276 -0.0078047337 4285492768
-0.012525082 -0.0099765509 -0.008830837 4285558559
-0.010776468 -0.0083998293 -0.010552775 4285493025
-0.0085039586 -0.010508448 -0.0087912241 4285426978
-0.03602846 -0.013547704 -0.0053270003 4285228843
-0.034286156 -0.011223555 -0.0077583632 4285492513
-0.032485306 -0.0096410289 -0.0094867703 4285426979
-0.030386381 -0.0110218 -0.0084144725 4285426979
-0.028276518 -0.012401976 -0.0073439153 4285492514
-0.026155733 -0.013781413 -0.0062751463 4285492514
-0.024194457 -0.013679549 -0.0066048289 4285492513
-0.022320971 -0.01283741 -0.0076323608 4285558049
-0.020452708 -0.011995435 -0.0086589316 4285558304
-0.018309727 -0.013373256 -0.00759356 4285558048
-0.016347848 -0.0132709 -0.0079230117 4285492513
-0.014385827 -0.013168409 -0.0082524 4285558304
-0.012423679 -0.01306583 -0.0085817417 4285558559
-0.010565475 -0.01222378 -0.0096061965 4285493023
-0.0084989741 -0.012860239 -0.0092402091 4285427234
-0.032510325 -0.011985041 -0.0099239666 4285426979
-0.030486152 -0.012627214 -0.0095534036 4285361444
-0.028296977 -0.014754623 -0.0077882884 4285426979
-0.026173905 -0.01613836 -0.0067230975 4285361444
-0.024210095 -0.016036406 -0.0070532383 4285426724
-0.022333913 -0.015191942 -0.0080796359 4285427233
-0.020553425 -0.013605401 -0.0098009547 4285427234
-0.01859723 -0.013503484 -0.010129555 4285426978
-0.016545027 -0.014143392 -0.0097631244 4285426978
-0.014487281 -0.014782876 -0.0093975281 4285427234
-0.012626521 -0.01393865 -0.010420925 4285427233
-0.010667071 -0.013836071 -0.010749727 4285427233
-0.0087074935 -0.013733387 -0.011078465 4285426979
-0.032461375 -0.01507847 -0.0096670808 4285427233
-0.03043209 -0.01572267 -0.009298957 4285361443
-0.028238103 -0.017856419 -0.00753948 4285361699
-0.026192337 -0.018499479 -0.0071739992 4285361189
-0.024141006 -0.019142151 -0.0068093119 4285361189
-0.0223471 -0.017550603 -0.0085298447 4285426979
-0.020473458 -0.016703948 -0.0095541505 4285361188
-0.018698066 -0.01511316 -0.011271349 4285426724
-0.016550422 -0.016499475 -0.010213076 4285426469
-0.014490284 -0.017141074 -0.0098494953 4285361188
-0.012525722 -0.01703839 -0.010179254 4285361444
-0.010561042 -0.016935557 -0.010508946 4285295653
-0.0087027252 -0.016089007 -0.01153016 4285229608
