# .PCD v0.7 - Point Cloud Data file format
VERSION 0.7
FIELDS x y z rgba
SIZE 4 4 4 4
TYPE F F F U
COUNT 1 1 1 1
WIDTH 931
HEIGHT 1
VIEWPOINT 0 0 0 1 0 0 0
POINTS 931
DATA ascii
-0.0032270662 -0.039537843 0.045374066 4286071618
-0.0044032447 -0.036918078 0.039966121 4287511604
-0.005576998 -0.03427178 0.034577847 4287118903
-0.012011316 -0.046854574 0.042230904 4288758554
-0.0083437078 -0.053937774 0.048678532 4289870353
-0.0064370148 -0.053061012 0.047523133 4290001424
-0.012321025 -0.047805462 0.040296689 4288099888
-0.008982338 -0.053459447 0.045350537 4290194458
-0.0069188327 -0.053306583 0.044887081 4289215003
0.019179005 -0.012997333 0.0013150424 4286594369
0.026919503 -0.03233749 0.019166572 4286594369
0.034367807 -0.050223786 0.035632916 4286594369
0.039742537 -0.060887333 0.045310147 4286856254
0.04229375 -0.062170949 0.04619021 4287117119
-0.012311865 -0.050207701 0.039742015 4287053114
-0.0096197538 -0.052967679 0.04203251 4289277989
0.0087072141 -0.0057307519 -0.006951578 4286463809
0.011212017 -0.0077630021 -0.0053414293 4286856763
0.013732808 -0.0097938962 -0.0037348196 4287249463
0.016689233 -0.013271999 -0.00077827275 4287575864
0.021159694 -0.021816362 0.0069051497 4287641143
0.028921306 -0.041213486 0.024707021 4287641143
0.035955496 -0.057705086 0.039777137 4287575863
0.040686958 -0.066229433 0.047402389 4287510328
0.042804655 -0.066069901 0.046928801 4287378238
-0.0097708739 -0.054652538 0.04078193 4288557868
-0.0046367086 -0.00084616244 -0.012363116 4287119668
-0.002395764 -0.0021631755 -0.011421437 4287249463
4.6871603e-05 -0.004207138 -0.0098027885 4287445813
0.0026991777 -0.0069773979 -0.0075089801 4287576883
0.0051765181 -0.0090184994 -0.0058979746 4287904559
0.0074709244 -0.010331128 -0.0049679 4287838768
0.0095743686 -0.01091576 -0.0047170259 4287772724
0.011887453 -0.012226705 -0.0037909993 4287838259
0.014211223 -0.013536785 -0.0028672353 4287772724
0.017384123 -0.017751638 0.00075452309 4287838004
0.021650432 -0.02559517 0.0077416971 4287968563
0.028984599 -0.043598566 0.02415028 4288099378
0.036234327 -0.060865995 0.039855883 4287968309
0.040968582 -0.069416165 0.047460601 4287968309
0.043091454 -0.069256246 0.046985857 4287378749
-0.0097604506 -0.057069305 0.040215828 4287380278
-0.0091248341 -0.0079071261 -0.0074779149 4287577649
-0.0074223243 -0.0070362799 -0.008580314 4287839279
-0.0051767156 -0.0083574988 -0.00764318 4287773489
-0.0031058155 -0.0089474581 -0.0073871557 4287838768
-0.0010295436 -0.009536881 -0.007132303 4287707699
0.00086133555 -0.0093957596 -0.0075561851 4287903539
0.0031391308 -0.010714132 -0.0066259261 4287903794
0.0054276474 -0.012031641 -0.0056979419 4287969329
0.0075280666 -0.012618784 -0.0054481444 4287838258
0.0096338354 -0.013205428 -0.0051994682 4287707443
0.011949062 -0.014520604 -0.0042772074 4287903794
0.014274945 -0.01583482 -0.0033572917 4287838004
0.017239761 -0.019333955 -0.00041925441 4287838004
0.021715816 -0.027929921 0.0072229933 4287968563
0.028832775 -0.045259465 0.02291829 4287903284
0.036077559 -0.062579304 0.038585067 4287903284
0.040589198 -0.07042785 0.045499325 4287772215
0.043154724 -0.071723342 0.046366163 4287182398
-0.011810508 -0.059642475 0.040109538 4286856509
-0.010072965 -0.058021326 0.038281456 4286987833
-0.0095749311 -0.016190048 -0.0020837937 4286137409
-0.0089094043 -0.010916088 -0.0072646234 4288230704
-0.0075613745 -0.0085766949 -0.0097234268 4288296493
-0.0053162947 -0.0099023022 -0.0087895133 4288099888
-0.003060475 -0.011227038 -0.007857874 4288165679
-0.00098187476 -0.011818442 -0.0076052006 4288034864
0.00091152266 -0.011677157 -0.0080296658 4287969329
0.0033847094 -0.013731737 -0.0064277579 4288034608
0.0054820925 -0.014321398 -0.0061790352 4288034609
0.0077834092 -0.015642133 -0.0052572102 4288231214
0.0096929371 -0.015499178 -0.0056849294 4288099888
0.012010291 -0.016818527 -0.0047664777 4288034609
0.0143383 -0.018136907 -0.0038503567 4288034609
0.017304637 -0.021646786 -0.00092099328 4287969073
0.021568943 -0.029538143 0.0060300343 4287903283
0.028466422 -0.046189692 0.021015868 4288034098
0.0354864 -0.062831923 0.035974383 4287837494
0.039770469 -0.069974884 0.04220257 4287575353
0.042104919 -0.070545524 0.042399153 4287247934
-0.011961725 -0.061330725 0.038856387 4287837493
-0.0095412247 -0.018487487 -0.0025649397 4286595388
-0.0088718012 -0.013198096 -0.0077350293 4288296239
-0.0071611889 -0.01232234 -0.0088359397 4288492844
-0.0049086474 -0.013651725 -0.0079070255 4288296493
-0.0024603195 -0.015715007 -0.0063047996 4288230958
-0.0007468462 -0.014838699 -0.0074060974 4288100654
0.001342129 -0.015431378 -0.0071573281 4288100399
0.0034364648 -0.016023565 -0.0069096806 4288100399
0.0055361725 -0.016615216 -0.0066631446 4288100399
0.007442873 -0.016472597 -0.0070903255 4288099888
0.0093496032 -0.016329858 -0.0075174319 4288034608
0.011663757 -0.017653782 -0.0066015786 4288165679
0.014194917 -0.019709904 -0.0050172554 4288362029
0.017160121 -0.023230705 -0.0020959522 4288427308
0.021633778 -0.031878825 0.0055069383 4288296493
0.028314842 -0.047847796 0.019785959 4288230958
0.034896046 -0.063075453 0.033370376 4287968309
0.038733289 -0.06877628 0.038247958 4287575353
-0.012271117 -0.062279742 0.03692352 4286333504
-0.0098562874 -0.019313525 -0.00440183 4287511094
-0.0088345557 -0.015484143 -0.0082084341 4288295983
-0.0071212165 -0.014606025 -0.0093083018 4288230958
-0.0048665479 -0.015939597 -0.0083832024 4288034864
-0.0027860105 -0.016535375 -0.0081343492 4287904304
-0.00088761374 -0.016393829 -0.0085600195 4288231469
0.0012010112 -0.016988736 -0.0083128577 4287969583
0.0036807097 -0.019055787 -0.0067224344 4288035118
0.005589895 -0.018913109 -0.0071502747 4287904303
0.0074991174 -0.018770296 -0.0075780218 4287904304
0.0092075355 -0.017891612 -0.0086760661 4288034609
0.011317637 -0.018484328 -0.0084332703 4288035118
0.013845408 -0.020547237 -0.0068531232 4288493609
0.017015636 -0.024814297 -0.0032706778 4288363303
0.021486755 -0.03348862 0.0043128189 4287905834
0.028377434 -0.050240342 0.019223686 4287643949
-0.0098228902 -0.021614727 -0.0048857862 4286857784
-0.0086209737 -0.018514041 -0.0080106994 4288230958
-0.0065435842 -0.019112397 -0.007763016 4288427564
-0.0046427958 -0.018970925 -0.0081894146 4288035119
-0.0027419403 -0.01882932 -0.008615735 4288231724
-0.0010283515 -0.017948683 -0.0097137401 4288428329
0.0010599419 -0.018545758 -0.0094681485 4288232234
0.0033462457 -0.019880872 -0.0085531315 4287839788
0.0052526332 -0.01973838 -0.0089803273 4287773744
0.0071590431 -0.019595791 -0.009407456 4287577649
0.0090654902 -0.019453082 -0.0098344991 4287054133
-0.01013748 -0.022435803 -0.0067189978 4286792504
-0.0087611042 -0.020068508 -0.0091642896 4288231468
-0.0070423447 -0.019185621 -0.010262101 4288034864
-0.0051470213 -0.019044552 -0.010687272 4287904048
-0.0034360997 -0.018162075 -0.011783115 4287970349
-0.0011690557 -0.019503232 -0.010867241 4287511859
0.00053930655 -0.018620659 -0.011962361 4287382573
-0.0019548349 -0.033252608 0.053714693 4283000398
-0.0026698261 -0.024208296 0.041483216 4282345814
-0.0019473545 -0.029398192 0.043754734 4282149974
-0.0048746802 -0.00944658 0.023726204 4282082908
-0.0017491281 -0.032480981 0.043916121 4282346068
-0.003074795 -0.018852014 0.030208735 4282346578
-0.0014557801 -0.027593721 0.035959989 4282411859
-0.0017807819 -0.028527837 0.03404294 4282411094
-0.0046087131 -0.0091132559 0.014865883 4282149463
-0.0029862337 -0.025877718 0.028666528 4282541653
-0.0043942071 -0.012131084 0.015072621 4282346069
-0.0052451678 -0.018892456 0.01916407 4282476884
-0.0061455555 -0.007260453 0.0076792128 4282151503
-0.0073579699 -0.0045104735 0.0023813946 4282217804
-0.0081684254 -0.011266042 0.006465897 4282542673
-0.0085679777 -0.0017339326 -0.0028967881 4281892169
-0.0095794462 0.0099593028 -0.014303395 4281363809
-0.0088853054 -0.0025532432 -0.0047278772 4281630284
-0.0091735497 0.0062777624 -0.013368396 4281172814
-0.0095579214 -0.001914572 -0.0079232482 4281761099
-0.0085882731 0.0018569231 -0.011759619 4281564493
-0.0080939047 -0.052962858 0.027399095 4282869328
-0.0087410025 -0.052400637 0.024137868 4283459144
-0.0095912777 -0.039665688 0.012193805 4282673998
0.021339756 -0.035098109 0.0031189341 4283525954
0.028439652 -0.052636918 0.018658426 4283526209
0.034151051 -0.065008834 0.029513011 4283134273
0.037540905 -0.069271907 0.033036716 4283263813
-0.010073457 -0.039796103 0.0096461587 4282021198
0.010626689 -0.020131517 -0.012086184 4282938178
0.012736125 -0.020728473 -0.011846454 4281893189
0.015684605 -0.024283011 -0.0089463303 4281826633
0.021192785 -0.036707256 0.0019252906 4281826888
0.028287744 -0.05429842 0.017425999 4281826888
0.033995599 -0.066707432 0.028253114 4281826633
0.037165031 -0.070244864 0.031104175 4281694288
-0.015400264 -0.064504296 0.03093045 4283131468
-0.01072311 -0.039172892 0.0064325463 4282086989
-0.011499766 -0.027115878 -0.0047610397 4282673998
-0.0052872039 -0.02059659 -0.011838987 4284114493
-0.0033919662 -0.020455439 -0.01226407 4282939964
-0.0016835853 -0.019570861 -0.013357586 4283005243
0.00020910427 -0.019429658 -0.013781914 4282220609
0.0022940971 -0.02003121 -0.013538833 4281959233
0.0045793802 -0.021374989 -0.012630097 4281827653
0.0066777617 -0.021975297 -0.012389832 4281827654
0.0085812472 -0.021832813 -0.012816214 4281827909
0.010281859 -0.020948116 -0.013907443 4281827909
0.012593849 -0.022289362 -0.013004367 4281762374
0.015541188 -0.025854807 -0.010112299 4281826888
0.021256728 -0.039057631 0.0013950104 4281892934
0.027922319 -0.055218328 0.015531238 4281827398
0.03340774 -0.066923454 0.025669517 4281892168
0.036570698 -0.07047224 0.028513758 4282411858
-0.010867234 -0.040776823 0.0052421102 4282739788
-0.011811662 -0.02793831 -0.0065960549 4282608463
-0.01128564 -0.021824572 -0.012384764 4282675018
-0.0097455978 -0.020191487 -0.014148029 4282675273
-0.0078586228 -0.020051178 -0.014571435 4282479944
-0.0056087561 -0.021402467 -0.013658575 4282218823
-0.0037163198 -0.021261517 -0.014083029 4282089283
-0.0016370937 -0.021865908 -0.013840503 4282023749
6.8724155e-05 -0.020979259 -0.014931702 4281697093
0.002345439 -0.02232812 -0.014024463 4281500998
0.0044381171 -0.022931147 -0.013784676 4281501254
0.0065361485 -0.023533661 -0.013545995 4281763138
0.0084394924 -0.023391183 -0.013972344 4281762883
0.010545561 -0.023992855 -0.013735285 4281502018
0.012451598 -0.023849938 -0.014162054 4281762884
0.015397798 -0.027426284 -0.011278035 4281827398
0.020898916 -0.039924685 -0.00046133529 4281892934
0.027770663 -0.056877013 0.014300905 4281892679
0.033252738 -0.068617046 0.024413338 4282022984
0.036414534 -0.072176725 0.027249536 4282477394
-0.011011321 -0.042380426 0.0040519079 4283131978
-0.01195256 -0.029504914 -0.0077587459 4282674509
-0.011598349 -0.022625122 -0.014202761 4282087498
-0.010060724 -0.020987857 -0.015962213 4281761353
-0.0078194402 -0.02234428 -0.015050799 4281761864
-0.0055674538 -0.023699749 -0.014141744 4281631304
-0.0034886189 -0.024306502 -0.013900846 4281565768
-0.0017774925 -0.023417372 -0.014991716 4281500743
0.00030677766 -0.024023484 -0.014751855 4281566279
0.0023964085 -0.024629038 -0.014513139 4281566279
0.0044913962 -0.025234062 -0.014275538 4281631813
0.0063945651 -0.025091711 -0.014701938 4281697859
0.008497607 -0.025695901 -0.014465956 4281633088
0.010403486 -0.025553111 -0.014892781 4281502274
0.012514547 -0.026156452 -0.014658399 4281567299
0.015254434 -0.02899747 -0.012443548 4281632324
0.020752024 -0.041532923 -0.0016542887 4281762373
0.027192729 -0.057044093 0.011752147 4281827909
0.032450318 -0.068073928 0.021181231 4281957703
0.035166007 -0.070154533 0.022694835 4282346578
-0.015688952 -0.060355354 0.018696632 4282869838
-0.013834961 -0.05945472 0.017574463 4283002439
-0.011155363 -0.043983746 0.0028619291 4283524934
-0.011752684 -0.032573227 -0.007586712 4282477903
-0.011391532 -0.025673453 -0.014017342 4281956428
-0.010024007 -0.023280878 -0.016440736 4281565769
-0.007958971 -0.023891043 -0.016198644 4281566024
-0.0057075322 -0.025250886 -0.015292801 4281631049
-0.0038127229 -0.025109772 -0.015717793 4281435209
-0.0019178577 -0.024968538 -0.016142707 4281434954
0.00035506859 -0.026326459 -0.015241351 4281500999
0.0024470091 -0.026934016 -0.015004834 4281501254
0.004544314 -0.02754103 -0.014769411 4281566789
0.0060560368 -0.025900472 -0.016518954 4281762884
0.0081560649 -0.026507039 -0.01628395 4281698113
0.010463748 -0.027861703 -0.01538996 4281240899
0.012577131 -0.028467085 -0.015157729 4281109828
0.015526369 -0.032064836 -0.01229099 4281436228
0.020605151 -0.043140847 -0.0028470149 4281631558
0.026615607 -0.057202075 0.009210065 4281631558
0.031864721 -0.068265021 0.018616123 4281760844
-0.016150188 -0.060495663 0.016135588 4282608973
-0.014301497 -0.059593227 0.015016209 4282936649
-0.012404419 -0.031884018 -0.010749092 4282218568
-0.011703953 -0.026471231 -0.015833288 4281826633
-0.0099876672 -0.025577936 -0.016922338 4281761609
-0.0077421553 -0.026942674 -0.016018577 4281631049
-0.0054859146 -0.028306533 -0.015117075 4281566024
-0.0035859384 -0.028165046 -0.015543249 4281696329
-0.0018720403 -0.027271446 -0.016631387 4281696838
0.00021418929 -0.027881701 -0.01639533 4281632069
0.0023057871 -0.028491441 -0.016160389 4281632068
0.0045968704 -0.029852059 -0.015266296 4281763393
0.0063082762 -0.028958131 -0.016353486 4281632578
0.0084132887 -0.029566508 -0.016121272 4281633344
0.010321524 -0.029423546 -0.016548626 4281763903
0.01263934 -0.030781705 -0.015660089 4282025789
0.015382659 -0.033639785 -0.013459293 4282483768
0.020248219 -0.04399826 -0.0046962011 4283006264
0.026252072 -0.058101077 0.0073308237 4283006009
0.031064551 -0.067697287 0.015402293 4283329604
-0.016767297 -0.059870552 0.012914181 4282476373
-0.014767189 -0.059722755 0.012464687 4282935883
-0.01177796 -0.045678262 -0.00084662344 4284507703
-0.012205046 -0.034958277 -0.01058148 4282937924
-0.011498034 -0.029529918 -0.015655492 4281630793
-0.0097763836 -0.028634001 -0.016744114 4281369929
-0.0077040419 -0.029248003 -0.016506948 4281565513
-0.0056263134 -0.029861432 -0.016270932 4281696838
-0.0039097629 -0.028965581 -0.017358098 4281827654
-0.0020125397 -0.028824177 -0.017783549 4281827909
7.3347241e-05 -0.029436637 -0.017549086 4281828418
0.0021645986 -0.030048568 -0.017315729 4281894718
0.004455138 -0.031413559 -0.016424835 4281959489
0.0063631833 -0.03127085 -0.016852327 4282155838
0.0082712509 -0.031128045 -0.017279752 4282548028
0.010179345 -0.030985076 -0.017707065 4284314158
0.012496602 -0.032347608 -0.016821727 4284640559
-0.015232056 -0.059843246 0.0099198595 4282870604
-0.013075504 -0.060453851 0.010135859 4283590723
-0.012515765 -0.035768289 -0.012407295 4283133253
-0.011982642 -0.029567543 -0.018131228 4281761609
-0.010091152 -0.02942704 -0.018555762 4281566279
-0.0078440495 -0.030800384 -0.017658979 4281631558
-0.0059470981 -0.030659255 -0.01808456 4281893188
-0.0038669892 -0.031274546 -0.017850649 4282220098
-0.002152998 -0.030376609 -0.018935483 4282286654
0.00012094527 -0.031747419 -0.018044388 4284509743
0.030542934 -0.070292428 0.012265692 4284704308
-0.015696131 -0.059954684 0.0073816888 4282476628
-0.011949688 -0.031874765 -0.018619675 4282744888
-0.010055684 -0.03173409 -0.019044783 4283400238
-0.007984031 -0.032352474 -0.018810794 4284380714
-0.016318098 -0.059294458 0.0041886782 4282476118
-0.014014121 -0.060672928 0.0050654514 4282607188
-0.014643434 -0.060004268 0.001880913 4282410838
-0.013156619 -0.057564478 -0.00053982157 4283328074
-0.015432552 -0.058555406 -0.0019514533 4282476629
-0.013955951 -0.056109902 -0.0043649306 4282217548
-0.016059235 -0.057857905 -0.005114526 4282411349
-0.014590189 -0.05540644 -0.0075213648 4281697348
-0.016363438 -0.058689404 -0.0069586644 4282411094
-0.014733344 -0.057002623 -0.0087061338 4281565259
-0.013943527 -0.051462535 -0.013717704 4283983678
-0.016827688 -0.058742885 -0.0094523029 4282411348
-0.015039537 -0.057825353 -0.010542986 4281369163
-0.014085416 -0.05304322 -0.014890913 4282940728
-0.017291095 -0.058787394 -0.011939225 4282017629
-0.015508246 -0.057868067 -0.013027102 4281562709
-0.01422729 -0.054623615 -0.016063921 4282218823
0.0064375214 0.036355596 0.042778909 4281946483
-0.0080899857 0.037046894 0.040940218 4281683579
-0.00581697 0.03587579 0.041984849 4281355904
-0.00335164 0.034048714 0.043763578 4282077808
-0.0014227852 0.0341927 0.043331206 4281947249
0.00069301948 0.033680364 0.043634094 4280504713
0.001487568 0.037761845 0.038793318 4279324318
0.001481384 0.04446502 0.031023515 4278734248
0.0038770214 0.049336743 0.025047028 4278993074
0.0071489699 0.044888958 0.029753732 4278271933
-0.014110498 0.04310387 0.03178402 4281881203
-0.011928245 0.049319014 0.024315393 4278599864
-0.0093543977 0.046820924 0.026840167 4278337469
-0.0067591034 0.04432448 0.029360177 4278340018
-0.0046943538 0.043806069 0.029672766 4279062433
-0.0028108358 0.043946709 0.029250586 4278734504
-0.001495216 0.046062604 0.026629375 4278341293
0.000309553 0.052922901 0.018470543 4279847579
0.0023559816 0.052403416 0.018787464 4279913113
0.0052078031 0.049253989 0.022025781 4279061669
0.009505 0.041504942 0.030368289 4279061413
-0.017355449 0.03862562 0.034426764 4279063198
-0.016972199 0.044726118 0.027376471 4278735013
-0.016295902 0.04949918 0.021808097 4278734504
-0.0081670173 0.047406413 0.023080485 4278864553
-0.0061211996 0.046884358 0.023395682 4278733993
-0.004256431 0.047023583 0.022977693 4278865318
-0.002958972 0.049144622 0.020365542 4278537134
-0.018155668 0.039726965 0.030330809 4278932128
-0.01794897 0.046510726 0.022563012 4278800804
-0.015965931 0.053426854 0.014396857 4278996643
-0.014136299 0.053563189 0.013986539 4279258784
-0.0068108663 0.047340866 0.020065304 4278472363
-0.005140435 0.048142426 0.018918755 4278668713
-0.0034752749 0.048943702 0.017773392 4278865319
-0.0023901463 0.051732305 0.014441835 4278602668
0.0063895918 0.047650684 0.017879387 4278603178
0.010298699 0.04117417 0.024724593 4278800549
-0.018295344 0.038178995 0.029182075 4280439434
-0.018923696 0.04831744 0.01776595 4278538918
-0.0076826923 0.04847607 0.016015494 4278734248
-0.0056506954 0.047948688 0.016330415 4278603433
-0.0038020089 0.048086733 0.015916048 4278669224
-0.0023360439 0.049554374 0.014046662 4278668968
-0.00049255416 0.049692154 0.013633553 4278865574
0.0013509803 0.049830005 0.013220487 4278800294
0.003393963 0.049303763 0.013533195 4278669224
0.0050381906 0.050105911 0.012394473 4278930598
0.0077007897 0.047588866 0.01487972 4278799528
0.013288442 0.035783492 0.02749555 4278996388
-0.017447814 0.032617521 0.0324248 4281487739
-0.018893238 0.046133768 0.017373027 4278800803
-0.018576737 0.052288078 0.010382822 4278668714
-0.016755369 0.052423682 0.0099742692 4279127204
-0.014583498 0.051223021 0.011024762 4279061413
-0.012400869 0.050023265 0.012072843 4278865574
-0.010207463 0.048824377 0.013118559 4278538154
-0.0081864893 0.04829387 0.013434267 4278603944
-0.0061600991 0.047763877 0.013748763 4278407083
-0.0041283034 0.047234342 0.01406209 4278603944
-0.0024734922 0.04803919 0.012922464 4278734759
-0.00063009188 0.048176955 0.012509368 4278734503
0.001213368 0.048314787 0.01209631 4278603178
0.0063349083 0.05006066 0.0094115175 4278403003
0.010659646 0.042209167 0.017667722 4278403003
-0.018195126 0.041262131 0.019895654 4279587734
-0.018202927 0.04877859 0.011458976 4278603944
-0.016545966 0.04958529 0.010320164 4278734503
-0.014719233 0.049721342 0.0099104438 4278538409
-0.0090554468 0.049460161 0.0094075035 4278271679
-0.0066686869 0.047588058 0.011173707 4278536368
-0.0048308372 0.04772526 0.010761743 4278669478
-0.0028019063 0.047193352 0.011074135 4278473129
-0.00096125901 0.047330897 0.010661645 4278668713
0.00068310648 0.0481373 0.0095260721 4278340274
0.0017251931 0.050948985 0.0062243398 4278995624
0.0029476359 0.053090829 0.0036492702 4278472874
0.0051757954 0.051890761 0.0046842983 4278274484
-0.016498182 0.032329943 0.026770363 4281487739
-0.017321859 0.043237358 0.0147078 4278604199
-0.014854919 0.048219852 0.0087962616 4278472363
-0.012101989 0.051852848 0.0043516103 4278599609
-0.0099227838 0.050644182 0.0053938944 4278730933
-0.0051558688 0.046886414 0.008917829 4278930854
-0.0035114996 0.047694802 0.0077838525 4278603943
-0.0020658597 0.049174011 0.0059290677 4278603433
0.002005823 0.054277908 -0.0003410317 4279062433
0.0044269748 0.052402258 0.0014128471 4278931619
0.0076913647 0.047847319 0.0060394406 4278603434
0.012459455 0.038605586 0.015687056 4278341294
-0.014472283 0.021999091 0.035062298 4281881203
-0.016612377 0.038345151 0.017211441 4280046224
-0.016473267 0.045232736 0.0095423553 4278407338
-0.01458203 0.052250903 0.0014803503 4278996644
-0.012956534 0.053059775 0.00035205763 4279521178
-0.010971081 0.052520066 0.0006706221 4278865064
-0.00823915 0.049285077 0.0038769357 4278930599
-0.0044104643 0.048883148 0.0037824633 4278865318
-0.0029751845 0.050365925 0.0019333316 4278668713
-0.001746472 0.052521147 -0.00063323416 4278537643
0.010226563 0.043788206 0.0073770285 4278275248
0.016099505 0.031159738 0.020572441 4278472619
-0.016242959 0.034785867 0.018250613 4280963713
-0.017124373 0.045758687 0.0062544197 4278866338
-0.013989199 0.054961033 -0.0043562166 4278405809
-0.0067433082 0.048602134 0.0016401885 4278602923
-0.0051173978 0.049413506 0.00051362347 4278603434
-0.0036898144 0.05090005 -0.0013304511 4278538154
-0.0026643276 0.053736556 -0.0046085361 4278407083
-0.001263313 0.055221256 -0.0064465483 4278996134
0.00073027611 0.054680455 -0.0061311107 4279061669
0.0033404566 0.052115913 -0.0036675627 4278996389
0.0057655871 0.050227612 -0.0019245893 4278735014
0.0086249076 0.046991847 0.0012453543 4278604199
0.012569612 0.040387537 0.0079824552 4278604198
-0.0089399219 -0.0049502812 0.058028221 4282536808
-0.015199192 0.028495634 0.022170389 4281226109
-0.017431166 0.044939347 0.0044203382 4278472873
-0.017352153 0.051866014 -0.003201839 4278536113
-0.016088277 0.054036394 -0.0057666702 4278273209
-0.0099887773 0.051722631 -0.0040927227 4278733738
-0.0074411295 0.049144268 -0.0016221777 4278734248
-0.0054426938 0.048601355 -0.0013097273 4278800039
-0.0040174648 0.050092064 -0.0031499453 4278734758
-0.0027984045 0.052259609 -0.0057043382 4278472874
-0.00100068 0.052394044 -0.0061071352 4278669224
0.00099796429 0.05185144 -0.0057945033 4278603944
0.0034090504 0.049955431 -0.0040534195 4278407083
0.0052175447 0.050090894 -0.0044584544 4278406319
-0.016538139 0.039354093 0.0076320115 4280177293
-0.017485276 0.050391652 -0.0042959261 4278341548
-0.016220897 0.05256857 -0.0068558799 4278865574
-0.014613736 0.053382542 -0.007975094 4278603689
-0.012647815 0.052834798 -0.0076572029 4278472363
-0.0104918 0.051606979 -0.006623093 4278734503
-0.0081377141 0.049699776 -0.0048746294 4278669224
-0.0057675503 0.047793809 -0.0031296681 4278603944
-0.0039593503 0.04792887 -0.0035349336 4278472874
-0.0025417656 0.049423419 -0.0053700511 4278603944
-0.00073879957 0.04955823 -0.0057740319 4278603689
0.0010642149 0.04969313 -0.0061779581 4278668969
0.0028672554 0.049828108 -0.0065818317 4278472108
0.0062647276 0.050777033 -0.0081014363 4278403514
0.0086991861 0.048876468 -0.0063704252 4278403259
0.014145803 0.037480764 0.0053079221 4278337468
-0.0094133131 0.00077814609 0.045767039 4282405483
-0.015134007 0.031691678 0.012980485 4281226109
-0.016575508 0.044816535 -0.0010811863 4278604199
-0.01582405 0.049051054 -0.0057923715 4278668968
-0.014029637 0.049184702 -0.006194836 4278407083
-0.0044790134 0.047807794 -0.006064781 4278603689
-0.0028713308 0.048624445 -0.0071821641 4278472874
-0.0010711215 0.048759051 -0.0075855274 4278472363
0.00052865222 0.049575232 -0.0087009687 4278603178
0.0033006743 0.052568868 -0.012350022 4279651228
0.0050876662 0.052702788 -0.012750193 4278931364
0.0077192374 0.050113954 -0.010311308 4278733229
-0.012707699 0.019874722 0.022602418 4281422458
-0.015494447 0.038529634 0.002830727 4279129244
-0.015428342 0.045520619 -0.0047384594 4278538409
-0.014162861 0.047710702 -0.0072886189 4278472363
-0.0051901266 0.048380021 -0.009300312 4278274484
-0.0033953935 0.048514131 -0.0097025158 4278799783
-0.0019958429 0.050016135 -0.011526912 4278668969
-0.00040662661 0.050833695 -0.012638325 4278471853
0.0023446642 0.053834472 -0.016276065 4278536369
0.0041208938 0.053967576 -0.016673829 4279520158
0.0067409091 0.051369172 -0.014239034 4278995878
0.01023671 0.046041645 -0.0089788521 4278602414
-0.014589526 0.032900214 0.0060051531 4281029758
-0.015562013 0.044040311 -0.0058369534 4278604199
-0.013771616 0.051181603 -0.013776156 4278799528
-0.012179978 0.052001033 -0.014886817 4279258784
-0.010593593 0.052820161 -0.015996225 4278669223
-0.0082548298 0.050892226 -0.01425929 4278864299
-0.0060920976 0.049652096 -0.013236595 4278733994
-0.0041133836 0.049099106 -0.012926325 4278864808
-0.0027215146 0.050604839 -0.014745623 4278472874
-0.0013402812 0.052109897 -0.016562521 4278865574
0.0015956983 0.054432295 -0.019481216 4278272444
0.0092476346 0.047296293 -0.012903996 4278338744
0.013205891 0.040584367 -0.0062533002 4279061159
-0.012994058 0.024484484 0.01201321 4281160574
-0.015519761 0.041870367 -0.0062226569 4278866338
-0.015679006 0.049591113 -0.014460003 4278537644
-0.0048301369 0.049697414 -0.016140176 4278668968
-0.0032487735 0.050518684 -0.017246606 4278603689
-0.0018725656 0.052027661 -0.019059004 4278341548
-0.00030444935 0.052848067 -0.020162294 4278407083
0.0012583621 0.053668145 -0.021264341 4278603944
0.0036473535 0.051738035 -0.019543286 4278407083
0.0058418289 0.050496425 -0.018530585 4278276013
0.0082601756 0.048568673 -0.016815979 4278472618
0.010910403 0.045955297 -0.014401183 4278735269
0.016423039 0.034416795 -0.002851008 4278735269
-0.010710422 0.013256192 0.02083542 4281160828
-0.015302181 0.039004244 -0.0059004277 4279128733
-0.01616741 0.049516823 -0.016962741 4278341548
-0.0075078011 0.050867721 -0.019654792 4278799783
-0.0055456832 0.050309125 -0.019344155 4278603944
-0.0037751943 0.050441481 -0.019740881 4278735014
-0.0022043437 0.051264163 -0.020843191 4278603944
-0.00063879415 0.052086547 -0.021944242 4278603944
0.0011264607 0.052218743 -0.022339612 4278931364
0.003307078 0.050971709 -0.021327252 4278472618
0.0054983795 0.049725562 -0.020317215 4278276013
0.0070613213 0.050548077 -0.02141743 4278537134
-0.0077409782 -0.00081091747 0.032452293 4281817964
-0.013681445 0.030575626 9.0627931e-05 4281225853
-0.01576421 0.045981299 -0.015914839 4278604709
-0.015613563 0.05235834 -0.022687418 4278341548
-0.013859469 0.05248905 -0.023080792 4278866084
-0.012105301 0.052619848 -0.02347412 4278735013
-0.0097846314 0.050670996 -0.021748215 4278603689
-0.0080223382 0.050802566 -0.022143239 4278734759
-0.0060658418 0.050241329 -0.021832973 4278538409
-0.0039071701 0.048987973 -0.020819288 4278538409
-0.0019372627 0.048427943 -0.020511944 4278473129
-0.00016413629 0.048560649 -0.020909142 4278538664
0.0014041997 0.049385484 -0.022009093 4278603689
0.0031746998 0.049518161 -0.022405576 4278341548
0.0047350712 0.050342567 -0.023503613 4278472363
0.011129335 0.047285467 -0.021191537 4278664889
0.017326709 0.033602275 -0.0076053338 4278664889
-0.011363473 0.019317735 0.0088804513 4281226108
-0.01465036 0.039647974 -0.012047864 4279980944
-0.015201855 0.048830222 -0.021636304 4278603944
-0.01343986 0.048961505 -0.02203146 4278603943
-0.011863749 0.049788509 -0.023131937 4278407083
-0.0020695105 0.046972465 -0.021591783 4278735014
-0.00029648468 0.047105163 -0.021988958 4278407594
0.0012719408 0.04793217 -0.023087271 4278734758
0.0026277937 0.049452916 -0.024884906 4278276014
0.0043928698 0.04958526 -0.025280114 4278733995
0.0055201128 0.051798645 -0.027773486 4279389089
0.0074924678 0.051237132 -0.02746797 4279520414
0.0099060461 0.049289584 -0.025767142 4278731953
-0.013005953 0.03118897 -0.0060867919 4281029503
-0.01425001 0.043194488 -0.018479856 4278866849
-0.013204478 0.046119053 -0.021695998 4278538408
-0.011994459 0.048344295 -0.024203565 4278865319
-0.0022017248 0.045517232 -0.022671444 4278538409
-0.00042881072 0.045649901 -0.023068612 4278669734
0.00093530491 0.047175519 -0.024864834 4278603943
0.0045389161 0.053139821 -0.031634435 4278536879
0.0060701519 0.053966559 -0.032722481 4279258529
0.008684773 0.051315829 -0.030326329 4278865318
-0.011010334 0.021285217 0.0012498638 4281291644
-0.013841186 0.039634038 -0.017452745 4279522199
-0.01351852 0.045368742 -0.023475055 4278341803
-0.012681786 0.04900039 -0.027381422 4278275249
-0.011306968 0.05053062 -0.02917712 4278995879
-0.010133646 0.052759808 -0.03167133 4278866084
-0.0080084987 0.051490761 -0.030660173 4279061669
-0.0054802112 0.048824169 -0.028251894 4278996389
-0.0033283383 0.04755732 -0.027246648 4278603179
-0.0013673045 0.046990182 -0.026942262 4278800549
-1.3560057e-05 0.048519365 -0.028732831 4278407083
0.0013295263 0.050047886 -0.030520987 4278537898
0.015627608 0.038984448 -0.021078885 4278734504
0.023739589 0.019603185 -0.0020718602 4278341039
-0.0090194233 0.011329249 0.0085476879 4281488503
-0.01343349 0.036060669 -0.016435156 4280112013
-0.014380205 0.046730269 -0.027354022 4278604198
-0.012188807 0.051905833 -0.033039909 4278471344
-0.010644276 0.052737128 -0.034128204 4278603689
-0.008718323 0.052164923 -0.033817831 4278668968
-0.0021028258 0.047647163 -0.030105801 4278800549
-0.00075680017 0.049180161 -0.031891346 4278734758
0.00057859719 0.050712392 -0.033674411 4278407083
0.001903329 0.052243959 -0.035455063 4278669224
0.003429424 0.053074576 -0.036538683 4278473638
0.0051648654 0.053204883 -0.036927119 4278604709
0.0079870187 0.049836233 -0.033848777 4278735269
0.010615814 0.047169276 -0.031469069 4278735268
0.013933944 0.042405773 -0.027017597 4279194014
0.020218806 0.028555509 -0.013584241 4278866593
-0.0072103478 0.0020259954 0.015106136 4281423478
-0.013026945 0.032474414 -0.015427133 4281160574
-0.014875297 0.04670037 -0.029820884 4279063454
-0.0047815517 0.048890293 -0.033564225 4278407338
-0.0028371327 0.048317567 -0.033259459 4278735014
-0.0010911711 0.048448306 -0.033650517 4278931618
0.00065480545 0.04857913 -0.034041516 4278735014
0.0024007969 0.048710044 -0.034432456 4278735013
0.0041467957 0.048841059 -0.034823317 4278931618
0.0061072633 0.048269968 -0.034521807 4278997409
0.0085073598 0.04629536 -0.032837953 4278800803
0.011143237 0.04362024 -0.030466503 4278604199
0.013800425 0.040946834 -0.028099734 4278276779
-0.011004865 0.022512589 -0.0081425719 4281095293
-0.014458053 0.043145578 -0.028791727 4279130008
-0.014551468 0.05034221 -0.036158182 4278472618
-0.013197117 0.051883955 -0.037939355 4278931363
-0.011282489 0.051306468 -0.03762985 4278996643
-0.0091695115 0.050023448 -0.036625996 4278996898
-0.0070458502 0.048741344 -0.035624515 4278931364
-0.0045149028 0.046048962 -0.033236779 4278931874
-0.0025654584 0.045474432 -0.032934804 4278997408
-0.00040703639 0.044195164 -0.031940863 4278866338
0.0017620549 0.042916831 -0.030949276 4278801059
0.0035239309 0.043048941 -0.031343762 4278473384
0.005497437 0.042476535 -0.031046856 4278538664
0.0094603971 0.041333254 -0.030456506 4278408104
0.011889089 0.039354384 -0.028783973 4278473638
0.020393424 0.02414326 -0.014436551 4278801059
-0.0086286068 0.011080198 0.00049692579 4281292408
-0.01294937 0.035324149 -0.02359472 4280833154
-0.013940759 0.046088222 -0.034428507 4278866848
-0.012762886 0.048343673 -0.036903843 4278736289
-0.011030659 0.04847293 -0.037292171 4278932129
-0.0085273534 0.045769595 -0.034905061 4278997408
-0.0063935332 0.044483919 -0.033909187 4278866593
-0.0040509179 0.042491332 -0.032222956 4278604709
-0.0018930398 0.04120763 -0.031232335 4278538919
0.00068236887 0.038510062 -0.028861091 4278408104
0.0024547763 0.038642868 -0.029258015 4278342569
0.0046447068 0.037361801 -0.028274313 4278407848
0.0066338778 0.036788449 -0.027982619 4278669988
0.0086283796 0.036215566 -0.027692061 4278932128
0.010628203 0.035643194 -0.02740261 4278866849
0.012852766 0.034365103 -0.026426375 4278801314
0.015310027 0.032382 -0.024765205 4278735779
0.021379119 0.019107878 -0.01212053 4278735779
-0.0055408888 -0.0032585189 0.011872057 4281623144
-0.010898512 0.02533021 -0.016342901 4281095294
-0.012408759 0.038262248 -0.029241545 4279980944
-0.0098301284 0.042078186 -0.03349673 4278408104
-0.007501632 0.040077835 -0.031812482 4278473384
-0.0053523146 0.038788922 -0.030823376 4278538918
-0.0029944293 0.036790997 -0.029145613 4278801058
-0.0012221821 0.036923602 -0.029542644 4278735523
0.0011597574 0.034927621 -0.027870081 4278538918
0.0031459294 0.034351669 -0.027579535 4278932128
0.0055545531 0.032357879 -0.025912803 4278801059
0.0073455237 0.032492273 -0.026313728 4278800804
0.0095642507 0.031209262 -0.0253397 4279063199
0.011577087 0.03063569 -0.025054835 4279128989
0.013595251 0.030062577 -0.024771038 4278735779
0.015840583 0.028781863 -0.023802739 4279194524
0.021913752 0.015466813 -0.011190626 4279194524
0.0476963 -0.052178126 0.053630613 4278735779
-0.0093974546 0.017424054 -0.011208773 4281226619
-0.011617761 0.033249743 -0.02685317 4280373898
-0.010775685 0.036946908 -0.030710682 4279390874
-0.0088220164 0.036365792 -0.030414954 4278866593
-0.0066706128 0.035072617 -0.029429778 4279063454
-0.0045084916 0.033780321 -0.028446876 4279063454
-0.0025333688 0.033201084 -0.028155742 4278801824
-0.00095359981 0.034046203 -0.029243343 4278932384
0.0012299307 0.032755829 -0.028265061 4278932384
0.0032184534 0.03217788 -0.02797671 4278801314
0.0056290291 0.030177729 -0.02631541 4278735779
0.0074225441 0.030312307 -0.02671691 4278866849
0.0096434169 0.029025119 -0.025746694 4278932384
0.011658611 0.028449511 -0.025463976 4278801824
0.01367911 0.027874449 -0.025182409 4279128989
0.016148264 0.025879225 -0.023533892 4279391128
0.022671528 0.011102751 -0.0095868241 4279391128
0.047537219 -0.053911459 0.052345075 4279128989
-0.0086259395 0.012340918 -0.0088691274 4281292153
-0.010644529 0.027500344 -0.023790056 4280308874
-0.010159276 0.032639876 -0.029023401 4279194778
-0.0081952587 0.032057293 -0.028731629 4278997918
-0.0060337074 0.030760543 -0.02775206 4278932384
-0.0040562786 0.030179212 -0.027463183 4278867359
-0.0022709705 0.030312689 -0.027863216 4278867359
-0.00048563257 0.030446263 -0.028263185 4278932384
0.0015025549 0.029866016 -0.027976502 4279063454
0.0037015826 0.028572515 -0.027004909 4278997919
0.005911272 0.027279947 -0.026035676 4278866849
0.0079208277 0.026701564 -0.025753502 4279063454
0.0099356957 0.026123716 -0.025472488 4279063454
0.011739749 0.026259286 -0.025876191 4279063454
0.013543783 0.026394963 -0.026279811 4278997919
0.016676651 0.022255577 -0.022588858 4278998429
0.023875998 0.0052968599 -0.0066321446 4278998429
0.047378145 -0.055644464 0.051059783 4278997919
-0.0087629035 0.010824706 -0.0099942517 4281359218
-0.010409523 0.024595002 -0.02350283 4279980688
-0.0095443986 0.02831557 -0.027348865 4279653013
-0.0079486519 0.029165819 -0.028437024 4278997919
-0.0059742518 0.028581981 -0.028149219 4278736034
-0.0041891076 0.028715339 -0.028549299 4278932894
-0.0022066273 0.02813231 -0.028263148 4278932894
-0.00041874126 0.028266063 -0.028663695 4278998429
0.0017744228 0.026967682 -0.027694196 4278801824
0.003567677 0.027102042 -0.028095791 4279129499
0.0059848092 0.025089364 -0.026445949 4279129499
0.007996697 0.024509022 -0.026166009 4278932894
0.010227185 0.023213878 -0.025204606 4278867359
0.012468344 0.021919593 -0.024245473 4279063964
0.015375974 0.018481504 -0.021244481 4279063454
0.019637879 0.010757286 -0.014164583 4278801569
0.02731749 -0.0076801218 0.0031053498 4278801569
0.047906898 -0.059519511 0.05181177 4279063454
-0.010175265 0.021681141 -0.023221847 4280767874
-0.0094903968 0.026132545 -0.027747916 4279521688
-0.0077028014 0.026265873 -0.028148707 4278867359
-0.0059151612 0.026399313 -0.028549429 4278801824
-0.0041274764 0.026532853 -0.028950084 4279063964
-0.002142638 0.025947779 -0.028666086 4279260569
4.7300011e-05 0.024644753 -0.027699322 4279129753
0.0024503618 0.022624299 -0.026051488 4279063964
0.0046643242 0.021323282 -0.02508994 4279195034
0.0068889745 0.020023111 -0.024130676 4279063964
0.0093346909 0.018006202 -0.022492204 4279063964
0.012222566 0.014555592 -0.019495266 4279064218
0.016215825 0.0075205564 -0.01310233 4279326104
0.020917572 -0.0016615838 -0.004681976 4279391639
0.026572891 -0.013706032 0.0064397305 4279195034
0.033437468 -0.029327024 0.02093417 4279195034
0.041777655 -0.049238022 0.039470404 4279195034
-0.010308921 0.020202596 -0.024318997 4280702848
-0.0090642609 0.022502039 -0.026779369 4279652503
-0.0072687976 0.022635963 -0.027181918 4279324573
-0.0052817203 0.022048712 -0.026900301 4278604708
-0.0034835003 0.022183038 -0.027303316 4278670499
-0.0010945387 0.020154815 -0.025657477 4279195034
0.0013104379 0.018127888 -0.024015147 4279326358
0.0039336458 0.015381809 -0.021694597 4280243593
0.0065781772 0.012637455 -0.019378792 4280440199
0.0090365 0.010614846 -0.017748162 4281424753
0.011510814 0.0085935369 -0.016121039 4282145384
-0.0093422569 0.014380004 -0.021310207 4280770169
-0.0082671903 0.017411027 -0.024452958 4279718038
-0.006081108 0.01609857 -0.023492267 4280111249
-0.0036929697 0.014063612 -0.021851443 4279783829
-0.0012887903 0.01202992 -0.020214085 4280636804
0.0011314154 0.0099975094 -0.01858025 4281095804
0.0037669875 0.0072436072 -0.016269257 4281357688
0.0066259466 0.003768675 -0.013282767 4281817963
-0.0063569658 0.0079421736 -0.018050082 4280965753
-0.0039536171 0.0059017278 -0.016417747 4281292664
-0.0013430528 0.0031369179 -0.014108008 4281685109
0.0010950305 0.0010992438 -0.012483248 4282144618
-0.0040981956 -0.029469039 0.07788755 4285425449
-0.017785728 -0.018224943 0.064537406 4285229863
-0.016051944 -0.0166994 0.062637098 4285426978
-0.013067733 -0.020669516 0.066499785 4285886234
-0.0089293756 -0.029443916 0.075391725 4285952024
-0.0029285364 -0.036682751 0.082354724 4285885723
-0.0065309368 -0.013198521 0.057477832 4285230119
-0.019153159 -0.014388528 0.057533868 4285361443
-0.017595172 -0.012170937 0.054922491 4285755928
-0.014951054 -0.014777903 0.05734393 4285689373
-0.010844681 -0.023582984 0.066221319 4285623328
-0.0052041225 -0.038580809 0.081538461 4285557538
-0.0025890432 -0.040488925 0.083212838 4285557793
-0.0044960268 -0.023812409 0.065549992 4285754908
-0.019757904 -0.013975028 0.054146573 4285164328
-0.018825676 -0.0089857019 0.048672147 4285690648
-0.016358327 -0.01091161 0.050374456 4285952788
-0.012435816 -0.019055728 0.058519289 4286018323
-0.0061734654 -0.036866959 0.076668598 4286018323
-0.002415888 -0.043617275 0.083346315 4286084114
-0.0031377375 -0.031721111 0.070722349 4285821209
-0.019754607 -0.016323488 0.053634822 4285032493
-0.018972803 -0.010625061 0.04745537 4285493279
-0.016663175 -0.011864137 0.04843761 4285558814
-0.012905519 -0.019341495 0.055848897 4285623839
-0.0066537 -0.037210118 0.07395722 4285623584
-0.0027385168 -0.044675592 0.081333295 4285623839
-0.0026213638 -0.03620569 0.072301596 4285624094
-0.0047826357 -0.018738504 0.054025486 4285230884
-0.01865736 -0.014351662 0.048381321 4285427998
-0.016497079 -0.014898907 0.0486449 4285559324
-0.012736358 -0.022400003 0.05603718 4285559068
-0.0066466182 -0.039629918 0.073389649 4285689629
-0.0028958656 -0.046424281 0.080035478 4285623838
-0.0026089884 -0.038622987 0.071734466 4286082074
-0.0032313801 -0.027352694 0.059893668 4284901168
-0.018343035 -0.018091131 0.049297713 4285296163
-0.016488347 -0.017244335 0.04813394 4285493534
-0.012727235 -0.024769362 0.055507749 4285624604
-0.0068018213 -0.041356403 0.072108276 4285624094
-0.003382422 -0.046778258 0.077317558 4285689373
-0.0027642287 -0.040347356 0.070454732 4286081819
-0.0025337972 -0.032526236 0.062184751 4285949984
-0.018337384 -0.020443019 0.048782669 4285295398
-0.017105695 -0.016793918 0.044778615 4285427744
-0.013673056 -0.022943992 0.050716862 4285559069
-0.0082511008 -0.037485715 0.065153994 4285623838
-0.0037036873 -0.047822606 0.075314865 4285885979
-0.002585236 -0.043469865 0.07059104 4285753889
-0.0021776594 -0.036323365 0.063045107 4285425193
-0.017721802 -0.01633003 0.041433193 4285361443
-0.01493467 -0.01969244 0.044526175 4285623838
-0.0098587535 -0.032877933 0.057518408 4285755673
-0.0046814568 -0.046055827 0.070487931 4285886234
-0.0027407594 -0.045198034 0.06930846 4285951259
-0.0021617636 -0.038730893 0.062484488 4285950494
-0.018024575 -0.017261546 0.039511897 4285295654
-0.015717339 -0.018522564 0.040477887 4285821208
-0.011140037 -0.029638503 0.051324032 4285820443
-0.0051650628 -0.046378311 0.067793354 4285820443
-0.0028962232 -0.046925928 0.068026081 4286082073
-0.0021462254 -0.041142572 0.061920844 4285819423
-0.015864316 -0.020160388 0.039262243 4285295143
-0.011773828 -0.029192846 0.047969602 4285755164
-0.0058116838 -0.045985755 0.064401783 4285820954
-0.003384646 -0.047242012 0.065337785 4285820188
-0.0026385225 -0.041441526 0.059246697 4285491238
-0.015536282 -0.023923624 0.040156536 4285163308
-0.011601448 -0.032275584 0.04813838 4285557794
-0.0058024637 -0.048412453 0.063828394 4285886489
-0.0033732876 -0.049672883 0.064760529 4286148374
-0.0027920343 -0.043146987 0.057980984 4286146078
-0.011590596 -0.034656208 0.047599815 4286016284
-0.006120488 -0.049422484 0.061851054 4286016284
-0.003860604 -0.049977403 0.062080771 4286342939
-0.01141949 -0.037753645 0.047757588 4285884703
-0.0062748045 -0.051140409 0.060575992 4286081564
-0.0040152632 -0.051697548 0.060804106 4286277404
-0.011569887 -0.039429706 0.046513565 4286015774
-0.0064290687 -0.052858021 0.059301168 4286147099
-0.011560034 -0.041822549 0.04596591 4285884448
-0.0067461319 -0.053858425 0.057331011 4286146844
-0.011550512 -0.04421952 0.045415252 4285818658
-0.0069000758 -0.055573251 0.056058228 4286408728
0.0024055727 -0.033117298 -0.01715558 4285034279
0.0047008991 -0.034486298 -0.016269028 4285099048
0.0066141076 -0.034343231 -0.016697705 4285294888
0.0085273534 -0.034200016 -0.01712627 4285295399
0.010440618 -0.034056667 -0.017554749 4285360679
0.012558265 -0.034668166 -0.017328488 4285360679
0.015509389 -0.038298246 -0.014487094 4285294888
0.020164698 -0.047962759 -0.0064238012 4285294379
0.025738629 -0.060639415 0.0042355945 4285294379
-0.0040074661 -0.032828864 -0.019004021 4285099303
-0.0021078773 -0.03268728 -0.019430004 4285099303
0.00035638735 -0.034820598 -0.017886095 4285099048
0.0024549328 -0.035436358 -0.017657652 4285360678
0.0045588277 -0.036051545 -0.017430354 4285295143
0.0064718872 -0.035908479 -0.01785899 4285425959
0.0085838325 -0.036522824 -0.017633306 4285426214
0.010499602 -0.036379281 -0.018062338 4285360424
0.012619559 -0.036992785 -0.017838266 4285229609
0.015572194 -0.040633563 -0.015005498 4285294634
0.02022743 -0.050326165 -0.0069637559 4285163053
0.025800478 -0.063039675 0.0036676144 4285163054
-0.012261182 -0.032662649 -0.020428287 4284902443
-0.010195281 -0.033283699 -0.020194795 4285033514
-0.0077692308 -0.035426889 -0.018647632 4285164074
-0.0055071935 -0.036807593 -0.017760776 4285164328
-0.0035998337 -0.036665592 -0.018188618 4285164073
-0.001692418 -0.036523428 -0.018616352 4285295653
0.00059108064 -0.037902225 -0.017734006 4285426979
0.0025039166 -0.037759427 -0.018162772 4285426469
0.0048034564 -0.039136726 -0.017283864 4285360934
0.006917689 -0.039753232 -0.017060407 4285360678
0.0090372637 -0.040369149 -0.016838077 4285360679
0.010960855 -0.040225063 -0.017268885 4285360678
0.013088441 -0.04084013 -0.017048169 4285294888
0.016047917 -0.044491183 -0.014225215 4285294378
0.020499099 -0.053452607 -0.0068564601 4285097518
0.025438039 -0.063926518 0.0017973809 4285097518
-0.01276857 -0.041226763 -0.015233858 4284900914
-0.01188482 -0.036501411 -0.01960557 4285164073
-0.0098112896 -0.037124056 -0.019375455 4285295398
-0.0075551793 -0.038509671 -0.018490687 4285360678
-0.0054681897 -0.039131131 -0.01826337 4285361189
-0.0035583265 -0.038988937 -0.018691771 4285361189
-0.0016484037 -0.038846608 -0.019120086 4285361188
0.00063719973 -0.040229525 -0.018241558 4285360933
0.0025525354 -0.040086534 -0.018670894 4285360933
0.0046610534 -0.040705714 -0.018447954 4285360934
0.0067749321 -0.041324411 -0.018226083 4285426469
0.0088941492 -0.041942518 -0.018005338 4285426214
0.010616478 -0.041036744 -0.019086514 4285360934
0.012944827 -0.042415697 -0.018216975 4285360934
0.016109586 -0.046838928 -0.014752854 4285294633
-0.01168127 -0.039586853 -0.019447714 4285295398
-0.0096027628 -0.040211301 -0.019220375 4285360679
-0.0075188503 -0.040835258 -0.018994108 4285360679
-0.0054295659 -0.04145867 -0.018769007 4285360933
-0.0035171956 -0.041316304 -0.019197989 4285360933
-0.0016047657 -0.04117379 -0.019626852 4285426469
0.00068295002 -0.042560879 -0.018752132 4285426469
0.0026007965 -0.042417694 -0.019182019 4285426469
0.0049045645 -0.04380339 -0.018310659 4285361189
0.0070233978 -0.044423822 -0.018091593 4285426469
0.0093458444 -0.045807797 -0.017224248 4285361189
0.011277109 -0.045663122 -0.017656766 4285360933
0.014022715 -0.048573006 -0.015496384 4285360679
0.016995853 -0.05224466 -0.012693089 4285360169
0.021040112 -0.059730586 -0.0066605592 4285228844
-0.012712497 -0.045896087 -0.016250025 4284900914
-0.01130699 -0.043448944 -0.018642318 4285360934
-0.009394981 -0.04330698 -0.019071486 4285361188
-0.0074828938 -0.043164883 -0.019500595 4285361189
-0.0057501793 -0.042255018 -0.020581547 4285360679
-0.0040227324 -0.041345369 -0.021661259 4285360679
-0.0017462485 -0.042737786 -0.020787388 4285360934
0.00072835013 -0.044896331 -0.01926567 4285426468
0.0028387792 -0.045519803 -0.019046571 4285360679
0.0051473081 -0.046909396 -0.018179622 4285294378
0.0074665211 -0.048298117 -0.017314933 4285228843
0.0099944472 -0.050452087 -0.015804794 4285098284
-0.012853619 -0.047466237 -0.017415378 4284966449
-0.011276398 -0.04578298 -0.019150671 4285360933
-0.0091879591 -0.046411034 -0.018928893 4285426723
-0.0072707087 -0.046268556 -0.019359156 4285426724
-0.0053533874 -0.046125945 -0.019789338 4285229608
-0.0032540932 -0.046752859 -0.019569669 4285164328
-0.00096486881 -0.048148584 -0.018701997 4285164329
0.0015222803 -0.050312672 -0.017188061 4285099049
0.0036456548 -0.050937351 -0.016973533 4285033259
0.0061594732 -0.053099122 -0.015465405 4285097519
-0.011246171 -0.048121061 -0.019662034 4285229098
-0.0089816786 -0.049523521 -0.018792488 4285360168
-0.0067064837 -0.05092502 -0.0179253 4285228589
