# .PCD v0.7 - Point Cloud Data file format
VERSION 0.7
FIELDS x y z rgba
SIZE 4 4 4 4
TYPE F F F U
COUNT 1 1 1 1
WIDTH 885
HEIGHT 1
VIEWPOINT 0 0 0 1 0 0 0
POINTS 885
DATA ascii
0.014645461 -0.017005078 0.031629957 4289016614
0.014218278 -0.0062672198 0.020646805 4287968309
0.01049982 -0.010340765 0.022376424 4289802268
0.011722241 -0.0066601932 0.018444495 4290456598
0.0073733665 -0.00788863 0.017362719 4289541149
0.0087548308 -0.0049088076 0.014141103 4289867804
0.0092962757 0.0016261265 0.0074174162 4290785293
0.0045926161 -0.0068354532 0.013764521 4289083933
0.0058163479 -0.0031331107 0.0098484438 4289868313
-1.8607825e-05 -0.0066115186 0.011285802 4288560674
0.0022931658 -0.0079119578 0.012275873 4289541403
0.0035282262 -0.004198052 0.0083655287 4289737244
-0.00044967234 -0.0068268701 0.0086917784 4289541658
0.0015512481 -0.0066949129 0.008282369 4290261014
0.002465982 -0.0015338883 0.0029858872 4289932573
-0.003022287 -0.0064434484 0.0058145542 4289410843
-0.0010296367 -0.006312184 0.0054067355 4290652693
0.00096311793 -0.0061807707 0.0049989857 4289998619
0.0018709078 -0.00100483 -0.0002847258 4290586904
-0.0054332167 -0.0067687556 0.0036409702 4289476379
-0.0034461841 -0.006637983 0.003234202 4290325784
-0.0014590248 -0.0065070912 0.002827486 4289343523
0.00037608296 -0.005653061 0.0017253365 4289081893
0.0014317706 -0.0011851117 -0.0028505493 4289605409
-0.0079736039 -0.0063581467 0.00077570789 4289606938
-0.0059948489 -0.006228067 0.00037052669 4289540383
-0.0040159747 -0.0060978457 -3.4583732e-05 4290455578
-0.0021862835 -0.0052421093 -0.0011340994 4289801248
-0.00020986795 -0.005111821 -0.0015385374 4289212709
0.001302693 -0.0028063431 -0.0040230397 4291634699
-0.0082437322 -0.0072596297 -0.0010975394 4289147684
-0.0064115822 -0.0064018145 -0.0021961257 4289539619
-0.0044381991 -0.0062719807 -0.002600126 4290193438
-0.0026138276 -0.0054144338 -0.003696939 4289997598
-0.00064290315 -0.005284518 -0.0041002687 4289343268
0.0010191686 -0.0036999881 -0.0058871359 4291438349
-0.0080906637 -0.010347404 -0.00088856928 4288558888
-0.0063967556 -0.0087568536 -0.00267905 4289081638
-0.0045671165 -0.0078969076 -0.0037754085 4288885289
-0.0027427152 -0.0070371851 -0.0048706215 4289081638
-0.0007719323 -0.0069073066 -0.0052739289 4289409059
0.00089034066 -0.0053183809 -0.007057583 4291373324
-0.0079382434 -0.013443582 -0.00068577193 4288362539
-0.0063822195 -0.011115991 -0.0031649359 4288231214
-0.0045498833 -0.01025369 -0.0042602401 4288296748
-0.0028715581 -0.0086596385 -0.0060440786 4288754729
-0.00074946135 -0.0092615634 -0.0057582092 4289474848
0.00091569871 -0.007668145 -0.0075391829 4290325783
-0.0079270676 -0.015813552 -0.0011788718 4288493354
-0.0060814619 -0.014948331 -0.0022753682 4288231213
-0.0042410716 -0.014083318 -0.0033706892 4288558379
-0.0024059303 -0.013218552 -0.0044648703 4288165678
-0.00057601929 -0.012353949 -0.0055579189 4288689703
0.0012486465 -0.011489622 -0.006649768 4288755748
-0.0079161935 -0.018187664 -0.0016748905 4288166699
-0.0063540563 -0.015846573 -0.0041455701 4288100654
-0.0043705553 -0.015716136 -0.0045516975 4288296749
-0.002238512 -0.01632195 -0.004271239 4288492844
-0.00025211275 -0.016191073 -0.0046777669 4288099634
0.001734376 -0.016060077 -0.0050842352 4288230704
0.0034080558 -0.014457241 -0.006860368 4288427309
0.0053893812 -0.014326327 -0.0072655901 4289148449
0.006723579 -0.01125323 -0.010405865 4287644204
-0.0081861019 -0.019087553 -0.0035470799 4288296748
-0.0061975345 -0.018956922 -0.0039543472 4288100398
-0.0042088255 -0.018826149 -0.0043615438 4288296493
-0.0019234903 -0.020172454 -0.0033987872 4288230958
-0.00038203597 -0.01782582 -0.0058601052 4288296749
0.0016043186 -0.017694823 -0.0062665306 4288164913
0.0032781996 -0.016087607 -0.0080394577 4288885289
0.005259376 -0.015956722 -0.0084446613 4288296749
0.0067557432 -0.013612561 -0.010896376 4288100398
0.0084004514 -0.012006886 -0.012663058 4288299554
-0.0083155558 -0.020724073 -0.0047308467 4287578413
-0.0063271299 -0.020593464 -0.0051380955 4288035374
-0.0041931607 -0.021203727 -0.0048613511 4288231469
-0.0020537339 -0.02181346 -0.0045856908 4288100653
-0.00021037832 -0.020941488 -0.0056765936 4288035119
0.0016277283 -0.020069696 -0.0067663714 4288231213
0.0034605861 -0.019198187 -0.0078549609 4288558379
0.0052881762 -0.018326886 -0.0089423731 4288362539
0.0069490448 -0.016715862 -0.010709244 4288297259
0.0087634251 -0.015845187 -0.011793769 4288100653
0.010405727 -0.014235191 -0.01355661 4288297259
0.012206871 -0.013365142 -0.01463824 4288625443
0.014002699 -0.012495287 -0.015718747 4287513133
-0.0044682845 -0.022098988 -0.0067287832 4287643694
-0.0023318492 -0.022711173 -0.006454099 4287969583
-0.00018997863 -0.023322813 -0.0061804689 4288165934
0.0016508289 -0.022448704 -0.0072691403 4288362539
0.0034863725 -0.02157478 -0.0083566867 4288231724
0.0049994625 -0.019216575 -0.010802134 4288231724
0.006980408 -0.019085608 -0.011207215 4288231724
0.0089614354 -0.018954493 -0.011612209 4288624424
0.010775901 -0.018081479 -0.012695084 4288101163
0.012754381 -0.017950274 -0.013099368 4288493353
0.015076861 -0.01930178 -0.012149896 4288231213
0.01741007 -0.020652413 -0.011202578 4287184693
0.0016736127 -0.024831764 -0.0077749081 4288428838
0.003511861 -0.023955517 -0.0088613443 4288298024
0.0048695616 -0.020846032 -0.011980534 4288101164
0.007011462 -0.021459378 -0.011708174 4288493353
0.008995004 -0.021328099 -0.01211369 4288362539
0.010978613 -0.021196701 -0.012519125 4288362029
0.012962282 -0.021065198 -0.012924492 4288492844
0.015633184 -0.023907937 -0.010628812 4288295728
0.018499993 -0.027492568 -0.0076627471 4287249209
0.020685008 -0.028102279 -0.007398624 4286791739
0.0035370253 -0.026340298 -0.0093689971 4287775528
0.005056195 -0.023968533 -0.011805978 4288035883
0.0070421807 -0.023837246 -0.012212101 4288363049
0.0090282485 -0.02370581 -0.012618136 4288427818
0.010848109 -0.02282811 -0.013698816 4288754729
0.013000567 -0.023442574 -0.013429973 4288558379
0.015673276 -0.026293963 -0.011141174 4288165168
0.019064602 -0.032126293 -0.0061642565 4287576628
0.021790871 -0.034973852 -0.0038862042 4286857018
0.023820011 -0.034838788 -0.0043004565 4286334014
0.0054002516 -0.0278484 -0.010962721 4287447599
0.0072333515 -0.02696792 -0.012044702 4288363048
0.0090611726 -0.026087575 -0.013125516 4288558379
0.010883726 -0.025207527 -0.014205139 4288885544
0.013038523 -0.02582401 -0.01393839 4288492844
0.015884489 -0.029432036 -0.010984432 4288034609
0.019279584 -0.035281606 -0.0060212873 4287511094
0.022363905 -0.039632894 -0.0024087448 4287183928
0.011250872 -0.02909217 -0.013371278 4287838003
0.013244759 -0.028959967 -0.013778731 4287968819
0.016095035 -0.032578632 -0.010833778 4288099633
0.019319955 -0.037695386 -0.0065543596 4287183929
0.022229124 -0.041309878 -0.0036212336 4286399039
0.013618734 -0.032856904 -0.012955823 4286791229
0.016133811 -0.034981288 -0.011358169 4287772214
-0.016221274 0.008990556 0.044796616 4282218568
-0.015592951 0.016636193 0.036333337 4280851259
-0.013972063 0.01881665 0.033728413 4280524604
-0.011160325 0.014853731 0.037698813 4280133944
-0.019384492 0.0126516 0.038147688 4282218314
-0.018494744 0.018951438 0.031160897 4281242684
-0.017138775 0.022507992 0.027102897 4281175618
-0.015546899 0.024693128 0.024508735 4281436229
-0.013301391 0.023453757 0.025561089 4280980033
-0.0098157637 0.016054474 0.033163972 4280915263
-0.0061318316 0.0079747736 0.041482404 4280916284
-0.0022415705 -0.00078472495 0.050514661 4281045058
-0.021115828 0.019920532 0.027459687 4281437249
-0.019379478 0.021425825 0.025595142 4280393789
-0.017782021 0.023617804 0.023004653 4279740989
-0.016069379 0.025121707 0.021145092 4280719679
-0.013966102 0.024564285 0.021468816 4280002874
-0.011175249 0.020573627 0.02542389 4279611958
-0.0083521232 0.016585186 0.029372426 4280914753
-0.0053549595 0.011912555 0.034039855 4280914498
-0.002609048 0.0086149126 0.03724993 4280980034
0.0003108941 0.0046331286 0.04117886 4281175874
0.0031132959 0.0013394058 0.044377521 4280654654
0.0070098862 -0.0067522079 0.052633151 4281176894
-0.024867643 0.015948445 0.029273262 4282282064
-0.0238338 0.021599166 0.023038944 4281502274
-0.021859724 0.021728557 0.022634434 4281110848
-0.020010982 0.022547692 0.02150288 4281045569
-0.018295605 0.024056088 0.019645894 4280328764
-0.016590755 0.025563836 0.017791161 4280132924
-0.014362212 0.024314526 0.018840356 4280263739
-0.011714119 0.020999156 0.022062061 4280849984
-0.0093168989 0.019063182 0.023829671 4280980289
-0.0071866587 0.018505573 0.024146421 4280850238
-0.0051951706 0.018636815 0.02373887 4281111613
-0.003203541 0.018768169 0.023331368 4278831148
-0.00091254339 0.017523475 0.024368221 4280980034
0.0024553277 0.011464387 0.030454101 4280132668
0.0071112774 -9.3057752e-05 0.04229857 4279155254
-0.027221788 0.015555672 0.027035115 4282216529
-0.026170809 0.02122492 0.020810297 4279808818
-0.024442393 0.022738252 0.018953672 4280004659
-0.022111077 0.020790789 0.020729451 4279744814
-0.020139601 0.020920064 0.02032551 4280981053
-0.018423986 0.022432826 0.018471709 4281111360
-0.016457494 0.022561941 0.018068915 4280980033
-0.014224064 0.021308478 0.019113852 4280849728
-0.011707645 0.018673524 0.021603199 4280849984
-0.0097245984 0.018804006 0.02119722 4280915008
-0.0078828111 0.019625425 0.020069057 4280915518
-0.0061903 0.021137174 0.018220434 4280722228
-0.0046551414 0.023338791 0.015652904 4281306433
-0.0026875921 0.023468625 0.015250383 4281239624
4.0665269e-05 0.02014808 0.018447904 4280783683
0.0038793795 0.01199995 0.026676202 4281175619
0.0085698105 0.00040744245 0.038485929 4281306434
0.013831832 -0.013247594 0.052432165 4280915773
-0.02900498 0.011698157 0.02843455 4282347089
-0.028610412 0.021555465 0.017859956 4281176638
-0.027001787 0.023767475 0.015281519 4280459833
-0.025049519 0.023895279 0.014881363 4280070194
-0.022607032 0.021246206 0.017378954 4279547954
-0.0205185 0.020680849 0.017700529 4280981308
-0.018424433 0.020115901 0.018021071 4281046334
-0.016455378 0.020245157 0.017617734 4280980799
-0.014352944 0.019680981 0.017936653 4280980289
-0.012244988 0.019117266 0.01825452 4280980798
-0.01040864 0.019940358 0.017129054 4280981309
-0.0088599697 0.022149246 0.014563499 4280785213
-0.0073272027 0.024357188 0.012001282 4279482164
-0.005517181 0.025178816 0.010881407 4280133688
-0.0034138672 0.024615262 0.011200568 4280784703
-0.0008492507 0.021975227 0.013673903 4280132924
0.0025099814 0.01587607 0.019732194 4280068664
0.0065466985 0.0070123971 0.028649921 4280654908
0.011772934 -0.0066889748 0.042570785 4281111359
-0.031676445 0.013405412 0.024023289 4282150738
-0.030585896 0.01911217 0.017816244 4281306178
-0.029194985 0.022725295 0.013791444 4280851003
-0.027596656 0.024943173 0.01121998 4281697859
-0.025535528 0.024373569 0.011545425 4281307199
-0.023346525 0.023108013 0.012592567 4280720444
-0.02089664 0.020450689 0.015082149 4280590139
-0.018680546 0.019187093 0.016123878 4281176893
-0.016583916 0.018620178 0.016442316 4280915008
-0.014880862 0.020140998 0.014597682 4280849984
-0.012916934 0.020270064 0.014195504 4281045824
-0.011091221 0.021094628 0.01307383 4281176385
-0.0092707276 0.021918934 0.011953285 4281111104
-0.007742893 0.02413312 0.009396961 4280850238
-0.0059381798 0.024956565 0.0082797837 4280198459
-0.0036914237 0.023695737 0.0093157906 4280197949
-0.0011303127 0.021046657 0.011783293 4280589884
0.0022245497 0.014927424 0.017827766 4280784704
0.006256178 0.0060348213 0.026725279 4280914753
0.011476088 -0.0077109113 0.040614769 4280914498
-0.032566566 0.016664587 0.017770657 4281567300
-0.031047616 0.019590277 0.014473932 4281110339
-0.029435698 0.021815468 0.011904536 4280068664
-0.02795643 0.024738748 0.0086160805 4280068663
-0.026020426 0.024865407 0.0082191993 4279808563
-0.023839917 0.023594867 0.0092647877 4280134198
-0.021274034 0.020229671 0.012470307 4280981309
-0.019191239 0.019659515 0.012789844 4280981053
-0.017363291 0.020486154 0.011669068 4281046334
-0.015806232 0.02270839 0.0091113877 4280524603
-0.013993997 0.02353413 0.0079940092 4279808054
-0.011910561 0.022964437 0.0083136391 4279352114
-0.0098216124 0.022395205 0.0086322259 4280980799
-0.0078707375 0.02252366 0.0082329046 4281045824
-0.005919721 0.022652227 0.007833628 4280784703
-0.0036707558 0.021387111 0.0088658947 4280784449
-0.00080459565 0.017335892 0.012756916 4280784194
0.0027108453 0.010500744 0.019500041 4280980034
0.0070646517 0.0001874119 0.029802838 4281110594
0.012137357 -0.01290527 0.04294356 4281827908
-0.033916768 0.010001212 0.022060813 4281565768
-0.032693889 0.015042737 0.016597258 4281370949
-0.031063054 0.017275624 0.014028778 4281305924
-0.029448058 0.019507594 0.011463573 4281110339
-0.028082173 0.023141038 0.0074602272 4281175874
-0.026026983 0.022566605 0.0077835079 4281046079
-0.023966234 0.021992642 0.0081057195 4280784958
-0.021525998 0.019317046 0.010584166 4280915263
-0.019573499 0.019445013 0.01018407 4280981053
-0.017750841 0.020273417 0.0090660285 4280785214
-0.016066041 0.021801729 0.007231677 4279155764
-0.014391791 0.023329481 0.0053995047 4280589884
-0.012175944 0.022057351 0.0064350311 4278829619
-0.0099492706 0.020786066 0.0074683595 4280394554
-0.0078551285 0.020215046 0.0077842977 4281111103
-0.0057555027 0.019644484 0.0080991816 4280981819
-0.0032041706 0.016977049 0.010555515 4280785468
0.00012574345 0.010816485 0.016575592 4280916028
0.0036580414 0.0039604753 0.023298925 4281176128
0.0078710578 -0.0056861937 0.032861449 4281699133
0.012637462 -0.017423019 0.04454463 4281504058
-0.03238735 0.01060538 0.018307185 4281370438
-0.030745443 0.012845524 0.015741291 4280979269
-0.029233132 0.015788354 0.012458993 4281175108
-0.027742002 0.018729888 0.0091811065 4281240388
-0.025914673 0.019560378 0.00806343 4280785468
-0.023848865 0.018984511 0.0083829444 4281111104
-0.021777537 0.018409096 0.0087014046 4280980799
-0.020082142 0.019942272 0.0068679806 4280915518
-0.018397298 0.021474883 0.005036734 4280394808
-0.016590457 0.022304509 0.0039236061 4281045823
-0.01478881 0.023133885 0.0028116144 4281501763
-0.012440953 0.021154981 0.0045597479 4281241409
-0.010217406 0.019879043 0.0055904891 4280785979
-0.0079830177 0.018603951 0.0066190343 4280916538
-0.0055919141 0.016628139 0.0083585735 4281504568
-0.0025903881 0.011848293 0.012945114 4281635383
0.00090244785 0.0049675405 0.019660147 4282092344
0.0044489242 -0.0019095093 0.026364239 4282286398
0.0083622225 -0.010184452 0.034479268 4282741829
0.012976948 -0.02125752 0.045422778 4282741829
-0.032082159 0.006150648 0.020004539 4281761353
-0.030429136 0.0083981007 0.017441193 4281697348
-0.028791945 0.01064457 0.014881199 4281305668
-0.027170587 0.012890153 0.012324492 4281110593
-0.025446106 0.014429301 0.010488128 4281175618
-0.023732129 0.015967891 0.0086539406 4281305923
-0.022028666 0.017505854 0.0068220254 4281241409
-0.020208742 0.018338308 0.0057076905 4281046079
-0.018653315 0.020580042 0.0031648446 4280785468
-0.016849097 0.021411654 0.0020538606 4280069174
-0.014915068 0.021538626 0.0016577095 4280199224
-0.01284321 0.020961497 0.0019747559 4280004150
-0.010344781 0.018272668 0.0044286028 4280330804
-0.0081108697 0.016993128 0.005453961 4281307964
-0.0052832887 0.01289957 0.0093232971 4281896504
-0.0019783042 0.0066977069 0.015318992 4282028084
0.0018281527 -0.0016108826 0.02343612 4281248804
0.0050840043 -0.0071024746 0.028700707 4282097443
0.0083827935 -0.012591124 0.033956587 4282680884
0.01236086 -0.020888053 0.042038858 4282809149
-0.033352766 -0.0012856275 0.024971517 4282738259
-0.032102544 0.0038036406 0.019536516 4281892679
-0.030335676 0.0053496212 0.017694483 4281762884
-0.028465856 0.0061870068 0.016571151 4281370693
-0.026833389 0.0084398538 0.014017025 4281305924
-0.025216792 0.010691755 0.011466222 4281502274
-0.023373101 0.011527732 0.010348471 4281176894
-0.021906983 0.014485396 0.0070889164 4281176383
-0.020335283 0.016734615 0.0045475848 4281241665
-0.019038413 0.020396806 0.00058311783 4281045824
-0.0172395 0.021230284 -0.00052521005 4280524860
-0.01544578 0.022063468 -0.0016323589 4280264759
-0.013107214 0.020070683 0.00010789186 4280851514
-0.010472097 0.016666576 0.0032669157 4280852024
-0.0076672286 0.012558274 0.0071309749 4281046843
-0.0045390427 0.007040374 0.012408385 4281437503
-0.0013679229 0.0015253872 0.017677071 4281245489
0.0018461235 -0.003986612 0.022937017 4282288948
0.0047960021 -0.0080849901 0.02677176 4283203889
0.0076218508 -0.011475898 0.029892216 4283529779
0.010951307 -0.016979963 0.035128795 4283856178
-0.032123204 0.001452446 0.019065531 4281827144
-0.030353431 0.0030030087 0.017226091 4281762374
-0.028367613 0.003132537 0.016818704 4281763394
-0.026613478 0.0046822354 0.014982658 4281632578
-0.024988446 0.0069412217 0.012434987 4281502019
-0.023136687 0.0077798814 0.011317177 4281436739
-0.021538008 0.01003737 0.0087750722 4281372224
-0.019955207 0.012293898 0.0062362868 4281372988
-0.01851758 0.015258588 0.0029892623 4281176383
-0.017101195 0.018222049 -0.00025337748 4281241665
-0.015436728 0.019766591 -0.0020705834 4280653633
-0.013233479 0.018475965 -0.0010456108 4280914499
-0.010459345 0.014352344 0.0028148592 4280785979
-0.0072249249 0.0081060752 0.0087954421 4281176384
-0.0039422102 0.0018630847 0.014766207 4282027063
-0.00090727955 -0.0029607415 0.01931159 4282552109
0.0017131008 -0.005658716 0.021727705 4282878509
0.0042016171 -0.0076476038 0.023432819 4283269933
0.006862361 -0.010342717 0.025840828 4283661103
0.0093858726 -0.012329027 0.027538905 4284575788
-0.033506956 -0.0053102076 0.023290308 4282476374
-0.032359634 0.00052274764 0.017162686 4281761863
-0.030481886 0.0013648793 0.016040867 4281566789
-0.028496187 0.0014943555 0.015633473 4281763138
-0.026510295 0.001623936 0.015226105 4281763394
-0.024997953 0.0046019182 0.011969926 4281632578
-0.023143474 0.005442895 0.010853166 4281436993
-0.021417949 0.0069953725 0.0090264399 4281371713
-0.019450013 0.0071241781 0.008623058 4281046589
-0.018127587 0.010809988 0.0046695862 4280785469
-0.016699914 0.013782881 0.0014311783 4280589884
-0.015024524 0.015332513 -0.00038501993 4280915518
-0.012673888 0.013327293 0.0013429299 4281242685
-0.0098875687 0.0091912895 0.005191097 4281438778
-0.0064989626 0.0022155493 0.011861874 4281181229
-0.0034922697 -0.0026256517 0.016401565 4282552364
-0.00089156255 -0.0053338408 0.018815087 4283009323
0.0011285208 -0.0052006692 0.018401718 4283336999
0.0034551285 -0.0064869076 0.019398587 4283793704
0.0059484467 -0.0084819868 0.021097878 4284249133
-0.032272909 -0.0025472492 0.017401697 4283203124
-0.030500028 -0.00098777562 0.015568083 4282221883
-0.028398845 -0.0015728176 0.015871884 4281763648
-0.026638929 -1.4014542e-05 0.014041068 4281698113
-0.024889488 0.0015441626 0.01221252 4281502019
-0.023150545 0.0031018034 0.010386163 4281632324
-0.021174882 0.0032309964 0.0099810977 4281371459
-0.019451637 0.0047877654 0.0081581529 4281175873
-0.017867867 0.0070575625 0.0056289751 4281111104
-0.016431611 0.010039799 0.0023952685 4281046333
-0.014479358 0.010167859 0.001995299 4281177148
-0.012115989 0.0081568882 0.0037157424 4281241664
-0.0093174726 0.0040084943 0.0075516049 4281240898
-0.0062020384 -0.0015630946 0.012792343 4281636148
-0.0034786947 -0.0049941614 0.015908943 4282877489
-0.0011715367 -0.006286338 0.016906342 4283400749
0.00084573776 -0.0061533526 0.016493546 4283923244
-0.032294217 -0.0049085319 0.016923295 4284640303
-0.030298289 -0.004778564 0.01651367 4284314159
-0.028414894 -0.003931649 0.015393974 4282352699
-0.026652072 -0.0023683012 0.013565803 4281894464
-0.02489974 -0.00080559403 0.011739889 4281632324
-0.023157891 0.00075659901 0.009916177 4281371203
-0.021303136 0.0016020462 0.0088026542 4281371203
-0.019579668 0.0031631812 0.0069828946 4281371203
-0.017866705 0.0047237948 0.0051653329 4281241153
-0.016164292 0.0062837526 0.0033500381 4281045313
-0.014204141 0.00641229 0.0029484313 4281307198
-0.011833418 0.0043951944 0.0046624523 4280980033
-0.0091675259 0.00094913691 0.0077824909 4281371968
-0.0061904341 -0.0039248168 0.012305262 4281571889
-0.0040447563 -0.0045078769 0.01259918 4283073838
-0.0017461069 -0.0058050528 0.013595087 4283662634
-0.024792347 -0.0038781241 0.011971692 4283008813
-0.02304494 -0.002311267 0.010150114 4282287929
-0.021184791 -0.0014633164 0.0090370867 4281698369
-0.019581694 0.00082073361 0.0065136086 4281697348
-0.01786584 0.0023858398 0.0046987347 4281436738
-0.016291816 0.0046681985 0.0021813679 4281436738
-0.014197845 0.004079096 0.0024839062 4281110593
-0.011825096 0.0020555258 0.0041926 4281110084
-0.009157531 -0.0014014021 0.0073041338 4281371714
-0.0064630918 -0.0048564672 0.010410236 4281309749
-0.0044650622 -0.0047250465 0.010001162 4283923244
-0.023053046 -0.0046669096 0.0096725579 4284249643
-0.021313261 -0.0030960962 0.0078558568 4282418999
-0.019583996 -0.0015258119 0.0060413498 4281959489
-0.017736826 -0.0006763339 0.0049327519 4281566789
-0.016025949 0.00089289993 0.0031222086 4281305669
-0.014191832 0.0017417744 0.0020164009 4281240644
-0.011953529 0.00043139607 0.003017785 4281370693
-0.0094261058 -0.0023171231 0.0054199081 4281371203
-0.0070189685 -0.0043447837 0.0071167704 4283335724
-0.0048846118 -0.0049330518 0.0074097533 4284577574
-0.017736714 -0.0030246601 0.0044585578 4283334449
-0.016022962 -0.0014508739 0.0026506614 4282025789
-0.014052514 -0.0013217255 0.0022468921 4281697859
-0.011945624 -0.0019143149 0.002543563 4281828928
-0.0095553286 -0.0039498135 0.0042389315 4282090813
-0.016020242 -0.0037987456 0.0021761414 4284182834
-0.014314141 -0.0022209883 0.00037313811 4282745399
-0.012210239 -0.0028159842 0.00066878088 4282483768
-0.010100856 -0.0034105107 0.00096337311 4282615604
-0.012066651 -0.0058917329 0.00088900514 4283856433
-0.010090835 -0.005762063 0.0004842598 4284184109
-0.021608729 -0.020576276 0.0025655348 4282547009
-0.019986127 -0.018232025 8.1857666e-05 4283855669
-0.018125299 -0.017364345 -0.0010166708 4284508469
-0.023138825 -0.026052251 0.0052407701 4282740044
-0.021737728 -0.022219516 0.0013766587 4281826633
-0.020114753 -0.019868709 -0.0011022389 4282024514
-0.018127013 -0.019738838 -0.0015098546 4282940474
-0.016268667 -0.01886902 -0.0026061684 4284445483
-0.02326851 -0.027706154 0.0040441416 4282217038
-0.021866675 -0.023862436 0.00018800423 4281761353
-0.02036738 -0.020762704 -0.0029743575 4281631814
-0.018382456 -0.020633049 -0.0033814237 4281565769
-0.016267989 -0.021245241 -0.003101252 4281566789
-0.014412131 -0.020373315 -0.0041953549 4281959234
-0.012426767 -0.020243257 -0.0046022385 4283136313
-0.023398127 -0.02935975 0.0028477311 4282086734
-0.021874394 -0.026249804 -0.00031323731 4281434698
-0.020371873 -0.023141131 -0.0034697652 4281565769
-0.018510949 -0.022266917 -0.0045634601 4281434443
-0.016526017 -0.02213715 -0.0049704481 4281369928
-0.014672805 -0.021263205 -0.0060623884 4281632324
-0.012959342 -0.019645594 -0.0078376904 4281959744
-0.010844786 -0.020259701 -0.0075588897 4282221119
-0.023764405 -0.029518805 0.00027920306 4281889873
-0.022124451 -0.027147375 -0.0021886621 4281499978
-0.020376664 -0.025523677 -0.0039680842 4281369164
-0.018765766 -0.023153909 -0.0064298138 4281434953
-0.016783636 -0.023024328 -0.0068362299 4281566789
-0.015064772 -0.021402113 -0.0086094886 4281697603
-0.013087723 -0.021272652 -0.0090147015 4281632834
-0.01097348 -0.021888979 -0.0087374635 4281763393
-0.0088537633 -0.022504769 -0.0084613077 4282414918
-0.0068709776 -0.022374563 -0.0088674091 4283199043
-0.024011765 -0.030418016 -0.0015982054 4281625183
-0.022253249 -0.028789379 -0.0033766683 4281562708
-0.020258237 -0.028659232 -0.0037859268 4281303118
-0.018767815 -0.025533758 -0.0069269016 4281434189
-0.017040875 -0.023906834 -0.0086986292 4281435973
-0.015324492 -0.02228041 -0.01046814 4281371203
-0.013216045 -0.022899397 -0.010191489 4281239623
-0.011239003 -0.022769816 -0.010596607 4281109319
-0.0091222785 -0.02338805 -0.010321431 4281173833
-0.0071423091 -0.023258038 -0.01072697 4281434698
-0.0051622353 -0.023127891 -0.011132441 4281761353
-0.0031820424 -0.02299761 -0.011537835 4282415938
-0.00075104833 -0.025108814 -0.0099091418 4282940218
-0.020880524 -0.027296275 -0.0077013038 4281367379
-0.019148204 -0.025664754 -0.0094709881 4281302608
-0.01716904 -0.025535412 -0.0098768249 4281500744
-0.015189748 -0.025405936 -0.010282598 4281436229
-0.012942258 -0.02677726 -0.0093289129 4281370439
-0.011230741 -0.025146611 -0.011093967 4281239369
-0.0092510395 -0.025016747 -0.011499546 4281043274
-0.0074132755 -0.024136774 -0.012583166 4281304393
-0.0052913018 -0.024756618 -0.012310501 4281435208
-0.0034586415 -0.023876719 -0.013392884 4281631049
-0.0011810586 -0.025245361 -0.012444768 4281761864
0.0012600534 -0.027362391 -0.010822892 4283460673
-0.01729716 -0.027163692 -0.011054806 4280972893
-0.015186835 -0.027787082 -0.010781907 4281433169
-0.013071019 -0.02840998 -0.010510031 4281500490
-0.011222776 -0.027527429 -0.01159431 4281369674
-0.0093797632 -0.026645117 -0.012677439 4281303628
-0.0075419769 -0.025762983 -0.013759453 4281303883
-0.0055648685 -0.025633045 -0.014164325 4281435719
-0.0037348643 -0.024751194 -0.015244506 4281435719
-0.0016103461 -0.025372781 -0.014973871 4281369928
0.00097730756 -0.028248198 -0.012681358 4281761609
0.0034311898 -0.030370831 -0.011066888 4281957959
0.0057432801 -0.031741135 -0.01012883 4282546754
-0.0134671 -0.028532706 -0.013043985 4281369164
-0.011624191 -0.027648278 -0.014125593 4281434189
-0.0096474811 -0.027518652 -0.014530592 4281434189
-0.0079540238 -0.02588021 -0.016285282 4281369418
-0.0059824139 -0.025750645 -0.016689032 4281369928
-0.0041577294 -0.024866991 -0.017766517 4281566534
-0.0018891767 -0.026244953 -0.016823113 4281696328
0.00069494545 -0.029129334 -0.014536377 4281761863
0.0031454749 -0.031258754 -0.012926099 4281892678
0.0056121126 -0.033386938 -0.011319065 4282284104
-0.010053635 -0.027630799 -0.017054133 4281170773
-0.0083653331 -0.025988348 -0.018804524 4281237073
-0.0062550232 -0.026615508 -0.018534426 4281499468
-0.0042861402 -0.026486002 -0.018937543 4281827144
-0.0020180792 -0.027868375 -0.01799728 4282023494
0.00056518614 -0.030761585 -0.015716892 4282023238
0.0028601512 -0.032141969 -0.014781908 4282154308
0.0053234324 -0.034276925 -0.013179061 4282609228
-0.0086345784 -0.026846081 -0.020645544 4281886814
-0.0066712834 -0.026717082 -0.021047607 4281237074
-0.0044145137 -0.028104745 -0.020108361 4281434445
-0.001848232 -0.031007953 -0.017831091 4281434188
0.00043544918 -0.032393537 -0.016897187 4282023238
0.0027299076 -0.033778317 -0.015965346 4282608974
0.021723177 0.011325799 0.01020469 4285361188
0.023162484 0.013555326 0.007682221 4285886233
0.025702 0.011590898 0.0093925875 4285951514
0.028823741 0.00753171 0.013212794 4285885724
0.033317402 -0.0014145225 0.021953249 4285819933
0.018179398 0.015166156 0.0037855953 4285295398
0.019966703 0.015998483 0.0026794318 4285558304
0.021565508 0.017531767 0.0008705873 4285689119
0.02389707 0.016260341 0.0018772073 4285623583
0.02661645 0.013588004 0.0042872764 4285820443
0.030122126 0.0081144795 0.0095019322 4285492003
0.034058433 0.0012429729 0.016111268 4285295399
0.01573148 0.014821336 0.0016069524 4285427744
0.016983155 0.017766915 -0.0016071945 4285690394
0.018754445 0.018600367 -0.0027084611 4285821209
0.020337407 0.020137023 -0.0045108553 4285623839
0.02283811 0.018156834 -0.0028023645 4285623839
0.025731616 0.014771707 0.00030523352 4285689884
0.028842948 0.0106856 0.0041080751 4285755928
0.031986423 0.0066017136 0.0079044718 4285624349
0.034769226 0.0039251521 0.010295311 4285558813
0.03777251 0.00054778904 0.013380842 4285362208
0.041004293 -0.0035298243 0.017159445 4285164839
0.013123196 0.015192874 -0.0012701303 4285033004
0.014727674 0.01673498 -0.0030738562 4285493278
0.016321491 0.018276528 -0.0048753694 4285559069
0.01790465 0.019817434 -0.0066745803 4285755673
0.019659963 0.020652123 -0.0077708736 4285821464
0.022151966 0.0186648 -0.0060655586 4285821719
0.024848239 0.015973367 -0.0036638249 4285755929
0.027947672 0.011873253 0.00013168715 4285624349
0.030885687 0.0084803402 0.0032222159 4285558813
0.032673176 0.0093177631 0.0021197163 4285559068
0.034256428 0.010859437 0.00032104738 4285559324
0.036232084 0.01099176 -8.167699e-05 4285755164
0.039841689 0.0054906234 0.0050860886 4285754653
0.045149468 -0.0056396052 0.015811229 4285754399
0.010532387 0.015579097 -0.0041406546 4285558303
0.01196241 0.017833889 -0.0066419877 4285755163
0.01424953 0.016545892 -0.0056364071 4285820443
0.01619282 0.016675085 -0.0060332604 4285689374
0.017956179 0.017512396 -0.0071296394 4285558559
0.019531559 0.019057266 -0.0089239329 4285558558
0.021837573 0.017770961 -0.0079218913 4285558558
0.024342321 0.015777975 -0.0062239431 4285558558
0.027435187 0.011664316 -0.0024369098 4285624349
0.029786762 0.010381334 -0.0014438778 4285624349
0.031560905 0.011220045 -0.0025420282 4285690139
0.032534853 0.014885515 -0.0064221583 4285754909
0.03408619 0.016429551 -0.0082109757 4285755164
0.037055258 0.013028197 -0.0051346011 4285689373
0.041291516 0.0053914189 0.0021013469 4285820953
0.04600548 -0.0036533847 0.010712644 4285886489
0.0091239624 0.011002399 -0.0020994097 4285425448
0.0095585138 0.017530426 -0.0088010468 4285820954
0.011147313 0.019080184 -0.010595182 4285820444
0.013597701 0.01707644 -0.0088914372 4285952534
0.016064178 0.015073925 -0.0071909428 4285886998
0.018007375 0.01520323 -0.007587688 4285624349
0.019768134 0.016042642 -0.0086818449 4285624349
0.021708712 0.016171977 -0.0090779047 4285559068
0.023837134 0.015591756 -0.0087775066 4285559068
0.026351942 0.013592958 -0.0070864223 4285559068
0.028496442 0.013014019 -0.0067891497 4285624349
0.030450447 0.013144687 -0.0071876161 4285689883
0.031610299 0.016111329 -0.010362821 4285886744
0.032748733 0.019076601 -0.013533531 4285689629
0.035089046 0.017788969 -0.012541179 4285689374
0.038885992 0.011543155 -0.0067029316 4285558048
0.04273108 0.0053006932 -0.00087440759 4285624093
0.04747197 -0.0037707016 0.0077102911 4285558813
0.0078313388 0.014383733 -0.0081590526 4285624349
0.0090931766 0.017364725 -0.011349455 4285689373
0.010676865 0.018918492 -0.01313924 4285557793
0.012946948 0.017620578 -0.012136716 4285820698
0.015581686 0.01489827 -0.0097423308 4285755418
0.018058259 0.012889899 -0.0080486648 4285755419
0.019821726 0.01373174 -0.0091417935 4285624349
0.021949828 0.013149142 -0.0088429954 4285558813
0.023332695 0.015414596 -0.011324439 4285624348
0.025460821 0.014832266 -0.011025527 4285558558
0.027208304 0.015673444 -0.012115017 4285558558
0.029341787 0.015091687 -0.011817038 4285624093
0.030687202 0.017355047 -0.014290459 4285952534
0.032016534 0.019617483 -0.016760569 4285886743
0.034144618 0.019035704 -0.01646124 4285886999
0.037722729 0.013479941 -0.011326095 4285821463
0.041343629 0.0079271644 -0.0061995834 4285624348
0.045854244 -0.00046365708 0.0016777981 4285493279
-0.032101337 -0.0087127164 0.017861163 4285360679
-0.030207414 -0.0078630447 0.016740786 4285361189
-0.028431203 -0.0062946081 0.014913062 4285098793
-0.026665483 -0.0047267601 0.013087576 4285099049
0.00447198 0.0096676424 -0.0057265311 4285360934
0.0056029744 0.013375022 -0.0096153319 4285493534
0.0070394054 0.015649721 -0.012103491 4285821463
0.0084598474 0.017923482 -0.014588285 4285624348
0.010207128 0.018765934 -0.015676768 4285623839
0.012471393 0.017463207 -0.014676275 4285689629
0.015099935 0.014731713 -0.012287144 4285886999
0.017749917 0.012001783 -0.0099023636 4285690138
0.020057119 0.010702237 -0.0089103915 4285624349
0.02163586 0.012260646 -0.010695548 4285624349
0.02264151 0.015960693 -0.01455801 4285689884
0.024381001 0.016803421 -0.015644308 4285624094
0.026500788 0.016218446 -0.015345253 4285623838
0.028625939 0.015633889 -0.015047168 4285623838
0.030161893 0.017190009 -0.016823169 4285623838
0.031687133 0.018745475 -0.018596871 4285623838
0.034015756 0.017448276 -0.017608657 4285624093
0.037179884 0.013300583 -0.013865005 4285558558
0.041211631 0.0063044801 -0.0073724221 4285493023
0.046354637 -0.0042502582 0.0025507472 4285427744
-0.03212354 -0.011086643 0.017373594 4285294889
-0.030117165 -0.010956064 0.016961778 4285557794
-0.028447796 -0.0086616501 0.014429187 4285426468
-0.02656411 -0.0078103244 0.013312703 4285361189
-0.024803314 -0.0062383488 0.011491539 4284902443
0.0033806972 0.012371518 -0.011069284 4285492768
0.0046595931 0.015370943 -0.014250306 4285493278
0.0064148009 0.016215935 -0.015338987 4285624859
0.0078276247 0.018495716 -0.017817302 4285821719
0.0097381547 0.018622465 -0.018207654 4285887254
0.012170475 0.016597822 -0.016514948 4285887509
0.014618911 0.014574312 -0.014825404 4285690138
0.017262708 0.011835173 -0.012445834 4285624349
0.019564055 0.010530882 -0.011455976 4285624349
0.020953054 0.012809746 -0.013928927 4285689883
0.021764122 0.017236598 -0.018473396 4285952534
0.023492955 0.018080801 -0.019555897 4285952533
0.025794378 0.016776942 -0.018565668 4285952533
0.028301813 0.014758185 -0.016887629 4285820954
0.030033316 0.015602902 -0.017970428 4285624094
0.031960126 0.01573199 -0.018363174 4285624348
0.03449697 0.013715498 -0.016690841 4285624604
0.038079958 0.0081250519 -0.011582793 4285558813
0.042123161 0.0011077896 -0.0051088389 4285361953
0.047699466 -0.010908432 0.0061611254 4285098028
-0.032039139 -0.014188454 0.017589467 4285360933
-0.030246664 -0.012610368 0.015764797 4285558304
-0.028464671 -0.011032805 0.013942325 4285558048
-0.026578274 -0.010179147 0.012826884 4285426979
-0.024697017 -0.0093257129 0.01171259 4285360679
-0.022941168 -0.0077495947 0.0098957513 4285295654
-0.02119584 -0.0061740279 0.008081099 4285165349
-0.019461017 -0.0045990795 0.0062687267 4285362973
0.0032537133 0.010780483 -0.012219858 4285558048
0.0045331791 0.013788708 -0.015394488 4285492768
0.0061227195 0.015355788 -0.017175935 4285427488
0.0073648579 0.01836177 -0.020342767 4285558814
0.009612035 0.017048992 -0.019345401 4285559069
0.011869952 0.015737087 -0.018350191 4285624348
0.014491457 0.012987584 -0.015972665 4285558558
0.016776234 0.011677645 -0.014982727 4285624349
0.018889975 0.011087433 -0.01468603 4285624348
0.020086892 0.014091082 -0.017843125 4285755419
0.021075312 0.017811894 -0.021685775 4285820699
0.023175731 0.01722113 -0.021386107 4285689374
0.025666451 0.015194543 -0.019709585 4285820954
0.028173216 0.013169177 -0.018036297 4285952789
0.030300405 0.012580492 -0.017741796 4285624349
0.032432921 0.011992343 -0.017448321 4285559068
0.035383463 0.0085349604 -0.014408906 4285493534
0.03938996 0.0014932677 -0.0079438891 4285427999
0.043867003 -0.0069788843 -0.00011836737 4285164073
0.048830613 -0.016880356 0.0090643596 4285229863
-0.032168772 -0.015846796 0.016389517 4285360934
-0.030266713 -0.014990158 0.015272314 4285558303
-0.028593887 -0.012682445 0.012748746 4285492513
-0.02659272 -0.012552075 0.012338093 4285426979
-0.024826158 -0.010971032 0.010522204 4285426979
-0.023070078 -0.009390533 0.0087085608 4285295398
-0.021324541 -0.0078106001 0.0068971012 4285426979
-0.019589495 -0.0062312856 0.0050879251 4285361444
-0.017864991 -0.0046524927 0.0032809414 4285165094
0.0036073178 0.0070223585 -0.011288588 4285557793
0.0052210949 0.0085952729 -0.013071769 4285557793
0.0064931661 0.011611864 -0.016238306 4285624093
0.0079121105 0.013905227 -0.018708151 4285624859
0.0096568316 0.014754049 -0.019791247 4285559069
0.01156982 0.014881082 -0.020182019 4285624859
0.013482857 0.015008226 -0.020572716 4285624348
0.01575375 0.013693027 -0.019583249 4285624349
0.017490625 0.014541812 -0.020664385 4285624348
0.019037917 0.01611121 -0.022433316 4285821463
0.020387575 0.018400759 -0.024888428 4285689629
0.022479655 0.017807245 -0.024588691 4285492259
0.024769388 0.016493842 -0.023602584 4285558049
0.027654719 0.013020791 -0.020558275 4285689629
0.029973865 0.011709608 -0.019578056 4285689884
0.032704342 0.0089596286 -0.017228525 4285558813
0.036268182 0.003332682 -0.012142678 4285559069
0.040903144 -0.0058885142 -0.0036424752 4285493533
0.045190942 -0.013666369 0.0034755263 4285361444
-0.032085266 -0.018961281 0.016596271 4285360424
-0.030287031 -0.017374068 0.01477685 4285492259
-0.028611157 -0.015059657 0.012257555 4285558304
-0.026721995 -0.01420144 0.011144729 4285426978
-0.024955217 -0.012616031 0.0093320329 4285361188
-0.023198936 -0.011031188 0.0075215716 4285361188
-0.021330599 -0.010173999 0.0064132605 4285361189
-0.019592691 -0.0085901394 0.0046067294 4285361188
-0.01773737 -0.0077336505 0.003501283 4285426979
-0.016017843 -0.0061507151 0.0016986448 4285099558
0.0039599128 0.0032512695 -0.010366632 4285623584
0.005419232 0.0055536255 -0.012840022 4285624094
0.0068625808 0.0078549981 -0.015310033 4285558049
0.0082899481 0.010155477 -0.01777672 4285558049
0.0097013116 0.012455016 -0.020240057 4285558559
0.011443455 0.013305984 -0.021320904 4285493024
0.01300424 0.014880329 -0.023089586 4285493278
0.015090555 0.014283784 -0.022790637 4285558814
0.01681944 0.015134208 -0.023868531 4285559069
0.018358905 0.016707532 -0.025632637 4285756183
0.019887704 0.018280201 -0.027394446 4285821974
0.021784678 0.018406838 -0.027781449 4285821719
0.02406588 0.01708851 -0.02679692 4285821719
0.026942149 0.013603903 -0.023758899 4285821719
0.030240102 0.0086767897 -0.019356947 4285558814
0.033575483 0.0037523508 -0.014962577 4285493534
0.037759576 -0.0040568337 -0.0078414883 4285427998
0.041796997 -0.011140265 -0.0014153402 4285163564
-0.029980507 -0.021952741 0.01638172 4285163054
-0.028516989 -0.01817096 0.012463888 4285295398
-0.026851218 -0.015850537 0.0099515598 4285493024
-0.025084224 -0.014260747 0.0081420559 4285427233
-0.023208011 -0.013401039 0.0070337001 4285426724
-0.021336969 -0.01254157 0.0059264731 4285361188
-0.019471083 -0.011682272 0.004820358 4285426724
-0.017610397 -0.01082325 0.0037154295 4285426979
-0.015885297 -0.0092356578 0.0019149203 4285426979
-0.014037665 -0.0083772168 0.00081279688 4285361188
-0.011923689 -0.0089760348 0.0011031125 4285295143
0.0039918236 0.00092104077 -0.010835437 4285492004
0.0057792179 0.0017767176 -0.011924265 4285624094
0.0070657991 0.0048117861 -0.015080736 4285492513
0.0088346116 0.0056664944 -0.016165573 4285558304
0.010086536 0.0086994842 -0.019314803 4285558303
0.011836745 0.0095531717 -0.020395674 4285558559
0.013229873 0.011858292 -0.022850232 4285558303
0.015142668 0.011985518 -0.023240805 4285558559
0.016330563 0.01501473 -0.026376607 4285558813
0.017864905 0.016592033 -0.028136384 4285558813
0.019201975 0.01889389 -0.030579153 4285558813
0.021280041 0.018295065 -0.030279806 4285624348
0.02374734 0.016247176 -0.028613167 4285558813
0.026619904 0.012751378 -0.025582531 4285493279
0.030702915 0.0049111396 -0.01845897 4285493279
0.035044745 -0.0036493018 -0.010664791 4285427743
0.039248113 -0.011481233 -0.0035655852 4285427489
-0.026637744 -0.019695513 0.010853874 4285361699
-0.024862509 -0.01810082 0.0090459343 4285361954
-0.023217369 -0.015774988 0.0065428559 4285426723
-0.021343607 -0.014913164 0.0054366831 4285360934
-0.019475032 -0.014051564 0.0043316726 4285426978
-0.017611627 -0.013190165 0.0032277498 4285426978
-0.015753407 -0.012329035 0.0021250192 4285427234
-0.013900388 -0.011468135 0.0010234285 4285492514
-0.011781383 -0.012068771 0.0013110377 4285557284
0.00418308 -0.0021423325 -0.010618096 4285492003
0.0058135204 -0.00055521727 -0.012394948 4285624094
0.0072683357 0.0017600954 -0.014857577 4285492514
0.0088748597 0.0033458695 -0.016629357 4285492258
0.01047074 0.0049310699 -0.01839887 4285426723
0.012055963 0.0065156966 -0.020166177 4285492259
0.01380625 0.0073717013 -0.021245345 4285426468
0.015551221 0.0082274526 -0.022323359 4285492004
0.016747713 0.011266001 -0.025454398 4285557793
0.017739099 0.015030712 -0.029265171 4285492768
0.01907656 0.017339148 -0.031703144 4285493024
0.020965228 0.017465241 -0.032088444 4285493534
0.023812683 0.013956688 -0.029060917 4285493533
0.027270187 0.0082696825 -0.023992747 4285493790
0.031953119 -0.0017738566 -0.014844451 4285296163
0.036311384 -0.010359459 -0.0070731435 4285361953
0.040126447 -0.016761892 -0.0013560057 4285163053
-0.022988249 -0.019620888 0.0074405167 4285164074
-0.021350559 -0.017288871 0.0049439259 4285360933
-0.019603986 -0.015691377 0.0031453371 4285427233
-0.017867956 -0.014094412 0.0013489462 4285493024
-0.016012374 -0.013231285 0.00024837069 4285427234
-0.014029246 -0.013101406 -0.00015808083 4285427233
-0.01177514 -0.014437154 0.00082037225 4285360168
0.0045331493 -0.0059455484 -0.0097193774 4285622819
0.0063339807 -0.0050846115 -0.010807702 4285558303
0.0076350458 -0.0020310953 -0.013954131 4285492258
0.0094172992 -0.0011711344 -0.015038477 4285426723
0.010853902 0.0011497512 -0.017492337 4285426723
0.012793079 0.0012784973 -0.017888473 4285426723
0.014381234 0.0028677732 -0.019652998 4285492259
0.015958738 0.0044565201 -0.021415284 4285492004
0.016982935 0.0082342476 -0.025224701 4285492259
0.018163968 0.011280634 -0.028345993 4285558304
0.019323617 0.014325708 -0.031462833 4285624093
0.021406405 0.013722777 -0.031167671 4285493023
0.024260852 0.010203734 -0.028149711 4285493534
0.028696075 0.00085479021 -0.01969381 4285427999
0.033003904 -0.0077605471 -0.011931891 4285427998
0.036976721 -0.014914237 -0.0055415928 4285295144
-0.02147967 -0.018932723 0.003754627 4285033259
-0.019857455 -0.016595058 0.0012661554 4285427234
-0.01799665 -0.015729532 0.00016603246 4285427233
-0.016011145 -0.015599646 -0.00024101138 4285427233
-0.014158059 -0.014734395 -0.0013393778 4285427233
0.0063671321 -0.0074313432 -0.011289096 4285557539
0.0080007389 -0.0058351532 -0.013060004 4285492259
0.0094563849 -0.0035065487 -0.015512964 4285426214
0.011236049 -0.0026444867 -0.016595082 4285426469
0.012837742 -0.0010500029 -0.018359235 4285492004
0.014428791 0.00054384768 -0.020121088 4285426468
0.015831139 0.0028693974 -0.0225628 4285492513
0.017217495 0.0051939562 -0.025001112 4285492258
0.018771183 0.0067857206 -0.026755115 4285492514
0.020128157 0.0091085583 -0.029187255 4285492258
0.022223987 0.0085043609 -0.02889641 4285426469
0.025473569 0.0035125092 -0.024530398 4285360934
0.029730983 -0.005132623 -0.016777767 4285295144
0.033659078 -0.012311347 -0.010394732 4285163053
-0.01626965 -0.016496874 -0.0021140426 4285164838
-0.014419202 -0.015629627 -0.003210254 4285230629
0.0094951503 -0.0058460683 -0.015990414 4285425449
0.011277523 -0.0049816296 -0.01707145 4285426213
0.013054591 -0.0041174218 -0.018151321 4285492258
0.014476012 -0.0017841756 -0.020592146 4285557793
0.015703574 0.0012825727 -0.023710102 4285492513
0.017631873 0.0014109537 -0.024103753 4285492513
0.019560196 0.0015394315 -0.024497338 4285492513
0.021116804 0.0031358525 -0.026248539 4285492513
0.023228358 0.0025305003 -0.025962545 4285426469
0.026492611 -0.0024757385 -0.021610865 4285360933
0.030375987 -0.009679459 -0.015235065 4285229354
-0.014547739 -0.017259784 -0.0043895319 4284968234
0.013098445 -0.0064563081 -0.01862959 4285557283
0.014872916 -0.0055899546 -0.019707208 4285623073
0.016109068 -0.0025138855 -0.022820411 4285558304
0.01822558 -0.0031214654 -0.022537326 4285558303
0.019981433 -0.0022559911 -0.023610873 4285492514
0.021731963 -0.0013907477 -0.024683235 4285492513
0.023665523 -0.0012616739 -0.025077706 4285492514
0.026936388 -0.0062827393 -0.020738801 4285361188
0.030438427 -0.012036793 -0.015731782 4285229098
0.018817898 -0.007671155 -0.020983396 4285426214
0.020218778 -0.0053257719 -0.023409987 4285492003
0.021418136 -0.0022430792 -0.026508862 4285492258
0.02353706 -0.0028523058 -0.02622761 4285492513
0.026615674 -0.0071508437 -0.022574401 4285361188
0.031081162 -0.016611584 -0.014209284 4285098283
0.035419948 -0.025329895 -0.006531775 4285098284
0.02082078 -0.009885475 -0.021865951 4285490984
0.021660706 -0.0053122118 -0.026308814 4285492259
0.023784652 -0.0059233084 -0.026030229 4285427234
0.027058091 -0.010974877 -0.021714577 4285295653
0.031915851 -0.021943599 -0.01202682 4285295653
0.028261494 -0.017781176 -0.018178448 4284901678
0.03313515 -0.028781652 -0.0085183196 4284901423
