# .PCD v0.7 - Point Cloud Data file format
VERSION 0.7
FIELDS x y z rgba
SIZE 4 4 4 4
TYPE F F F U
COUNT 1 1 1 1
WIDTH 491
HEIGHT 1
VIEWPOINT 0 0 0 1 0 0 0
POINTS 491
DATA ascii
0.012089729 -0.0036067888 0.016164627 4291831303
0.015925042 -0.011830159 0.024382416 4291241489
0.020128623 -0.021441638 0.034027454 4290455324
0.023324329 -0.026175886 0.038617965 4289145389
-0.0027768165 0.0071767196 0.003846664 4289936144
-0.00038599223 0.0052069128 0.0055919737 4289869589
0.0018852279 0.0039377511 0.0066117384 4290523153
0.0038903132 0.0040680468 0.0061858669 4289540894
0.0060367063 0.003499344 0.0064811595 4290389788
0.0083324127 0.0022321194 0.0074958988 4289670178
0.011371456 -0.0025283396 0.012108371 4289670178
0.014746357 -0.0086835101 0.018151775 4290455069
0.018624991 -0.016930796 0.026341576 4289734948
0.022104315 -0.023078829 0.032362949 4289145644
0.02516032 -0.027129382 0.036221091 4286463808
-0.0091222748 0.0065215528 0.0025221128 4290718739
-0.0068869665 0.0052451268 0.0035460331 4290783764
-0.0047684163 0.0046717972 0.0038452558 4290455833
-0.0026443601 0.0040989369 0.0041433871 4289670943
-0.00038179755 0.0028245896 0.0051617362 4289802013
0.0017559603 0.0022528321 0.0054571144 4289867294
0.0034842715 0.0037862509 0.0035909303 4290520603
0.0053430423 0.0046176985 0.0024466906 4289473573
0.0073402859 0.0047476888 0.0020226259 4288492333
0.010069303 0.0013725609 0.0051908419 4289146409
0.013123155 -0.0034024715 0.0097892098 4289080619
0.017124534 -0.012379162 0.018683553 4289866019
0.020886797 -0.019950084 0.026129715 4288752944
0.024550933 -0.026816711 0.032847293 4286398274
-0.01497598 0.0030575246 0.0040922984 4289935378
-0.013219573 0.0045963526 0.0022226702 4289737753
-0.011354163 0.0054295659 0.001077963 4290849044
-0.0093717724 0.0055576861 0.0006564185 4290128158
-0.0071395859 0.0042765513 0.0016778242 4290650908
-0.0050240159 0.0037007704 0.0019760914 4290651418
-0.0027728006 0.0024211109 0.0029935502 4289735458
-0.000643529 0.0018464178 0.0032890476 4289539108
0.0014912635 0.0012721866 0.0035835132 4289735459
0.0030789748 0.0035137087 0.0010023899 4290520604
0.0046508238 0.0057543069 -0.0015752781 4290716444
0.0066372417 0.0058835596 -0.0019970704 4290062113
0.0092084296 0.003199771 0.00044883974 4289146408
0.012098748 -0.00088872761 0.00432292 4290520093
0.015627235 -0.0077868104 0.011053413 4289473063
0.019363403 -0.015384041 0.018487774 4289210923
0.023315318 -0.023679897 0.026624408 4288818224
-0.015103228 0.0013847798 0.0029457323 4289147174
-0.013696469 0.0050503165 -0.001085639 4289932063
-0.011958323 0.0065925047 -0.0029481761 4289735714
-0.0099867433 0.0067199022 -0.0033674464 4289015593
-0.0077657104 0.0054335445 -0.0023468435 4289473574
-0.0052792057 0.0027345344 0.00011019967 4289866019
-0.0029011741 0.00074362755 0.0018439256 4289997089
-0.00077220798 0.00016665459 0.0021378975 4289604643
0.00095636398 0.0017088354 0.00027789921 4289539364
0.0025364533 0.0039565265 -0.0022969022 4290127904
0.0043819472 0.0047915056 -0.0034352187 4289996834
0.0063655674 0.0049205646 -0.0038564261 4289080873
0.0084953122 0.0043442249 -0.0035622064 4289604389
0.011225127 0.00094689429 -0.00040986203 4289604389
0.014284424 -0.0038589537 0.0041653812 4289866783
0.018151179 -0.012187287 0.012301039 4289735968
0.022082154 -0.020511329 0.020423211 4289145898
0.025440011 -0.026012361 0.025681704 4288098613
-0.015344217 0.000422135 0.0010786969 4288688683
-0.014055848 0.0048084036 -0.0036645047 4289473828
-0.012441941 0.0070641488 -0.0062422883 4290323998
-0.010600261 0.0079003572 -0.0073788185 4289931298
-0.0083903819 0.0066087916 -0.0063590184 4289277223
-0.0057882592 0.0031910837 -0.0031880643 4290586139
-0.0032890737 0.00048405677 -0.00073995069 4289539108
-0.0012982115 0.00061310083 -0.00116303 4289866784
0.00055769086 0.0014507398 -0.0023021586 4289604898
0.0022706091 0.0029964894 -0.0041556749 4289735714
0.0042539537 0.0031253919 -0.0045769159 4289800738
0.0062374249 0.0032544062 -0.004998114 4289408038
0.0082210526 0.003383562 -0.0054192524 4289473574
0.010650247 0.001390025 -0.0037005078 4289473574
0.01339788 -0.0020172149 -0.00055974908 4289342759
0.016941436 -0.0089588463 0.0061360821 4289080618
0.021007981 -0.018018104 0.014955368 4289146154
0.024666581 -0.024951994 0.021626957 4288819499
-0.015698403 0.0001764223 -0.0015041903 4286988599
-0.014414482 0.004575707 -0.0062369909 4289408038
-0.013043411 0.008261323 -0.01024499 4289996834
-0.01096914 0.0076758713 -0.0099428799 4289015594
-0.0088893399 0.0070908815 -0.0096418746 4289538853
-0.0064231679 0.0043726414 -0.007193137 4289473574
-0.0040651038 0.0023669451 -0.0054646023 4289539620
-0.0018231347 0.0010733455 -0.0044545885 4289343268
2.4795532e-05 0.0019126758 -0.0055904631 4289343268
0.0020051599 0.0020412356 -0.0060111806 4289408804
0.00412599 0.0014595762 -0.0057184119 4289474084
0.0061093345 0.0015885681 -0.0061395932 4289277479
0.0079471841 0.0024277121 -0.0072729997 4289800738
0.0099281296 0.0025567859 -0.0076935031 4290651164
0.012513109 -0.00015271455 -0.0052692834 4290781979
0.015887797 -0.0064081848 0.00070344098 4290454558
0.019779593 -0.01478833 0.0087961033 4289799974
0.023894589 -0.023873329 0.017584726 4288949038
0.026947521 -0.027990818 0.021396376 4287379259
-0.014424026 0.0022098422 -0.006652154 4289538598
-0.013049573 0.0059067905 -0.010653028 4289865763
-0.011215828 0.0067468435 -0.011784736 4289800483
-0.0091389939 0.0061594024 -0.011484684 4289277223
-0.0068030879 0.0041454583 -0.0097562466 4289539364
-0.0047099069 0.0035592914 -0.009459516 4289343269
-0.0024790987 0.0022604764 -0.0084502958 4289474339
-0.00023744255 0.0009624362 -0.0074432548 4289539618
0.0018775761 0.00037803501 -0.0071509313 4289539618
0.0038579628 0.00050669163 -0.0075715818 4289670433
0.0058384985 0.00063548237 -0.0079921763 4289735458
0.0075282417 0.0021889508 -0.0098342616 4289866019
0.0093555897 0.0030297115 -0.010963814 4289931298
0.011479307 0.0024464577 -0.010672925 4289473574
0.014682803 -0.0031185299 -0.005419651 4290585629
0.018397555 -0.010815307 0.0019501206 4290257699
0.022647589 -0.020642251 0.011431254 4289472299
0.025842119 -0.02548565 0.015945021 4289210669
-0.014433861 -0.00016021729 -0.0070701875 4286202433
-0.013056025 0.0035480708 -0.011063948 4289603879
-0.011219561 0.0043905005 -0.01219468 4289669668
-0.0092643127 0.0045168325 -0.012610476 4289473574
-0.0071822852 0.0039275736 -0.012313051 4290454814
-0.0050947294 0.003338784 -0.012016719 4290716953
-0.0028697252 0.0020350814 -0.011009371 4290782233
-0.00063391775 0.00073222071 -0.010004295 4289604899
0.0014754608 0.00014519691 -0.0097123608 4289474083
0.0034503713 0.00027348101 -0.01013186 4289604899
0.0052828193 0.0011165515 -0.011261098 4289735713
0.006964758 0.0026739091 -0.013098357 4290650908
0.0086361691 0.0042307526 -0.014933332 4289081129
0.010598265 0.0043586642 -0.015349788 4288753964
0.013633579 -0.00051118433 -0.010813473 4288884523
0.016862363 -0.0060922429 -0.0055780727 4289538088
0.020768505 -0.014524877 0.0024738722 4289472809
0.024577543 -0.022239789 0.0098065101 4289081129
0.027953472 -0.027810812 0.015010923 4288294964
-0.012944318 0.00046667457 -0.010764334 4288949293
-0.011223599 0.0020299852 -0.012607487 4289342503
-0.0095133409 0.0035926998 -0.014448272 4289342759
-0.0075607151 0.0037189424 -0.014863458 4289735204
-0.0056079179 0.0038453043 -0.015278597 4289277224
-0.0033914223 0.0025366098 -0.014272658 4290389788
-0.0011640564 0.0012286752 -0.013268894 4289735713
0.00079988688 0.0013560951 -0.013686171 4289539364
0.0027639717 0.0014836639 -0.014103381 4289539364
0.0045857653 0.0023283213 -0.015228828 4289931553
0.0062572509 0.0038894266 -0.017060742 4290781979
0.0076225996 0.0068831369 -0.020304598 4290193184
0.0097189881 0.0062935874 -0.02001109 4289146409
0.012433358 0.0028396472 -0.016894663 4289604388
0.015330322 -0.0013285205 -0.013078405 4289342249
0.018893287 -0.0083579123 -0.0064494591 4289408038
0.022993155 -0.017530799 0.0022811033 4289080109
0.026834939 -0.025267929 0.0095895454 4288098358
-0.013188042 -0.00046121329 -0.012606222 4287968564
-0.011711635 0.0025474504 -0.015868209 4289473318
-0.01025638 0.0055548102 -0.019125581 4290323999
-0.0084435046 0.0064003989 -0.02024807 4289408295
-0.0065068454 0.0065256953 -0.020659797 4288753964
-0.004175216 0.0044915602 -0.018944491 4289343013
-0.0018274263 0.0024585724 -0.017232543 4290258719
0.0001257211 0.0025852919 -0.017647527 4289604899
0.0020789877 0.0027121454 -0.018062452 4289931810
0.0038901344 0.0035582855 -0.0191841 4289866274
0.005406186 0.0058421344 -0.02171679 4289669668
0.0072015934 0.0066874698 -0.022834867 4288819243
0.0092923418 0.00609532 -0.022541737 4288623149
0.012000352 0.0026297867 -0.019431857 4289211943
0.014579557 -0.00011558831 -0.017031437 4289211689
0.017813385 -0.0057319105 -0.011822196 4288753198
0.021733858 -0.014217012 -0.0038109496 4288491058
0.026045777 -0.024133354 0.005591169 4288098358
-0.013549447 -0.00066137314 -0.015155053 4286791483
-0.01244013 0.0045242012 -0.020538954 4289342249
-0.010997668 0.007539615 -0.023787342 4290454814
-0.0091980696 0.0083865672 -0.024905447 4289996833
-0.0071461275 0.007788673 -0.024606265 4288884779
-0.004825823 0.0057471395 -0.022893319 4289996833
-0.0022211671 0.0022628978 -0.019769939 4289866018
-0.00027350336 0.0023892373 -0.02018377 4289473829
0.0016743019 0.0025157034 -0.020597553 4289669923
0.0033380389 0.0040850788 -0.022421638 4289604389
0.0051360205 0.0049326718 -0.023538789 4289800484
0.007076215 0.0050589889 -0.023950709 4289146153
0.009166643 0.0044645667 -0.023659093 4288753963
0.011873655 0.00098782033 -0.020556854 4288623149
0.014296561 -0.0010460168 -0.018864902 4288491823
0.017526176 -0.0066804141 -0.013667399 4288099123
0.0209594 -0.013032079 -0.0077776164 4288099378
0.025258053 -0.022980496 0.001605317 4288098614
-0.013674282 -0.0023026541 -0.016280062 4286922809
-0.012805082 0.0043486059 -0.023069559 4289408039
-0.011367403 0.0073726401 -0.026310701 4289408038
-0.0095731094 0.0082213953 -0.027426086 4288753963
-0.0075268149 0.0076209381 -0.027127331 4288753964
-0.0050812215 0.0048479587 -0.02471189 4289146408
-0.0024802387 0.0013523102 -0.021595595 4289408038
-0.00039877743 0.00075446814 -0.021304069 4289277223
0.0015488788 0.00088091195 -0.021717833 4288885034
0.0033547506 0.0017311051 -0.022835193 4288688683
0.0054446161 0.0011341795 -0.022545198 4288230958
0.0075399503 0.00053771585 -0.022256291 4288165679
0.0097906813 -0.00078141689 -0.021266466 4288034863
0.012357414 -0.0035456046 -0.018876093 4287904049
0.014635049 -0.0048626885 -0.017891845 4287772723
0.017555267 -0.0090693608 -0.014108728 4287706678
0.02115006 -0.016163453 -0.0075336285 4287510329
0.02528818 -0.025420621 0.001127556 4287706168
-0.013563558 -0.0053984746 -0.015990438 4286202943
-0.012808032 0.0020005107 -0.023473883 4287903283
-0.011490241 0.005760707 -0.027415529 4289669413
-0.0095701516 0.0058847591 -0.02782386 4289342504
-0.0073930696 0.004555434 -0.0268222 4288361518
-0.0052051619 0.0032269657 -0.025822816 4288623404
-0.0028726608 0.0011728704 -0.024121793 4288623404
-0.00066043437 -0.00015377998 -0.023127409 4288427053
0.0015625879 -0.0014796183 -0.022135237 4288230959
0.0035129189 -0.0013529137 -0.022549497 4288165679
0.0057522357 -0.0026775002 -0.02156057 4288034863
0.0078552626 -0.0032756999 -0.021274874 4287904049
0.010263264 -0.0053241625 -0.019589385 4287838513
0.012382519 -0.0059210584 -0.019306967 4287969328
0.014662344 -0.007242471 -0.018326335 4287706933
0.017426267 -0.010737613 -0.015251677 4287510328
0.021019168 -0.017854124 -0.0086918883 4287444793
0.024991769 -0.026415944 -0.00074819475 4287313724
-0.011367187 0.0026904047 -0.027111029 4288753709
-0.0094419047 0.0028147772 -0.027520476 4288819244
-0.0072599724 0.0014813393 -0.026523044 4288557869
-0.0049362779 -0.00058014691 -0.024824956 4288296239
-0.0028636158 -0.0011831671 -0.02453482 4288492333
-0.00064921379 -0.0025141388 -0.023544049 4288230959
0.0015760064 -0.0038443506 -0.022555443 4288034608
0.0036704391 -0.004445605 -0.022269683 4288296493
0.0059146062 -0.0057743117 -0.021284984 4288296493
0.0080226436 -0.0063744783 -0.021001892 4287904049
0.01043532 -0.008429274 -0.019322157 4287838513
0.012559604 -0.0090280771 -0.019042376 4287838259
0.014689334 -0.0096264631 -0.018763628 4287707189
0.0174549 -0.013132602 -0.01569723 4287510328
0.021048591 -0.020271346 -0.0091533177 4287314234
0.024858691 -0.028133154 -0.0019246154 4286921278
-0.011244774 -0.00038848817 -0.026812496 4288099379
-0.0093142912 -0.00026381016 -0.027223064 4288034099
-0.0068713501 -0.0030638874 -0.024826033 4288230704
-0.0047991499 -0.0036692843 -0.024537453 4288165168
-0.0025880486 -0.0050050914 -0.023549223 4288099889
-0.00050219148 -0.0056094378 -0.023263348 4288099889
0.0017278641 -0.00694374 -0.022278963 4287903538
0.0038273185 -0.0075469092 -0.021995844 4288100143
0.0060763359 -0.0088798031 -0.021015281 4288231214
0.0080426335 -0.0087518468 -0.021432789 4287773234
0.010307893 -0.010083392 -0.020455539 4287838259
0.012431849 -0.01068446 -0.020177275 4287510838
0.01487077 -0.012744047 -0.018507611 4287576118
0.017640654 -0.016261041 -0.015449977 4287575608
0.020917609 -0.021963611 -0.010312688 4287444539
0.024074581 -0.026934221 -0.0058789141 4286528578
-0.012578867 -0.0065368414 -0.023299968 4285940804
-0.011000417 -0.0042099059 -0.025818391 4287575863
-0.0089368299 -0.0048183203 -0.025529725 4288426544
-0.0067398697 -0.0061597675 -0.024541816 4288230704
-0.0046626478 -0.0067670867 -0.024255889 4288230450
-0.0024466813 -0.0081070736 -0.02327179 4288034353
-0.00035582483 -0.0087132826 -0.022988601 4288034353
0.0017405003 -0.0093189999 -0.022706473 4287838003
0.0039835572 -0.010656893 -0.021727894 4287773234
0.0062373951 -0.011993907 -0.020751551 4288230958
0.0082088932 -0.011865608 -0.021170158 4287642163
0.010329735 -0.012469247 -0.020892899 4287511093
0.012607969 -0.013804324 -0.019921415 4287445303
0.015206143 -0.01660201 -0.017562781 4287510329
0.017983012 -0.02012971 -0.01451451 4287379513
0.020946585 -0.024386883 -0.010778271 4288032823
-0.012343839 -0.010378547 -0.022317775 4286529343
-0.010634646 -0.0087804049 -0.024133386 4287576118
-0.0086857751 -0.0086545721 -0.024547892 4288099634
-0.0066090152 -0.009264335 -0.024263484 4288230704
-0.0047875941 -0.008402504 -0.025376732 4287969328
-0.0025721118 -0.009747006 -0.024395697 4288034864
-0.00048158318 -0.010355473 -0.024114009 4287904049
0.0018912479 -0.012433484 -0.022440273 4287904048
0.0041391402 -0.013775475 -0.021465898 4287772723
0.0063978434 -0.015116669 -0.02049369 4288230704
0.0083745122 -0.01498805 -0.020913411 4287772979
0.01064945 -0.01632791 -0.019944523 4287510839
0.013086922 -0.018401086 -0.018284064 4286791229
-0.010514639 -0.011892013 -0.023857228 4287641399
-0.0085605904 -0.01176586 -0.024272837 4287903028
-0.0066063851 -0.011639573 -0.0246884 4287838259
-0.0046520233 -0.011513159 -0.025103912 4288231214
-0.0025646091 -0.012124188 -0.02482323 4287969585
-0.00020057708 -0.014209591 -0.02315243 4287707699
0.0020413548 -0.015556559 -0.022180028 4287576628
0.0044349805 -0.017639786 -0.020515349 4287380279
0.0065576136 -0.018248037 -0.020241801 4287314743
0.0088319555 -0.019592568 -0.019275978 4287642164
-0.010517359 -0.014271721 -0.024283901 4287249463
-0.0085607842 -0.014145419 -0.024700064 4287445303
-0.0062218606 -0.016239494 -0.023028903 4287510839
-0.0042569712 -0.016112417 -0.023446664 4286922554
-0.0021592155 -0.016725019 -0.023169752 4286988344
-0.01039847 -0.017398387 -0.024018057 4286006338
-0.01764679 -0.018463895 0.012117036 4283394118
-0.017465986 -0.018879905 -0.0019788109 4282607189
-0.015811197 -0.018976167 -0.0049749985 4282738259
-0.016737573 -0.017930135 -0.01150139 4282541654
-0.015095703 -0.015599392 -0.014033585 4282673999
-0.017087407 -0.018123195 -0.014048275 4282279513
-0.015336089 -0.016522728 -0.015873056 4282021454
-0.017548107 -0.017568082 -0.017289523 4282345304
-0.015576087 -0.017441213 -0.017709281 4282087499
-0.013720818 -0.016575642 -0.018828545 4283394119
-0.015929781 -0.01761397 -0.02024078 4281826378
-0.013963059 -0.017487377 -0.020659354 4282675529
-0.016282745 -0.017777503 -0.022765953 4281631304
-0.014321499 -0.01765126 -0.023183372 4281695819
-0.012479305 -0.016781919 -0.024296682 4283065934
-0.016635008 -0.017931722 -0.025284838 4281758038
0.020466927 -0.031054705 -0.026610531 4282863464
-0.0034848154 0.0042724386 0.040748004 4285230119
-0.0022990778 0.0091355816 0.035117101 4285361443
-0.00076142699 0.011970498 0.031716783 4285820698
0.0014169067 0.011428393 0.032022592 4285754908
0.0041409805 0.0081868693 0.035286281 4285820954
0.0075805187 0.0015731975 0.042240273 4285755163
0.01149483 -0.0070606992 0.051398721 4285558048
-0.015097931 0.0086420253 0.034322347 4285491493
-0.013050921 0.0087744221 0.033887129 4285688354
-0.010538943 0.0061932206 0.036420655 4285623329
-0.0084807873 0.0063265413 0.035983201 4285361443
-0.006665431 0.0078161284 0.034063715 4285427743
-0.0052331388 0.011338852 0.029925063 4285493279
-0.0034467354 0.012826778 0.028011803 4285820698
-0.0018003285 0.014991634 0.025361557 4285558048
0.00049121678 0.013768651 0.026408557 4285558049
0.0030633956 0.011192001 0.02892974 4285558304
0.0063448437 0.0052316561 0.035134625 4285623838
0.010095201 -0.0027560368 0.043540519 4285558558
-0.01953318 0.0080169812 0.032525863 4285427489
-0.018032111 0.01155474 0.028380055 4285689374
-0.016225465 0.013047852 0.026465222 4285689119
-0.014202587 0.013178654 0.026035111 4285754908
-0.011831433 0.011267528 0.027826946 4285820698
-0.0096814111 0.010718554 0.028135218 4285623838
-0.0075258315 0.01017005 0.028442383 4285624604
-0.0057367384 0.011662446 0.026531652 4285558558
-0.0039581135 0.013154261 0.024623223 4285821463
-0.0024486929 0.016005121 0.021241445 4285886998
-0.00030031055 0.015456527 0.021550406 4285886999
0.0021230131 0.01354944 0.023331616 4285887254
0.0055241287 0.0068885013 0.030262135 4285886743
0.0088388026 0.00091024488 0.036445823 4285624093
0.012629874 -0.0071015656 0.044824194 4285558559
-0.021704763 0.0061668828 0.03178212 4285230118
-0.020505346 0.01176744 0.025417037 4285558814
-0.01859355 0.012581222 0.024246667 4285689629
-0.016797341 0.014078088 0.022337172 4285557793
-0.014672063 0.013525017 0.02264902 4285623583
-0.012309559 0.011606604 0.024437878 4285755163
-0.010167822 0.011054792 0.024746362 4285689884
-0.0081417114 0.011186026 0.024315719 4285558558
-0.006239228 0.011999823 0.023147676 4285624093
-0.0043418854 0.012813322 0.021980833 4285624094
-0.0027080551 0.01499074 0.019342605 4285689884
-0.00056262314 0.014439635 0.019650634 4285689884
0.0017228648 0.013207324 0.020692628 4285624349
0.0047051981 0.0085681155 0.025405232 4285558559
0.0074453652 0.0052941814 0.028641917 4285559068
0.010782562 -0.00070267171 0.034806672 4285427744
0.015039295 -0.010782339 0.045358401 4285427744
-0.022142403 0.0065068603 0.028383236 4285229863
-0.020949729 0.012124814 0.02203216 4285558813
-0.019261181 0.014311634 0.019386511 4285821208
-0.017367758 0.015126519 0.018221654 4285821209
-0.015140451 0.013885163 0.019272286 4285821208
-0.012786567 0.011959411 0.021058273 4285886999
-0.010534808 0.010719813 0.022103835 4285624093
-0.0085141435 0.010850668 0.021674331 4285624349
-0.00661695 0.011666261 0.020509001 4285624348
-0.0045985505 0.011797152 0.020080112 4285624349
-0.0025799498 0.011928149 0.019651245 4285624348
-0.00056114793 0.012059271 0.019222412 4285558558
0.0014578253 0.012190513 0.018793609 4285624093
0.0038880631 0.010270469 0.020563912 4285624349
0.0063344873 0.0083516464 0.022330806 4285689373
0.0093665868 0.0037001744 0.027021926 4285689118
0.013161413 -0.0043650046 0.035361696 4285492259
0.018054515 -0.017207526 0.048803177 4284901423
-0.021183349 0.011119716 0.020133305 4285362208
-0.019712061 0.014688939 0.016017359 4285559068
-0.01771643 0.014817752 0.015592881 4285689883
-0.015382074 0.012883894 0.017378192 4285624093
-0.013031505 0.010951206 0.019160066 4285624093
-0.011019178 0.011081375 0.018732239 4285624094
-0.0090066567 0.011211641 0.018304419 4285624094
-0.0069939122 0.011342041 0.01787664 4285624349
-0.0047286227 0.010099068 0.018916406 4285624349
-0.00232362 0.0081703514 0.0206871 4285624349
-0.00042844564 0.0089883581 0.019523915 4285624348
0.0011932105 0.011178471 0.016897861 4285821464
0.0030727014 0.011995658 0.015738148 4285821209
0.0055051371 0.010069139 0.017503303 4285820698
0.0082381554 0.0067724138 0.020725761 4285952023
0.011867225 -0.00063552707 0.028321311 4285689373
0.01658798 -0.012836806 0.041008841 4285295399
-0.021207251 0.0087387264 0.019711185 4285361953
-0.019625232 0.011629067 0.016338576 4285493534
-0.017624378 0.011758171 0.015912946 4285558558
-0.015510641 0.011197545 0.016222373 4285624093
-0.013506651 0.011327051 0.015796226 4285755163
-0.011620447 0.012146123 0.014636185 4285755163
-0.0093773976 0.010897048 0.015677307 4285820953
-0.0073701069 0.011027038 0.015250657 4285689884
-0.0051106289 0.0097792223 0.016288433 4285624093
-0.0029689297 0.0092209652 0.01659238 4285689884
-0.0010843948 0.010040469 0.015432999 4285755674
0.00066096336 0.011548147 0.013544336 4285755164
0.002395831 0.013055235 0.011657964 4285492004
0.0048169419 0.011121288 0.013420742 4285623584
0.0075382702 0.0078125969 0.016637783 4285755163
0.011009939 0.0010670051 0.023490392 4285624093
0.015271999 -0.0091129467 0.03397011 4285558558
0.019914426 -0.020662278 0.045887027 4285295909
-0.019539014 0.0085605606 0.016653772 4285362208
-0.017752573 0.010074437 0.014758877 4285624603
-0.015751593 0.010203585 0.014333256 4285690138
-0.013980709 0.011716694 0.012441754 4285886488
-0.011984639 0.01184573 0.012017321 4285886744
-0.0096268877 0.0099001825 0.013788342 4285952278
-0.0076223984 0.010029957 0.013362259 4285755418
-0.00549189 0.00946863 0.013666857 4285624093
-0.0037413165 0.010980859 0.011780061 4285558558
-0.0017389059 0.011110812 0.011354636 4285821208
-4.0009618e-06 0.012622289 0.0094712786 4285952279
0.0019934103 0.012752108 0.00904705 4285689118
0.0042693615 0.011501327 0.010078561 4285623583
0.0068398379 0.008871071 0.012562316 4285886234
0.010009926 0.0034822598 0.017948437 4285820954
0.013958849 -0.0053527728 0.026956189 4285427488
0.018576827 -0.016941763 0.038851541 4285427489
-0.019560382 0.006178014 0.016229916 4285230373
-0.018099979 0.0097800046 0.012139883 4285624859
-0.01621677 0.010603085 0.010983437 4285755673
-0.01445365 0.012120068 0.0090967566 4285557794
-0.012465701 0.012248538 0.0086740218 4285623584
-0.0099962875 0.0096019208 0.011172336 4285689373
-0.0078742728 0.0090376288 0.011477116 4285755164
-0.0059980378 0.0098607987 0.010322459 4285624094
-0.0043835789 0.012070239 0.0077118911 4285624349
-0.0025229678 0.012892544 0.0065607429 4285624349
-0.00053385645 0.013021693 0.0061381795 4285821208
0.0015917569 0.012458213 0.0064425245 4286018068
0.0038618743 0.011202596 0.0074720494 4286017559
0.0064261965 0.0085629225 0.0099508315 4285820699
0.0093007274 0.0045402795 0.013875425 4285623839
0.01294256 -0.0029405579 0.021416288 4285427489
0.017391726 -0.013876863 0.032564834 4285230373
0.021774165 -0.024115756 0.042971823 4285230373
-0.019688815 0.0044881776 0.015071604 4284900914
-0.018446624 0.0094947964 0.0095272772 4285427743
-0.016792968 0.011712894 0.0069126114 4285821719
-0.014925517 0.012537226 0.0057611205 4285886744
-0.012828216 0.011968918 0.0060693733 4286018069
-0.010485083 0.010008946 0.0078340061 4286215183
-0.0083713606 0.0094418973 0.0081389025 4286018323
-0.0065030903 0.010266677 0.0069875233 4285624093
-0.0048962459 0.012482345 0.0043832287 4285559068
-0.0029127896 0.012610994 0.0039617792 4285624093
-0.00079565495 0.012044579 0.0042662472 4285623838
0.0014631525 0.010783583 0.0052949786 4285623584
0.0037328079 0.0095234364 0.0063214339 4285623329
0.0062963068 0.0068747401 0.0087940618 4285556774
-0.01868321 0.0085198954 0.0076504722 4285361953
-0.017143816 0.011443302 0.0043121018 4285624093
-0.015396267 0.012968168 0.0024349224 4285820699
-0.013307281 0.012397043 0.0027433299 4285820189
-0.01109276 0.011128061 0.0037778653 4285689374
-0.0088673607 0.0098599195 0.0048101209 4285623839
-0.0068817511 0.0099884495 0.0043880232 4285624094
-0.0050238892 0.01081489 0.0032404922 4285623838
-0.0029098913 0.010245904 0.0035439618 4285558048
-0.0006570816 0.0089799017 0.0045707077 4285622818
0.0014706179 0.0084120259 0.0048714168 4286082584
-0.018701129 0.0061473399 0.0072327591 4285163819
-0.017382093 0.010481969 0.0024452228 4285623584
-0.015522547 0.01131019 0.0012985151 4285623584
-0.013433836 0.010736786 0.0016053915 4285425958
-0.015420146 0.008246243 0.001612829 4287065353
