# .PCD v0.7 - Point Cloud Data file format
VERSION 0.7
FIELDS x y z rgba
SIZE 4 4 4 4
TYPE F F F U
COUNT 1 1 1 1
WIDTH 823
HEIGHT 1
VIEWPOINT 0 0 0 1 0 0 0
POINTS 823
DATA ascii
-0.0076160282 -0.0035471916 0.0058568493 4288560928
-0.0071378611 0.0030251145 -0.00090581924 4291245313
-0.009256009 -0.0074876621 0.0072383545 4289476379
-0.007434696 -0.0066237599 0.0060775653 4289736989
-0.014149673 -0.005837068 0.0034804083 4289084444
-0.012020133 -0.0064096451 0.0037210286 4289540128
-0.0095633939 -0.0084191561 0.0053573139 4289867549
-0.007417623 -0.0089903027 0.0055943243 4290063644
-0.0065958649 -0.0038143247 0.0002526734 4288429603
-0.013828792 -0.0096398294 0.004400108 4287774764
-0.012165673 -0.0080506653 0.0025449358 4288885288
-0.010031 -0.0086249486 0.0027827956 4289801758
-0.007727541 -0.0099194944 0.00371572 4290259738
-0.0060772672 -0.0083309487 0.0018637776 4289804308
-0.01350905 -0.01345548 0.005310487 4287513388
-0.011995502 -0.011138059 0.0027608164 4288165933
-0.010337289 -0.0095447898 0.00091009215 4289670944
-0.0080370121 -0.010843977 0.0018404908 4289801504
-0.0062233582 -0.0099739581 0.00068636611 4288692764
-0.011510834 -0.015685022 0.0043590926 4287184438
-0.009841729 -0.014086604 0.0025091283 4287706934
-0.0076942965 -0.014664277 0.0027408153 4288819498
-0.0058726035 -0.013791531 0.0015864782 4289997598
-0.010712795 -0.021704875 0.0073304065 4287053878
-0.009187609 -0.019373327 0.0047877915 4287053878
-0.0073527023 -0.018497542 0.0036319159 4288034609
-0.0058537945 -0.016167708 0.0010955855 4289016614
-0.010545999 -0.024831042 0.0075184181 4287053368
-0.0088551342 -0.023222283 0.0056698732 4287119158
-0.0073373318 -0.020884603 0.0031339265 4287707953
-0.0060005039 -0.017818615 -8.7508932e-05 4288231214
-0.010693997 -0.026501402 0.0063212439 4286922554
-0.0091625974 -0.024156272 0.003786929 4287250229
-0.0076469779 -0.02181223 0.0012564175 4288165423
-0.006147176 -0.019469216 -0.0012703873 4287707443
-0.0046631731 -0.01712729 -0.0037933718 4287316019
-0.0093101114 -0.025819749 0.0025947317 4287250738
-0.0077940449 -0.02346912 6.8988651e-05 4288427308
-0.0059641749 -0.022587068 -0.0010808017 4287380023
-0.004474435 -0.020238116 -0.0036003012 4287118393
-0.002830375 -0.018623635 -0.0054311324 4287053368
-0.007779099 -0.025861844 -0.0004330799 4287642674
-0.0059465244 -0.024977431 -0.0015818812 4287183928
-0.0042864233 -0.023357473 -0.0034133401 4287052603
-0.0024668798 -0.022473782 -0.0045589302 4287183929
-0.00082511455 -0.020854965 -0.006385887 4287119413
-0.0080880225 -0.026781917 -0.0023051873 4286791993
-0.006258063 -0.025895521 -0.0034517776 4286921789
-0.0044332892 -0.025009342 -0.0045970995 4287118393
-0.0022742376 -0.025599092 -0.0043776538 4287118649
-0.0006269291 -0.023975462 -0.0062027033 4287119159
0.00065978616 -0.020877719 -0.0093861539 4287119413
-0.0065691546 -0.026808836 -0.0053183269 4286725949
-0.004746981 -0.025920719 -0.0064613931 4286856763
-0.0029300191 -0.025032878 -0.0076031666 4286987834
-0.0011182278 -0.024145298 -0.0087436382 4287119159
0.00033864751 -0.02177874 -0.011240618 4287315509
0.0019571967 -0.020152681 -0.013055524 4287774509
-0.0050602444 -0.02682738 -0.0083223116 4286857784
-0.0030765496 -0.026679739 -0.0087833107 4287184439
-0.0017807074 -0.023563959 -0.011956003 4287576628
-0.00015669689 -0.021933235 -0.013769014 4287903794
0.0016340688 -0.021044746 -0.014902843 4287707443
0.0035995953 -0.020897955 -0.015359247 4287577395
-0.0033921748 -0.027581908 -0.01064021 4287054389
-0.0020983517 -0.024457499 -0.013805917 4287838769
-0.000476785 -0.022822559 -0.015615171 4287838769
0.0014884919 -0.022675946 -0.016071634 4287511349
0.0036336333 -0.023272835 -0.015853478 4287577393
0.0050544813 -0.020895466 -0.01833207 4287578668
-0.0022439808 -0.026092723 -0.014977688 4287773488
-0.00079641119 -0.023707211 -0.017457919 4287380788
0.0013429597 -0.024306804 -0.017240191 4287380788
0.0038468763 -0.026397534 -0.015677748 4287511858
0.0056379214 -0.025504455 -0.016808165 4287381554
-0.00041938573 -0.027580827 -0.016606955 4286857018
0.0015508905 -0.027433842 -0.017064588 4287707443
0.0038799979 -0.028782755 -0.016179467 4287511603
0.0062198266 -0.030130751 -0.015296673 4287315508
0.0074622557 -0.026992068 -0.018437007 4286661179
0.0017580763 -0.030569315 -0.016895112 4287641909
0.0042711236 -0.032672524 -0.015344552 4287380534
0.0066183507 -0.034024335 -0.014466794 4287249719
-0.0058653839 0.015342578 0.042379301 4279478849
-0.0043331981 0.017510548 0.039713357 4280393024
-0.00013421476 0.0089247152 0.048748698 4280719679
-0.0097559653 0.012001269 0.043574754 4281111103
-0.0093187764 0.018901311 0.035788927 4280915519
-0.0084481575 0.023773443 0.030207798 4280719168
-0.006790597 0.025270581 0.028285988 4281306433
-0.003301397 0.019350171 0.034391273 4280655673
0.0021072626 0.0060186461 0.048503388 4280590904
-0.014121354 0.01068341 0.042574096 4281827144
-0.013016239 0.014899202 0.037716482 4281436993
-0.011942863 0.01911271 0.032866295 4281177404
-0.010741919 0.022646885 0.028753329 4279483439
-0.0092435144 0.024825417 0.026104853 4280394043
-0.0074317008 0.025649477 0.024917226 4281371969
-0.0046214275 0.022414375 0.028098404 4280460599
-0.00076483563 0.015123665 0.035637263 4280201009
0.0040134043 0.0044569746 0.046796057 4280655673
-0.02078627 0.010582112 0.040581662 4282869329
-0.020369783 0.018215246 0.032067794 4279154744
-0.018675491 0.019723352 0.030143563 4280525879
-0.016689397 0.019871011 0.029681887 4280201010
-0.014703125 0.02001876 0.029220227 4281111103
-0.012873098 0.020846095 0.028029792 4281241918
-0.011207305 0.022352453 0.026112385 4280785213
-0.0095519722 0.023858078 0.024197526 4280199988
-0.0075783059 0.024005231 0.023739044 4280003893
-0.0051032715 0.022116374 0.025459625 4280133689
-0.0021029264 0.018193342 0.029353663 4280850493
0.00092946738 0.014272787 0.033240315 4280979779
0.004168991 0.0096765831 0.037844103 4280913988
0.0090453103 -0.0010178015 0.048954051 4280979524
-0.023797162 0.01284612 0.035459269 4281435208
-0.023222595 0.01982173 0.027690098 4280262719
-0.021972992 0.023381021 0.023581769 4280393278
-0.020008452 0.023526955 0.023125015 4279873078
-0.017741904 0.022308756 0.024125218 4280720699
-0.015464537 0.021091487 0.025122926 4280916283
-0.013488822 0.021238498 0.024663758 4280915518
-0.011512928 0.021385614 0.024204612 4280915263
-0.0095368661 0.021532822 0.023745488 4280980798
-0.0075606592 0.021680128 0.023286391 4281046079
-0.0052505322 0.020465687 0.024276849 4281045313
-0.0029296167 0.019252177 0.025264822 4281046079
-0.00111451 0.020081095 0.024079852 4280849729
0.0010451265 0.019549079 0.024341911 4280198203
0.0046303198 0.013576619 0.030381028 4280329529
0.010966182 -0.0025909171 0.047233988 4280329529
-0.026498415 0.013768874 0.031808693 4281305669
-0.025626093 0.019397471 0.025510341 4280850494
-0.024225086 0.022283379 0.022136785 4281045058
-0.022554338 0.023798365 0.02022443 4281044803
-0.02059789 0.023943644 0.01976952 4281046334
-0.01818911 0.022036109 0.021495216 4280590139
-0.015917547 0.020813931 0.022491023 4280916283
-0.013635181 0.01959268 0.023484338 4280980799
-0.011659406 0.019739736 0.023025181 4280719423
-0.0095220953 0.019203391 0.023290448 4280849984
-0.0075433329 0.019350853 0.022830736 4281045824
-0.0053977109 0.018815264 0.023094255 4280915518
-0.0037546642 0.02032901 0.02118887 4280915773
-0.002122093 0.021842029 0.019286036 4280590138
-0.00050005689 0.023354385 0.017385669 4280590904
0.0023526996 0.020089697 0.020532671 4280394554
0.0070319623 0.01000572 0.030874323 4280264248
0.013434902 -0.0062095448 0.047672559 4279287344
-0.027426839 0.0057711527 0.037642952 4282345049
-0.027057037 0.014170729 0.028433252 4281632324
-0.026191212 0.019816395 0.022149429 4280982839
-0.024797514 0.022710521 0.018784076 4279873079
-0.023279645 0.024916206 0.016150229 4279938869
-0.021186084 0.02437393 0.016423676 4279744814
-0.018635437 0.021772545 0.018871773 4279940144
-0.016369708 0.020545535 0.019865599 4281177404
-0.014248997 0.020005535 0.020132929 4281176639
-0.012281306 0.020151965 0.019675635 4280980544
-0.010152284 0.019612718 0.019941207 4280915008
-0.0083454177 0.020445127 0.018761128 4281045313
-0.00637725 0.020591859 0.018303916 4281045824
-0.0045780651 0.021423824 0.017125793 4280785724
-0.0031276569 0.02362537 0.014508277 4281176893
-0.0011697039 0.023771621 0.01405365 4281697859
0.0011426061 0.022548884 0.015037246 4281697859
0.0049039088 0.015852235 0.02176632 4281306943
0.009448301 0.006423071 0.031354576 4281176638
0.015177913 -0.0071041435 0.045229141 4280980543
-0.026655123 0.0097579956 0.030155029 4281697348
-0.025916919 0.016111635 0.023155261 4281503039
-0.024941616 0.021083176 0.017617721 4281241408
-0.023423269 0.023295451 0.014988631 4281177149
-0.021477677 0.023439851 0.014536183 4281307964
-0.018930577 0.020829368 0.016978547 4281177148
-0.016820997 0.020286221 0.017246738 4281242684
-0.014861569 0.020431899 0.016791265 4281111359
-0.013218559 0.021954011 0.014892109 4280589628
-0.011103138 0.021411527 0.01515919 4280849983
-0.0091458559 0.02155732 0.014704417 4281045569
-0.0070221685 0.021015678 0.014969669 4281176638
-0.0053998195 0.022536617 0.013075586 4280721209
-0.003787972 0.024056826 0.011184048 4279874099
-0.0016638637 0.023515489 0.011449412 4280394808
0.00064262748 0.022287857 0.012431122 4280460343
0.0034986064 0.019001454 0.015561085 4280460599
0.0067457817 0.014344417 0.020117447 4280851769
0.01132464 0.0048871115 0.029674903 4281242683
0.0174786 -0.010052256 0.044935521 4281242683
-0.025570489 0.0018681288 0.035490301 4281760333
-0.02508571 0.0096269175 0.027050044 4281304903
-0.024517022 0.016689897 0.019347403 4281501254
-0.023277208 0.020292286 0.015273884 4281308474
-0.021473862 0.021128181 0.014097475 4281113144
-0.019375406 0.020581871 0.01436653 4280916538
-0.017729804 0.02210832 0.012469918 4280785724
-0.01609467 0.023634132 0.010575764 4279352624
-0.014153786 0.023778487 0.010124646 4279677493
-0.011891201 0.022542603 0.011112861 4279025203
-0.0096178427 0.021307644 0.012098592 4280785213
-0.0076658502 0.021453105 0.011645094 4280981053
-0.0057137087 0.021598682 0.01119164 4280981309
-0.004275661 0.023812484 0.0085866973 4280589884
-0.0021571591 0.023268465 0.0088517591 4280329018
0.00014349073 0.022036009 0.0098314956 4280589884
0.0031724162 0.018049337 0.013670072 4280262719
0.0060513616 0.014753684 0.016786635 4280783683
0.0096957982 0.0087066814 0.022753309 4281241664
0.015449263 -0.0049066916 0.036557067 4281306944
-0.024625935 -0.0053671375 0.040073533 4281955663
-0.024117865 0.0024174899 0.031645831 4281630028
-0.023526065 0.0095041171 0.023954097 4281435719
-0.022697978 0.015199803 0.017718256 4281306178
-0.021175809 0.017425574 0.015098073 4281177658
-0.019669436 0.019650295 0.012481585 4281048374
-0.018026225 0.021180969 0.01058872 4281046333
-0.016548701 0.023403689 0.0079791248 4281307198
-0.014613241 0.023547608 0.0075292364 4281567298
-0.012356497 0.022306893 0.0085154735 4280589884
-0.0099257305 0.020374857 0.010216739 4280850494
-0.0079765171 0.020520084 0.0097638667 4280916029
-0.0061956942 0.021357212 0.0085948519 4280981053
-0.0044200681 0.022194065 0.0074270517 4280980544
-0.0021280274 0.020956416 0.0084054843 4280653379
0.00052781776 0.018337287 0.010810159 4280653379
0.0033842474 0.015028872 0.013923656 4280848964
0.0064492188 0.011031762 0.017744113 4280457283
0.0095462278 0.0070371702 0.021557231 4280654654
0.014734097 -0.0045493022 0.033193644 4281175874
-0.024366699 -0.0091557279 0.04102147 4281825104
-0.023570396 -0.0027385578 0.034052152 4281891404
-0.022679947 0.0029792041 0.027814757 4281630795
-0.02197621 0.0093896613 0.020867158 4281500744
-0.020878889 0.01371 0.016089294 4281501509
-0.019962996 0.018723413 0.010600001 4280784703
-0.018779345 0.022343799 0.0065559894 4280133943
-0.017156944 0.023877401 0.0046712793 4280720444
-0.015071861 0.023325909 0.004940331 4280850238
-0.012660563 0.0213857 0.0066411272 4280069174
-0.01007013 0.018752404 0.0090540946 4279873333
-0.0081210285 0.018897593 0.0086012259 4280850238
-0.0060034394 0.018348902 0.0088630021 4280849474
-0.0038804002 0.017800704 0.0091235787 4280979523
-0.0015782379 0.016559377 0.010096371 4281502274
0.0012636706 0.013238765 0.013204992 4280981309
0.004132282 0.0099202469 0.016307481 4280720188
0.0070276037 0.0066038296 0.019403841 4281634108
0.0099496469 0.0032895133 0.022494093 4281894463
0.014768049 -0.0069487914 0.032681096 4281959743
-0.024653561 -0.01016295 0.039078329 4281890383
-0.02330263 -0.0065196678 0.035003196 4281564748
-0.022119612 -0.0021800622 0.030215073 4281631304
-0.021112517 0.0028553084 0.024715751 4281761608
-0.020289287 0.0085858181 0.018507157 4281565513
-0.01965794 0.015010893 0.01159114 4281633854
-0.018922038 0.020735066 0.0054030418 4281046078
-0.017454207 0.022970233 0.0028053932 4280459578
-0.015529625 0.023113288 0.0023579895 4280460599
-0.012964174 0.0204692 0.0047701374 4280525368
-0.010540146 0.018523462 0.0064630881 4281046588
-0.0082654953 0.017275363 0.0074387677 4280980289
-0.0058119148 0.015331976 0.0091250464 4281045569
-0.0033422448 0.013389923 0.010807615 4280002363
-0.0006830357 0.010753311 0.013198342 4280985134
0.0021737218 0.0074227899 0.016295336 4281376303
0.0046996102 0.0054851845 0.017965112 4281440308
0.0074230134 0.0028536841 0.020341162 4281700154
0.010536015 -0.00116615 0.024130948 4282219843
0.015361965 -0.01143688 0.034291718 4282154818
-0.024939962 -0.011165492 0.037138533 4282348874
-0.023035966 -0.010313749 0.03594486 4281565768
-0.021561168 -0.0073611513 0.032599654 4281698113
-0.020251468 -0.0037097931 0.028542373 4282023494
-0.019554883 0.0027397498 0.021625761 4281826634
-0.019055292 0.009885706 0.014004502 4281565003
-0.018912658 0.018427007 0.0049654134 4281633854
-0.017596371 0.021368347 0.0016573742 4281111870
-0.015514582 0.020812158 0.0019238815 4280653123
-0.013107352 0.018858403 0.0036157891 4280849218
-0.010358758 0.015508302 0.0067293607 4281372479
-0.008079309 0.014256194 0.0077006109 4280722483
-0.0056211278 0.012306526 0.0093809031 4281115183
-0.0029762387 0.0096599311 0.011768337 4281181484
-0.00048321858 0.0077130497 0.013440683 4281572653
0.0023777336 0.0043718293 0.016528524 4281832754
0.0049082115 0.0024279952 0.01819228 4281441073
0.0074547678 0.00048543513 0.019852426 4281896248
0.010569118 -0.0035475045 0.023632094 4282287929
0.015581205 -0.014548324 0.034475628 4282286399
-0.023185953 -0.012012385 0.034727279 4282614583
-0.021569327 -0.0097536072 0.032104436 4281894718
-0.019968428 -0.0074958429 0.029485278 4281957703
-0.018822759 -0.0031325147 0.0247255 4282022984
-0.018007092 0.0026326105 0.018544771 4281825868
-0.017840967 0.011201993 0.0095197521 4281566534
-0.016811684 0.015557021 0.0047872178 4281764158
-0.015028507 0.016402587 0.0036237873 4281372989
-0.012611344 0.014442936 0.0053084753 4280982839
-0.010015659 0.01178357 0.0077005811 4280789548
-0.0078938566 0.011228405 0.0079563372 4281443624
-0.0054310709 0.0092725009 0.0096306056 4281441328
-0.002952192 0.007317856 0.011301249 4281571889
-0.00028416887 0.0046642721 0.013676848 4281637423
0.0024052635 0.0020123795 0.016047549 4281768238
0.004937686 6.2100589e-05 0.017705947 4281963314
0.0078482926 -0.0032862574 0.020774294 4282158898
0.010785587 -0.0066324547 0.023836475 4281961784
0.015054189 -0.014871277 0.031831261 4282026043
0.018819615 -0.021008082 0.037696552 4282221119
-0.023474202 -0.013005726 0.032794829 4283920438
-0.021859758 -0.010740556 0.030177359 4282417978
-0.019973785 -0.0098856464 0.028991226 4281892168
-0.018531807 -0.0069177896 0.025666788 4281957194
-0.017259859 -0.0032470897 0.021634646 4281891658
-0.016923957 0.0046459287 0.013336916 4281957194
-0.015875012 0.0090155229 0.0086095966 4281567044
-0.014230087 0.010568336 0.0067326687 4280525878
-0.011957273 0.0093066394 0.0076987855 4281246254
-0.009673696 0.0080458745 0.0086624287 4281571378
-0.0075442344 0.0074890554 0.0089147575 4281506608
-0.0052417368 0.0062298775 0.009874206 4281637934
-0.0029284805 0.0049716532 0.010831192 4281703214
-0.00043159351 0.0030118302 0.012492817 4281964589
0.0020813942 0.0010533184 0.014150783 4282094893
0.0047886148 -0.0016058907 0.016510852 4282094128
0.0069746822 -0.0021578968 0.016750552 4282354738
0.0093496665 -0.0034110025 0.017693583 4283532584
-0.019979455 -0.012279615 0.028494246 4282547009
-0.018388063 -0.010009356 0.025887098 4282088263
-0.017109938 -0.0063272789 0.021861698 4281891658
-0.01676669 0.0015904084 0.013580162 4281957959
-0.015403233 0.0045615435 0.010280665 4281958979
-0.014060862 0.0075312108 0.0069861375 4281178423
-0.011623882 0.0055598468 0.008656349 4281375539
-0.009656921 0.0057061315 0.0081991591 4281506608
-0.0071957223 0.0037367195 0.0098639317 4281506608
-0.0050531402 0.0031787753 0.010111649 4281831988
-0.0025650747 0.0012115687 0.01177033 4282029104
-0.0002336055 -4.9635768e-05 0.012719873 4282030123
0.0017579496 9.9010766e-05 0.01225736 4282551089
0.0033936165 0.001656279 0.010386478 4282878509
0.0046574362 0.0046210289 0.0071109049 4284250918
-0.02012869 -0.013968624 0.027283598 4283854904
-0.018536836 -0.011691779 0.024681211 4282677569
-0.017257869 -0.0079987049 0.020663727 4281826378
-0.016761377 -0.00076518953 0.013108432 4281826633
-0.015548475 0.0029232129 0.0091064796 4281958724
-0.014205441 0.0059016794 0.0058182999 4281178679
-0.011609979 0.0032157451 0.0081907474 4281310259
-0.009478651 0.0026545078 0.0084392689 4281506608
-0.0068483353 -2.8625131e-05 0.010803778 4281636404
-0.0046981089 -0.00058822334 0.011048071 4281637168
-0.0025424436 -0.0011473224 0.011291172 4282158643
-0.00089876354 0.00041471422 0.0094215311 4282160429
-0.00014131144 0.0055094957 0.0040381067 4283859749
-0.017554082 -0.0089589581 0.018758137 4282612288
-0.016756386 -0.0031248853 0.012633737 4281826124
-0.015539981 0.00057470798 0.008639086 4281891914
-0.014193632 0.0035621822 0.0053566359 4280917049
-0.011596426 0.0008675456 0.0077221356 4281439544
-0.0094627552 0.00030428171 0.0079684742 4281962804
-0.006830696 -0.0023875386 0.010326039 4282354993
-0.0051790513 -0.00082077086 0.0084576085 4283139374
-0.0031986423 -0.00067321956 0.0079974867 4283859239
-0.017998025 -0.0092013702 0.016149636 4283986229
-0.016751722 -0.005488731 0.012156073 4281957194
-0.015378304 -0.0024905801 0.0088737495 4281826634
-0.013869859 -0.00020644069 0.006300848 4281308473
-0.011741981 -0.0007724762 0.0065467954 4281374774
-0.0092857294 -0.002762191 0.0081979148 4282552618
-0.0071416274 -0.003326796 0.0084402524 4283010088
-0.016747385 -0.0078566819 0.011675444 4284183599
-0.015523955 -0.004134655 0.0076954253 4283201594
-0.014015041 -0.0018439144 0.0051272772 4283006773
-0.012046106 -0.0016977042 0.0046694614 4284250663
-0.015669525 -0.005778417 0.0065173022 4284444209
-0.020013332 -0.023687147 0.013646808 4283722813
-0.02016113 -0.025362387 0.012445964 4282546498
-0.018733077 -0.022299185 0.0091962181 4284640048
-0.021617346 -0.03084188 0.015188552 4282281553
-0.020308882 -0.027037315 0.011245336 4281630029
-0.019026808 -0.023234554 0.0073082931 4282154563
-0.01702477 -0.023086399 0.0068424083 4283656769
-0.02176585 -0.032527477 0.013980225 4282151249
-0.020600326 -0.027978733 0.0093522742 4281433678
-0.019027226 -0.025631145 0.00680786 4281565769
-0.017320834 -0.024017297 0.0049585588 4282545989
-0.022196136 -0.032741651 0.011388749 4282150993
-0.020891316 -0.028915495 0.007462617 4281955918
-0.019320443 -0.026561461 0.0049235448 4281695818
-0.017467558 -0.025678426 0.0037678778 4281956938
-0.015316777 -0.026265167 0.0039918646 4282479943
-0.013160504 -0.026851423 0.0042147115 4283133764
-0.023047723 -0.030733451 0.0067335851 4282149974
-0.021325238 -0.029109977 0.0048868731 4281955409
-0.019613191 -0.027487099 0.0030426495 4281890893
-0.017614245 -0.027339257 0.0025774129 4282022218
-0.015766464 -0.0264543 0.001424633 4282152269
-0.01376985 -0.026306391 0.00096011907 4282282828
-0.021758325 -0.029295281 0.0023176447 4281561178
-0.019759677 -0.02914758 0.0018523894 4281889363
-0.017909355 -0.028260395 0.00070052594 4281758293
-0.015913047 -0.028112635 0.00023598969 4281825613
-0.014224149 -0.026486814 -0.0015993211 4281890893
-0.012076385 -0.027077958 -0.0013777222 4282414918
-0.010082275 -0.026930004 -0.0018414892 4283397689
-0.020343028 -0.028582469 -0.0013947077 4281560923
-0.018352322 -0.028435253 -0.0018580426 4281693014
-0.016210511 -0.02902928 -0.0016368777 4281759568
-0.014524035 -0.027399242 -0.0034684334 4281825868
-0.012379266 -0.027992859 -0.0032477453 4281891913
-0.010387957 -0.027845122 -0.0037108622 4282154819
-0.018794462 -0.028600939 -0.0044101104 4281627223
-0.016658299 -0.029197596 -0.0041892789 4281759059
-0.014823481 -0.028306969 -0.0053341147 4281629775
-0.012837775 -0.028159797 -0.0057960432 4281631049
-0.01085192 -0.028012499 -0.006257914 4281892934
-0.019383676 -0.028011568 -0.0076375175 4281886814
-0.017105252 -0.029356837 -0.0067351032 4281495898
-0.015122481 -0.029210001 -0.0071964394 4281628753
-0.013295442 -0.02831766 -0.0083377678 4281564239
-0.011473559 -0.027425595 -0.0094778147 4281825358
-0.0091733448 -0.028768748 -0.0085801147 4282151759
-0.007026203 -0.029366188 -0.0083630215 4282479178
-0.017701752 -0.028758898 -0.0099541321 4281821278
-0.01557406 -0.029360518 -0.0097344685 4281562709
-0.013596617 -0.029213987 -0.01019449 4281693523
-0.011935689 -0.027572505 -0.012010211 4281825104
-0.0098022819 -0.028173298 -0.011791652 4281890893
-0.007499814 -0.029520594 -0.01089759 4281695564
-0.016177654 -0.028751895 -0.012943512 4281559648
-0.014208317 -0.028605983 -0.013401663 4281431128
-0.01223883 -0.028459921 -0.013859754 4281956174
-0.010269217 -0.028313726 -0.014317779 4281826379
-0.0079725981 -0.02966582 -0.013425672 4281434954
-0.0056652427 -0.031017028 -0.01253592 4281763138
-0.0035159029 -0.031618446 -0.012322413 4282481474
-0.014508218 -0.029488452 -0.015248476 4281625184
-0.01238361 -0.03009443 -0.015031224 4281629008
-0.010735333 -0.02844502 -0.016837431 4281825358
-0.00844457 -0.02980198 -0.015947176 4281566789
-0.0061430633 -0.031157963 -0.015059365 4281633088
-0.0036622696 -0.033264056 -0.013501676 4281568829
-0.012686096 -0.030974627 -0.016875602 4281363043
-0.010719437 -0.030828692 -0.017332967 4281298783
-0.008589603 -0.031436205 -0.017118372 4281303119
-0.0064543448 -0.032043211 -0.016904958 4281629008
-0.0041453056 -0.033402935 -0.016022015 4282411603
-0.0090603232 -0.031558484 -0.019630015 4281887070
-0.020780206 -0.036666669 -0.028997026 4282798438
-0.025225908 -0.012163244 0.035202075 4284900913
0.02298875 0.001415439 0.0135183 4285426469
0.029094646 -0.012390658 0.027077645 4285426469
-0.025240026 -0.014566801 0.034700412 4284966704
0.011735402 -0.004663229 0.018634249 4285493278
0.013326444 0.011910655 0.001080934 4285361699
0.014300194 0.015560992 -0.0028805453 4285624348
0.016244765 0.015707083 -0.003331447 4285886234
0.019806486 0.010251179 0.0018197075 4285885978
0.02504917 -0.00080194324 0.01255811 4285951768
0.031829208 -0.016747542 0.028169923 4285951768
-0.023347579 -0.01611606 0.033006225 4285032238
-0.021727376 -0.013843872 0.030392226 4284902188
0.0066333599 0.0047688335 0.0066522583 4286998544
0.011413876 0.0094325244 0.0010698996 4285427489
0.012210421 0.013798043 -0.0035879072 4285755418
0.01317174 0.017458379 -0.0075383186 4285623583
0.01490362 0.018306114 -0.0086853821 4285623584
0.017639905 0.015641205 -0.0063378271 4285623583
0.02182968 0.0080621019 0.00089115277 4285689373
0.026907051 -0.0023208335 0.010896403 4285689374
0.032484069 -0.014101349 0.0222768 4285689374
0.03815157 -0.02587495 0.033636358 4285427233
-0.023497529 -0.017816029 0.031787653 4285097519
-0.021876879 -0.015537255 0.029178403 4285097774
0.0060470626 0.012450084 -0.0040936675 4285623839
0.0079884529 0.01259549 -0.0045441594 4285624093
0.0095477328 0.014151968 -0.0063936543 4285624093
0.010708924 0.01711835 -0.0096385013 4285886999
0.01204532 0.019378167 -0.012180051 4285952533
0.01396304 0.019522224 -0.012624733 4285821209
0.016486023 0.017552331 -0.010978093 4285821209
0.020046994 0.012061313 -0.0058527794 4285886743
0.023443494 0.0072779208 -0.0014331434 4285755418
0.027925851 -0.0010230094 0.0064541139 4285689628
0.033109192 -0.011430658 0.01641047 4285558814
0.039017472 -0.023943223 0.02843044 4285427744
-0.022026308 -0.017230339 0.027964789 4285163309
-0.020563968 -0.014234796 0.024654966 4285098538
-0.018976964 -0.011951804 0.022058617 4284903209
-0.0018616393 0.010255605 -0.0034475904 4286804233
-0.0011639744 0.015361354 -0.0088055935 4285557793
0.00021761283 0.017630488 -0.011353223 4285885978
0.0024979562 0.016357034 -0.010397997 4285820698
0.0049745888 0.014376447 -0.0087460373 4285820954
0.0070907921 0.013812967 -0.0084948409 4285624093
0.008639697 0.015373036 -0.010338688 4285624093
0.0097909197 0.018347442 -0.013574708 4285624093
0.011313364 0.019905739 -0.015412252 4285755419
0.013222974 0.020049177 -0.015855063 4285820954
0.015737239 0.018072069 -0.014211347 4285755674
0.018880114 0.013976142 -0.010486556 4285624349
0.02143435 0.012002245 -0.008851951 4285624349
0.024423622 0.0086170584 -0.0058336463 4285559069
0.028076041 0.0031156838 -0.00074232928 4285559069
0.033704564 -0.0087354332 0.010570917 4285427744
0.040728502 -0.024813779 0.02601406 4285427744
-0.023797236 -0.021215059 0.029351119 4285097519
-0.022315867 -0.018209465 0.026043285 4285229608
-0.020855531 -0.015205324 0.022740416 4285295143
-0.019416235 -0.012202613 0.019442532 4285229609
-0.0032288581 0.013619602 -0.0095043797 4285623839
-0.0021937452 0.017317608 -0.013448054 4285754909
-0.00064493343 0.018881664 -0.015288993 4285689119
0.0016242526 0.01760298 -0.014334438 4285689628
0.0044603013 0.01419431 -0.01128949 4285886999
0.0067588836 0.01291807 -0.010341665 4285755419
0.0079239905 0.015902184 -0.013574474 4285624093
0.0092612579 0.01817508 -0.01610649 4285558558
0.010778643 0.019737434 -0.017939644 4285558303
0.013080169 0.018461823 -0.016992118 4285558559
0.015593704 0.016478062 -0.015353128 4285558559
0.018327247 0.013786666 -0.013024436 4285624094
0.020255469 0.013931826 -0.013471322 4285690139
0.022393035 0.013368621 -0.013226064 4285755164
0.024959901 0.01138927 -0.011599062 4285951768
0.029259827 0.0037464201 -0.0044490788 4286016793
0.035573952 -0.010263093 0.0088993981 4285951003
0.042434365 -0.025679864 0.023602493 4285951004
-0.022324957 -0.0206156 0.025538173 4285229863
-0.020861305 -0.017602459 0.022241034 4285360678
-0.019418724 -0.014590777 0.018948875 4285360424
-0.017997205 -0.011580534 0.015661698 4285098283
-0.006707415 0.0095939711 -0.0076573268 4285359658
-0.0056371093 0.013305351 -0.011601197 4285624093
-0.0042441674 0.015588224 -0.014141826 4285755928
-0.0030442886 0.018583164 -0.017376609 4285755418
-0.0013259724 0.019437864 -0.0185146 4285623839
0.00093469769 0.018154174 -0.017561387 4285623839
0.0037616417 0.014733829 -0.014522491 4285755419
0.0060517378 0.01345253 -0.013575893 4285821209
0.0077810213 0.014308527 -0.01471615 4285624349
0.0093119182 0.015876129 -0.016549222 4285559068
0.011028048 0.016731322 -0.01768622 4285559068
0.013334345 0.015451722 -0.016743103 4285559068
0.01524907 0.015595645 -0.017187022 4285558813
0.017775219 0.013606295 -0.015555723 4285624348
0.019285064 0.015172914 -0.017383559 4285689628
0.021202546 0.01531738 -0.017827867 4285886744
0.023543607 0.014040895 -0.016892349 4285951769
0.02696749 0.0092138052 -0.012513028 4285885468
0.031731196 0.00012888014 -0.0040104613 4286017049
0.037882585 -0.013210177 0.0086042546 4285885724
0.043912612 -0.025831752 0.020508286 4285820188
-0.022194542 -0.02374392 0.025735047 4285032748
-0.020867415 -0.020003714 0.021738697 4285163564
-0.01942151 -0.016983077 0.018452305 4285294634
-0.018144473 -0.01324632 0.014467724 4285163818
-0.014004417 -0.0041979849 0.0046551488 4285425449
-0.0068502501 0.0079897791 -0.0088068638 4285491239
-0.0061224923 0.013143599 -0.014137844 4285624349
-0.0049087629 0.016148217 -0.017369421 4285558813
-0.003716208 0.019151375 -0.020595996 4285887254
-0.0020057932 0.02000767 -0.021730535 4285886999
0.00042870641 0.018003985 -0.020083519 4285886998
0.0030642189 0.01528693 -0.017745756 4285821463
0.0055334531 0.013286062 -0.016106645 4285690139
0.0070671923 0.014858142 -0.017937213 4285558558
0.0089762919 0.015001297 -0.018380083 4285624349
0.010885447 0.015144564 -0.01882289 4285624603
0.013191212 0.013860516 -0.017882913 4285559068
0.015105791 0.014004424 -0.018326802 4285559069
0.017224014 0.013435125 -0.018080501 4285624348
0.018316288 0.01643198 -0.021282911 4285821208
0.020222995 0.016575627 -0.021724729 4285689374
0.022129722 0.016719393 -0.022166464 4285557793
0.02532189 0.012588076 -0.018482113 4285557793
0.028979752 0.0070347041 -0.013431039 4285623839
0.033558402 -0.0013639107 -0.0056439694 4285558049
0.03864529 -0.011181407 0.0035000332 4285558048
0.045155868 -0.025263466 0.016738079 4285361189
-0.020873822 -0.022409119 0.021233443 4285228843
-0.01942464 -0.019379444 0.017952729 4285164074
-0.018144086 -0.015631534 0.013975494 4285294634
-0.017040178 -0.011165932 0.0093035586 4285228844
-0.0063176826 0.003513366 -0.0071699359 4285490983
-0.0060925521 0.010837212 -0.014580144 4285558048
-0.0052238144 0.015286282 -0.01919663 4285558814
-0.0038564429 0.017580539 -0.021721525 4285559069
-0.0021459758 0.01843901 -0.022854462 4285624603
0.00010566786 0.017145842 -0.021905689 4285689884
0.0025528222 0.0151366 -0.020266438 4285624094
0.0048285536 0.013845459 -0.019323092 4285624093
0.0065446831 0.014704801 -0.020457009 4285689884
0.0080627985 0.016280204 -0.022280615 4285755163
0.010156609 0.015706532 -0.022030544 4285689628
0.012453862 0.01441744 -0.021091864 4285689628
0.014561083 0.013844959 -0.020844679 4285624094
0.016470246 0.013988569 -0.021287236 4285624093
0.017967321 0.015562981 -0.023105601 4285755928
0.019245081 0.017851815 -0.025608672 4285952789
0.021141035 0.017994776 -0.026047915 4285755419
0.024107188 0.014564149 -0.02305668 4285755418
0.02731663 0.010421127 -0.019386068 4285755674
0.030557981 0.0062806308 -0.015722755 4285755674
0.034719296 -0.00071388483 -0.0093298145 4285558558
0.041180525 -0.014843613 0.0038871281 4285493279
0.047975417 -0.029678851 0.017762497 4285493023
-0.020880587 -0.024818592 0.020725194 4284966448
-0.019572809 -0.021057822 0.016749669 4285295144
-0.018144034 -0.018020816 0.013480272 4285361188
-0.016586281 -0.015706956 0.010915156 4285295143
-0.015197001 -0.01267264 0.0076551251 4285359914
-0.0050351322 0.0042058527 -0.01085918 4285360423
-0.0046686269 0.010829367 -0.017551728 4285492514
-0.0036433935 0.014570482 -0.021460572 4285493279
-0.002106823 0.016151115 -0.02328568 4285559068
0.00014695525 0.014853656 -0.022340631 4285624604
0.0024114326 0.013557151 -0.021398026 4285624348
0.004499387 0.012980506 -0.021148475 4285689884
0.0056431927 0.015998095 -0.024350315 4285821464
0.0073435046 0.016858563 -0.025478851 4285952533
0.0094289891 0.016282044 -0.025228491 4285952534
0.011915635 0.014269754 -0.023602864 4285952789
0.013816647 0.014412634 -0.024043616 4285689884
0.015717696 0.014555611 -0.024484299 4285624093
0.017207064 0.016133815 -0.026297564 4285558558
0.018268783 0.019146018 -0.029479789 4285755929
0.020153962 0.01928816 -0.029916536 4285821208
0.022680659 0.017279588 -0.028299741 4285689883
0.026089318 0.012405336 -0.023950968 4285624093
0.029316034 0.0082505643 -0.020294044 4285493278
0.033018291 0.0026656166 -0.015279084 4285493024
0.039007802 -0.010077417 -0.0034535397 4285493024
0.046001539 -0.025676832 0.011075638 4285493024
-0.019865468 -0.022011593 0.014847863 4285164073
-0.018144324 -0.020414196 0.012982104 4285360678
-0.016583472 -0.018093556 0.010421131 4285295143
-0.014885865 -0.016497731 0.0085610412 4285228588
-0.0039804205 -0.0024560764 -0.0071602091 4285294633
-0.0034199208 0.0034665465 -0.013150655 4285294378
-0.0025490113 0.0079421848 -0.01774805 4285360934
-0.0015308 0.011693828 -0.021647058 4285427234
0.00018787384 0.012557387 -0.022778578 4285559069
0.0019013062 0.013420686 -0.023908785 4285559068
0.0037965626 0.01356256 -0.02434863 4285755674
0.0049330406 0.016588345 -0.027542276 4285755419
0.0066254251 0.017450452 -0.028667392 4285623328
0.0088976398 0.016150534 -0.027729467 4285623584
0.011378229 0.014131188 -0.026107334 4285886489
0.013474125 0.0135535 -0.025860835 4285755163
0.014966372 0.015136212 -0.027671659 4285624349
0.016859341 0.015278704 -0.028110379 4285558558
0.018127386 0.017579965 -0.030601438 4285558813
0.020223407 0.017002746 -0.03035463 4285559068
0.022538394 0.015706882 -0.029426072 4285493278
0.025729217 0.011536084 -0.02577064 4285493534
0.028951935 0.0073678643 -0.022122551 4285361189
0.033093009 0.00032794476 -0.015757484 4285361188
0.039081424 -0.012454644 -0.0039609857 4285426724
0.045846332 -0.027384333 0.0098529831 4285426724
-0.018438935 -0.021359071 0.011087462 4285032748
-0.016580954 -0.020484321 0.0099241734 4285163819
-0.0030993298 -0.0084240735 -0.0041743703 4285294634
-0.002347894 -0.003207013 -0.0094652288 4285294379
-0.0014573187 0.0012832433 -0.014057426 4285294633
-0.0014929436 0.0093910694 -0.022088941 4285360423
-0.00013463199 0.011704519 -0.024596909 4285559069
0.0010236166 0.014740489 -0.027789267 4285559069
0.0027212314 0.015604928 -0.028914152 4285821464
0.0038450882 0.018638514 -0.032098308 4285820953
0.0059085824 0.018055849 -0.031846181 4285623583
0.0083671138 0.016028181 -0.030223954 4285623584
0.01103913 0.013279244 -0.027920278 4285755164
0.012931887 0.013421491 -0.028359126 4285820954
0.014419079 0.015008166 -0.030165479 4285624348
0.016512055 0.014428288 -0.029919764 4285559068
0.018402256 0.014570676 -0.030357767 4285559068
0.020924818 0.012548491 -0.028749816 4285493533
0.023249898 0.011249021 -0.027826846 4285624858
0.026450019 0.0070657581 -0.02418334 4285690648
0.029682029 0.0028850734 -0.020547166 4285558558
0.033831593 -0.0041761175 -0.01420033 4285360678
0.039602824 -0.01627712 -0.0031135995 4285295398
0.045917876 -0.029811852 0.0093088113 4285295143
-0.016877726 -0.021422416 0.0080351047 4284966958
-0.0030740984 -0.010784477 -0.0046553351 4285294888
-0.0014519282 -0.0091845766 -0.0064907614 4285294633
-0.00054438412 -0.0046799183 -0.011077154 4285294633
-0.00020466 0.0020010024 -0.017719388 4285360424
8.7317079e-05 0.0086784884 -0.024350453 4285558558
0.00088353083 0.013175182 -0.028910732 4285558814
0.0018345937 0.016944051 -0.032777637 4285624604
0.0029484667 0.019985698 -0.035953015 4285821463
0.0048090219 0.020125173 -0.036384657 4285887254
0.0074481629 0.017364874 -0.034079954 4285886999
0.010108609 0.014606312 -0.031780172 4285886998
0.012190547 0.014023155 -0.031533651 4285558558
0.014075227 0.014164895 -0.031970546 4285559068
0.016370464 0.012858428 -0.031044178 4285559069
0.01888429 0.01082889 -0.029439172 4285558813
0.021835238 0.0073531196 -0.026477076 4285426723
0.02438632 0.0053266287 -0.024880525 4285426469
0.027385142 0.0018547252 -0.021929324 4285426469
0.030191988 -0.0008918643 -0.019662764 4285360679
0.034347389 -0.0079745799 -0.013333503 4285294888
0.040123027 -0.02011247 -0.0022754949 4285294889
0.046215564 -0.032965988 0.0094384104 4285229354
-0.0032197349 -0.012420006 -0.0058273226 4285294379
-0.0015973188 -0.010815702 -0.0076595545 4285294634
-0.00033706799 -0.0077549517 -0.01086285 4285294888
0.00054504722 -0.0032389313 -0.0154335 4285426469
0.00085194781 0.0034593865 -0.022053387 4285360678
0.0011110902 0.010154232 -0.02866211 4285426979
0.0015089363 0.016117871 -0.034575332 4285493278
0.0026208162 0.019168079 -0.037743703 4285690139
0.0044785775 0.019307338 -0.038174704 4285690139
0.006919682 0.017265201 -0.036558203 4285755674
0.0097709745 0.013770409 -0.033581566 4285624348
0.011849906 0.013184831 -0.033336043 4285624349
0.014339011 0.01114662 -0.031730358 4285624859
0.016844094 0.0091097131 -0.030128306 4285690394
0.01998831 0.00489562 -0.026491679 4285558559
0.022743694 0.0021359921 -0.024219915 4285492003
0.025307316 0.00010384619 -0.022631163 4285294633
0.027886892 -0.0019269139 -0.021046052 4285360424
0.030700777 -0.0046817735 -0.018787576 4285229353
0.034640983 -0.011060759 -0.013152294 4285294889
0.040194727 -0.022510871 -0.0027980115 4285229098
0.045833498 -0.03395436 0.0075366423 4285229099
-0.000306122 -0.010107778 -0.011339832 4285228843
0.0012928359 -0.0085006133 -0.013163194 4285294888
0.0019765459 -0.0032422617 -0.018403918 4285360678
0.0020723119 0.0042040348 -0.025686109 4285426468
0.0019287728 0.012376435 -0.033638582 4285558814
0.0028603412 0.01616586 -0.037484623 4285558813
0.0045317076 0.017035075 -0.038598344 4285558813
0.0073632076 0.013527699 -0.03562535 4285558814
0.010418233 0.0092932656 -0.031978156 4285558814
0.01270701 0.0079772621 -0.031056942 4285690139
0.015006445 0.0066622198 -0.030138148 4285755929
0.017521422 0.0046194792 -0.028543269 4285558303
0.020052359 0.0025781021 -0.026952049 4285426468
0.022809453 -0.00019016862 -0.024687191 4285360934
0.025374997 -0.0022287294 -0.023103755 4285294633
0.028387481 -0.0057215244 -0.020171996 4285294889
0.030990245 -0.007757023 -0.018596996 4285294889
0.034933817 -0.0141555 -0.012977146 4285229608
0.040266037 -0.024913326 -0.0033235122 4285228844
0.045904107 -0.036391929 0.0069852844 4285228844
0.0016825162 -0.012318514 -0.01227452 4285228843
0.0027369186 -0.008509323 -0.016141225 4285360424
0.0030312203 -0.0017723888 -0.022728827 4285492259
0.0032777712 0.0049610808 -0.029305266 4285558304
0.0036652833 0.010959104 -0.035189997 4285427234
0.0055413619 0.011099726 -0.035625249 4285295399
0.0081936494 0.0083140805 -0.033343144 4285361189
0.011457313 0.0033360124 -0.029029788 4285426978
0.013761494 0.0020167679 -0.028115403 4285426213
0.01607633 0.00069849193 -0.027203446 4285492003
0.018401846 -0.00061888993 -0.02629381 4285426468
0.020738009 -0.0019353181 -0.025386615 4285360933
0.023084842 -0.0032508522 -0.02448174 4285295144
0.025867578 -0.0060257837 -0.022229284 4285229098
0.029102191 -0.010259055 -0.018632818 4285229098
0.032150742 -0.013759956 -0.015717439 4285294888
0.035887696 -0.019447505 -0.010788629 4285294888
0.040783506 -0.028778613 -0.0025068428 4285294889
0.045522481 -0.037375212 0.0050871633 4285228844
0.0020710453 -0.01614929 -0.011395155 4285163054
0.0031342618 -0.012328476 -0.015255765 4285360424
0.0039877817 -0.0077749491 -0.019790348 4285492004
0.0040660426 -0.00028605759 -0.027035819 4285492258
0.0048453286 0.0042621791 -0.031552974 4285360678
0.006166324 0.0066061765 -0.034027617 4285360934
0.009022139 0.0030786917 -0.031076534 4285426469
0.011708077 0.00028693676 -0.028808646 4285360424
0.014216185 -0.0017697141 -0.027222116 4285360424
0.016134832 -0.0016254336 -0.027666897 4285360678
0.018666916 -0.0036799982 -0.026085792 4285360678
0.02080073 -0.0042676479 -0.02585759 4285294634
0.023569221 -0.0070525929 -0.023608394 4285228843
0.026571434 -0.010568202 -0.020690609 4285229098
0.030460611 -0.017010465 -0.015087625 4285229099
0.033744376 -0.021253042 -0.011512192 4285229354
0.037721254 -0.027688429 -0.0059293155 4285163563
0.041745942 -0.034120038 -0.00035746209 4285229353
0.0031697527 -0.014686644 -0.015738014 4285425958
0.0043929964 -0.011593267 -0.018906455 4285426214
0.0046667159 -0.0048183352 -0.025459936 4285295398
0.0056459941 -0.00099249184 -0.029292673 4285360934
0.0069807209 0.0013590977 -0.031765625 4285295143
0.0096550435 -0.001442425 -0.029501647 4285360679
0.012154382 -0.0035064518 -0.027918061 4285295143
0.014470749 -0.0048334897 -0.027013049 4285295144
0.016596176 -0.0054242164 -0.026784729 4285295143
0.019135494 -0.0074848607 -0.025210135 4285295143
0.021690775 -0.0095441192 -0.023639183 4285294889
0.02489078 -0.013806537 -0.020054389 4285163818
0.028334916 -0.018800959 -0.015805088 4285031983
0.032675862 -0.026730135 -0.0088793281 4284966448
0.0046142377 -0.014685474 -0.018708907 4285294378
0.0045239627 -0.0064127445 -0.026602229 4285360934
0.0056921989 -0.0033144802 -0.029751224 4285360934
0.0072208121 -0.001694493 -0.031544838 4285295144
0.0098995119 -0.0045044571 -0.029288381 4285295143
0.012207326 -0.0058366954 -0.028384682 4285294889
0.014923319 -0.0086436272 -0.0261367 4285294633
0.017056368 -0.0092359707 -0.025911771 4285294888
0.020011045 -0.012777455 -0.022999521 4285294888
0.02299232 -0.016316786 -0.020093318 4285294634
0.027256479 -0.02427604 -0.013167882 4285097518
0.0057380497 -0.0056405589 -0.030212715 4285295144
0.007460162 -0.0047566295 -0.031330109 4285295399
0.010143228 -0.0075750351 -0.02908117 4285295144
0.012847602 -0.010391712 -0.026837081 4285294633
0.015771836 -0.013946697 -0.023926087 4285228843
0.006159015 -0.0094568133 -0.029331818 4285294889
0.0078891367 -0.0085700899 -0.030449446 4285295399
0.01038618 -0.010654084 -0.028880104 4285295398
0.01368203 -0.01570648 -0.02463109 4285360424
0.0088875331 -0.01463151 -0.027566679 4285229098
0.01178547 -0.018210597 -0.024666021 4285163818
