# .PCD v0.7 - Point Cloud Data file format
VERSION 0.7
FIELDS x y z rgba
SIZE 4 4 4 4
TYPE F F F U
COUNT 1 1 1 1
WIDTH 831
HEIGHT 1
VIEWPOINT 0 0 0 1 0 0 0
POINTS 831
DATA ascii
0.0010396279 -0.011011295 0.033877835 4288165168
0.0023334064 -0.0080035031 0.030645598 4287510583
0.0043705292 -0.0078520924 0.030184504 4289864744
0.0067953188 -0.009127602 0.031105392 4289864488
0.0090343468 -0.0096888691 0.031333592 4290453539
0.011477891 -0.010962784 0.032250464 4289081384
0.012317743 -0.0065323263 0.027651746 4289474594
-0.0013390668 -0.0041046664 0.024350766 4289277479
0.00048826635 -0.0032388642 0.023203894 4289670689
0.0025012866 -0.0030892417 0.022748258 4289931554
0.0047079735 -0.003655225 0.022982039 4289603878
0.0065274872 -0.0027896613 0.021837194 4290323998
0.0091374721 -0.0047856942 0.023446251 4289343778
0.010553863 -0.002489619 0.020926431 4289149978
-0.0038688034 -0.0044793412 0.022213206 4290590474
-0.0024150126 -0.0021746382 0.019689336 4290129178
-0.00078901276 -0.00058933347 0.01785817 4289800993
0.0010171235 0.00027721375 0.016717769 4288819498
0.0030114204 0.00042554736 0.016266454 4289081384
0.0052018538 -0.00014375895 0.016502388 4290128413
0.0081925951 -0.0035826266 0.019483346 4289866784
0.0098001901 -0.0019980818 0.017656717 4289802778
-0.0049298778 -0.0025326237 0.017560188 4290526214
-0.0031184964 -0.001663737 0.016420078 4290129434
-0.0016881227 0.00064583868 0.013906587 4290324253
0.00010743365 0.0015137419 0.012770277 4290651418
0.0020909421 0.001661256 0.012321386 4290716954
0.0046621226 -0.00035083294 0.013929196 4290978838
0.0072493367 -0.0023616478 0.015533511 4289736223
0.0092489459 -0.0022125915 0.015081234 4289868058
-0.003450688 -0.0025852025 0.014533374 4289868314
-0.0020225309 -0.00026924908 0.01202533 4289866274
-0.00041994825 0.001323171 0.010206066 4289539620
0.0015580915 0.0014702603 0.0097584017 4289997343
0.0041232295 -0.00054886192 0.011362679 4289867039
0.0069027245 -0.0032885894 0.013646752 4289671198
0.0091005303 -0.0038614497 0.013877841 4289671453
-0.0039672814 -0.0027768612 0.011965374 4289997855
-0.0021690167 -0.0019045249 0.010831643 4289866273
-0.00075633824 0.00041694194 0.0083320606 4289932064
0.0010260828 0.0012883395 0.0072021 4289343013
0.0035851486 -0.00073774159 0.0088027641 4289343524
0.0061602406 -0.002762571 0.010399919 4289409569
0.0083497185 -0.0033382177 0.010631261 4289671454
-0.004298415 -0.0036867335 0.010087129 4289933083
-0.0028773658 -0.0013582036 0.0075905062 4289670688
-0.0012822635 0.00024237484 0.0057795178 4290782744
0.0006874986 0.00038883835 0.0053337179 4291110164
0.0028526187 -0.00019109994 0.0055687744 4290913813
0.0052210297 -0.0014967695 0.0064828005 4290324253
0.007399518 -0.0020754412 0.0067149643 4289735714
0.0085669942 0.00097595155 0.003551336 4289019163
-0.0049980059 -0.0031328872 0.0068491958 4289671709
-0.0033973977 -0.0015276745 0.005040152 4289867038
-0.0019971207 0.0008058995 0.0025532916 4289867039
-3.5487115e-05 0.00095177442 0.0021093395 4289801503
0.0023163743 -0.00035963207 0.0030237138 4290717463
0.0044811741 -0.00094160438 0.0032572411 4290324509
0.0066513494 -0.0015231147 0.0034896843 4289474083
0.008014556 0.00080834329 0.0010116212 4288821538
-0.0055121332 -0.0032972321 0.0043010488 4289672218
-0.0044773221 0.00050637126 0.00045841932 4290716953
-0.0029003397 0.0021142662 -0.0013418496 4289735969
-0.00094949827 0.0022592917 -0.0017833896 4288885543
0.0013911761 0.00094272196 -0.00086975843 4289278244
0.0039401054 -0.0011036843 0.00071849488 4289997854
0.0059043802 -0.00095727295 0.00027420372 4289997853
0.0074629411 0.00064983964 -0.0015214533 4290194968
-0.0065775849 -0.0012509152 -0.00027550757 4289673494
-0.0051818117 0.0010952801 -0.0027515702 4290651674
-0.0039913207 0.004173927 -0.0059011132 4290848279
-0.0018618964 0.0035846978 -0.0056630652 4289801249
0.00046759471 0.0022629127 -0.0047502164 4290651674
0.0033998564 -0.0012566745 -0.0018136296 4290782744
0.0057586916 -0.0025760308 -0.00090723485 4289735969
0.0073174983 -0.00096455961 -0.0026996583 4290128923
-0.0070894659 -0.001390554 -0.0028055552 4289871374
-0.0056985877 0.0009618327 -0.0052756332 4289997088
-0.0041344203 0.0025774613 -0.0070664398 4289800993
-0.0021971762 0.0027214959 -0.0075048879 4289866528
-6.538257e-05 0.0021303892 -0.0072689354 4289801249
0.0028604157 -0.0014005378 -0.0043391604 4289801249
0.0052134022 -0.0027247369 -0.0034346916 4289670690
0.0071720891 -0.0025786236 -0.0038776305 4289605409
-0.0058418885 -0.00063867122 -0.006443955 4289081384
-0.0040885024 0.00024347007 -0.007557597 4289539108
-0.0019571036 -0.00034999102 -0.0073233005 4288950313
0.0001796633 -0.00094292313 -0.0070901234 4288819498
0.0027157255 -0.003009893 -0.0055137742 4288819753
0.0050681718 -0.004338488 -0.0046124691 4289016104
0.0072289892 -0.004929252 -0.0043844553 4288885544
0.0089852735 -0.0040461496 -0.0054981904 4288232489
0.010943849 -0.0038998201 -0.00594093 4288102439
0.012902435 -0.0037533417 -0.0063835615 4287709483
0.0154998 -0.0058149621 -0.0048205601 4287644204
0.017250776 -0.0049317703 -0.0059327269 4287840044
0.019651165 -0.0062558576 -0.0050416449 4287905069
0.022283105 -0.0083145574 -0.0034861239 4287708208
0.026272424 -0.014783613 0.002062602 4287773489
0.030762071 -0.022719093 0.0089316498 4287904559
-0.0054267906 -0.0044596791 -0.0055932263 4288885033
-0.003665369 -0.0035747662 -0.0067070434 4289016104
-0.0015263371 -0.0041698143 -0.0064761089 4289081128
0.00061806664 -0.0047643706 -0.0062463069 4288950313
0.0027678348 -0.0053583905 -0.00601763 4288950569
0.0049229749 -0.0059519187 -0.0057900185 4288754474
0.0070834421 -0.0065448955 -0.005563573 4288819754
0.0090445131 -0.0063984767 -0.006006957 4288950568
0.011005603 -0.0062519461 -0.0064502554 4288427818
0.013176762 -0.0068437532 -0.0062259445 4288231724
0.01556598 -0.0081732944 -0.0053358199 4288493353
0.017750457 -0.008763887 -0.0051142806 4288231724
0.019940231 -0.0093539208 -0.0048938924 4288100910
0.023018166 -0.012894131 -0.0020141089 4288034353
0.027686313 -0.021594547 0.0055114608 4287968563
-0.0051987655 -0.007551007 -0.0054232227 4288689449
-0.0034319796 -0.0066635385 -0.0065366225 4288492843
-0.0010967143 -0.0080024973 -0.0056382986 4288688939
0.0010553226 -0.0085986555 -0.0054118717 4288558124
0.0032127239 -0.0091942772 -0.005186555 4288558379
0.0053754821 -0.0097893998 -0.0049623745 4288427308
0.0075435862 -0.010383971 -0.0047392892 4288558124
0.0095124878 -0.010236986 -0.0051844576 4288819754
0.011688631 -0.010830738 -0.0049629519 4288296238
0.013660215 -0.010683306 -0.0054085338 4288296749
0.016056864 -0.012016647 -0.0045233751 4288362029
0.01824896 -0.012608804 -0.0043052481 4288165678
0.020664228 -0.013940535 -0.0034240577 4288231214
0.02397217 -0.018230774 0.00010887347 4288361773
0.028427893 -0.02621679 0.0069493335 4288230704
-0.0071150213 -0.010051519 -0.0054857889 4289347858
-0.0051572025 -0.0099062324 -0.0059291059 4288427819
-0.003199324 -0.0097608194 -0.006372341 4288492844
-0.0010503456 -0.010359496 -0.0061469534 4288492844
0.0011040047 -0.010957666 -0.0059227059 4288754474
0.0032637157 -0.011555307 -0.0056995647 4288427308
0.0056278221 -0.012896106 -0.0048107738 4288362028
0.0075992122 -0.012749046 -0.0052565904 4288623403
0.009774968 -0.0133451 -0.0050367871 4288623403
0.011956064 -0.013940655 -0.0048181098 4288296238
0.014142491 -0.014535658 -0.0046005305 4288165423
0.016334249 -0.015130185 -0.0043840129 4288492844
0.018101316 -0.014239207 -0.0054949205 4288296493
0.020298382 -0.0148331 -0.0052794237 4288165679
0.023822634 -0.019878723 -0.0010935199 4288295983
0.028053036 -0.027147017 0.0050680656 4287968819
-0.0072592087 -0.011663899 -0.0066628242 4289412374
-0.0053015426 -0.011518642 -0.0071061263 4288559399
-0.003532026 -0.010626577 -0.0082169073 4288362029
-0.0010043383 -0.012720548 -0.0066585848 4288492844
0.0011523217 -0.013320737 -0.0064365054 4288230958
0.0033143423 -0.013920389 -0.0062155332 4288427053
0.0054817311 -0.014519535 -0.0059956256 4288361773
0.0076544546 -0.015118144 -0.0057768915 4288688939
0.010036677 -0.016461641 -0.0048953351 4288296494
0.012429565 -0.017804258 -0.0040160548 4288296493
0.014623612 -0.0184009 -0.0038018543 4288296493
0.016398724 -0.017507307 -0.0049129818 4288165679
0.018168511 -0.016613983 -0.0060228091 4288099889
0.020585321 -0.017954253 -0.0051485877 4288296239
0.02389323 -0.022270598 -0.0016353633 4288099633
0.028124154 -0.029560611 0.0045096781 4287772469
-0.0072206892 -0.014025211 -0.0071725305 4288691488
-0.005260516 -0.013879761 -0.0076163914 4288362539
-0.0034882724 -0.012985364 -0.008726106 4288427564
-0.0013399981 -0.013588473 -0.0085038627 4288492844
0.0010069646 -0.01493948 -0.0076180119 4288558379
0.0031686351 -0.015541323 -0.0073986072 4288623658
0.0055343099 -0.016890697 -0.0065167379 4288689194
0.0077093337 -0.017491311 -0.0063001681 4288558379
0.010297637 -0.019586675 -0.0047600064 4288558123
0.012901891 -0.021680668 -0.0032234062 4288231214
0.014894295 -0.021531671 -0.0036736932 4288165168
0.0168867 -0.021382526 -0.0041238647 4287969073
0.018879101 -0.021233253 -0.0045739431 4287968819
0.02108876 -0.021830551 -0.0043645706 4287837748
0.024623217 -0.026905864 -0.00020396896 4287575864
0.028417477 -0.032724522 0.0046064816 4287575863
-0.0073649958 -0.015639178 -0.0083507318 4288102949
-0.0054049753 -0.015493751 -0.0087945629 4288100909
-0.0036326982 -0.01459717 -0.009902643 4288035885
-0.0014847703 -0.0152025 -0.0096819755 4287250483
0.010761578 -0.023469895 -0.003970148 4286660413
0.013166655 -0.024820305 -0.0031001968 4286595134
-0.023990374 -0.014635541 -0.0093194041 4284639794
-0.022371847 -0.012982175 -0.011097142 4284640049
-0.020264849 -0.013593838 -0.010869702 4284706094
-0.016377911 -0.013306826 -0.011750916 4284640558
-0.01460861 -0.012408957 -0.012857178 4284640048
-0.012313627 -0.013773315 -0.011966651 4284640814
-0.010187577 -0.014382921 -0.011743052 4283725873
-0.0078738481 -0.015745617 -0.010856641 4283463989
-0.0061042495 -0.014847212 -0.01196258 4283591743
-0.0041523091 -0.014702253 -0.012404477 4283592509
-0.0020100512 -0.015310161 -0.012184171 4283264833
0.00013758615 -0.015917584 -0.011964926 4283003969
0.0022905655 -0.016524442 -0.011746852 4282874684
0.0054401215 -0.020892821 -0.0082281921 4282808384
0.0088225305 -0.026010938 -0.0040568849 4283199299
-0.02693497 -0.021828316 -0.0049278345 4284706094
-0.025603537 -0.018653654 -0.0080446694 4283659574
-0.024132412 -0.016237788 -0.010489402 4283072055
-0.022677135 -0.013822913 -0.012930473 4282809913
-0.020573135 -0.014436975 -0.012704005 4282548793
-0.01880132 -0.013537005 -0.013809377 4282417469
-0.016691815 -0.014150403 -0.01358396 4282024769
-0.014751017 -0.01400692 -0.014023831 4282156349
-0.012633368 -0.014619477 -0.013800075 4282353209
-0.010510311 -0.015231557 -0.013577411 4282026554
-0.0085639693 -0.015087269 -0.014018239 4281960254
-0.0066175573 -0.014942862 -0.014459005 4281761863
-0.0044836812 -0.01555369 -0.01423852 4281892934
-0.0023444407 -0.016164012 -0.014019182 4281761863
-0.00039255247 -0.0160188 -0.014460878 4281827909
0.0019501597 -0.017383099 -0.013583796 4281893954
0.0052937549 -0.02251941 -0.0094153415 4282089284
0.0090760347 -0.029161625 -0.0039389124 4282348109
-0.025745954 -0.020262115 -0.0092192497 4282480964
-0.024274405 -0.017839722 -0.01165917 4281893443
-0.022818696 -0.015418306 -0.014095424 4281893954
-0.020715039 -0.016034588 -0.013870528 4281633088
-0.01877458 -0.015891381 -0.014310515 4281698369
-0.016834032 -0.015748046 -0.014750427 4281698113
-0.01489339 -0.015604585 -0.015190268 4281632578
-0.012952663 -0.015460975 -0.015630027 4281436738
-0.011011861 -0.015317231 -0.016069705 4281567554
-0.0090709887 -0.015173383 -0.016509315 4281632834
-0.006945502 -0.015787154 -0.016288692 4281502019
-0.0046274215 -0.017158009 -0.015409602 4281501508
-0.0024885274 -0.017770536 -0.015191818 4281370949
-0.00053680316 -0.017625339 -0.015633492 4281370438
0.0020005479 -0.019750975 -0.014101813 4281631559
0.0055431258 -0.025659256 -0.0092879403 4281697094
0.0089277681 -0.030807592 -0.0051401658 4282154054
-0.025730558 -0.022632264 -0.0097290147 4282480454
-0.024416361 -0.019441359 -0.012828728 4281696838
-0.022797134 -0.017774947 -0.014596796 4281762629
-0.020856921 -0.017631896 -0.015036838 4281566789
-0.018748216 -0.018249862 -0.014814636 4281436739
-0.01680515 -0.018106341 -0.015255125 4281567300
-0.014862008 -0.017962702 -0.015695537 4281501508
-0.012918778 -0.017818905 -0.016135862 4281371203
-0.010975469 -0.017674983 -0.016576113 4281436738
-0.009032093 -0.017530933 -0.017016282 4281436738
-0.0067199357 -0.018906735 -0.016139256 4281632324
-0.0045841075 -0.019521765 -0.0159225 4281435719
-0.0026325844 -0.019376747 -0.016364241 4281435719
-0.00048867986 -0.019990914 -0.016149128 4281369673
0.0020505711 -0.022122957 -0.014622821 4281435209
0.0053964313 -0.027289592 -0.010477836 4281631304
0.0085792206 -0.031694479 -0.006996139 4282348364
-0.025873102 -0.024242342 -0.010904776 4281760589
-0.024398059 -0.021806605 -0.013335688 4281238603
-0.022775926 -0.020135641 -0.015101144 4281238603
-0.020998765 -0.019228898 -0.016202925 4281108043
-0.019226823 -0.018322401 -0.017303413 4281174088
-0.016947493 -0.019705549 -0.016422736 4281304903
-0.014830958 -0.020324908 -0.016203726 4281305414
-0.012885228 -0.020180948 -0.016644632 4281174854
-0.010939423 -0.020036854 -0.017085461 4281370694
-0.0088120475 -0.020654969 -0.016868649 4281304903
-0.0066792853 -0.021272548 -0.016652951 4281369928
-0.004541155 -0.021889605 -0.016438385 4281304394
-0.0025871322 -0.021744393 -0.016880689 4281238603
-0.00044091046 -0.02236063 -0.016667703 4281043019
0.0021002442 -0.024498992 -0.015146783 4280976718
0.0052497629 -0.0289196 -0.011667489 4281303119
0.0080309734 -0.031815693 -0.0095020635 4282280278
-0.02601561 -0.025852099 -0.012080314 4281628754
-0.024380077 -0.024175934 -0.013845636 4281041744
-0.022592358 -0.023266368 -0.014948258 4281237583
-0.02097521 -0.021591321 -0.016709233 4281368654
-0.019200567 -0.020682469 -0.017808704 4281369164
-0.017089799 -0.021304481 -0.017590152 4281435209
-0.014973614 -0.021926038 -0.017372699 4281435208
-0.013028044 -0.021782108 -0.017813584 4281435208
-0.011082392 -0.021638013 -0.018254371 4281631049
-0.0091366768 -0.021493815 -0.018695084 4281630539
-0.0070069358 -0.022113807 -0.018480359 4281630539
-0.0050584339 -0.021969117 -0.018921496 4281368908
-0.002920609 -0.02258826 -0.018708413 4281042509
-0.00077741221 -0.023206837 -0.01849643 4281107278
0.001760345 -0.025352024 -0.016979622 4281172048
0.0045113377 -0.028259248 -0.014814003 4280974934
-0.02631529 -0.026693068 -0.013915478 4281301589
-0.024522316 -0.025781058 -0.015017739 4281171283
-0.022897061 -0.024101235 -0.016777331 4281106769
-0.021282334 -0.022422008 -0.018534461 4281106769
-0.019510318 -0.02151119 -0.019631697 4281499469
-0.017402556 -0.022135615 -0.019414121 4281368908
-0.015116248 -0.02352687 -0.018541465 4280977228
-0.013346635 -0.022615798 -0.019637907 4281297763
0.021028498 0.009597227 0.033519324 4284967979
0.023056289 0.0097489581 0.033061106 4285557029
0.036153331 0.0078888386 0.033094998 4285032748
0.037250131 0.010813862 0.029855896 4285361189
0.039991692 0.0088881254 0.031480867 4285689118
0.044193268 0.0028084069 0.037263699 4285820189
0.015779369 0.011105642 0.029718313 4285230119
0.016104298 0.016831748 0.02367435 4285492258
0.017028132 0.020464517 0.019734051 4285754908
0.019224338 0.019916102 0.019984059 4285819934
0.022740887 0.015190087 0.024413604 4285885723
0.026516551 0.0097707883 0.029530954 4285820443
0.02853884 0.0099224299 0.029074222 4285426978
0.030561093 0.010074154 0.028617572 4285493024
0.031434163 0.013703778 0.024689145 4285493023
0.032280557 0.017331444 0.020766865 4285493024
0.033570573 0.019566901 0.018237043 4285689119
0.036033615 0.018326551 0.019173671 4285689119
0.039950162 0.012918569 0.024259757 4285885978
0.04561127 0.0026520789 0.034175813 4285885724
0.012921331 0.018534265 0.0194363 4285361698
0.013846021 0.022177912 0.015503969 4285558814
0.015385006 0.02372282 0.013666866 4285557793
0.017994843 0.021773331 0.015311029 4285557794
0.020839639 0.019126557 0.017646868 4285820954
0.023927363 0.015783168 0.020672534 4285689629
0.026144516 0.015234455 0.020916399 4285624349
0.028366972 0.014686204 0.021159194 4285558558
0.029676199 0.016929492 0.018629786 4285624094
0.030737108 0.019869238 0.015411936 4285952788
0.032011602 0.022110112 0.012890514 4285623583
0.034458157 0.020864122 0.013827618 4285557793
0.038116697 0.016134337 0.018214133 4285623329
0.043270145 0.0072269365 0.02673088 4285689374
0.011525281 0.021109514 0.014068024 4285493279
0.012856403 0.02336029 0.011538079 4285821718
0.01459844 0.024207644 0.010401381 4285820699
0.017415684 0.021549977 0.012736762 4285689373
0.020035449 0.019594796 0.01437382 4285755163
0.022671195 0.017640859 0.01600739 4285886999
0.024650604 0.017789297 0.015560355 4285624093
0.026856739 0.017237686 0.015805144 4285624349
0.028150469 0.019486338 0.013284242 4285624093
0.029428154 0.021733932 0.010766996 4285952533
0.030689806 0.023980409 0.0082534328 4285952533
0.033359934 0.02202969 0.009879712 4285821209
0.037006315 0.017283671 0.014257487 4285821209
0.041903619 0.0090458766 0.02206764 4285689883
0.047355596 -0.00058452785 0.031238586 4285624094
0.011379126 0.019489005 0.012885397 4285427489
0.012500145 0.022449896 0.0096665453 4285624348
0.01445283 0.02259592 0.0092252344 4285886999
0.016837329 0.021335766 0.010169093 4285821464
0.019232485 0.020076461 0.011110662 4285886999
0.021859506 0.018115379 0.012741214 4285624348
0.023830794 0.018263213 0.012296019 4285624349
0.026028622 0.017708771 0.012541089 4285624349
0.027314819 0.019963451 0.01002679 4285558559
0.02881689 0.021515064 0.0082051773 4285689629
0.030308245 0.023066007 0.00638601 4285755419
0.032974984 0.021108493 0.0080081187 4285755419
0.036377281 0.017048262 0.011688121 4285689629
0.04078164 0.010185957 0.018107194 4285624093
0.046220031 0.00052398443 0.027258139 4285558559
0.011025291 0.018574707 0.011010228 4285362209
0.012354683 0.020838447 0.0084905718 4285559069
0.0140942 0.021689989 0.0073577333 4285624094
0.016259804 0.021130569 0.0076080728 4285623838
0.018867478 0.019161336 0.0092380177 4285623839
0.02127007 0.017898388 0.010174654 4285624094
0.023459602 0.017341077 0.010419829 4285624094
0.025201708 0.018193349 0.0092868153 4285624348
0.026938446 0.019045316 0.008155087 4285558813
0.028438114 0.020601168 0.0063372795 4285624349
0.03016144 0.021452338 0.0052087344 4285624094
0.032353412 0.020895742 0.0054537635 4285689374
0.035269696 0.018229 0.0077543203 4285623838
0.039418932 0.012047254 0.013474867 4285558304
0.044841066 0.0023535118 0.022606406 4285493023
0.011501942 0.014832594 0.011903076 4285361954
0.012209252 0.019227296 0.0073148087 4285559069
0.01373598 0.020788804 0.0054936279 4285624348
0.015252067 0.022349581 0.0036749728 4285755418
0.017848359 0.02037295 0.0053025447 4285886743
0.020681456 0.017690502 0.0076147374 4285821209
0.023312327 0.015716717 0.0092346128 4285689884
0.0250545 0.016571186 0.0081032421 4285690139
0.02724896 0.016012274 0.0083458107 4285624604
0.028754238 0.017572887 0.0065300874 4285624348
0.030248798 0.01913283 0.0047168154 4285624348
0.03173266 0.020692043 0.0029060859 4285886998
0.034403209 0.018721856 0.0045175422 4286018324
0.037816092 0.01463636 0.0081754699 4286018068
0.043219313 0.0049106553 0.017288208 4285820444
0.050676771 -0.010450467 0.03184133 4285820444
0.010940839 0.0146292 0.0093387794 4285426469
0.011643868 0.01903674 0.0047613401 4285558303
0.012952898 0.021312125 0.0022563022 4285689883
0.014461249 0.022876725 0.00044264644 4285886488
0.016830854 0.021602429 0.0013801083 4285820953
0.019873004 0.018201046 0.0043748543 4285952279
0.022941764 0.01480177 0.0073636752 4285886999
0.024907306 0.014949292 0.0069198664 4285624348
0.027101438 0.014388196 0.0071608834 4285558813
0.028375696 0.016661726 0.0046642665 4285624349
0.029633909 0.018934213 0.0021713208 4285755418
0.031112704 0.020497464 0.00036499277 4285689373
0.033537924 0.019228198 0.0012905486 4285689119
0.036699541 0.015836664 0.0042589828 4285754909
0.041844569 0.0067869201 0.01267059 4285951768
0.049036887 -0.0079161748 0.026510928 4285886233
-0.013282944 -0.0033376142 0.028304014 4285097518
-0.010577697 -0.006049037 0.030630443 4285556519
-0.0075007342 -0.010188587 0.034342431 4285294123
0.010173423 0.01514747 0.0060931481 4285557028
0.01044995 0.020992227 0.00015247427 4285624349
0.011958573 0.022561066 -0.0016579833 4285755164
0.013671663 0.023417301 -0.0027798023 4285557794
0.016032733 0.022138052 -0.0018437542 4285557794
0.018845329 0.019436605 0.0004598815 4285754909
0.022125412 0.015314199 0.0041274484 4285755164
0.024082828 0.015461132 0.0036854874 4285624348
0.026268654 0.014897197 0.0039267857 4285558558
0.027304286 0.017887503 0.00075425953 4285624350
0.028786067 0.019455247 -0.0010495186 4285952788
0.030257158 0.021022253 -0.0028507505 4285623839
0.032434769 0.020458177 -0.0026073195 4285557794
0.035584603 0.017054848 0.00035553612 4285558049
0.040227439 0.0093951821 0.0073896982 4285558559
0.047152363 -0.0046457127 0.020521101 4285558559
-0.032871913 0.00013773888 0.02490085 4285426213
-0.03103042 0.001002945 0.023749527 4285819934
-0.028589997 -0.0010076389 0.025395487 4285819934
-0.0258261 -0.0044542849 0.02843466 4285688864
-0.02350447 -0.0057433695 0.029374424 4285360934
-0.021490041 -0.0055949986 0.02891745 4285427744
-0.019960463 -0.0032922029 0.026370727 4285427488
-0.018939693 0.0011631697 0.021739732 4285426979
-0.017616764 0.0041809306 0.018506788 4285754908
-0.015636399 0.0043272302 0.018057868 4285820189
-0.012794383 0.00088712573 0.021079902 4285885469
-0.010100614 -0.0018337891 0.023402397 4285885724
-0.007030163 -0.0059868693 0.027106103 4285426724
0.0094676428 0.022255443 -0.0037543513 4285689629
0.010965863 0.023827918 -0.0055591986 4285886998
0.012883274 0.023971401 -0.0059924629 4285886999
0.015235841 0.022687115 -0.0050577316 4285820953
0.018259756 0.01926256 -0.0020753387 4285886998
0.021087369 0.01655367 0.00021836162 4285821718
0.023034001 0.016699784 -0.00022116862 4285624349
0.024980601 0.016846016 -0.000660602 4285558558
0.026234487 0.019131146 -0.0031427033 4285558558
0.027472336 0.021415204 -0.0056211632 4285755674
0.028930381 0.0229856 -0.0074161496 4285887253
0.030855469 0.023130648 -0.007850403 4285887253
0.033988196 0.019715145 -0.0048919041 4285821719
0.038124301 0.013454005 0.00077239051 4285756184
0.044776913 7.931143e-05 0.013199281 4285690394
-0.036575299 -0.0039619803 0.026704475 4285229863
-0.035435025 0.00051438063 0.02205557 4285558558
-0.034035478 0.0035456195 0.018811163 4285623838
-0.032212552 0.0044116601 0.017665636 4285623583
-0.029791456 0.0023930818 0.019311022 4285689374
-0.027354252 0.00037579983 0.020952828 4285755419
-0.025057089 -0.0009194687 0.021894835 4285624349
-0.022907928 -0.0014933571 0.022138894 4285558559
-0.02123772 9.4078481e-05 0.020296842 4285558558
-0.019906286 0.0031210482 0.017068457 4285821209
-0.018596016 0.0061465874 0.013844963 4285689118
-0.016459655 0.0055721775 0.014092244 4285557538
-0.013973627 0.0035592616 0.01572356 4285688864
-0.011296753 0.0008283481 0.018043268 4285754908
-0.0085984692 -0.0019008741 0.020358227 4285754908
-0.0060589127 -0.0039094463 0.021977618 4285557539
0.0089057032 0.022103123 -0.0062799174 4285689629
0.0099747702 0.02511261 -0.0094473921 4285755928
0.012096103 0.024538971 -0.0091952849 4285690139
0.014657527 0.022533573 -0.007579593 4285821209
0.017454948 0.019813545 -0.0052857008 4285690138
0.02005095 0.017810933 -0.0036776727 4285624349
0.022212163 0.01724074 -0.003434225 4285558558
0.024150638 0.017386369 -0.0038718181 4285558814
0.025396992 0.01967752 -0.0063473228 4285558814
0.026627332 0.02196753 -0.0088190846 4285492769
0.028077642 0.023541771 -0.010609066 4285558304
0.029994611 0.023686223 -0.011041474 4285558558
0.032876879 0.020973459 -0.0087660644 4285492768
0.036512382 0.016120039 -0.0044664172 4285493023
0.042405084 0.0048441514 0.0059065167 4285427998
0.050876167 -0.013562448 0.02301161 4285493534
-0.037980523 0.00090590864 0.019216482 4285164074
-0.036863137 0.0053936616 0.014582645 4285755673
-0.034905631 0.0055372566 0.014138142 4285755163
-0.032947961 0.0056809783 0.013693685 4285689119
-0.030688863 0.0043782964 0.014640849 4285755164
-0.028418977 0.0030765161 0.015585646 4285821209
-0.026294243 0.0024984702 0.015833534 4285690139
-0.024164047 0.0019209608 0.016080219 4285624350
-0.022189658 0.0020664483 0.015632372 4285624348
-0.020706944 0.0043789223 0.013106212 4285821208
-0.019240081 0.006690301 0.010583773 4286018069
-0.017112035 0.0061130747 0.010831278 4285886489
-0.014634725 0.0040929988 0.012459565 4285886488
-0.012141321 0.0020741746 0.014084339 4286083093
-0.0096318536 5.6661665e-05 0.015705556 4285689119
-0.0071063377 -0.0019595101 0.017323177 4285557539
0.0085537918 0.021240912 -0.00811629 4285623584
0.0098327026 0.023540281 -0.010594787 4285624349
0.011953704 0.022964425 -0.010344252 4285558813
0.014297217 0.021670736 -0.0094140638 4285558558
0.016871206 0.019659847 -0.007806072 4285624349
0.019016135 0.01908613 -0.0075606871 4285624349
0.021391526 0.01779522 -0.0066374866 4285558813
0.023321878 0.017940246 -0.0070732394 4285361443
0.025021698 0.01880271 -0.0081866123 4285361188
0.02624983 0.021099143 -0.010652978 4285361188
0.027933573 0.021960624 -0.01176255 4285427233
0.030088887 0.021388359 -0.011518998 4285426978
0.032490607 0.02010005 -0.010601195 4285426979
0.035634309 0.0166637 -0.0076615429 4285361443
0.040776275 0.0075004622 0.00066521019 4285427233
0.048976891 -0.01024849 0.017058741 4285427233
-0.038543392 0.0014561787 0.015937228 4285032493
-0.037575413 0.0066825002 0.010618821 4285624858
-0.03562868 0.0068252757 0.010176741 4285886998
-0.033681769 0.0069681928 0.0097347144 4285886998
-0.031433839 0.0056603029 0.010681096 4285886999
-0.029175106 0.0043532699 0.011625156 4285690138
-0.027061347 0.0037722439 0.011873823 4285624349
-0.02510054 0.0039165989 0.01142896 4285624349
-0.022978522 0.0033364072 0.01167592 4285624349
-0.021342248 0.0049301386 0.0098482147 4285624093
-0.019550141 0.0057989731 0.0087135024 4285755418
-0.01759414 0.0059434101 0.0082700588 4285755418
-0.015122861 0.0039163008 0.0098948199 4285820954
-0.012809914 0.0026141927 0.010827202 4285689628
-0.010486197 0.0013129637 0.011757283 4285624093
-0.007972043 -0.00071066618 0.01337257 4285425703
0.0087665915 0.011584736 -0.0013386942 4286866964
0.009038277 0.017498903 -0.0072254939 4285294633
0.010325626 0.019805439 -0.0097009614 4285557793
0.012454288 0.019227996 -0.0094537959 4285492768
0.014805254 0.0179305 -0.0085285911 4285492768
0.016727563 0.018074609 -0.0089627681 4285492514
0.01864985 0.018218815 -0.0093968641 4285426723
0.020797079 0.017643213 -0.0091535533 4285558304
0.022949599 0.017068125 -0.0089113498 4285426469
0.024646821 0.017932571 -0.010022486 4285426469
0.026804578 0.017358109 -0.0097812917 4285558304
0.028967604 0.016784146 -0.0095412079 4285558048
0.031135892 0.016210698 -0.0093022231 4285426213
0.033309452 0.015637718 -0.0090642953 4285492003
0.035975449 0.013628267 -0.0074812798 4285492769
0.040627472 0.0058735088 -0.00052152947 4285557793
0.048325077 -0.010494106 0.014488176 4285557793
-0.039244641 0.0027483478 0.011972798 4284966958
-0.038286086 0.0079892129 0.0066680443 4285493534
-0.036350112 0.0081311762 0.0062283855 4285624093
-0.034266394 0.007545419 0.0064819697 4285624093
-0.031876709 0.0055048317 0.008119598 4285558559
-0.029470932 0.0034655854 0.0097536203 4285624094
-0.027204584 0.0021548495 0.010692725 4285624349
-0.025402136 0.0030262247 0.0095570963 4285624349
-0.023443989 0.0031704679 0.0091128983 4285624349
-0.021812808 0.0047682077 0.0072895773 4285624093
-0.019859735 0.0049123019 0.0068467036 4285689374
-0.018075407 0.0057827905 0.0057155192 4285623839
-0.015781712 0.0044747815 0.0066488869 4285623839
-0.013303079 0.0024417564 0.0082671009 4285689628
-0.010808371 0.00041003525 0.0098817572 4285689629
-0.0084771253 -0.00089486688 0.010806873 4285492004
0.009521585 0.013744071 -0.0063441331 4285622308
0.011028849 0.015334643 -0.0081377896 4285622819
0.013167817 0.014755785 -0.0078946026 4285558049
0.015095327 0.014900155 -0.0083300536 4285557793
0.017022822 0.015044644 -0.0087654078 4285557793
0.018950295 0.015189245 -0.0092006708 4285558049
0.02132728 0.01388973 -0.0082844151 4285558048
0.02326002 0.014034964 -0.0087206913 4285557794
0.025422823 0.013458543 -0.008482323 4285557794
0.027590891 0.012882687 -0.0082450854 4285426724
0.029764229 0.012307338 -0.0080089653 4285426468
0.031704754 0.012453608 -0.0084466571 4285426469
0.033885945 0.011879072 -0.0082121333 4285492258
0.036559209 0.0098635927 -0.0066356389 4285426723
0.041462936 0.0013648048 0.00097565725 4285426468
0.048668966 -0.013611816 0.014605526 4285426469
-0.03800064 0.0042007491 0.0075799078 4285493789
-0.036491018 0.0065339506 0.0050618667 4285624094
-0.034555014 0.0066759959 0.0046222676 4285689629
-0.03231876 0.0053584799 0.0055646785 4285689629
-0.029766288 0.00258255 0.0078855399 4285689884
-0.027503144 0.0012671724 0.0088220499 4285689884
-0.025703292 0.0021405667 0.0076886006 4285689883
-0.023908649 0.0030136555 0.0065564662 4285624348
-0.022445872 0.0053442121 0.0040495917 4285689884
-0.020500921 0.0054876953 0.0036085472 4285755164
-0.01872452 0.0063597634 0.0024807975 4285886488
-0.016268007 0.004318431 0.0040989891 4285952278
-0.013621423 0.0015503168 0.0063991696 4285886743
-0.010953456 -0.0012160838 0.0086945985 4285820444
-0.0086227469 -0.0025253743 0.0096165426 4285623584
0.010212338 0.0092508271 -0.0047943881 4285621798
0.011730503 0.010846555 -0.0065872362 4285557283
0.013451934 0.011716552 -0.0077011017 4285557538
0.015384628 0.011861317 -0.0081377169 4285492258
0.017317306 0.012006193 -0.0085742353 4285492258
0.019471887 0.011426643 -0.0083359117 4285557793
0.021856315 0.01012335 -0.0074246181 4285557793
0.024024133 0.0095450655 -0.00718915 4285557793
0.025967341 0.0096911937 -0.0076277005 4285492003
0.027910504 0.0098374411 -0.0080661485 4285426469
0.030324055 0.0085367635 -0.0071610296 4285360678
0.032272425 0.0086836293 -0.0076004779 4285360679
0.034220729 0.0088306144 -0.0080398275 4285360678
0.037141774 0.0060860589 -0.0057993904 4285361189
0.042296782 -0.00316111 0.0024602115 4285426469
0.049509116 -0.018183075 0.016054146 4285426469
-0.038283821 0.0033298805 0.0057175718 4285493533
-0.036631864 0.004937008 0.0038955472 4285689883
-0.034843195 0.0058112592 0.0027659778 4286018324
-0.032759976 0.0052211583 0.003016416 4286018324
-0.03021374 0.0024360344 0.0053320918 4285952533
-0.027801272 0.00038424879 0.0069547556 4285755163
-0.02600402 0.0012595728 0.005823575 4285689884
-0.024372447 0.0028658658 0.0040066801 4285624348
-0.02291457 0.0052025989 0.0015058517 4285689883
-0.021306705 0.006807372 -0.00030550361 4285755164
-0.019203931 0.0062194914 -5.890429e-05 4285952278
-0.016924608 0.0049016699 0.00087111071 4285755164
-0.014286939 0.002124168 0.0031667184 4285886488
-0.011804339 7.8439713e-05 0.0047742203 4285755163
-0.0091265589 -0.002695851 0.0070609227 4285623839
-0.0069727674 -0.0032793805 0.007296389 4286082839
0.010276329 0.0069234595 -0.0052856505 4285687589
0.011586357 0.0092512667 -0.0077513764 4285557283
0.013521574 0.009396106 -0.0081886491 4285492003
0.015456785 0.0095410645 -0.0086258268 4285558049
0.017830074 0.0082323328 -0.0077154869 4285558049
0.019992284 0.0076512247 -0.0074805701 4285623584
0.022384174 0.0063440874 -0.0065742098 4285623583
0.024332605 0.0064905062 -0.0070140176 4285623329
0.026510686 0.0059109405 -0.0067824163 4285557794
0.028229343 0.006783694 -0.0078933388 4285426468
0.030412644 0.0062047541 -0.0076627396 4285426469
0.032363541 0.0063518211 -0.0081027523 4285360678
0.034554705 0.0057737157 -0.0078737549 4285295143
0.037723131 0.0022956952 -0.004972551 4285295143
0.042883389 -0.006979458 0.0032645129 4285295398
-0.038283166 0.00099410862 0.0052378587 4285493533
-0.03691699 0.0040750131 0.0020404682 4285689628
-0.035277929 0.0056856871 0.00022468157 4285689373
-0.033350009 0.0058272034 -0.00021303818 4285623583
-0.03066035 0.0022986308 0.0027852263 4285820954
-0.028563883 0.0017075315 0.0030311644 4285755163
-0.02661958 0.0018505976 0.0025899895 4285689628
-0.025156051 0.0041940883 9.2748553e-05 4285624349
-0.023382429 0.005070053 -0.0010312796 4285689884
-0.021945257 0.0074118972 -0.0035223886 4285820954
-0.019850809 0.0068212003 -0.0032755733 4285623584
-0.017579991 0.0054983348 -0.0023468938 4285557794
-0.014951237 0.0027114898 -5.5894256e-05 4285623584
-0.012653608 0.001390852 0.0008668974 4285754909
-0.0099874027 -0.0013930425 0.0031496156 4285623838
-0.0076630041 -0.0027114302 0.0040664691 4285622818
0.010339953 0.0045920238 -0.0057798773 4285491238
0.011863953 0.0061969087 -0.0075674523 4285623583
0.013804352 0.0063421205 -0.008005904 4285558304
0.015960928 0.0057581961 -0.0077715255 4285492513
0.018122813 0.0051747635 -0.0075382628 4285557793
0.020290019 0.0045918152 -0.0073060766 4285492003
0.022238338 0.0047381222 -0.0077459402 4285557538
0.024186628 0.0048845336 -0.0081857145 4285491748
0.026134875 0.0050310567 -0.0086253919 4285492514
0.028083079 0.0051777139 -0.0090649575 4285426468
0.030266043 0.0045965835 -0.0088359192 4285426724
0.032691747 0.0032882765 -0.0079400688 4285361189
0.034647755 0.0034358576 -0.0083811395 4285361189
0.037817694 -5.2936375e-05 -0.0054885149 4285426469
0.042977866 -0.009356387 0.0027272012 4285426469
-0.039131816 0.0030762851 0.00062713772 4285492768
-0.037778284 0.006164968 -0.0025608055 4285624348
-0.03615227 0.0077790171 -0.0043703495 4285623839
-0.033938851 0.0064466447 -0.0034326334 4285558048
-0.031410392 0.0036427677 -0.0011261739 4285689629
-0.029015314 0.0015765503 0.00049057975 4285821209
-0.027076472 0.0017191917 5.0626695e-05 4285689884
-0.025457699 0.0033332184 -0.0017568152 4285624349
-0.024012242 0.005682081 -0.0042449776 4285690138
-0.02225174 0.0065593347 -0.00536431 4285887253
-0.02032838 0.0067012906 -0.0058004148 4285821208
-0.018234175 0.006108515 -0.0055551007 4285689373
-0.016134534 0.0055162534 -0.005310934 4285755419
-0.013853401 0.0041899979 -0.0043877177 4285820954
-0.011204105 0.0013961792 -0.0021077916 4285689374
0.010195203 0.0029885694 -0.0069500171 4285491748
0.012140781 0.0031340793 -0.0073897131 4285623583
0.014299694 0.002547957 -0.0071575679 4285623583
0.016463909 0.0019624159 -0.0069265626 4285689119
0.01863344 0.0013773963 -0.0066966712 4285688863
0.020808268 0.00079286844 -0.0064678974 4285623328
0.022988413 0.00020883232 -0.0062401816 4285557284
0.025400463 -0.001105316 -0.0053448863 4285491748
0.027364533 -0.00095758587 -0.0057881176 4285426468
0.029560518 -0.0015400276 -0.0055637471 4285491493
0.03152715 -0.0013918802 -0.006007392 4285295143
0.033968292 -0.002703391 -0.0051182508 4285295398
0.036419999 -0.0040139779 -0.0042314613 4285295143
0.039852679 -0.0082416013 -0.00068647414 4285360678
0.044788789 -0.01684247 0.0068385843 4285426214
-0.040231299 -0.0038324073 0.0047121402 4284966449
-0.03969587 0.0037022755 -0.0025945064 4285493023
-0.038349692 0.0067991391 -0.0057742763 4285755674
-0.036731388 0.0084169656 -0.007578793 4285887254
-0.034675743 0.0078181922 -0.007327036 4285821463
-0.032310773 0.0057431534 -0.0057085212 4285887509
-0.029775102 0.0029311478 -0.0034101568 4285624348
-0.027689796 0.0023349375 -0.0031649228 4285624348
-0.026078772 0.0039527342 -0.0049673282 4285624349
-0.024478246 0.0055698678 -0.0067672636 4285558558
-0.022723034 0.0064489618 -0.0078838002 4285624349
-0.020805135 0.006590493 -0.0083186794 4285690138
-0.018887125 0.0067321584 -0.0087534897 4285755928
-0.016969021 0.006873928 -0.0091882423 4285755674
-0.014874939 0.0062791333 -0.0089443363 4285624349
-0.011882797 0.0020025894 -0.0053118505 4285623583
-0.040258702 0.0043417439 -0.0058064051 4285428255
-0.038776111 0.0067055747 -0.0082937498 4285493533
-0.037016448 0.0075863004 -0.0094102304 4285492768
-0.034814712 0.0062443241 -0.0084764641 4285492769
-0.032602195 0.0049032792 -0.0075451098 4285492513
-0.030070107 0.0020822734 -0.0052525382 4285492513
-0.028144848 0.0022238791 -0.0056894422 4285558813
-0.026379164 0.0031056255 -0.0068068523 4285558814
-0.024781071 0.0047269687 -0.0086030047 4285558813
-0.022863425 0.0048683509 -0.0090379231 4285559069
-0.020777959 0.0042703822 -0.0087939873 4285558814
-0.019027799 0.0051514879 -0.0099075697 4285558814
-0.017109834 0.0052932575 -0.010342289 4285558813
-0.015016094 0.0046962351 -0.01009997 4285559069
-0.012203608 0.0011451617 -0.0071534012 4285492514
-0.040397596 0.0027638823 -0.0069588684 4285362208
-0.03891455 0.0051342472 -0.0094414037 4285493534
-0.036862385 0.0045307204 -0.0091922544 4285493024
-0.034804735 0.0039277449 -0.0089443102 4285558558
-0.032590095 0.0025824979 -0.0080167446 4285624348
-0.030518878 0.0019806996 -0.0077716671 4285558303
-0.028285343 0.0006370768 -0.0068482049 4285624349
-0.026519623 0.0015209839 -0.0079639964 4285690394
-0.024596907 0.0016626045 -0.0084001683 4285624349
-0.022674076 0.0018043593 -0.0088362694 4285558814
-0.020583641 0.0012046099 -0.0085951537 4285690138
-0.018828101 0.0020882264 -0.0097082891 4285690394
-0.017077778 0.0029716045 -0.010820132 4285624348
-0.014981728 0.0023726225 -0.010580018 4285689629
-0.012167707 -0.0011892393 -0.0076420382 4285558303
-0.040254999 -0.00030526519 -0.0067479014 4285427489
-0.038766202 0.0020720288 -0.009226827 4285492514
-0.036563005 0.00072132796 -0.0083001424 4285492513
-0.034349021 -0.00062849373 -0.0073757563 4285492004
-0.032275621 -0.0012323931 -0.0071329605 4285491748
-0.030350778 -0.0010909736 -0.0075698905 4285557539
-0.028269123 -0.0016940236 -0.0073287841 4285623838
-0.02634136 -0.0015521646 -0.0077661984 4285624349
-0.02441347 -0.0014101714 -0.0082035512 4285558303
-0.022320837 -0.002012074 -0.0079646911 4285492259
-0.020390056 -0.0018696189 -0.0084025078 4285492259
-0.018289205 -0.0024707094 -0.0081652682 4285492513
-0.016528212 -0.001584366 -0.0092779603 4285558304
-0.01442185 -0.0021848008 -0.0090417881 4285623839
-0.011954214 -0.0042707622 -0.0074605206 4285558304
-0.039832082 -0.0048787668 -0.0051832004 4285032749
-0.03833219 -0.0024941936 -0.0076596811 4285426979
-0.036264736 -0.0031009391 -0.0074173603 4285492259
-0.034340311 -0.0029598102 -0.0078543816 4285492258
-0.032264579 -0.0035657212 -0.0076137679 4285557794
-0.030337226 -0.0034241304 -0.0080512716 4285558049
-0.028096769 -0.0047760382 -0.0071359454 4285623584
-0.026163835 -0.0046338141 -0.007574548 4285492513
-0.023907196 -0.0059842542 -0.0066627609 4285558048
-0.022297595 -0.0043489709 -0.008451554 4285492513
-0.020197205 -0.0049523711 -0.0082160058 4285492513
-0.018261157 -0.0048094243 -0.0086549418 4285492513
-0.016152587 -0.0054119676 -0.0084210606 4285492513
-0.014213692 -0.0052685812 -0.0088604679 4285558048
-0.01209696 -0.0058702752 -0.0086282501 4285558303
-0.039831627 -0.0072190613 -0.0056661973 4284967469
-0.038185675 -0.005577676 -0.0074607274 4285361188
-0.03625888 -0.0054365024 -0.0078983838 4285492004
-0.034183633 -0.0060447529 -0.007659399 4285426469
-0.032102916 -0.0066525266 -0.0074215299 4285492259
-0.030016761 -0.0072597638 -0.0071848547 4285492258
-0.028081428 -0.0071174875 -0.0076240944 4285558048
-0.026304912 -0.0062262937 -0.0087374365 4285492513
-0.024210408 -0.0068325624 -0.0085023912 4285558303
-0.022438977 -0.0059414953 -0.009614394 4285558048
-0.020172011 -0.0072953179 -0.0087080719 4285558048
-0.018063877 -0.0079002082 -0.008475841 4285492513
-0.01595033 -0.0085045621 -0.0082447352 4285558304
-0.014181156 -0.007613197 -0.0093558664 4285558303
-0.012062117 -0.0082169101 -0.0091258222 4285492513
-0.0396914 -0.010315761 -0.0054754475 4285164073
-0.038182672 -0.0079174787 -0.007944149 4285493024
-0.036253359 -0.0077761337 -0.0083823921 4285492514
-0.034175787 -0.008386448 -0.0081455475 4285492259
-0.032092761 -0.0089962035 -0.0079098968 4285492258
-0.030157711 -0.0088540986 -0.0083491793 4285492259
-0.028066438 -0.0094630122 -0.0081152273 4285492513
-0.026287224 -0.0085694715 -0.0092275525 4285426979
-0.024190385 -0.0091777369 -0.0089946846 4285492513
-0.022252198 -0.0090349093 -0.0094343098 4285558048
-0.019980438 -0.010392725 -0.0085323574 4285492513
-0.01786733 -0.010999478 -0.0083028683 4285492514
-0.015920851 -0.010855682 -0.0087441066 4285492514
-0.014323682 -0.009212099 -0.010523197 4285492513
-0.012027621 -0.010567658 -0.0096263299 4285427234
-0.03997172 -0.011157319 -0.0073164431 4285229354
-0.038180005 -0.010261387 -0.0084305042 4285558814
-0.035957653 -0.011628166 -0.0075213658 4285492768
-0.033724528 -0.012994014 -0.0066145742 4285492259
-0.031631198 -0.013605259 -0.0063828873 4285360678
-0.029685657 -0.013462387 -0.0068245539 4285360934
-0.027739991 -0.013319381 -0.0072661685 4285426978
-0.026111316 -0.011669874 -0.0090496773 4285493024
-0.024331931 -0.010774031 -0.010160313 4285492513
-0.022393879 -0.010631204 -0.010599908 4285426978
-0.02012267 -0.011993423 -0.0097011346 4285426468
-0.018179096 -0.011849977 -0.010141814 4285492513
-0.016235419 -0.011706375 -0.010582408 4285493024
-0.014291659 -0.011562653 -0.011022935 4285426979
-0.011993483 -0.012922429 -0.010129852 4285360933
-0.0095047653 -0.015032887 -0.0085729714 4285294633
-0.037608016 -0.015635513 -0.0062279161 4285294634
-0.035372917 -0.017005704 -0.0053249635 4285360679
-0.033274759 -0.017618842 -0.0050961468 4285294888
-0.031321529 -0.017475553 -0.0055396687 4285163818
-0.029368173 -0.017332114 -0.0059831273 4285164074
-0.027414683 -0.017188542 -0.0064265113 4285033004
-0.025777772 -0.015534125 -0.008208571 4284901423
