# .PCD v0.7 - Point Cloud Data file format
VERSION 0.7
FIELDS x y z rgba
SIZE 4 4 4 4
TYPE F F F U
COUNT 1 1 1 1
WIDTH 736
HEIGHT 1
VIEWPOINT 0 0 0 1 0 0 0
POINTS 736
DATA ascii
-0.003830608 0.0040691495 0.017332649 4289604644
-0.0018303134 0.0042089671 0.016904918 4289931808
0.0010444187 0.00078856945 0.019962827 4289735969
-0.0069696978 0.0065724701 0.01237542 4289996068
-0.0053243451 0.0081402808 0.010557773 4290389533
-0.003001526 0.0068497062 0.011526776 4290585628
0.0003801845 0.0012743622 0.01666666 4290520603
0.0027405359 -1.3381243e-05 0.017627804 4289672473
0.0043915324 0.0015552714 0.015809288 4289543699
-0.0084964931 -0.0068149939 0.023180673 4287575353
-0.0084359162 0.0019327998 0.01439275 4289475359
-0.0079398379 0.008525148 0.007705478 4289408549
-0.0059692785 0.0086627528 0.0072839987 4289277734
-0.0033113137 0.005933851 0.0096404944 4289669923
-0.000282906 0.0017736852 0.013380302 4289931553
0.0020689331 0.00048092008 0.014340011 4289671454
0.0038919933 0.0013373643 0.013219161 4289934360
0.0060747936 0.0007616654 0.013483969 4290068488
-0.01177109 -0.0035848916 0.017526848 4290526979
-0.010085519 -0.0020059049 0.015706902 4289149723
-0.009065073 0.0024501234 0.0111109 4289998873
-0.0080765598 0.0069039986 0.0065218583 4290062879
-0.0062751099 0.0077605844 0.0054069534 4289605409
-0.0037923418 0.0057415962 0.0070647337 4289932064
-0.0009448342 0.0022864491 0.010103818 4290848534
0.0015754625 0.00027030706 0.011753747 4290325273
0.0033932254 0.0011284873 0.010635691 4289605918
0.0057526864 -0.00016783923 0.011590613 4289606174
0.0075678825 0.0006904006 0.01047329 4290130198
-0.009529613 0.0022593141 0.0085319113 4290523409
-0.0078809857 0.0038403571 0.0067232754 4290064154
-0.0060741566 0.0046994984 0.0056088567 4289866529
-0.0035867319 0.0026742071 0.0072607379 4289669668
-0.0012573563 0.0013710558 0.0082185287 4290063134
0.00090598315 0.00078938901 0.0084840301 4289474338
0.0027157702 0.0016492307 0.007369278 4289344289
0.0047024302 0.001788497 0.00694477 4290129688
0.0066891275 0.0019278899 0.0065203384 4289999129
0.009050848 0.00062754005 0.0074716974 4289802779
0.011233117 4.7802925e-05 0.0077335425 4289412119
-0.0081839226 0.0029390231 0.0048460905 4289934868
-0.0058738925 0.0016298592 0.005804589 4289867549
-0.003895659 0.0017680675 0.0053815264 4289932319
-0.0013955198 -0.00026272982 0.0070257913 4290259229
0.00059087202 -0.00012370944 0.0066011567 4289735969
0.0023980439 0.00073808432 0.0054886434 4289605409
0.0040179826 0.0023220927 0.003689969 4290782998
0.0059965365 0.0024609119 0.0032672752 4290586394
0.0083497129 0.0011556298 0.0042171255 4290586139
0.010523641 0.00057312846 0.0044791084 4290651164
0.013088223 -0.0014523715 0.006110264 4289605664
0.015082922 -0.0013119578 0.0056844745 4288952608
-0.0063480251 0.0014542863 0.0032395534 4289543953
-0.0040330775 0.0001412183 0.004193807 4290064408
-0.0017073974 -0.0011709556 0.0051457975 4289997598
-7.66702e-05 0.00041794777 0.0033479277 4289801248
0.0017225221 0.0012813956 0.002238702 4290128413
0.0033346824 0.0028692335 0.00044498034 4289801503
0.0053050779 0.0030074716 2.4022534e-05 4289539363
0.0076497309 0.0016972274 0.00097240321 4289996833
0.0098153334 0.0011119097 0.0012345724 4290389534
0.012371184 -0.00092071295 0.0028626155 4289735714
0.014357729 -0.00078088045 0.0024385564 4289474593
0.017135441 -0.0035351813 0.0047440324 4290392339
0.034089185 -0.026676171 0.02503811 4286333503
-0.00056683645 0.00024588406 0.0007897988 4289738263
0.0014059879 0.00038403273 0.00036813132 4289998619
0.0030157007 0.0019760579 -0.0014217999 4290587159
0.0047990344 0.0028407723 -0.0025257636 4289409059
0.0071378313 0.0015257448 -0.0015794132 4289016104
0.0094873421 0.00021158159 -0.00063527189 4289670178
0.012039829 -0.0018278733 0.00098860823 4290128413
0.014413424 -0.0031401366 0.0019278396 4289931553
0.017390516 -0.0066287816 0.0049071237 4289342503
0.020794842 -0.01156652 0.0092411637 4289211943
0.024236567 -0.016501546 0.013567368 4287053113
0.027715646 -0.021433786 0.017885631 4286464064
0.030607259 -0.024188265 0.020160621 4286398528
0.033942107 -0.028390735 0.023786953 4286333249
0.037522592 -0.033315457 0.028083937 4286398018
0.0010898486 -0.00050862134 -0.0014990177 4290522899
0.0026971288 0.0010875762 -0.0032851454 4290129434
0.0042937584 0.0026831999 -0.0050689522 4289800993
0.0066267066 0.0013633594 -0.0041245986 4289342759
0.0093491636 -0.0014125854 -0.0018207747 4289866273
0.011900943 -0.0034586489 -0.00020167045 4289735458
0.014468765 -0.0055034459 0.0014141034 4289081128
0.017644849 -0.0097308159 0.0050639845 4288753964
0.021053072 -0.014683604 0.0093857497 4288819753
0.024498658 -0.019633576 0.013699593 4287576628
0.027570773 -0.023126043 0.016650675 4286398528
0.030669572 -0.026616514 0.019596146 4286267713
0.034216575 -0.031559005 0.023888683 4286202179
0.037374057 -0.035045065 0.026821842 4286201923
0.004340902 0.00034147501 -0.0055642631 4289736990
0.006489452 -0.00025171041 -0.0053034946 4289670690
0.0092110187 -0.0030364469 -0.0030060448 4289474084
0.012337757 -0.0072806627 0.0006443914 4288623404
0.015301986 -0.010792151 0.0036099069 4287576884
0.018490147 -0.015031755 0.0072473735 4287053369
0.021510452 -0.018539026 0.010201117 4287707189
0.02455746 -0.022044301 0.013149241 4287183418
0.027631156 -0.025547564 0.016091781 4286594623
0.030939443 -0.029778235 0.019704035 4286398274
0.034279734 -0.034006484 0.02330952 4286201923
0.0042040125 -0.001271084 -0.0067413691 4289608215
0.0067249499 -0.0033326223 -0.0051257089 4289540383
0.0098290276 -0.0075915977 -0.0014804211 4288950569
0.012965173 -0.011848256 0.0021581426 4287837493
0.016133359 -0.016102463 0.0057899356 4286988089
0.019136554 -0.019621991 0.0087390095 4286857019
0.021367621 -0.020210892 0.0089809634 4287576119
0.024818297 -0.025191098 0.013270771 4286987068
0.02789624 -0.028704956 0.016204199 4286332738
0.031208575 -0.03294836 0.01980572 4286528833
0.010634413 -0.012899086 0.0007086657 4287642419
0.013591113 -0.016433015 0.0036592856 4287118394
0.016768713 -0.02069971 0.0072792582 4286857019
0.019584648 -0.023494937 0.0095437467 4286594878
0.022022897 -0.024819799 0.010456195 4287248698
0.025280584 -0.029080413 0.014059315 4287706423
0.028365441 -0.032604694 0.016983071 4286332993
0.011249311 -0.017490886 0.0022075251 4286792248
0.014024273 -0.020297982 0.0044740029 4286725949
0.0170146 -0.023840323 0.0074093454 4286725949
0.019834971 -0.026643947 0.0096663311 4286529599
0.022477373 -0.028709427 0.011246668 4287183419
0.025741782 -0.03298264 0.014838519 4288099124
0.01110886 -0.019142002 0.0010023564 4286726713
0.013691781 -0.021218583 0.0025901832 4286660414
0.016872156 -0.02551119 0.0061898343 4286725948
0.020084575 -0.029801406 0.0097827353 4286594878
0.022930734 -0.032611817 0.01202775 4286202434
0.010780159 -0.020051137 -0.00087383762 4286529854
0.013550648 -0.02287595 0.0013804846 4286595389
0.016536122 -0.026440442 0.004300449 4286464574
0.010828044 -0.022443265 -0.001407288 4286660924
0.013409538 -0.024533018 0.00017100945 4286334014
0.01288729 -0.024697989 -0.0023732297 4283459399
0.016058505 -0.029030509 0.001198899 4282740553
0.019457661 -0.034106076 0.0054305959 4282674764
0.010171907 -0.024246745 -0.0051488839 4283263814
0.012556221 -0.025601976 -0.0042449236 4282740553
0.015723493 -0.029947832 -0.0006817691 4282479179
0.004749883 -0.020917527 -0.010155946 4283722813
0.0074740089 -0.023780733 -0.007918153 4282088008
0.0096568931 -0.024390996 -0.0076794513 4282282829
0.012415763 -0.027251482 -0.0054488778 4282281808
0.015003121 -0.029360309 -0.0038864948 4282216274
-6.3963234e-05 -0.019811645 -0.013159484 4284638773
0.0024478137 -0.02193296 -0.011586357 4283722304
0.0046116076 -0.022546977 -0.011345394 4282414663
0.0071501471 -0.02466616 -0.009777803 4282021454
0.0095173661 -0.02603142 -0.0088768275 4282216784
0.012275327 -0.028900698 -0.0066526243 4282347088
0.01466928 -0.030263849 -0.005757113 4282084694
-0.0002011545 -0.021431997 -0.014342371 4283595315
0.0023099072 -0.023559898 -0.012774017 4282415429
0.0044733547 -0.024176128 -0.012534626 4282086988
0.0068266876 -0.025546879 -0.011634015 4281889618
0.0090035349 -0.026161924 -0.011397296 4282085459
0.011375582 -0.027531058 -0.010500525 4282281554
0.013950836 -0.029653788 -0.0089453841 4281886813
-0.0047978982 -0.021053761 -0.016671699 4284246073
-0.0026589595 -0.021674283 -0.016429011 4283200573
-0.00033831224 -0.023052037 -0.015525036 4281762374
0.001814086 -0.023671404 -0.015284978 4281761353
0.0041534901 -0.025047585 -0.014384817 4281956429
0.0061349869 -0.024908498 -0.014808092 4281889109
0.0084904805 -0.026283339 -0.013911135 4281823319
-0.0049341507 -0.022666886 -0.017849401 4282807618
-0.0027955584 -0.023289613 -0.017608281 4282284104
-0.00065156445 -0.023911819 -0.017368205 4281957450
0.0016766079 -0.025293335 -0.016468983 4282021453
0.0036525764 -0.025154769 -0.016891174 4282020943
0.0061809458 -0.027294219 -0.015336208 4281954133
-0.0096612535 -0.021502554 -0.020832058 4284183855
-0.0073711835 -0.022891559 -0.019928396 4282743614
-0.0054116026 -0.022754677 -0.020347491 4282086734
-0.0031053945 -0.02414231 -0.019447029 4281889618
-0.00096441433 -0.024766915 -0.019207958 4282085458
0.001539167 -0.026914954 -0.017652761 4282019669
0.0036962479 -0.027538165 -0.017416928 4281626714
-0.012075204 -0.021711983 -0.022905733 4283988778
-0.010126583 -0.021576144 -0.023322683 4282417979
-0.0076746084 -0.023734823 -0.021761749 4281957194
-0.0057178475 -0.023598149 -0.022180252 4281956174
-0.0034148358 -0.02499038 -0.021282393 4282151759
-0.0011011101 -0.026381671 -0.020386763 4282216019
0.0012233257 -0.027772091 -0.019493334 4281822043
-0.012047529 -0.024078503 -0.023414444 4282352698
-0.010096401 -0.023942493 -0.023831941 4281827653
-0.0078100525 -0.025340453 -0.022934027 4281824339
-0.005512964 -0.026737571 -0.022038277 4281954898
-0.0035509653 -0.026600398 -0.022457793 4281954899
-0.016083956 -0.025951035 -0.023748208 4283462458
-0.013973761 -0.026585117 -0.023508064 4282547263
-0.012020197 -0.026449069 -0.023926176 4281697859
-0.01023129 -0.025543436 -0.025000844 4281826888
-0.008112859 -0.026176542 -0.024762146 4281823318
-0.0058189742 -0.02757822 -0.023869049 4281626458
-0.0038598031 -0.027441233 -0.024287954 4281821024
-0.013949271 -0.028959915 -0.024022233 4282674509
-0.012316957 -0.027280077 -0.025752097 4281958468
-0.010695234 -0.025600806 -0.027479641 4281891914
-0.0085824765 -0.026236497 -0.027241386 4281561178
-0.010994051 -0.026422985 -0.029298354 4281494624
0.014283117 -0.033915356 -0.018639056 4283123819
-0.016604971 -0.033894807 -0.039824486 4282274414
0.021324385 0.017672285 0.041341372 4284900914
0.022563463 0.020534664 0.038047001 4285754908
0.025619103 0.017281197 0.041182347 4285819933
0.030770363 0.0072377846 0.051445298 4285754653
0.018351523 0.018571593 0.037691861 4285558814
0.019193877 0.022806577 0.032977037 4285689373
0.020608213 0.024994113 0.03040768 4285557794
0.023230691 0.02309107 0.032115579 4285623584
0.027316101 0.016419515 0.038802132 4285689373
0.032501847 0.0063457787 0.049033083 4285689374
0.015208686 0.020174921 0.033337899 4285493279
0.01664215 0.022370182 0.030769261 4285820699
0.017662622 0.025932726 0.026780495 4285952023
0.019461036 0.026757572 0.025642505 4285820699
0.022069469 0.024846982 0.027348461 4285755418
0.025726488 0.019519649 0.032601558 4285952024
0.029844647 0.012828603 0.039264724 4285820699
0.033168826 0.0088742748 0.04308071 4285623838
0.036954116 0.003556259 0.048306726 4285493024
0.0090046991 0.018084027 0.033417329 4285098029
0.010462567 0.02028729 0.030848203 4285688864
0.012665583 0.019741781 0.031130278 4285820443
0.014295112 0.021256961 0.029277241 4285689374
0.016109606 0.022084936 0.028137324 4285624093
0.017125556 0.025658105 0.024157753 4285689628
0.019119674 0.025798596 0.023732172 4285755674
0.021521095 0.024567217 0.024724791 4285755418
0.024758505 0.020593487 0.028549219 4285689884
0.028027995 0.016622059 0.032366917 4285624093
0.030482845 0.01539474 0.033348352 4285624348
0.032948375 0.014168233 0.034327626 4285689883
0.035641558 0.012257569 0.036010869 4285689629
0.039888576 0.0055541322 0.042630382 4285820444
0.0073853172 0.021935478 0.026510527 4285558048
0.0090096835 0.023454472 0.02466174 4285754908
0.011573879 0.021527193 0.026366843 4285952024
0.013768621 0.02097898 0.026649157 4285886744
0.016164165 0.019742526 0.027639514 4285689884
0.01738172 0.022638313 0.024376037 4285624094
0.019381069 0.022779174 0.023949338 4285624094
0.021583891 0.022231944 0.024230165 4285624094
0.024616593 0.018933184 0.027337527 4285624093
0.027258404 0.017012 0.029026611 4285624093
0.029281782 0.017154947 0.028595081 4285689883
0.030876828 0.018672831 0.026753267 4285755163
0.032894805 0.018815584 0.026323033 4285886234
0.036010236 0.015523143 0.02941311 4285820188
0.040929735 0.0067377388 0.038125411 4285951514
0.0039643683 0.017239995 0.029006673 4285427489
0.0047007836 0.022224151 0.023604302 4285886743
0.0065072291 0.023055583 0.02246906 4285623839
0.008308392 0.023886696 0.021335056 4285492258
0.010863909 0.021952204 0.023037123 4285623328
0.013435477 0.020018958 0.024735777 4285689628
0.016023122 0.018086918 0.026431123 4285690139
0.017835101 0.018919185 0.02529511 4285624349
0.019842351 0.019060604 0.024866732 4285624349
0.021646336 0.019892499 0.02373256 4285624604
0.024062805 0.018653527 0.024715452 4285559069
0.026281338 0.018105425 0.024991436 4285624348
0.028082617 0.018937424 0.023858069 4285755418
0.029664561 0.020458773 0.022022357 4285886489
0.031452402 0.021290064 0.020891955 4285623328
0.034112126 0.019363984 0.02257259 4285558049
0.037675768 0.014682852 0.027057381 4285558049
0.042400032 0.0065600872 0.035040736 4285558303
0.0012855045 0.017527431 0.02609794 4285361698
0.0027498715 0.019750468 0.023542041 4285558558
0.0038348474 0.023360722 0.019571988 4285624348
0.0056306757 0.024193589 0.018440651 4285886998
0.0074212141 0.025026128 0.017310558 4285886999
0.010344798 0.021697208 0.02042429 4285952534
0.012910351 0.019756936 0.022119334 4285887253
0.015687035 0.01712475 0.024516983 4285624349
0.017496411 0.017959021 0.023383172 4285624349
0.019300448 0.018793054 0.022250528 4285624348
0.020896066 0.020319365 0.020414894 4285624348
0.023304021 0.019075423 0.021396315 4285624349
0.025514241 0.018524498 0.02167247 4285558558
0.026885353 0.020742223 0.019137343 4285558558
0.028240407 0.02295889 0.016605714 4285952789
0.030228745 0.023099564 0.016181814 4285821208
0.032655295 0.021857396 0.01715968 4285820953
0.035979655 0.017851017 0.020936375 4285821208
0.039784968 0.012464829 0.026105752 4285689629
0.044995811 0.0029364154 0.03546083 4285558559
0.0011459254 0.015879102 0.024894631 4285426214
0.0024318844 0.018805206 0.021635799 4285558558
0.0036965273 0.021729961 0.018381564 4285624349
0.0051240362 0.023957204 0.015838588 4285689883
0.0072830208 0.02339974 0.016123386 4285755929
0.0098264813 0.02145125 0.017818129 4285755674
0.012770422 0.018112913 0.020919358 4285624349
0.015156461 0.016862646 0.021901866 4285624349
0.016763005 0.018393897 0.020067034 4285689883
0.018358875 0.019924484 0.018234564 4285755418
0.019944046 0.021454476 0.016404418 4285886999
0.022135248 0.020899966 0.016682865 4285886998
0.024540035 0.019651495 0.017661793 4285689884
0.0259009 0.021875054 0.015133793 4285558558
0.027459307 0.02340351 0.0133097 4285558558
0.029223237 0.024237487 0.012187699 4285624348
0.032076463 0.021602862 0.014563112 4285690139
0.035615847 0.016889408 0.019030044 4285624604
0.039416853 0.011485413 0.024187164 4285493278
0.044168338 0.0033122227 0.032125317 4285361698
0.0013583787 0.01283329 0.025105035 4285359914
0.0026502945 0.015768588 0.021851471 4285623329
0.0039209016 0.0187025 0.018602537 4285623839
0.0051701926 0.021635011 0.01535823 4285492768
0.0071448646 0.021773621 0.014936415 4285558813
0.0096876398 0.019818507 0.016626352 4285624349
0.012246478 0.017864645 0.018312959 4285624603
0.014431985 0.017307147 0.018590672 4285624348
0.015438659 0.020934343 0.014654232 4285690139
0.017218772 0.021771066 0.013529981 4285886999
0.018993555 0.022607476 0.012407003 4285755419
0.021789908 0.019959576 0.014787575 4285886743
0.02398346 0.01940316 0.015063962 4285886998
0.025971612 0.019543633 0.014639949 4285624349
0.027319551 0.021772906 0.012119779 4285558558
0.029515699 0.021216974 0.012395835 4285559068
0.032373395 0.018573917 0.014763711 4285558813
0.036138073 0.013149813 0.019915296 4285493278
0.040169545 0.0070333257 0.025754387 4285427488
0.044929337 -0.001165539 0.033671081 4285295653
0.0017459206 0.0090779439 0.02601433 4285425449
0.0030464791 0.012022533 0.022765523 4285688608
0.0045068674 0.014265105 0.020225314 4285819423
0.0053998344 0.018608153 0.015578328 4285820443
0.0071932264 0.019447476 0.014452497 4285690139
0.0093596634 0.018886194 0.014732527 4285624604
0.011339637 0.019025385 0.014309736 4285624348
0.013319639 0.019164667 0.013887009 4285690139
0.014510944 0.022102356 0.01066204 4285821209
0.016480289 0.022241101 0.010241745 4285623838
0.018247118 0.023079142 0.0091221035 4285557794
0.021034569 0.020421907 0.01149795 4285689119
0.023427669 0.019163862 0.012472792 4285689629
0.025620893 0.018605351 0.012747688 4285624348
0.027606223 0.018745735 0.012324369 4285559068
0.030239182 0.016791455 0.013990907 4285559324
0.033543792 0.012744248 0.01774214 4285361698
0.037322875 0.0073036477 0.02287755 4285229353
0.0017811656 0.0067161769 0.025507176 4285490984
0.0032632872 0.0089666918 0.022967154 4285818914
0.00454849 0.011919096 0.019728249 4285884703
0.0059960186 0.014167368 0.01719583 4286016028
0.0072412603 0.017117172 0.013965623 4285951004
0.0090320893 0.017958611 0.012842061 4285688609
0.010434322 0.020203993 0.010319551 4285624093
0.012209194 0.021044478 0.0091996044 4285624093
0.013387758 0.023990002 0.0059839338 4285821464
0.015742945 0.022724658 0.0069633033 4285952533
0.017704153 0.022862934 0.0065448284 4285755418
0.020690398 0.019495279 0.0096127205 4285821209
0.023288 0.017531633 0.01128163 4285887253
0.025901616 0.015569225 0.012947204 4285624604
0.028318211 0.014308743 0.013913875 4285559069
0.031392548 0.010947719 0.016963286 4285427743
0.034930304 0.0061881691 0.021395953 4285427489
0.038284369 0.0021314546 0.025126865 4285295143
0.0016406365 0.0050557926 0.024295045 4285687333
0.0031231865 0.0073129013 0.021759873 4286015519
0.0047705658 0.0088638589 0.019929005 4286146843
0.0064073019 0.01041422 0.018100454 4286147099
0.0078472942 0.012668625 0.015574651 4286081563
0.0090825055 0.015626565 0.01235324 4286016538
0.010487836 0.017878771 0.0098349601 4286017813
0.011877168 0.020129964 0.0073201731 4285623839
0.0132505 0.022380099 0.0048089232 4285624349
0.015206233 0.022517882 0.0043915343 4285689884
0.017364118 0.021952197 0.0046704449 4285755674
0.02014181 0.019276753 0.0070352685 4285755673
0.022940863 0.016602911 0.009395605 4285558558
0.026181597 0.012524657 0.013140483 4285558814
0.029241536 0.0091516078 0.016184686 4285493278
0.032543663 0.005077906 0.019916641 4285361188
0.036095999 0.00030406564 0.024334682 4285228844
0.0066342466 0.0073552281 0.018297086 4286277403
0.0080800019 0.0096166283 0.015774949 4286277404
0.0095097739 0.011877 0.013256295 4286146843
0.010732278 0.014842898 0.010044251 4286016028
0.012127396 0.01710102 0.0075332075 4285819423
0.013506489 0.019358143 0.0050256178 4285688864
0.014869567 0.021614261 0.0025215317 4285623839
0.017024484 0.021046124 0.0027994663 4285558813
0.020003248 0.017656088 0.0058525112 4285493534
0.023423322 0.012857229 0.010286877 4285493533
0.027090766 0.0073558688 0.015406301 4285493279
0.030375635 0.0032677352 0.019131994 4285426724
0.03347721 -0.00011319667 0.022159172 4285163054
0.0083119981 0.0065561384 0.015969036 4286342684
0.0099359639 0.0081145167 0.014149984 4286277914
0.011167098 0.011089757 0.01094267 4286146589
0.012764415 0.012646459 0.0091294758 4286081819
0.013958201 0.015619293 0.0059303008 4285951003
0.015130628 0.018590719 0.0027357601 4285820443
0.01749232 0.017312817 0.0037039518 4285624604
0.020682482 0.013204522 0.0074397754 4285559069
0.024318907 0.0076834261 0.012552535 4285493278
0.027788287 0.0028728247 0.016965007 4285492514
0.031295031 -0.0019349828 0.021369545 4285229098
0.011028122 0.0094565451 0.0097505841 4286408219
0.013206379 0.0088853985 0.010019956 4286146589
0.014408793 0.011867568 0.0068255141 4286081309
0.015788779 0.014137954 0.0043277368 4285950748
0.017959066 0.013566583 0.0045990627 4285950749
0.021564489 0.0080256611 0.009705238 4285491239
0.025419567 0.0017780587 0.015492646 4285228588
0.013260502 0.0065372959 0.0095180552 4286342683
0.014662251 0.0088156909 0.0070204344 4286211869
0.016445449 0.0096678734 0.0059070829 4286081563
0.018827494 0.0083826706 0.0068643466 4285950493
0.022240568 0.0035372972 0.011265652 4285622564
0.025897756 -0.0020172745 0.016347686 4285491239
0.016505033 0.0073248744 0.005407488 4286015263
0.019090455 0.005320847 0.0070492532 4285884193
0.022303527 0.0011748821 0.010750553 4285490983
0.026168304 -0.0051113367 0.016506312 4285359658
0.016762609 0.0042608231 0.0055920836 4286211869
0.019553691 0.001533784 0.0079145078 4286016283
0.022366133 -0.001191631 0.010232462 4285556263
0.026231747 -0.0074974298 0.015973261 4285294379
-0.016093384 0.0047341436 0.0070248712 4285622564
0.017019482 0.0011882409 0.0057705101 4286277404
0.019614166 -0.00082819164 0.0074003991 4286081053
0.0228354 -0.0049998239 0.011080282 4285490729
-0.020168576 0.0028399676 0.0066851508 4285360933
-0.019267213 0.0080485791 0.0014076717 4285951769
-0.017161004 0.0074598193 0.0016830564 4286016793
-0.014733501 0.0054232627 0.0033423547 4286082329
-0.012129266 0.0026639551 0.0056902748 4285688098
-0.022273574 0.0010832399 0.005923925 4285032748
-0.021502227 0.0070352703 -3.9005652e-05 4285623583
-0.020163838 0.010077521 -0.0032244679 4285623328
-0.017916229 0.0087590665 -0.0022563227 4285689118
-0.015500087 0.0067151636 -0.00059953891 4285820444
-0.012907408 0.0039462894 0.0017442685 4285754398
-0.010945603 0.0040829927 0.0013244469 4285754399
-0.024954963 0.0022449344 0.0023942292 4285230118
-0.023437332 0.0045686215 -0.00010018609 4285558558
-0.022234675 0.0083495378 -0.0039731544 4285886744
-0.02060191 0.0099418908 -0.005768978 4285820699
-0.018669922 0.010076173 -0.0061826752 4285755164
-0.016107585 0.0072963238 -0.0038390439 4285886488
-0.013523795 0.0045180917 -0.0014999192 4285886743
-0.011407237 0.0039260387 -0.0012298431 4285624093
-0.0094508119 0.0040624589 -0.0016484428 4285689629
-0.0069895871 0.0020155609 -5.8431178e-06 4285623584
-0.027895819 0.0048898757 -0.0025092345 4285492514
-0.025809776 0.0042927116 -0.002234878 4285558559
-0.02401166 0.0051590055 -0.0033415873 4285624349
-0.022666853 0.0082190037 -0.0065153996 4285886999
-0.021039195 0.0098153502 -0.0083068544 4285886998
-0.019112684 0.0099492297 -0.0087194024 4285821208
-0.016241815 0.0056987181 -0.0050056037 4285952789
-0.013818953 0.0036422834 -0.0033600461 4285689629
-0.01170538 0.0030477792 -0.0030909367 4285689884
-0.010247912 0.005374603 -0.0055669639 4285624604
-0.0083022155 0.0055103749 -0.0059831906 4285689884
-0.0061857216 0.0049164668 -0.0057144929 4285753633
-0.032455858 0.0059618875 -0.0056058839 4285229098
-0.030801985 0.0075638443 -0.0074000983 4285885724
-0.028593894 0.0062289834 -0.006433852 4285951514
-0.026231144 0.0041610897 -0.0047808196 4285755419
-0.024145287 0.0035618246 -0.0045079906 4285624093
-0.02279989 0.0066305548 -0.0076753879 4285624349
-0.021020148 0.0074979663 -0.0087763676 4285624093
-0.016533196 0.0048343614 -0.0068580452 4285689884
-0.014273543 0.0035038814 -0.0059022363 4285624349
-0.012003127 0.0021742582 -0.0049486551 4285624348
-0.010878298 0.0059722215 -0.0087880548 4285690138
-0.0092764758 0.0075718164 -0.010570182 4286082583
-0.00734419 0.0077067614 -0.010983464 4286082328
-0.0045458116 0.0041826963 -0.0079832282 4286082328
-0.0017206855 0.00066061318 -0.0049886275 4285688354
0.00059558824 -0.00066512823 -0.0040442664 4286736404
-0.034651775 0.0049773455 -0.0070413314 4285558303
-0.033537816 0.0095302612 -0.011589329 4285755163
-0.029149454 0.0068497211 -0.0096574845 4285886489
-0.026220735 0.0018303692 -0.0052580666 4285952278
-0.024132531 0.0012290627 -0.0049873944 4285755419
-0.022634875 0.0035710484 -0.0074627157 4285624348
-0.020849749 0.0044409931 -0.0085632224 4285559068
-0.018915512 0.0045753717 -0.0089774448 4285624349
-0.01651014 0.0025044233 -0.0073380675 4285624348
-0.014567684 0.0026396289 -0.0077538658 4285624349
-0.012625124 0.0027749315 -0.0081696138 4285755674
-0.011507526 0.0065832734 -0.011999284 4285755418
-0.0099134929 0.0081867054 -0.01377652 4285689118
-0.0079893544 0.0083210915 -0.014188049 4285755419
-0.0052000582 0.0047854632 -0.011194089 4285952023
-0.0020326264 -0.00021585822 -0.0068447087 4285689374
0.00010209158 -0.00081253052 -0.00658294 4285492003
0.0018801615 5.8248639e-05 -0.007680947 4287001348
-0.037618976 -0.0027888864 -0.0018587429 4284967214
-0.036320906 0.0010413527 -0.00572001 4285361953
-0.035182159 0.0056088865 -0.010263544 4285755673
-0.033668775 0.0079579204 -0.012737744 4285623839
-0.031756807 0.0080900565 -0.013147729 4285623328
-0.029281434 0.0052685365 -0.010812286 4285623583
-0.026641097 0.0017103627 -0.0077956114 4285820953
-0.02441239 0.0003683567 -0.0068401564 4285689884
-0.022768181 0.0019788295 -0.0086254682 4285624349
-0.020983018 0.0028509349 -0.0097243581 4285624604
-0.019203071 0.0037228167 -0.010822026 4285624603
-0.016957898 0.0023824498 -0.0098698027 4285559068
-0.015339885 0.0039915144 -0.011649113 4285624349
-0.013408143 0.004126057 -0.012062555 4285755418
-0.011970785 0.0064710677 -0.014519529 4285886998
-0.010214362 0.0073418766 -0.01561174 4285623583
-0.0082930326 0.0074760541 -0.016022677 4285689373
-0.0056803115 0.0046654642 -0.013715602 4285689628
-0.0028706677 0.0011204705 -0.010734119 4285689883
-0.00056879222 -0.00021499395 -0.0097933132 4285558303
0.0017438233 -0.0015496016 -0.0088546481 4285623583
-0.038515855 5.7786703e-05 -0.0071549807 4285296164
-0.037103023 0.003156513 -0.010317776 4285493534
-0.035578739 0.0055126473 -0.01278946 4285756183
-0.034070294 0.0078678578 -0.015257707 4285821973
-0.031887855 0.0065179914 -0.014295915 4285821463
-0.029553983 0.0044282898 -0.012651602 4285821718
-0.026917372 0.00085893273 -0.0096423496 4285756184
-0.024837825 0.00025264174 -0.0093731266 4285624350
-0.023198698 0.0018670559 -0.011154035 4285624349
-0.021721441 0.0042207837 -0.013615089 4285624349
-0.019798163 0.0043543726 -0.014026988 4285689628
-0.017561484 0.0030090064 -0.013076188 4285624093
-0.015632648 0.0031432211 -0.013489099 4285624093
-0.014027674 0.0047558919 -0.0152623 4285689629
-0.012433264 0.0063678697 -0.017033126 4285887509
-0.010514829 0.0065017268 -0.017443538 4285887254
-0.0084263347 0.0058971047 -0.017175443 4285821718
-0.005987145 0.0038161278 -0.015552629 4285887253
-0.0031812489 0.00025996566 -0.012578547 4285755929
-0.00070457533 -0.0018181056 -0.010963602 4285558813
0.0019688196 -0.0046328008 -0.0086757904 4285493278
-0.038647767 -0.0015314072 -0.0083158314 4285426724
-0.037234355 0.0015760511 -0.011472201 4285427488
-0.035974558 0.0054255351 -0.015308792 4285493278
-0.034200806 0.0063004941 -0.016402502 4285558814
-0.03215665 0.0056892037 -0.016127609 4285624094
-0.029826116 0.0035927296 -0.014487499 4285624349
-0.027336348 0.00075484067 -0.012168216 4285558814
-0.025408234 0.00088840723 -0.012581421 4285624349
-0.024073791 0.0039911941 -0.015720271 4285689884
-0.022609469 0.0063505471 -0.018173641 4285821208
-0.020545885 0.0057412907 -0.017902393 4285952278
-0.018320393 0.0043907762 -0.016952485 4285952534
-0.016084138 0.0030411705 -0.01600484 4285689629
-0.014322471 0.0039164498 -0.017095078 4285624093
-0.012730505 0.0055326298 -0.018862097 4285558558
-0.010814887 0.0056662634 -0.019271923 4285624349
-0.008559607 0.0043184608 -0.018327991 4285558558
-0.0061211139 0.0022308975 -0.016709941 4285558813
-0.0036665574 0.00014460087 -0.015095295 4285493278
-0.0004847236 -0.0049014091 -0.010783377 4285559069
0.0023735762 -0.0084645525 -0.0078285141 4285624603
0.0056248866 -0.013505436 -0.0035312511 4285426469
-0.03827187 -0.0061040744 -0.0067388816 4285360424
-0.037106413 -0.0014956445 -0.011258751 4285426469
-0.035972785 0.0031107515 -0.015771747 4285492259
-0.034466181 0.0054788068 -0.018229749 4285493278
-0.03242502 0.0048651248 -0.017955868 4285558813
-0.030097846 0.0027618632 -0.01631997 4285624860
-0.027897481 0.0014046878 -0.015368462 4285559068
-0.025977518 0.0015376732 -0.015779933 4285624603
-0.024650495 0.0046486408 -0.018910643 4285689883
-0.023344684 0.0077582672 -0.022036718 4285820954
-0.021138489 0.0064019188 -0.021086061 4285755164
-0.018765248 0.0043025911 -0.019459562 4285886743
-0.016375892 0.002204448 -0.017836379 4285821209
-0.014616858 0.0030817017 -0.01892443 4285624349
-0.012698803 0.00321538 -0.019334879 4285559068
-0.010780666 0.0033491775 -0.019745253 4285559323
-0.0083536133 0.0012541488 -0.018129779 4285493534
-0.0060827695 -9.6820295e-05 -0.017192369 4285427744
-0.0032763593 -0.0036747456 -0.014234809 4285361188
-0.00026559457 -0.0079931021 -0.010609343 4285492003
0.002957534 -0.013051353 -0.0063176444 4285425958
0.0058521554 -0.01662273 -0.0033786558 4285359914
-0.037897382 -0.010693967 -0.0051745307 4285163054
-0.036461469 -0.0075675696 -0.0083226422 4285294889
-0.035442974 -0.0021992475 -0.013511054 4285426469
-0.03405739 0.00092390925 -0.016648199 4285426978
-0.03241815 0.0025509447 -0.018419722 4285427233
-0.030369166 0.0019357055 -0.018149085 4285559068
-0.028457474 0.0020679832 -0.018558884 4285624604
-0.026545648 0.00220038 -0.018968631 4285624604
-0.024929862 0.003826201 -0.02073474 4285821208
-0.02332462 0.0054514259 -0.02249849 4285623583
-0.021423113 0.0055834427 -0.022905774 4285623329
-0.019209318 0.0042234138 -0.021959987 4285623583
-0.016984761 0.0028642714 -0.021016404 4285755418
-0.015072279 0.0029974282 -0.021425754 4285624093
-0.012995601 0.0023851246 -0.021160213 4285559068
-0.010580014 0.00028266013 -0.019547349 4285559068
-0.0081483386 -0.0018186048 -0.0179378 4285559579
-0.0057005808 -0.003918618 -0.016331585 4285625113
-0.0028872415 -0.0075069666 -0.013383719 4285294888
0.00013026223 -0.011837929 -0.0097695356 4285294378
0.0028196536 -0.014677666 -0.0075048311 4285228588
-0.037777457 -0.01380042 -0.0049851686 4285163054
-0.036206376 -0.011415087 -0.0074473592 4285294634
-0.035046864 -0.0067808181 -0.011946271 4285426468
-0.033515442 -0.0043979883 -0.014399769 4285360678
-0.032137107 -0.0012665242 -0.017528731 4285426979
-0.030500162 0.00036481023 -0.019296404 4285493789
-0.029016312 0.0027446672 -0.021739464 4285559069
-0.027257863 0.003625527 -0.022824652 4285624604
-0.02550463 0.0045061707 -0.02390868 4285887254
-0.023756612 0.0053865314 -0.024991466 4285820953
-0.021860559 0.0055181682 -0.025397575 4285689373
-0.019652616 0.0041533187 -0.024453783 4285821463
-0.017275337 0.0020412952 -0.022837911 4285821718
-0.015204437 0.0014263242 -0.022572912 4285624349
-0.012800287 -0.00068363547 -0.020962572 4285493278
-0.010213498 -0.0035398901 -0.018682966 4285427489
-0.0074360482 -0.007141903 -0.015735816 4285294888
-0.0048037544 -0.0099947453 -0.013465746 4285228843
-0.0021500587 -0.012845963 -0.011200177 4285163053
0.00017055497 -0.014201939 -0.010279796 4285097518
0.0026818067 -0.016303666 -0.0086917952 4285163054
-0.037910987 -0.015410319 -0.0061611682 4285097774
-0.036210451 -0.013770774 -0.0079395259 4285360423
-0.034783859 -0.010627516 -0.011072473 4285360678
-0.032975268 -0.0097415 -0.012167131 4285360933
-0.031445976 -0.0073521584 -0.014615246 4285294889
-0.030211966 -0.003460601 -0.018413303 4285294889
-0.029146876 0.0011806116 -0.022881757 4285295144
-0.027678486 0.0035661012 -0.025316538 4285493279
-0.02593055 0.0044484958 -0.026397767 4285559068
-0.0241878 0.005330652 -0.027477782 4285755928
-0.022450306 0.0062126145 -0.028556636 4285756184
-0.020095151 0.0040923357 -0.026941003 4285755929
-0.017723888 0.0019733012 -0.025328724 4285624348
-0.015175503 -0.00089462101 -0.023047663 4285559069
-0.012769397 -0.0030109435 -0.021442709 4285493024
-0.0098480508 -0.0073753148 -0.017827967 4285558049
-0.0068946294 -0.011737272 -0.014220058 4285294888
-0.0040808432 -0.015347511 -0.011288773 4285228844
0.00021051243 -0.016570017 -0.01079303 4285097519
-0.037918251 -0.017774664 -0.0066589285 4285031984
-0.036343712 -0.015376031 -0.0091121048 4285491494
-0.034784999 -0.012978345 -0.011561782 4285361189
-0.03297371 -0.012090005 -0.012655406 4285360678
-0.031167585 -0.011201873 -0.013747814 4285294888
-0.029785287 -0.0080526173 -0.016864456 4285295143
-0.028708581 -0.0033975616 -0.021325581 4285426468
-0.027663726 0.001255475 -0.025779819 4285493024
-0.02635568 0.0043999404 -0.028880274 4285493278
-0.024768438 0.0060369223 -0.030630374 4285558813
-0.022886019 0.006167613 -0.031033574 4285558814
-0.020381361 0.0032877102 -0.02874987 4285559069
-0.017538879 -0.0010955557 -0.025128417 4285493278
-0.014664292 -0.0054764897 -0.021513699 4285493279
-0.012084708 -0.0083507895 -0.019245816 4285426979
-0.0093174875 -0.011975415 -0.016312961 4285360679
-0.006523516 -0.015598111 -0.013385706 4285360678
-0.0040458776 -0.017715603 -0.011800688 4285360424
-0.0020747744 -0.017577767 -0.01222213 4285163053
-0.03465509 -0.016089849 -0.011378802 4285294379
-0.032972459 -0.014442578 -0.013146657 4285294889
-0.031163644 -0.013552114 -0.014238033 4285360679
-0.029499386 -0.011905931 -0.016001731 4285360934
-0.028271701 -0.007992968 -0.01978199 4285361188
-0.027070548 -0.0040816516 -0.023556501 4285426468
-0.025748577 -0.00092757493 -0.026653355 4285426724
-0.024297807 0.0014699548 -0.029074376 4285427488
-0.022557557 0.00235641 -0.030150507 4285427998
-0.020201139 0.00022317469 -0.028545035 4285361698
-0.01719654 -0.0049275905 -0.024264727 4285229608
-0.014475908 -0.008566618 -0.021330291 4285229099
-0.011728514 -0.012203649 -0.018401492 4285163054
-0.0068282112 -0.016455986 -0.015229791 4285163053
-0.0045252927 -0.017826572 -0.01431562 4285228588
-0.0023856722 -0.018442683 -0.014069792 4285163053
-0.032971535 -0.016799234 -0.013640895 4285163564
-0.031296518 -0.015148081 -0.015403718 4285295144
-0.029632028 -0.013497524 -0.017164193 4285360933
-0.027978089 -0.011847563 -0.01892237 4285360933
-0.026623663 -0.0086826012 -0.022019753 4285360933
-0.025290448 -0.0055190176 -0.025112525 4285492514
-0.023978438 -0.0023568124 -0.028200606 4285426979
-0.022382658 -0.00071036816 -0.029945938 4285427234
-0.019866422 -0.0036069155 -0.027677841 4285493023
-0.016697455 -0.0095293224 -0.022742484 4285426724
-0.013967212 -0.013178557 -0.019818291 4285163053
-0.0066270046 -0.019577622 -0.015073448 4285097519
-0.0025223307 -0.020058639 -0.015249513 4285163563
-0.029625658 -0.015849188 -0.017656118 4285229863
-0.027968828 -0.014194652 -0.019411635 4285229608
-0.0261782 -0.013300769 -0.020495582 4285360679
-0.024833735 -0.010127693 -0.023584206 4285360933
-0.023360822 -0.0077156276 -0.026000116 4285426724
-0.021599181 -0.0068233162 -0.027077604 4285360678
-0.019377802 -0.0082090646 -0.026153117 4285294888
-0.016515084 -0.012630105 -0.022565499 4285228843
-0.0090595968 -0.019811168 -0.017160304 4285032239
-0.0067631304 -0.021191031 -0.016251393 4284966703
-0.029342007 -0.019729979 -0.016813561 4285033003
-0.027818415 -0.01730825 -0.019235697 4285164074
-0.026310708 -0.014887445 -0.021654375 4285294888
-0.024965663 -0.011705637 -0.024736587 4285295143
-0.023492362 -0.0092870221 -0.027147669 4285295144
-0.021426406 -0.0099158138 -0.026891761 4285294889
-0.019200224 -0.011305533 -0.025971618 4285294888
-0.016333416 -0.015739426 -0.022394672 4285360424
-0.013914935 -0.017887712 -0.020817071 4285294889
-0.011317555 -0.020795643 -0.018579166 4285163053
-0.0091951638 -0.02141989 -0.018334866 4284966448
-0.0068992265 -0.022804141 -0.017429121 4284901679
-0.026299227 -0.017238185 -0.02214697 4284967214
-0.024950933 -0.014047518 -0.025223304 4285163819
-0.023325283 -0.012386099 -0.026965328 4285163563
-0.021406285 -0.012252919 -0.027376398 4285229608
-0.01902334 -0.014410526 -0.025796257 4285229354
-0.016624305 -0.016566813 -0.024219491 4285229354
-0.014209177 -0.018721886 -0.022646036 4285163564
-0.023308005 -0.014727451 -0.027452406 4285097773
-0.021386493 -0.014594115 -0.027864028 4285229354
-0.019156013 -0.015992299 -0.026951324 4285163818
-0.016443487 -0.01968646 -0.024056215 4285097518
-0.021063861 -0.018475786 -0.027032435 4285097774
-0.018825915 -0.019877747 -0.026124638 4285163309
-0.014158171 -0.023446731 -0.023656279 4285034789
