# .PCD v0.7 - Point Cloud Data file format
VERSION 0.7
FIELDS x y z rgba
SIZE 4 4 4 4
TYPE F F F U
COUNT 1 1 1 1
WIDTH 750
HEIGHT 1
VIEWPOINT 0 0 0 1 0 0 0
POINTS 750
DATA ascii
-0.0048442036 0.0032760948 0.02218122 4288231979
-0.0030758791 0.0047676861 0.020398021 4288495904
-0.0048303492 0.00094895437 0.02166054 4288362029
-0.0030591339 0.0024450161 0.019880187 4289278753
-0.0011657365 0.0032498054 0.018821094 4289214494
0.0005867593 0.0047450326 0.017043963 4288953373
-0.004689429 -0.002075579 0.021855436 4288688684
-0.002782587 -0.0012679212 0.020795647 4289278498
-0.00088104978 -0.00046052411 0.019736852 4289736989
0.0010151714 0.00034666434 0.018679015 4289736989
0.0027679466 0.0018462576 0.016905285 4290195733
0.0046508126 0.0026529133 0.015849784 4289541403
0.006528344 0.0034593083 0.014795281 4289149724
0.008254312 0.0049576573 0.013026241 4289216278
-0.0063421428 -0.006614387 0.023821343 4287706169
-0.0048034154 -0.0037176982 0.020609859 4288688684
-0.0030264221 -0.002212625 0.018835168 4289539873
-0.00099496916 -0.0020983368 0.018494584 4289867804
0.00090129673 -0.0012889914 0.017438404 4289868058
0.002930209 -0.0011746734 0.017098382 4290261014
0.0046778545 0.00032905117 0.015328929 4290064664
0.0068448633 -0.00025124475 0.015704222 4289868824
0.0085791163 0.0012519285 0.013937093 4289541914
0.010302622 0.0027545542 0.012171883 4289738774
0.012166834 0.0035626031 0.011121474 4289476889
0.014179839 0.0036765672 0.010784529 4289411608
0.016977169 0.00032189116 0.014007885 4289085973
-0.0063322634 -0.0089626685 0.023285162 4288033590
-0.0046633109 -0.0067547262 0.020795185 4288623148
-0.0027509965 -0.005942516 0.019737836 4289212453
-0.00084398314 -0.0051305071 0.018681448 4289737243
0.0010577105 -0.0043186694 0.017625976 4289868058
0.0029540844 -0.0035070851 0.016571514 4290064664
0.0048451349 -0.0026957057 0.015518006 4290064664
0.0068740621 -0.0025812201 0.01517811 4290195479
0.0087571293 -0.0017701052 0.014126088 4290326804
0.010634836 -0.00095921755 0.013075028 4290326804
0.012507182 -0.0001484938 0.012024891 4290064918
0.014528163 -3.4086406e-05 0.011686608 4290392084
0.017332714 -0.0033991858 0.014900375 4290195734
0.021280115 -0.011633039 0.023079354 4289802268
0.026427012 -0.024732389 0.036214028 4289540639
-0.0065709949 -0.0099152103 0.021317542 4287902518
-0.004904408 -0.0077009276 0.01883297 4288558634
-0.0029947497 -0.0068867132 0.01777773 4289344033
-0.0010903999 -0.0060726628 0.016723406 4289803034
0.00080863759 -0.0052588657 0.015670087 4289999384
0.0028400235 -0.0051444322 0.015329633 4289999128
0.0048714802 -0.0050298944 0.014989238 4290588178
0.0067599267 -0.0042164251 0.013937902 4290261014
0.0087887943 -0.0041018501 0.013598088 4290064664
0.010817697 -0.0039872006 0.013258327 4290784529
0.012695484 -0.0031740442 0.012208998 4290064154
0.014875608 -0.0037575886 0.012579013 4290260504
0.017530825 -0.0064350143 0.015074465 4290063898
0.021481663 -0.014694624 0.023232725 4289801503
0.026307035 -0.026439421 0.034919519 4289474594
-0.0013364702 -0.0070102587 0.014768895 4290001423
0.00055990368 -0.0061944574 0.013717685 4290066704
0.0024509616 -0.0053788722 0.012667432 4290523664
0.0046171248 -0.0059658289 0.013037756 4290588689
0.0067887306 -0.0065523908 0.013407242 4290588179
0.0088201761 -0.0064376816 0.013066981 4289998873
0.010851666 -0.0063228905 0.01272678 4290522133
0.012732184 -0.0055074245 0.011678662 4290522133
0.014914744 -0.0060930029 0.012046594 4290260248
0.017415527 -0.0080787241 0.013827931 4289736224
0.021523528 -0.017064571 0.022673108 4290128158
0.026187073 -0.028146192 0.033625204 4290128158
0.0023372732 -0.0070113465 0.011429247 4289281813
0.004363101 -0.0068971589 0.011089772 4290261778
0.0065317377 -0.0074860677 0.011458065 4290261779
0.0085603744 -0.0073715225 0.01111827 4290130709
0.010737199 -0.0079597756 0.011485342 4290195478
0.012768608 -0.0078448802 0.011145238 4290194968
0.014953595 -0.0084324926 0.011511084 4290784019
0.01761275 -0.011127025 0.013992485 4290325018
0.021406148 -0.018736281 0.021405365 4289997343
0.025905486 -0.029150568 0.031626564 4289800993
0.010622766 -0.0095963925 0.010244109 4289544718
0.012654051 -0.0094815269 0.0099040084 4289935379
0.014685363 -0.0093665496 0.0095639899 4289934613
0.017497187 -0.012774549 0.012743052 4290130709
0.02128879 -0.020407706 0.020137828 4290064154
0.025947202 -0.031558916 0.031037208 4289933083
0.017381648 -0.014421783 0.011493843 4288953883
0.021171447 -0.022078864 0.018870503 4289738774
0.025988633 -0.03397131 0.030444782 4290065938
0.021688968 -0.044367969 0.014343318 4288823323
0.018852618 -0.043262921 0.010670383 4288364578
0.022670137 -0.051156253 0.017858446 4288886563
0.0073883533 -0.054823294 -0.011225885 4286858039
0.0037151873 -0.050644994 -0.02003528 4287709228
0.011913095 0.020093046 0.054713454 4280459578
0.0053832717 0.028634094 0.042191032 4281698880
0.0062708333 0.033975407 0.035880994 4281048118
0.0078465566 0.03604871 0.033306625 4280656949
0.011342626 0.029632477 0.040423084 4279547188
0.016106054 0.017996754 0.053488832 4278765614
0.0025424361 0.030154178 0.037558403 4281631813
0.0032984763 0.036168955 0.030515227 4280072233
0.0047230273 0.038903695 0.027202707 4280852024
0.0065643415 0.039671399 0.026125859 4281763904
0.0094419941 0.035852723 0.030255113 4281372479
0.012958124 0.029415937 0.037351456 4280720954
0.01652829 0.02298227 0.044438791 4280461109
0.019838683 0.017861098 0.050032694 4280915518
0.022234626 0.01666972 0.051168714 4281110340
0.02350519 0.020059723 0.047113728 4280912969
0.024913769 0.022794023 0.043804165 4281502529
0.028313292 0.017678112 0.049383316 4280396594
0.0010498576 0.035100982 0.028882753 4280718659
0.0024829805 0.037844867 0.025575407 4280459834
0.0040378273 0.039929904 0.023014586 4279418413
0.0060143992 0.040041655 0.022683628 4279613999
0.0084369853 0.038181476 0.02457846 4279418414
0.011783959 0.032379143 0.030919526 4279873589
0.014409285 0.029864762 0.033547353 4280784703
0.016742736 0.028665403 0.034690481 4280915009
0.017970785 0.032063797 0.030650955 4280849729
0.019333992 0.034804154 0.027355652 4280915008
0.021005318 0.036230519 0.025542416 4279677749
0.024006326 0.032406166 0.029641237 4280003383
0.02891257 0.021366529 0.041856091 4279285558
-0.0014628135 0.035358481 0.025767773 4281240388
-0.00016423687 0.038771305 0.021724444 4281045313
0.0018094368 0.038882762 0.021393873 4280980544
0.0036400817 0.039654091 0.020322159 4281111358
0.005902797 0.038446158 0.021473583 4281111614
0.0083248541 0.036579423 0.02336346 4280916029
0.01136798 0.032076173 0.028210025 4280850749
0.013525516 0.031530403 0.028614026 4280915520
0.015531864 0.031644046 0.028278243 4280915518
0.01674171 0.035052262 0.024250146 4280523838
0.018248567 0.037141517 0.021702632 4279937593
0.019903932 0.038571283 0.019895483 4281305923
0.022552926 0.036049835 0.022512849 4281567044
0.026074046 0.030238224 0.028809968 4281371203
0.030334976 0.021796875 0.038043853 4281045824
-0.0032973662 0.032317229 0.026366796 4282087243
-0.0023838282 0.037729286 0.020105902 4278960944
-0.0006881021 0.039165094 0.018294904 4278829873
0.0036718324 0.037401147 0.019855063 4280590138
0.0059368685 0.03618899 0.021002736 4281046079
0.0083611086 0.034315817 0.022887252 4280980798
0.010952633 0.031782132 0.025507219 4280980798
0.012489535 0.033879384 0.022959623 4280980798
0.014166703 0.035314597 0.021151993 4281046333
0.015833098 0.036749214 0.019346263 4280916029
0.01765055 0.037522357 0.01827874 4279482419
0.019627156 0.037634484 0.017948065 4279351093
0.021938257 0.036425442 0.019088343 4279677749
0.025109921 0.031914674 0.023901954 4279285814
0.029182624 0.024104573 0.032382037 4279025204
-0.0044654645 0.036027413 0.019229598 4281045313
-0.0030335821 0.03879711 0.01594248 4280589118
-0.0012110211 0.039572179 0.014875364 4281502274
0.0011666194 0.037689671 0.016762502 4279938868
0.0035605095 0.03580818 0.018646918 4280980798
0.0061161593 0.033263616 0.021266118 4280981309
0.0085452721 0.031384192 0.023144782 4281046079
0.010537917 0.031496935 0.022811193 4280981053
0.011609001 0.035591125 0.018061243 4281046334
0.012960307 0.03835674 0.014787983 4281176894
0.014926031 0.03846813 0.01445904 4281111614
0.017215155 0.037253384 0.015599549 4281176128
0.019350685 0.036702253 0.016004041 4280980544
0.021658715 0.035488658 0.017141525 4280980544
0.02516613 0.029637199 0.023410723 4280980544
0.030447125 0.017163612 0.037000913 4280654143
-0.0066759661 0.034992956 0.017614987 4282153544
-0.0051036961 0.037104767 0.015071101 4280132158
-0.0034129843 0.038548887 0.013267584 4281306434
-0.001595743 0.039325811 0.01220303 4280915518
0.00063600764 0.038102984 0.013349403 4280655419
0.0031639263 0.035548095 0.015966482 4279353133
0.0055681467 0.03366068 0.017844215 4280981309
0.0079886094 0.031774297 0.019719232 4281111358
0.0096715912 0.033218347 0.017917294 4281046844
0.010883462 0.036659107 0.013913941 4280655929
0.014497038 0.03821272 0.011788979 4278768164
0.019567281 0.0337791 0.016261339 4280981053
0.022047278 0.031896479 0.018126778 4280849729
0.02623992 0.023366589 0.02730656 4280523328
0.03239857 0.0075292699 0.044518504 4280523328
-0.0085015818 0.031955138 0.018214777 4282219588
-0.0071735345 0.035412725 0.014199905 4281176129
-0.0054772869 0.036861416 0.01239875 4280132159
-0.0037917383 0.03830957 0.010599438 4280068409
-0.0018427372 0.038419507 0.010272898 4279676729
0.00024614856 0.037860833 0.010681413 4279351093
0.0026254728 0.035965472 0.012558177 4280068664
0.0050210655 0.034071051 0.014432319 4281046589
0.0069892108 0.034182325 0.014102772 4281112124
0.0089574084 0.034293663 0.013773263 4280916539
0.010312453 0.037076771 0.010512739 4280915773
0.01211391 0.03785539 0.0094528198 4280394809
0.014386065 0.03663094 0.010589413 4280329528
0.01699182 0.034072205 0.013187081 4278636839
0.019783268 0.030847453 0.016512126 4280524860
0.023102093 0.025622793 0.02202424 4280850749
0.028328536 0.013063591 0.035559747 4280915773
-0.0082338937 0.028347958 0.01921396 4281632578
-0.0070259124 0.032488339 0.014470819 4281241153
-0.0051924959 0.033270352 0.013406776 4280979013
-0.0036328845 0.035394486 0.010875095 4281110338
-0.0016785562 0.035504714 0.010547653 4281045059
0.00027584285 0.035615001 0.010220248 4280980033
0.0025149956 0.034383945 0.011358704 4280915008
0.0044749193 0.034494676 0.011030473 4280915774
0.0061394051 0.03594628 0.0092382729 4280980798
0.0077931434 0.037397336 0.0074479282 4280525369
0.0097423904 0.037507664 0.0071216412 4280329528
0.011847502 0.0369481 0.0075260401 4281436738
0.01411657 0.03571913 0.0086597838 4281436738
0.016718933 0.033151526 0.011251308 4280850494
0.019998662 0.027907226 0.01675649 4280654398
0.024321422 0.018649433 0.0266276 4280785978
0.030751847 0.0013657846 0.045226905 4280785978
-0.007967066 0.024727903 0.020203371 4282349129
-0.0064927749 0.027534496 0.016935822 4281633088
-0.0046458021 0.028319411 0.015871163 4280916029
-0.0030723214 0.030450823 0.013342179 4281045824
-0.0012413673 0.03123497 0.012280315 4281176639
0.00058425963 0.032018892 0.011219393 4281241663
0.0025467388 0.032129686 0.01089067 4280719168
0.0042194985 0.033586055 0.0091003366 4280980799
0.0055863261 0.036387049 0.0058511533 4281176638
0.0070818998 0.03851442 0.0033355728 4280720189
0.0090202652 0.038624119 0.0030110963 4279482419
0.011270028 0.037389651 0.0041446649 4279612468
0.013689006 0.035483845 0.0060050637 4279937593
0.016446363 0.032235395 0.0093189888 4279480378
0.02037723 0.024286874 0.017721996 4279676473
0.026037766 0.0096268877 0.033386257 4280393534
-0.0077011138 0.02109503 0.021182973 4281890638
-0.0062181987 0.023910712 0.01792071 4281568064
-0.004100576 0.023346897 0.018319182 4280980799
-0.0025132298 0.025485579 0.015792888 4280785724
-0.00080535561 0.026948009 0.013999902 4280720953
0.00075244904 0.029085163 0.011478662 4280591158
0.0025782138 0.029871313 0.01041944 4280656439
0.0041091479 0.032007083 0.0079028085 4280982074
0.0056239478 0.034141973 0.0053889826 4281176893
0.00712258 0.036276057 0.002877865 4281307198
0.0090635605 0.036385901 0.0025529489 4281110848
0.011004567 0.036495809 0.0022280775 4281045823
0.013420302 0.034583315 0.0040839873 4280849984
0.016335044 0.030649824 0.0081165656 4280523328
0.021082174 0.019305892 0.020129815 4280588864
0.028416088 -0.0021381527 0.043010931 4280588864
-0.0076873973 0.01880556 0.020691525 4281563983
-0.0060728863 0.020952109 0.018165581 4281109574
-0.0040811971 0.021064248 0.017831728 4281110593
-0.0022232011 0.021854147 0.016768605 4281177403
-0.00064350292 0.023998961 0.014248665 4281243704
0.0010592639 0.0254655 0.012459934 4281374774
0.0027512871 0.026931539 0.010673005 4281310259
0.0045771673 0.027719919 0.0096154809 4281179188
0.0063976981 0.028508067 0.0085589103 4281571633
0.0079129003 0.030649588 0.0060500465 4281374774
0.009717308 0.031436965 0.0049962774 4281113144
0.011516346 0.032224111 0.0039434694 4281438523
0.013626162 0.031658366 0.0043420903 4281111870
0.017027646 0.025683567 0.010538291 4280980798
0.022602994 0.01092324 0.026142962 4280980798
-0.0075484067 0.015831638 0.020925887 4281955664
-0.0060563684 0.018665183 0.017675426 4281109318
-0.0040620789 0.018777441 0.017341122 4281241153
-0.0023349598 0.020249527 0.015551545 4281242683
-0.0006185621 0.021721125 0.013763763 4281439033
0.00094807893 0.023871709 0.011251125 4281505333
0.0030655265 0.023303799 0.011646461 4281570868
0.0050439984 0.023415536 0.011315092 4281375793
0.0070225187 0.023527347 0.010983769 4281310003
0.0085515864 0.025676154 0.0084776133 4281506099
0.010369552 0.026466452 0.0074232444 4281505844
0.01218215 0.027256537 0.0063698441 4281375793
0.014305221 0.02668938 0.0067645758 4281178424
0.018039994 0.01933904 0.014389947 4281113399
0.02412077 0.0024972409 0.032123242 4281113399
-0.0079115294 0.015579276 0.018244352 4282153289
-0.006168209 0.01705648 0.016455226 4281436738
-0.004304789 0.017850909 0.015394457 4281633088
-0.0024466813 0.018645119 0.014334634 4281699899
-0.00086626038 0.020802952 0.011824608 4281635383
0.00097581744 0.021596406 0.010767587 4281571378
0.00309572 0.021026455 0.011160832 4281636659
0.0052210763 0.020456877 0.011553209 4281701939
0.0070579275 0.021250267 0.010497246 4281636659
0.0088894144 0.022043429 0.0094422325 4281702449
0.010563154 0.023517381 0.007665284 4281637424
0.012536284 0.023629103 0.0073350333 4281767474
0.014667219 0.023060184 0.0077268183 4281701429
0.018729277 0.014325254 0.016775709 4281767219
0.024819618 -0.0025701672 0.034465451 4281766708
-0.0076478198 0.011912409 0.019198153 4282676294
-0.0061520636 0.014763467 0.015960451 4281894209
-0.0041552596 0.014875818 0.015625685 4281633598
-0.0024250299 0.016356718 0.013842259 4281634109
-0.00084155053 0.018521205 0.011336733 4281765688
0.00086454675 0.020000882 0.0095574558 4281636659
0.0029842071 0.019428734 0.0099490546 4281636659
0.0049651898 0.019540589 0.0096172467 4281571634
0.006946221 0.019652523 0.009285491 4281701939
0.0086282417 0.021131158 0.007510487 4281702194
0.010603951 0.021242935 0.0071797371 4281767474
0.012579685 0.021354802 0.0068490431 4281701428
0.014870681 0.020101037 0.0079589896 4281766708
0.018936057 0.011338111 0.016985536 4281897524
0.025027877 -0.0056114197 0.034633126 4281897524
-0.0071347915 0.0068589561 0.021590386 4283591999
-0.005497247 0.0090326928 0.019080672 4283265343
-0.0037453175 0.010519095 0.01729684 4284377399
-0.002004087 0.012004927 0.015514899 4282484024
-0.00054534525 0.014862772 0.012290265 4282354484
0.0013076402 0.015661154 0.011234757 4282093874
0.0031552836 0.016459309 0.01018019 4281897778
0.0051415637 0.016571451 0.0098474845 4281505589
0.0068345442 0.018054999 0.0080738962 4281440054
0.0086661465 0.018852491 0.0070222057 4281766708
0.010644455 0.018964406 0.0066910125 4281701939
0.012622792 0.019076418 0.0063598827 4281767219
0.014916083 0.01781844 0.0074660853 4281898288
0.018982075 0.0090273656 0.016470738 4281702194
0.025235549 -0.0086611956 0.034794409 4281702194
0.00015717745 0.0091262385 0.015395883 4284377399
0.0018879734 0.010615963 0.013619162 4283528248
0.0036080331 0.012105204 0.011844255 4282485299
0.0054611824 0.012905907 0.010790497 4282093874
0.0070159435 0.01508202 0.008300107 4281767219
0.0088529885 0.015882019 0.0072491318 4281831989
0.010684676 0.016681757 0.0061991625 4281767474
0.012665614 0.016793903 0.005867593 4281636404
0.014961209 0.015531685 0.0069701038 4281768238
0.019187823 0.0060254149 0.016669407 4281571888
0.025442611 -0.011719398 0.034949239 4281571888
0.0060672686 0.0078472011 0.013159022 4283987759
0.0077822432 0.0093405992 0.011388477 4282222393
0.0094864629 0.01083352 0.009619765 4282288949
0.011179922 0.012325875 0.0078529567 4282940729
0.013017088 0.013128161 0.0068038031 4282354228
0.015477527 0.011172689 0.0086169653 4282028084
0.019712701 0.0016365647 0.018291373 4282027828
0.025649086 -0.014786087 0.035097692 4281962039
0.015992658 0.0067964904 0.010250852 4284117043
0.020396098 -0.0034609362 0.020613655 4283398453
0.025854954 -0.017861202 0.035239693 4282810424
-0.0069334134 -0.010161005 0.018640865 4283264323
-0.0074190758 -0.0096936002 0.0152601 4282677059
-0.0056387186 -0.008171238 0.013498142 4282352188
-0.003739778 -0.0073533282 0.01244802 4284639539
-0.0074088536 -0.012038685 0.014726385 4282154564
-0.0056256205 -0.010511808 0.012967236 4281635383
-0.0038530789 -0.0089854822 0.011209998 4281831734
-0.0019594096 -0.0081656277 0.010162499 4281701173
6.3456595e-05 -0.0080518126 0.0098233633 4281896248
0.0022236146 -0.0086435601 0.010191251 4282550578
0.0042493232 -0.0085293949 0.0098517835 4282810424
0.0062750839 -0.0084151179 0.0095123909 4284707879
-0.0072753057 -0.015096389 0.014897116 4281892933
-0.0056127794 -0.012856446 0.012433242 4281699388
-0.0038373619 -0.01132565 0.01067885 4281700664
-0.0020726398 -0.0097953603 0.0089263357 4281636914
-4.9889088e-05 -0.0096815452 0.0085872225 4281506354
0.002109997 -0.010275498 0.0089534633 4281570868
0.0039958172 -0.0094536468 0.0079091601 4281767728
0.0060187653 -0.0093395337 0.0075702332 4282225199
0.0080417581 -0.0092253461 0.0072313659 4282746674
0.010360496 -0.010525517 0.0082995705 4283790133
-0.0073891915 -0.016740993 0.01364959 4281696838
-0.0056002066 -0.015205204 0.011896189 4281571635
-0.0038219132 -0.013669886 0.010144617 4281506354
-0.0021858327 -0.011424802 0.0076903775 4281506608
-2.8990209e-05 -0.012021191 0.0080553778 4281506608
0.0019964054 -0.011907153 0.0077158809 4281311279
0.0040218681 -0.011793025 0.0073764436 4281441073
0.0059050806 -0.010969073 0.0063343085 4281635894
0.0077829398 -0.010145269 0.0052931197 4281700664
0.009655457 -0.0093217269 0.004252933 4281895993
0.011673007 -0.0092076361 0.0039151311 4281635383
0.013843685 -0.0098025501 0.0042783581 4281894973
0.01679875 -0.013941906 0.0081433244 4282026554
0.020895626 -0.023040913 0.016903289 4282157879
0.025707401 -0.034970492 0.028450083 4282157624
-0.010026366 -0.01564724 0.0099258572 4283529779
-0.0079961456 -0.015533455 0.0095851459 4283008304
-0.0058398321 -0.016132347 0.0099483244 4281897268
-0.0039353892 -0.015305556 0.0089039095 4281637423
-0.0020362511 -0.014478967 0.0078604557 4281701428
-8.3521008e-06 -0.014364898 0.0075204559 4281701939
0.0018828586 -0.013538539 0.0064784996 4281441584
0.0040476471 -0.014136456 0.0068406425 4281636659
0.0059335791 -0.013310201 0.0057997219 4281571889
0.0078141727 -0.012484141 0.0047597773 4281571889
0.0096894056 -0.011658244 0.0037207641 4281570103
0.011559285 -0.010832578 0.0026827753 4281374519
0.013882633 -0.012140997 0.0037437119 4281374519
0.016683709 -0.01558207 0.0068994686 4281505589
0.020620137 -0.023998357 0.014939643 4281635639
0.025909603 -0.038097523 0.028552789 4281635639
-0.0089712292 -0.012162894 0.0034262054 4284313394
-0.0067082532 -0.013480023 0.0044930838 4282691339
-0.0044343881 -0.014796481 0.0055582561 4282290224
-0.002280876 -0.015397519 0.0059203655 4281964334
-0.0001218915 -0.01599814 0.0062816367 4281767219
0.0017693341 -0.01516965 0.0052413307 4281441073
0.0039338544 -0.015769742 0.005601842 4281767474
0.0058198124 -0.014941327 0.0045625865 4281506608
0.0078451261 -0.014827028 0.0042233132 4281637934
0.0095756799 -0.013285056 0.0024869591 4281375794
0.011745781 -0.013884477 0.0028468892 4281571123
0.013768498 -0.013770014 0.0025082938 4281309494
0.016724177 -0.017935254 0.0063530393 4281571635
0.020661339 -0.026377454 0.014373008 4281896759
0.025950322 -0.040519916 0.027952787 4281961784
-0.0015730374 -0.010464177 -0.0019487701 4283800588
0.00042771176 -0.010351568 -0.0022841729 4282360603
0.0027068257 -0.011671618 -0.0012229681 4282291243
0.0052805021 -0.014423452 0.0012321733 4282160939
0.0075867027 -0.01574181 0.0022890456 4281899309
0.0096092336 -0.015627563 0.0019503161 4281767473
0.011781741 -0.016228981 0.0023081154 4281767473
0.013959667 -0.016829982 0.0026650988 4281701174
0.016919697 -0.021007955 0.0064990856 4281701428
0.020860303 -0.029475972 0.014498454 4281830713
0.025990753 -0.042946361 0.027349729 4281961274
-0.0010474771 -0.0047754198 -0.010476893 4284706349
0.0016212724 -0.0082570612 -0.0073245484 4284509233
0.0043170378 -0.011737049 -0.0041766502 4284444463
0.0070398115 -0.015215427 -0.0010331944 4284582674
0.0093483105 -0.016537845 1.9978732e-05 4282227239
0.011817427 -0.018577531 0.0017662756 4282158898
0.01399776 -0.019180559 0.0021211766 4281962549
0.016959455 -0.023371458 0.0059448928 4281505588
0.02090079 -0.031865329 0.013924047 4281701174
0.025870321 -0.044659495 0.026050594 4282026044
0.014035583 -0.021535181 0.0015741847 4284716803
0.016998915 -0.025738969 0.0053875931 4282225454
0.021098718 -0.034978442 0.014038414 4282225199
0.025910329 -0.047091849 0.025443029 4282221628
0.021138482 -0.03737808 0.013456214 4283271208
0.025789782 -0.048806541 0.024142712 4282746673
0.011676926 -0.0577562 -0.011835936 4282934864
0.008491613 -0.054212645 -0.017394489 4283066443
0.01126736 -0.057892948 -0.014418341 4282738258
0.0080889873 -0.054329351 -0.019962797 4282609484
0.0053744763 -0.053024113 -0.023506679 4283067464
0.0079748146 -0.055964276 -0.021202769 4282412624
0.0042005815 0.0070435405 0.014213424 4286474263
-0.011584625 -0.0086992085 0.0002483055 4284902444
-0.018473398 -0.0056179464 -0.0048856866 4285689374
-0.016839679 -0.0033541322 -0.0073250141 4285886233
-0.014869239 -0.0032439381 -0.0076558795 4285951513
-0.012658108 -0.0045685619 -0.0065837801 4285951768
-0.010190133 -0.0073270425 -0.0041114576 4285689629
-0.0078261755 -0.0093670413 -0.0023432784 4285428509
-0.0054459386 -0.011406064 -0.00057769939 4285430039
-0.02099872 -0.0044408664 -0.008568598 4285032748
-0.019255437 -0.0028909221 -0.010301402 4285689374
-0.017637551 -0.00062152371 -0.012733074 4285623839
-0.015565962 -0.0012320168 -0.012360977 4285623583
-0.013488878 -0.0018421449 -0.011989681 4285689374
-0.011160638 -0.0038907379 -0.0102206 4285689884
-0.0086905956 -0.0066576824 -0.0077552591 4285558814
-0.006327115 -0.0087041557 -0.0059919041 4285362209
-0.0044710487 -0.0078735352 -0.0070231482 4285231139
-0.0027539097 -0.0063242167 -0.0087509826 4285034023
-0.023074806 -0.0061349496 -0.0094400551 4285164584
-0.021653704 -0.0024133064 -0.013270414 4285690139
-0.019923713 -0.000859797 -0.014997656 4285952278
-0.018089797 -2.887845e-05 -0.016023984 4285886489
-0.016143862 7.9911202e-05 -0.016350765 4285820699
-0.014077831 -0.00053296983 -0.01597934 4285886998
-0.011760954 -0.0025887229 -0.014213393 4285821719
-0.0093024336 -0.0053649768 -0.01175282 4285558813
-0.0070783794 -0.0066972524 -0.010689368 4285559068
-0.0051050037 -0.0065864176 -0.011020353 4285559069
-0.0036653951 -0.0035913214 -0.014134834 4285886489
-0.0018388107 -0.0027600005 -0.015159307 4286017304
0.00067671016 -0.0055324882 -0.012707928 4285951513
0.0034969635 -0.0097448975 -0.008870976 4285951258
0.0063496195 -0.01395531 -0.0050394032 4285361699
0.0089407787 -0.016723275 -0.002600424 4285428508
-0.023821764 -0.0033707395 -0.014834439 4285427744
-0.022089034 -0.0018128902 -0.016558895 4285559069
-0.020143468 -0.0017043501 -0.016885785 4285821719
-0.018541109 0.00057710707 -0.019304859 4285755673
-0.016486239 -3.8683414e-05 -0.018933324 4285821208
-0.014425889 -0.00065407157 -0.018562637 4285689883
-0.011869919 -0.0041643009 -0.015408596 4285624349
-0.009787783 -0.0047782958 -0.015041357 4285624348
-0.0077001825 -0.0053918511 -0.014675004 4285624349
-0.0058683306 -0.0045583025 -0.015698863 4285690138
-0.0040418021 -0.0037248805 -0.016721781 4285689374
-0.0022205897 -0.0028917193 -0.017743694 4285623584
0.00028881431 -0.0056732595 -0.015297947 4285688863
0.0029612258 -0.0091762096 -0.012162864 4285820444
0.0058047511 -0.013400123 -0.0083397962 4285493023
0.0086806789 -0.017622143 -0.0045220368 4285427488
0.011588985 -0.021842182 -0.00070966035 4285296419
0.016883222 -0.027388528 0.0041366145 4285043969
-0.02608721 -0.0035960898 -0.017093396 4285295909
-0.024460666 -0.0013071299 -0.019511772 4285559069
-0.022523426 -0.0011991598 -0.019837346 4285624348
-0.020474467 -0.0018176697 -0.01946667 4285624094
-0.018534299 -0.0017093383 -0.019792585 4285623838
-0.016477026 -0.0023271851 -0.019423151 4285624094
-0.014174871 -0.0043968931 -0.017664818 4285624094
-0.011856455 -0.0064656138 -0.015909148 4285558558
-0.0098969899 -0.0063557923 -0.016237985 4285624349
-0.0081929751 -0.0047944933 -0.017953783 4285558813
-0.0063691922 -0.0039592311 -0.018974625 4285821718
-0.0044175647 -0.0038495287 -0.019301897 4285886999
-0.0024658702 -0.0037397295 -0.019629112 4285689628
-0.00023700669 -0.0050799549 -0.018572887 4285689629
0.0022851825 -0.0078693181 -0.016135894 4285690139
0.0052608363 -0.01283168 -0.01163006 4285690393
0.0084209032 -0.018516406 -0.0064401478 4285558814
0.011624131 -0.024198547 -0.0012574233 4285361444
-0.026504688 -0.0029745921 -0.020369422 4285689628
-0.024885893 -0.00067959726 -0.022781495 4285820954
-0.022848122 -0.0013010278 -0.022410709 4285952789
-0.020581935 -0.003379561 -0.020651601 4285886999
-0.018527754 -0.0039998591 -0.02028341 4285624348
-0.016351212 -0.0053482279 -0.019222368 4285558558
-0.014163792 -0.0066958368 -0.018163109 4285559068
-0.011843253 -0.0087709278 -0.016412811 4285559069
-0.010255996 -0.0064769685 -0.01881903 4285559069
-0.0086848214 -0.0041838586 -0.021222427 4285493023
-0.0069994219 -0.0026191697 -0.02293168 4285690139
-0.004925698 -0.0032376423 -0.022566201 4285887508
-0.002982229 -0.0031283051 -0.022892037 4285821718
-0.00062348321 -0.005200617 -0.021147666 4285755928
0.0020336807 -0.0087260678 -0.018026752 4285690139
0.0054368041 -0.015884563 -0.011464572 4285558814
0.0090403855 -0.023766726 -0.0042226091 4285427489
0.012404937 -0.030192152 0.0016329773 4285295653
-0.028246686 -0.0068362057 -0.019142607 4285032494
-0.02692122 -0.0023398101 -0.023635371 4285755418
-0.025310203 -3.8824975e-05 -0.026041096 4285689374
-0.023280777 -0.00066289306 -0.02567059 4285755419
-0.020911951 -0.0034793317 -0.023222141 4285887253
-0.018749435 -0.0048328936 -0.022162227 4285690139
-0.016459335 -0.0069163889 -0.020412005 4285558813
-0.014152959 -0.0089988261 -0.018664477 4285624604
-0.012074471 -0.009619683 -0.018301768 4285624603
-0.010614362 -0.006589219 -0.02139323 4285624604
-0.0090482645 -0.0042898655 -0.02379081 4285624349
-0.0071077645 -0.004180938 -0.024116337 4285558558
-0.0051671825 -0.0040718913 -0.024441779 4285623838
-0.0030909851 -0.0046922863 -0.024078311 4285624093
-0.001009319 -0.0053122938 -0.023715625 4285558814
0.0020643882 -0.011036664 -0.018538201 4285559069
0.0061867796 -0.021862313 -0.0085553881 4285493278
0.010097386 -0.031225286 3.9808452e-05 4285493278
0.013183936 -0.036211431 0.004503835 4285427489
-0.030200645 -0.0092435479 -0.019309791 4285098538
-0.028755337 -0.0054669678 -0.023102779 4285755674
-0.027233742 -0.0024252981 -0.02619856 4285624093
-0.025522038 -0.00085147098 -0.027906304 4285558048
-0.023387119 -0.002211161 -0.026845224 4285623839
-0.02101903 -0.0050363168 -0.024403363 4285755419
-0.018970784 -0.0056613013 -0.024037538 4285755928
-0.016683947 -0.0077514797 -0.0222918 4285624349
-0.014619324 -0.0083753467 -0.021928566 4285624604
-0.012671135 -0.0082663149 -0.022255635 4285690139
-0.011221346 -0.0052278191 -0.025338702 4285755674
-0.0095383972 -0.0036547706 -0.027040977 4285821463
-0.0074760914 -0.0042783618 -0.026676971 4285821209
-0.005275622 -0.0056333989 -0.025626205 4285755674
-0.003199704 -0.0062559694 -0.025264362 4285558558
-0.00084213912 -0.0083413199 -0.023529826 4285559324
0.0026580021 -0.016277045 -0.016307516 4285559324
0.007365413 -0.030059531 -0.003608238 4285493789
0.011444364 -0.040180527 0.0056469478 4285361953
-0.031088039 -0.004922837 -0.026034217 4285295909
-0.029463202 -0.0026083402 -0.028432487 4285558814
-0.027648546 -0.0017660782 -0.029445983 4285755673
-0.025839128 -0.0009240061 -0.030458516 4285821718
-0.023710042 -0.0022883117 -0.029399848 4285821463
-0.021570057 -0.0036519542 -0.028342895 4285887509
-0.019419182 -0.0050148368 -0.027287731 4285690139
-0.017257411 -0.0063770562 -0.026234275 4285624349
-0.015203845 -0.0070037097 -0.025870865 4285624603
-0.013388343 -0.0061606616 -0.026883932 4285690138
-0.011578146 -0.0053177476 -0.027896058 4285886999
-0.009900406 -0.0037407279 -0.029594081 4285755418
-0.007584054 -0.0058352128 -0.027857898 4285952789
-0.0053840242 -0.0071945935 -0.0268104 4286018578
-0.0030378848 -0.0092871785 -0.025079044 4285624348
-0.00039962679 -0.012846231 -0.021980122 4285559324
0.0035314336 -0.023006022 -0.012723707 4285493788
0.0083980262 -0.037562102 0.00062537938 4285428254
0.012204207 -0.046245672 0.0084864721 4285428254
-0.032740377 -0.0095326602 -0.024123292 4285097773
-0.031193912 -0.006472595 -0.027210105 4285426724
-0.029568769 -0.0041516274 -0.029603435 4285493279
-0.027754091 -0.0033072308 -0.030615281 4285558814
-0.025839187 -0.0032007247 -0.030937273 4285558814
-0.023816004 -0.0038316846 -0.030570781 4285558814
-0.021676436 -0.0051996857 -0.029517105 4285558558
-0.019753091 -0.0050923973 -0.029840278 4285624349
-0.01759715 -0.0064592361 -0.028789235 4285624348
-0.015668187 -0.0063514113 -0.029113175 4285624348
-0.013860755 -0.0055066645 -0.030123226 4285821719
-0.012058616 -0.004662104 -0.031132299 4285623838
-0.010261785 -0.0038177371 -0.032140404 4285492258
-0.0079514161 -0.005919002 -0.030408274 4285558048
-0.0056248009 -0.0080192983 -0.028678751 4285624093
-0.0030117482 -0.011590675 -0.025584038 4285624348
0.00017950684 -0.018104106 -0.019759905 4285559069
0.004543256 -0.030500829 -0.0084796939 4285427999
0.0095714368 -0.045834661 0.0055154748 4285427999
0.012816377 -0.051601045 0.01062433 4285296163
-0.032846667 -0.011090755 -0.025305543 4285229354
-0.031202503 -0.008762382 -0.027697163 4285689374
-0.029474415 -0.0071750283 -0.029397827 4285624349
-0.027551718 -0.0070682243 -0.029721236 4285558813
-0.025734179 -0.0062214136 -0.030731821 4285558813
-0.023705885 -0.0068542659 -0.030367868 4285558814
-0.021893486 -0.0060075298 -0.031377427 4285559068
-0.02008637 -0.0051609427 -0.032386065 4285559068
-0.018284515 -0.0043145865 -0.033393688 4285624860
-0.016250376 -0.0049466789 -0.033030376 4285558814
-0.014453713 -0.0041003823 -0.034036957 4285887509
-0.01266234 -0.0032542869 -0.035042565 4285821718
-0.010876276 -0.0024083704 -0.036047205 4285755673
-0.0087068267 -0.0037782267 -0.035001352 4285755929
-0.005997505 -0.0081009343 -0.031226333 4285755928
-0.0029858761 -0.013898201 -0.02609209 4285558813
0.00089479983 -0.024121433 -0.016874088 4285493534
0.0056930445 -0.038767904 -0.0035803765 4285427998
0.010170002 -0.051194794 0.0076525323 4285362208
-0.030920073 -0.013283767 -0.0261264 4285623584
-0.029181033 -0.011691511 -0.027825583 4285624093
-0.027247705 -0.011584148 -0.028150804 4285624093
-0.025314219 -0.011476651 -0.028475948 4285624349
-0.023488469 -0.010627083 -0.02948622 4285557794
-0.021778531 -0.0090360194 -0.031180182 4285426468
-0.020192504 -0.0067037791 -0.03355654 4285493024
-0.018390641 -0.0058552697 -0.034562506 4285559069
-0.01659406 -0.0050069541 -0.035567503 4285559069
-0.014802769 -0.0041588321 -0.036571529 4285558814
-0.013140805 -0.0025698468 -0.038257048 4285624604
-0.011236083 -0.0024630725 -0.038576681 4285690138
-0.0089430474 -0.0045783371 -0.036851637 4285690394
-0.0062374659 -0.0089142248 -0.033086024 4285493534
-0.0028254651 -0.01695022 -0.025922555 4285427743
0.0016083308 -0.030164495 -0.014007717 4285427743
0.0064195655 -0.044853382 -0.00074962154 4285296418
0.010338441 -0.054356456 0.0077355877 4285032239
-0.030929595 -0.015588164 -0.026624557 4285426469
-0.028988458 -0.015480474 -0.026951171 4285492259
-0.027047165 -0.015372679 -0.027277742 4285557794
-0.025105745 -0.015264772 -0.027604248 4285492004
-0.023271888 -0.014412664 -0.028614182 4285492004
-0.02166412 -0.012072876 -0.030989289 4285492003
-0.020072401 -0.0097339153 -0.03336158 4285492258
-0.018380933 -0.0081392974 -0.035048977 4285558559
-0.016700134 -0.0065452233 -0.036734462 4285624604
-0.015151195 -0.0042082667 -0.039099343 4285558304
-0.01337057 -0.0033584833 -0.040099829 4285493023
-0.01146869 -0.0032518879 -0.040419005 4285427234
-0.0090496838 -0.0061166883 -0.038018551 4285427489
-0.0060812198 -0.011951044 -0.032903865 4285427999
-0.0019923896 -0.023723394 -0.022364473 4285361953
0.0025947541 -0.03771805 -0.0098038483 4285427744
0.0070042647 -0.050222293 0.0013835616 4285164073
-0.031036161 -0.017149732 -0.027809434 4285426468
-0.02899567 -0.017788813 -0.027452793 4285426468
-0.027051829 -0.017680898 -0.027779806 4285426468
-0.025002964 -0.018319242 -0.027424444 4285426468
-0.0232713 -0.016718447 -0.029115546 4285491749
-0.021550275 -0.015118144 -0.030804709 4285491748
-0.01995286 -0.012772359 -0.033172999 4285557793
-0.018140189 -0.011918977 -0.034177475 4285623584
-0.016451158 -0.010320134 -0.035861015 4285623838
-0.014893826 -0.0079762489 -0.038222313 4285690139
-0.013105117 -0.0071238577 -0.039222497 4285624604
-0.011195287 -0.0070168376 -0.039543014 4285558813
-0.0086398274 -0.010634892 -0.036472231 4285427233
-0.0055301301 -0.017230861 -0.03069469 4285361443
-0.0011613742 -0.030526631 -0.018829122 4285361444
0.0034416169 -0.044561386 -0.0063028466 4285229865
0.0070279278 -0.052634805 0.00079480186 4285163054
-0.031046033 -0.019460067 -0.028312031 4285492259
-0.029003128 -0.020101145 -0.027957525 4285361188
-0.027056739 -0.019993111 -0.028284986 4285426723
-0.025005475 -0.020633504 -0.027931711 4285426468
-0.02327095 -0.019028269 -0.02961991 4285492259
-0.021657191 -0.016675234 -0.03198605 4285426469
-0.019946668 -0.015071079 -0.033670094 4285492259
-0.018015806 -0.014963344 -0.033994503 4285492514
-0.016203042 -0.014107689 -0.034997243 4285492513
-0.014395557 -0.013252221 -0.035999008 4285558049
-0.01259337 -0.012396947 -0.036999807 4285492259
-0.010796491 -0.011541843 -0.037999619 4285492259
-0.0082311481 -0.015170127 -0.034938835 4285492768
-0.0048488602 -0.023279101 -0.027825594 4285492769
-0.00033244863 -0.037359849 -0.015316589 4285361443
0.0038752668 -0.0491945 -0.0048503894 4285361444
-0.030863166 -0.023276731 -0.027456986 4285230119
-0.028812468 -0.023919553 -0.027105469 4285295654
-0.026858136 -0.023811087 -0.027434275 4285492514
-0.024903663 -0.023702502 -0.027763011 4285492513
-0.023270868 -0.021342114 -0.030127402 4285426468
-0.021654122 -0.018982455 -0.032489046 4285492004
-0.019940723 -0.017373867 -0.034170199 4285492004
-0.017661296 -0.019516356 -0.032463409 4285426468
-0.015719704 -0.019407921 -0.032789543 4285492259
-0.013778016 -0.019299373 -0.03311561 4285492514
-0.012206513 -0.016941704 -0.035469163 4285558049
-0.010272734 -0.016833372 -0.035793725 4285558048
-0.0080812499 -0.018223614 -0.034768291 4285492514
-0.004563868 -0.027105384 -0.026999466 4285427233
-0.00031078607 -0.039728686 -0.015871154 4285360934
-0.024802402 -0.02677992 -0.027600624 4285295144
-0.023163922 -0.024412706 -0.029961022 4285360678
-0.021541469 -0.022046328 -0.032318596 4285360678
-0.019597542 -0.021938011 -0.032645315 4285360678
-0.017653514 -0.02182956 -0.032971956 4285360678
-0.015473597 -0.023225263 -0.031948298 4285426469
-0.013765141 -0.021612316 -0.033625033 4285492259
-0.011820816 -0.021503508 -0.033951458 4285426723
-0.010128353 -0.019891188 -0.035625365 4285492514
-0.0078032613 -0.022037044 -0.033930756 4285493024
-0.0045424663 -0.029441573 -0.02752874 4285493024
-0.00042344257 -0.041350313 -0.017101178 4285360934
-0.022629641 -0.030511282 -0.027099803 4285163053
-0.020990737 -0.028137535 -0.029455155 4285295144
-0.019143157 -0.027273744 -0.030458955 4285360424
-0.017300852 -0.026410073 -0.031461813 4285294889
-0.015463836 -0.025546655 -0.03246367 4285360678
-0.013752531 -0.023929231 -0.03413754 4285492003
-0.011928786 -0.023066297 -0.035136975 4285492259
-0.010110356 -0.022203512 -0.036135472 4285492514
-0.0079116784 -0.023602068 -0.035117906 4285493024
-0.0046525337 -0.031028226 -0.028732266 4285427233
-0.0010716543 -0.03995809 -0.021014031 4285294889
-0.013499625 -0.0277628 -0.033310357 4285360423
-0.011790778 -0.026141115 -0.034980416 4285426214
-0.010092616 -0.02451992 -0.036648601 4285426214
-0.0078917071 -0.025922596 -0.035634771 4285492004
-0.0047625676 -0.032614581 -0.029935569 4285426469
-0.0014511459 -0.040059261 -0.023575291 4285294888
-0.0095730722 -0.029873013 -0.034489419 4285360423
-0.0074873604 -0.030521289 -0.034149513 4285425959
-0.0046107695 -0.03571637 -0.029802777 4285426213
-0.0016964003 -0.040909261 -0.025462247 4285229098
