# .PCD v0.7 - Point Cloud Data file format
VERSION 0.7
FIELDS x y z rgba
SIZE 4 4 4 4
TYPE F F F U
COUNT 1 1 1 1
WIDTH 963
HEIGHT 1
VIEWPOINT 0 0 0 1 0 0 0
POINTS 963
DATA ascii
-0.00388043 0.015681185 0.027597487 4289734948
-0.031933375 0.022640735 0.021422144 4288819754
-0.0304268 0.024876926 0.018839717 4289669923
-0.028640665 0.025715809 0.017691348 4289604388
-0.026558988 0.025158595 0.01797343 4289343269
-0.024471827 0.024601836 0.018254392 4289408293
-0.022223502 0.023348082 0.019247562 4289931809
-0.020281047 0.023489859 0.018812746 4289605154
-0.018338457 0.02363174 0.018377971 4289605154
-0.016395725 0.023773715 0.017943226 4289801249
-0.014619205 0.024612542 0.016797498 4289932063
-0.012678888 0.024754532 0.016363442 4290258974
-0.010566801 0.024200279 0.01663927 4289670179
-0.0077519268 0.02086186 0.019750968 4289604388
-0.0042022876 0.014741622 0.025691375 4289473573
0.001012411 0.0023630857 0.037993666 4289669669
-0.031931601 0.020338241 0.020963736 4288361773
-0.030711569 0.023982149 0.016957141 4289604899
-0.028928012 0.024822999 0.015810981 4289997343
-0.026999466 0.024963442 0.015379041 4290324508
-0.024765112 0.02370419 0.016371954 4290651674
-0.022519954 0.022445776 0.017362554 4290455068
-0.020580281 0.022587314 0.016928334 4289604644
-0.018801268 0.023428302 0.015783552 4290128414
-0.016863991 0.023569848 0.015350003 4290390043
-0.014926579 0.023711514 0.014916509 4289932320
-0.012989055 0.023853268 0.014483053 4289670179
-0.011051405 0.023995142 0.014049649 4290585884
-0.0082429573 0.020645309 0.017154492 4290847259
-0.0047005266 0.014504887 0.02308163 4290716444
-0.0002126582 0.0048782453 0.032530349 4290585629
-0.032214105 0.019437384 0.01907593 4288033588
-0.031140514 0.023794722 0.01436539 4289473575
-0.029509515 0.025339875 0.012510002 4290127903
-0.027439095 0.024777375 0.012791298 4290585884
-0.025057957 0.022811186 0.014492974 4290520348
-0.02281595 0.021548137 0.015480958 4290913049
-0.021037027 0.022391211 0.014337696 4289931808
-0.019263282 0.023233946 0.013195701 4289801248
-0.017331444 0.023375086 0.012763366 4289539619
-0.01556544 0.024217445 0.011623247 4289670179
-0.013804622 0.025059532 0.010484371 4289866274
-0.01187776 0.02520059 0.010053363 4290323999
-0.0092550032 0.022539515 0.012446545 4289931809
-0.0060809925 0.01777906 0.0169513 4289800738
-0.0017939135 0.0088204071 0.025676835 4290454814
0.0038361475 -0.0050328225 0.039316643 4290651164
-0.032637931 0.019246276 0.016479962 4286987068
-0.031713076 0.024321292 0.011069246 4289799973
-0.0302369 0.026574906 0.0085084904 4289211944
-0.028327219 0.026713926 0.0080807321 4289080873
-0.026264951 0.026148699 0.0083622374 4289538853
-0.024042107 0.024879906 0.009351138 4289866274
-0.022123985 0.025019817 0.0089216996 4289866529
-0.020205721 0.02515984 0.0084923077 4289932063
-0.018287331 0.025299963 0.0080629531 4289932063
-0.016368806 0.025440197 0.007633647 4290128159
-0.014618583 0.026283666 0.0064987745 4290847514
-0.012702506 0.026423901 0.0060701519 4289800739
-0.010091297 0.023753233 0.0084592942 4288688939
-0.0072822683 0.020381678 0.011547538 4289146663
-0.003192924 0.012095675 0.019552492 4289146408
0.0025962181 -0.0025050938 0.03386699 4289146408
-0.033344097 0.020478815 0.012470637 4288687664
-0.032428667 0.025568388 0.0070735775 4289538088
-0.031256512 0.029241536 0.0031024795 4290323999
-0.029512502 0.030086048 0.001970131 4289538853
-0.027621433 0.030223776 0.0015465878 4289800483
-0.024955682 0.026830029 0.0046580322 4290651163
-0.022893436 0.026262835 0.0049379747 4290127903
-0.02082571 0.025696132 0.0052167624 4290062878
-0.018915426 0.025835637 0.0047892034 4290193693
-0.017005023 0.025975253 0.0043616947 4289735458
-0.01543095 0.027525622 0.0025262237 4290585374
-0.013696536 0.028370198 0.0013965964 4290520093
-0.011446677 0.027099665 0.0023766458 4290258463
-0.0086573884 0.023715734 0.0054610316 4290454814
-0.0047680363 0.016106486 0.012749296 4290454814
0.0013586655 4.927814e-05 0.02843684 4290455324
-0.034472868 0.023857642 0.0063492619 4288687408
-0.03343077 0.028251883 0.0016754437 4289865763
-0.032127023 0.031225733 -0.0015768614 4290258463
-0.030246869 0.031362534 -0.0019980557 4289866018
-0.028366573 0.031499438 -0.0024192128 4289931553
-0.025712565 0.028093919 0.00068658404 4290193438
-0.023346521 0.026107039 0.0023768935 4289931809
-0.021284446 0.025537711 0.002655277 4289997599
-0.019379616 0.025676798 0.0022289213 4289735713
-0.017640024 0.02652372 0.0010996256 4290062624
-0.015905641 0.027370356 -2.8423965e-05 4290193183
-0.014176492 0.028216749 -0.0011552796 4289735204
-0.012105823 0.027648509 -0.00087840296 4289342503
-0.0095016658 0.024959967 0.0014990997 4289735204
-0.0058039241 0.01803248 0.0080720671 4289538853
-5.787611e-05 0.0033369064 0.022326749 4289538853
0.007456407 -0.017707668 0.04284595 4289538853
-0.035316452 0.025844112 0.0016641244 4288687664
-0.033998899 0.02882757 -0.001584759 4289734183
-0.032409437 0.030386969 -0.0034176931 4289931299
-0.030382879 0.02981247 -0.0031333175 4289342759
-0.028198987 0.028527565 -0.0021457411 4289473318
-0.025695242 0.025822099 0.00024705194 4289473573
-0.023484424 0.024539307 0.0012287889 4289211944
-0.021422654 0.02396775 0.001505563 4289277734
-0.019517951 0.024106808 0.0010792296 4289277734
-0.017613105 0.02424597 0.00065292977 4289146408
-0.015875988 0.025094967 -0.00047410466 4289342759
-0.014144093 0.025943682 -0.0015998874 4288819243
-0.012071092 0.025373444 -0.0013252515 4288950058
-0.0096410029 0.023385428 0.00034624524 4289015849
-0.0063023306 0.017853882 0.005506305 4289146409
-0.0011093095 0.0052380264 0.017635021 4289146409
0.0062018335 -0.01516483 0.037411746 4289146409
-0.035029948 0.022141851 0.0026364755 4287052349
-0.033991136 0.026562002 -0.0020168982 4288818224
-0.031959698 0.025985494 -0.001735324 4289014828
-0.030071802 0.026122808 -0.0021582916 4289211944
-0.027577095 0.023407847 0.00022983551 4289015849
-0.025678232 0.023546159 -0.00019543804 4289146664
-0.023308277 0.021546476 0.0014840122 4289211943
-0.021560811 0.022398084 0.00035607256 4289146664
-0.019331601 0.021112483 0.0013304707 4289343014
-0.017256565 0.020539843 0.0016028043 4289015849
-0.015008457 0.019255828 0.0025731344 4288885034
-0.013090197 0.019396156 0.0021439735 4288950313
-0.011171836 0.019536592 0.0017148592 4288754218
-0.0090777352 0.018965803 0.0019831974 4289081128
-0.006265007 0.015550919 0.0050376151 4288950313
-0.001796823 0.005739525 0.014351983 4288950313
0.0045823902 -0.011173882 0.030605886 4288819499
-0.034462906 0.016994581 0.0050064288 4286071364
-0.033266254 0.020712912 0.0010626931 4288818223
-0.031219169 0.020135388 0.0013390537 4288818990
-0.029315405 0.020273827 0.00091251172 4289146408
-0.027260035 0.019697089 0.0011871532 4288754218
-0.025199182 0.019120853 0.0014606435 4288688939
-0.022976063 0.017830171 0.0024329815 4288688939
-0.020901605 0.017255142 0.0027035829 4288950568
-0.018983833 0.017395101 0.0022742804 4289016104
-0.016571559 0.015392222 0.003939569 4288885033
-0.014478087 0.014818862 0.0042061377 4289146663
-0.012379192 0.014246032 0.004471587 4288885033
-0.010447644 0.014387399 0.0040395055 4288885033
-0.0083405338 0.013815373 0.0043032747 4288688939
-0.0058718026 0.011817127 0.0059563164 4288623403
-0.0017600209 0.0034018382 0.013857238 4288558123
0.0035164133 -0.0092863366 0.025907949 4288623403
0.0083305389 -0.019829072 0.035857037 4288558379
0.010581927 -0.020389967 0.036088955 4288820009
0.01303013 -0.021662712 0.037011977 4291240723
0.018245293 -0.01764603 0.03217252 4287183164
-0.032543615 0.014837839 0.0041231699 4288033333
-0.030626826 0.01497709 0.0036936048 4288491823
-0.029007107 0.016551793 0.0018638112 4288623403
-0.02709534 0.01669088 0.001435522 4288754474
-0.025183417 0.016830094 0.001007285 4288688938
-0.022801556 0.014818147 0.002674127 4288754474
-0.020722087 0.014241219 0.0029419791 4288688938
-0.0187991 0.01438155 0.0025114939 4288558123
-0.016382225 0.012372456 0.0041707326 4288754474
-0.014283761 0.011797279 0.0044345278 4288492588
-0.01217984 0.011222571 0.0046972316 4288623403
-0.010415681 0.012080282 0.003569169 4288754474
-0.0084814876 0.01222194 0.0031365696 4288819753
-0.0060134679 0.010217085 0.0047848094 4288623403
-0.0020847432 0.0024908185 0.011973448 4288623403
0.0026356652 -0.0080916733 0.021918677 4288558378
0.0063206255 -0.014378443 0.027695276 4288623659
0.0083564594 -0.014228769 0.027240377 4289735969
0.010201098 -0.013364382 0.026094902 4289866273
0.012428286 -0.013929062 0.026330795 4289997599
0.014660839 -0.014493175 0.026565544 4289735968
0.016301056 -0.012914874 0.024732675 4289082149
-0.032252528 0.011097461 0.0050653871 4288360754
-0.03061939 0.012677416 0.0032357499 4288753963
-0.02869992 0.012816936 0.0028056372 4288492589
-0.027082458 0.0143959 0.00097969919 4288558123
-0.024860494 0.013096318 0.0019455422 4288885289
-0.022784166 0.012516864 0.0022123475 4288754474
-0.0205433 0.011218868 0.003174115 4288623403
-0.018776849 0.012078434 0.0020469017 4288558123
-0.01635801 0.01006294 0.0037007425 4288688938
-0.014424264 0.010204241 0.0032679904 4288688938
-0.012320679 0.0096272975 0.0035290997 4288558123
-0.010384057 0.009769015 0.0030958634 4288754474
-0.0084473342 0.0099108517 0.0026626941 4288688938
-0.0057996511 0.0071819201 0.0049974769 4288623403
-0.0020482466 0.00014933944 0.011475919 4288623403
0.0021226071 -0.0083138049 0.019324053 4288754728
0.0054289252 -0.01318647 0.023707036 4288558378
0.0068888217 -0.010886714 0.021185737 4289081638
0.0089059174 -0.010738313 0.0207351 4288820009
0.010923067 -0.010589793 0.020284545 4290063389
0.01333301 -0.011873901 0.021209717 4289343778
0.015355567 -0.011724755 0.020758118 4289344544
0.015764538 -0.0058477223 0.014813617 4289018399
-0.032391243 0.0095115602 0.0039037652 4288622639
-0.030757859 0.011095881 0.002077356 4288819498
-0.0288385 0.011235356 0.0016472433 4288688938
-0.026919 0.011374965 0.001217192 4288754474
-0.02469223 0.010071307 0.002178682 4288492844
-0.022610888 0.0094900653 0.0024426635 4288362029
-0.020524092 0.0089093074 0.0027054939 4288754473
-0.018754922 0.0097712204 0.001579294 4288492589
-0.016662546 0.0091910958 0.0018410441 4288296238
-0.01456473 0.0086114705 0.0021016542 4288820009
-0.012631007 0.0087528527 0.0016689803 4288558379
-0.010697186 0.0088943541 0.0012363587 4288558379
-0.0085883886 0.0083158091 0.0014948007 4288493354
-0.0061191469 0.0062979758 0.0031327996 4288493354
-0.0023724884 -0.00075668097 0.0095957741 4288493354
0.0012446716 -0.0070878044 0.015357722 4288624168
0.004167784 -0.010537915 0.018354673 4288820518
0.0058003217 -0.0089519769 0.016529802 4289867293
0.0078039616 -0.0088045597 0.016082179 4289540129
0.0098076444 -0.0086570382 0.015634622 4290652693
0.012399904 -0.010665081 0.017245773 4290718228
0.014411662 -0.010516733 0.016796585 4289802779
0.015214406 -0.0060592592 0.012237359 4288692763
-0.03281533 0.009375304 0.0013493057 4288492079
-0.031041637 0.010239087 0.00022325665 4288623658
-0.029125072 0.010378338 -0.00020624511 4288819753
-0.027057655 0.009793669 5.9025362e-05 4288688938
-0.024678044 0.0077617168 0.0017114356 4288492844
-0.022750393 0.0079020932 0.0012796894 4288493354
-0.02066391 0.0073191226 0.0015409309 4288427819
-0.019056045 0.0089064911 -0.00027596951 4288689193
-0.016966656 0.0083239451 -1.5219674e-05 4288820264
-0.015038498 0.0084647983 -0.00044674985 4288624168
-0.012940899 0.0078830719 -0.00018766709 4288493353
-0.011009872 0.0080243349 -0.00061967783 4288624423
-0.0089040771 0.0074434355 -0.00036226027 4288494119
-0.0060835406 0.0039745495 0.0026491024 4288690469
-0.0026962906 -0.0016580671 0.0077190995 4288690469
0.00055099279 -0.0065657049 0.01209208 4288754728
0.0030943491 -0.0085843056 0.013708819 4289147429
0.0049018003 -0.0077162981 0.012576543 4289802268
0.0070852898 -0.0082908273 0.0128171 4289867804
0.0092741624 -0.0088648796 0.013056587 4290652438
0.011664378 -0.01015912 0.013979517 4289998619
0.013668003 -0.01001139 0.013532139 4290195223
0.014665101 -0.0062617362 0.0096677989 4288692508
-0.033523642 0.010701731 -0.0025883522 4287381809
-0.031615347 0.010840274 -0.0030160863 4287709484
-0.029706895 0.010978907 -0.0034437887 4287448109
0.004380472 -0.0079098493 0.010005929 4289737499
0.0063678324 -0.0077636689 0.0095619187 4289736479
0.0085483678 -0.0083404779 0.0098015778 4289998108
0.011125855 -0.010362685 0.011406127 4289802524
0.01332245 -0.010938086 0.011642369 4289868058
0.014317719 -0.0071776807 0.0077866819 4289085208
0.0036723427 -0.0073685795 0.0067587588 4289998874
0.0058418401 -0.0079484954 0.0069991425 4290390553
0.0080167204 -0.0085279495 0.0072384495 4290128669
0.010783717 -0.011282235 0.009520743 4289605919
0.012977324 -0.011860073 0.009756051 4289933339
0.013970762 -0.0080889314 0.005909007 4289542423
0.0033402443 -0.0082696676 0.0048846155 4289997343
0.0051265955 -0.0073965862 0.0037620738 4290259228
0.0074858665 -0.0087063164 0.0046819188 4290717208
0.010051234 -0.0107425 0.0062792711 4290979094
0.012632608 -0.012777351 0.007873103 4289801248
0.013824951 -0.0097223967 0.0047133546 4289410333
0.0026341453 -0.0077058524 0.0016539395 4289539363
0.0046024248 -0.0075610876 0.0012141764 4289015849
0.0069558397 -0.0088756382 0.002132073 4289408293
0.009124741 -0.0094597489 0.0023694541 4290193693
0.011299007 -0.010043338 0.0026057251 4289932319
0.012877053 -0.008439064 0.00080994144 4289670943
-0.00021520257 -0.0065401047 -0.0018077902 4290194204
0.0015552267 -0.0056639612 -0.002923565 4290783254
0.003510043 -0.0055202097 -0.0033603422 4289604643
0.0058496073 -0.0068401396 -0.0024426468 4289211943
0.0083948523 -0.0088908374 -0.00085073337 4290585884
0.010560781 -0.0094772279 -0.00061425194 4290586138
0.012331409 -0.0086004734 -0.0017296225 4290325273
-0.00091055036 -0.0059466064 -0.0050189272 4289998874
0.00085191801 -0.005068846 -0.0061313342 4290587159
0.0029881001 -0.00565999 -0.0058900788 4289735459
0.0053217784 -0.0069847032 -0.004974436 4289408294
0.0078609847 -0.009042412 -0.0033860691 4290062369
0.010021243 -0.0096314028 -0.0031499751 4290390043
0.011786595 -0.0087528676 -0.0042625256 4289997854
-0.0010528192 -0.007550247 -0.0061929878 4289540128
0.00052307546 -0.0059336498 -0.0079789199 4289735969
0.0026562363 -0.0065271631 -0.0077386871 4289343014
0.0047947839 -0.007120207 -0.0074995272 4289081128
0.0073279105 -0.0091848746 -0.0059148073 4289604388
0.0096797869 -0.010512389 -0.0050062845 4289800993
0.011642464 -0.010367557 -0.0054444345 4289539618
0.023634631 -0.010230526 -0.0074028373 4287578924
0.026255725 -0.012287617 -0.0058368603 4287774763
0.02999898 -0.018013969 -0.00093724765 4287971114
0.033784829 -0.023737088 0.0039530043 4287708973
-0.00064375252 -0.011370771 -0.0053444384 4288559144
0.00094037876 -0.0097492486 -0.0071288608 4289081128
0.0028920956 -0.0096057132 -0.007564934 4288885034
0.0048438646 -0.0094620734 -0.0080009382 4288819498
0.0073789284 -0.011533171 -0.006421552 4288885034
0.0097329207 -0.012864828 -0.0055168355 4288885288
0.011698104 -0.012719825 -0.0059555518 4288885799
0.013663311 -0.012574673 -0.0063941674 4288820263
0.016038664 -0.013904408 -0.0054939548 4288493354
0.018009223 -0.013758622 -0.0059335837 4288297513
0.02040058 -0.015086964 -0.0050367014 4287839535
0.0221634 -0.014203638 -0.0061449306 4288100653
0.024568042 -0.015530683 -0.0052508572 4287904814
0.027201712 -0.017593369 -0.0036926242 4288231724
0.031177616 -0.024072625 0.0018570852 4288231724
0.035872541 -0.032756507 0.0093918908 4287904304
-0.00060295314 -0.013721675 -0.0058503011 4288820518
0.0011703037 -0.012836605 -0.0069601955 4288885289
0.0029383004 -0.011951834 -0.0080687637 4288885289
0.0050841421 -0.012548663 -0.0078345807 4288885289
0.0072353557 -0.013145015 -0.0076014558 4288950569
0.0095888041 -0.014481068 -0.0066999169 4288558124
0.011753386 -0.01507616 -0.0064696455 4288754728
0.014125532 -0.016410634 -0.0055720517 4289016614
0.016303461 -0.017004468 -0.0053445557 4288362283
0.018694263 -0.018337265 -0.0044509741 4288362029
0.020885527 -0.018929914 -0.004226231 4288034864
0.02286924 -0.018782914 -0.0046686055 4288165679
0.024852943 -0.018635795 -0.0051108869 4288165678
0.027709372 -0.021443307 -0.0028938446 4288165678
0.0319122 -0.028680198 0.0033039693 4288100143
-0.00056251138 -0.016076565 -0.0063591609 4288493353
0.0013994984 -0.015932426 -0.0067976499 4288623913
0.0035502724 -0.016531199 -0.0065663094 4288754473
0.005323682 -0.015643746 -0.0076743597 4288623659
0.0074798688 -0.016241863 -0.0074440399 4288689194
0.0098380968 -0.017581925 -0.0065468671 4288689194
0.012207013 -0.018921107 -0.0056519406 4288492843
0.014182571 -0.018775225 -0.0060928809 4288689194
0.016158137 -0.018629186 -0.0065337168 4288362028
0.018755741 -0.020708099 -0.004977704 4288231214
0.02094931 -0.0213027 -0.0047551561 4288492843
0.022935534 -0.021155521 -0.0051980894 4288427053
0.024921745 -0.021008193 -0.0056409258 4288492844
0.027779909 -0.023824334 -0.0034308042 4288099634
0.031983256 -0.031082883 0.0027503762 4288099634
-0.00070560351 -0.017689928 -0.0075403536 4288428584
0.0012562573 -0.017545797 -0.0079788053 4288362283
0.003218174 -0.017401524 -0.0084171677 4288427308
0.0053713024 -0.018002197 -0.0081879208 4288492843
0.007142134 -0.01711262 -0.0092936503 4288558379
0.0096936524 -0.019201934 -0.0077327127 4288492589
0.012261186 -0.021289952 -0.0061751958 4288754473
0.014441069 -0.021888115 -0.0059515182 4288492843
0.016421802 -0.021741726 -0.0063935276 4288362028
0.018816845 -0.023082949 -0.0055074338 4288492589
0.021012723 -0.023679554 -0.0052870382 4288361773
0.023213923 -0.024275646 -0.0050677527 4288361773
0.025205303 -0.02412796 -0.0055117477 4288230704
0.028285639 -0.027695514 -0.0026475731 4288230449
0.032274403 -0.034232512 0.0028548408 4288164914
-0.00066567212 -0.020050764 -0.0080535756 4288428583
0.0012986958 -0.019906461 -0.0084926011 4288296749
0.0032631159 -0.019762024 -0.0089315223 4288492843
0.0050366111 -0.018870227 -0.010036313 4288362028
0.0071920976 -0.019472763 -0.0098091485 4288492843
0.0095492378 -0.020821601 -0.0089183087 4288492843
0.012314986 -0.023662865 -0.0067014191 4288492843
0.014497191 -0.024263084 -0.0064798724 4288427564
0.016684724 -0.024862729 -0.0062594581 4288362029
0.018877584 -0.025461867 -0.0060401503 4288230958
0.021075774 -0.026060477 -0.0058219116 4288165679
0.023279283 -0.02665855 -0.0056047719 4287969074
0.02570305 -0.028001606 -0.0047280844 4288295983
0.028572638 -0.030834295 -0.0025336836 4288230449
0.032344528 -0.036645494 0.0022937227 4288034098
-0.0031333119 -0.020309448 -0.010130276 4288823069
-0.00099168718 -0.02091568 -0.0099020312 4288297003
0.00096986443 -0.020771593 -0.010340427 4288428074
0.0027433559 -0.019877747 -0.011443669 4288558889
0.0050839037 -0.021232426 -0.010552624 4288820518
0.0070482604 -0.021087736 -0.010991348 4288428073
0.0097970776 -0.023939058 -0.0087773446 4288624424
0.012567209 -0.026788704 -0.0065680277 4288428074
0.015358668 -0.029636607 -0.004363345 4288100654
0.017559156 -0.030237481 -0.0041474681 4288427564
0.019764973 -0.030837841 -0.003932694 4288230704
0.021976117 -0.031437643 -0.003718989 4287903283
0.023980509 -0.031289116 -0.0041659754 4287707189
0.026629107 -0.033383414 -0.0026358347 4288164658
0.029511061 -0.036223859 -0.00045076199 4287968309
0.032854401 -0.040557086 0.0030452944 4287706679
-0.0034559071 -0.021167219 -0.011974359 4288300064
-0.0014998876 -0.021023661 -0.012411611 4288101163
0.00064145774 -0.021632016 -0.012184819 4287577138
-0.013757803 0.0091926679 -0.0041077593 4284115513
-0.011837561 0.0093331337 -0.0045373673 4283984444
-0.0097427443 0.008749187 -0.0042791171 4283592509
-0.006933976 0.0052685216 -0.0012733787 4283068994
-0.003559079 -0.00038238615 0.0037861429 4283199553
-0.0001414828 -0.0060301051 0.0088362396 4283722559
-0.035010345 0.0060746074 -0.00053632259 4283199044
-0.033945695 0.010587923 -0.0051263077 4283200574
-0.032042861 0.010726035 -0.0055528441 4283007029
-0.030139856 0.010864258 -0.0059793396 4283005753
-0.028086402 0.010274157 -0.0057142777 4282940473
-0.026027471 0.0096845701 -0.0054503614 4282874683
-0.023963071 0.0090954304 -0.005187544 4282482238
-0.022051528 0.0092347041 -0.0056156302 4282351679
-0.020139851 0.009374097 -0.0060436605 4282220863
-0.017900802 0.0080586597 -0.0050945869 4282481728
-0.015983582 0.0081986785 -0.0055236956 4282416194
-0.014066242 0.0083388239 -0.005952741 4282089283
-0.012148805 0.0084790736 -0.0063817305 4282023239
-0.010231268 0.00861945 -0.006810653 4282155838
-0.0072519891 0.0044009164 -0.0031261835 4282090814
-0.0035222247 -0.0027204379 0.0032911021 4282417724
-0.00028593466 -0.0076593757 0.0076433886 4283136314
-0.035008825 0.0037628785 -0.0010015815 4282349894
-0.033940502 0.0082895383 -0.0055825626 4282024258
-0.032035142 0.0084278062 -0.0060096877 4282025278
-0.030277073 0.0092970133 -0.0071272673 4281959998
-0.028374054 0.0094353333 -0.0075536976 4281698623
-0.026318111 0.0088433027 -0.0072907852 4281633088
-0.024101265 0.0075215101 -0.0063402532 4281762883
-0.022347964 0.0083908588 -0.0074564712 4281632578
-0.02027832 0.0078001171 -0.0071963398 4281567554
-0.018039793 0.0064802766 -0.0062504513 4281502019
-0.015956596 0.0058908015 -0.0059932126 4281501763
-0.01403673 0.0060311109 -0.0064228447 4281436993
-0.012288194 0.0069006085 -0.0075375428 4281632834
-0.010370802 0.0070409551 -0.0079664504 4281436738
-0.0075695664 0.0035379454 -0.0049755247 4281437759
-0.0038445555 -0.0036055148 0.0014262833 4281764668
-0.00043034926 -0.0092883632 0.0064507406 4282808893
-0.035146944 0.0021806657 -0.0021605808 4281827909
-0.033935644 0.0059870481 -0.0060418295 4281437248
-0.032027744 0.0061254874 -0.0064695338 4281241153
-0.030119687 0.006264016 -0.0068972083 4281110593
-0.028061554 0.0056698248 -0.0066364752 4281175363
-0.025997952 0.00507617 -0.0063769361 4281110339
-0.024084143 0.0052154586 -0.0068056369 4281175363
-0.022170208 0.0053548664 -0.0072342874 4281305924
-0.020095557 0.0047623515 -0.0069769723 4281371459
-0.018015474 0.0041703358 -0.0067207916 4281371203
-0.016095854 0.0043104887 -0.007150461 4281306434
-0.014176138 0.0044507682 -0.0075800726 4281240898
-0.012427542 0.0053224415 -0.0086931372 4281436738
-0.010336392 0.0047316998 -0.0084390892 4281371458
-0.0075336061 0.0012178868 -0.005456767 4281437503
-0.0039872304 -0.0052166432 0.0002466701 4281698878
-0.00093848258 -0.0094560459 0.0038960259 4282807873
-0.035145901 -0.00013700128 -0.0026302729 4281697348
-0.033931121 0.0036804527 -0.006504043 4281437249
-0.032020688 0.0038190335 -0.0069323396 4281306433
-0.030110091 0.003957741 -0.007360586 4281044803
-0.027899876 0.0026265383 -0.0064153979 4281305924
-0.025983684 0.0027658641 -0.006844745 4281240644
-0.023912288 0.0021706969 -0.0065885214 4281305924
-0.022150889 0.0030448958 -0.0077032587 4281240644
-0.020234309 0.0031845868 -0.0081324289 4281240644
-0.018317603 0.0033244193 -0.0085615395 4281240644
-0.016235076 0.0027304888 -0.0083074858 4281175363
-0.014147114 0.0021370426 -0.0080545126 4281371203
-0.01222476 0.0022776201 -0.0084846308 4281567298
-0.010128625 0.0016850457 -0.0082333451 4281371714
-0.0074979812 -0.0011062771 -0.0059409514 4281371969
-0.0046669357 -0.0046287924 -0.0029731151 4281828674
-0.0019908696 -0.0074165463 -0.0006906949 4284116789
-0.035145171 -0.0024587736 -0.0031029861 4282413389
-0.033926912 0.0013697967 -0.0069693094 4281241153
-0.032013953 0.0015085489 -0.0073981853 4281306179
-0.029953949 0.00091000646 -0.0071413415 4281175619
-0.027888484 0.00031200051 -0.0068856152 4281305924
-0.025817551 -0.00028558075 -0.0066310167 4281044803
-0.024050914 0.00059109926 -0.0077454103 4281305924
-0.021974374 -5.8189034e-06 -0.0074918717 4281240644
-0.020052608 0.00013422221 -0.0079222284 4281371203
-0.018130723 0.00027439743 -0.0083525181 4281436738
-0.016208727 0.00041470677 -0.0087827379 4281567299
-0.014286611 0.00055513531 -0.0092129009 4281632578
-0.012193576 -3.9979815e-05 -0.0089626797 4281698368
-0.010095105 -0.0006345734 -0.0087135807 4281371968
-0.0074627213 -0.0034344941 -0.0064281821 4281698369
-0.0049877912 -0.0054976121 -0.0048260354 4281827398
-0.0026782937 -0.0068245903 -0.0039052926 4284639284
-0.035006061 -0.0055247843 -0.0028928127 4282349894
-0.033781663 -0.001684919 -0.0067523029 4281502019
-0.031863511 -0.0015458092 -0.0071823578 4281698368
-0.029945217 -0.0014065951 -0.00761237 4281632833
-0.028026782 -0.0012672469 -0.0080423262 4281567554
-0.02610819 -0.0011277869 -0.0084722321 4280979269
-0.024189472 -0.00098819286 -0.0089020766 4281175618
-0.02227062 -0.00084848702 -0.0093318727 4281306689
-0.020351663 -0.00070864707 -0.0097616017 4281306433
-0.0182699 -0.0013071522 -0.0095107276 4281632324
-0.016182721 -0.0019051209 -0.009261027 4281698369
-0.014258094 -0.001764521 -0.0096917599 4281763394
-0.011992075 -0.0030994937 -0.0087650008 4281632578
-0.010235243 -0.0022206157 -0.0098749176 4281567554
-0.0077797435 -0.0042918548 -0.0082734227 4281893953
-0.0054868385 -0.0056244954 -0.0073524043 4282416704
-0.035144717 -0.0071145594 -0.0040573832 4283266619
-0.033778302 -0.004005976 -0.0072251316 4282549813
-0.032001473 -0.003124699 -0.0083388854 4282418233
-0.029936798 -0.0037273243 -0.008086361 4282614839
-0.028314173 -0.0021045953 -0.0098806955 4282876214
-0.026094742 -0.0034481883 -0.0089473836 4283073075
-0.024328001 -0.0025671944 -0.010058537 4283466794
-0.022409283 -0.002427496 -0.010488302 4283791663
-0.020490453 -0.0022876859 -0.010918021 4283856434
-0.018409032 -0.0028884262 -0.010668736 4284185638
-0.016157053 -0.0042290166 -0.0097423121 4284315689
-0.014397703 -0.0033480227 -0.01085132 4284380459
-0.012302671 -0.0039473549 -0.010604857 4284513569
-0.010375336 -0.0038063526 -0.011036038 4284578339
-0.035421632 -0.0079594627 -0.0059044007 4284442679
0.0047496669 -0.022095457 -0.012397358 4283983678
0.0069044568 -0.022702396 -0.012173319 4283918398
0.013017241 -0.030673936 -0.0057798792 4283853374
-0.021508988 -0.022548214 -0.010550724 4284639794
-0.01987619 -0.020893954 -0.01232403 4284181813
-0.018253908 -0.01924035 -0.014094831 4284117044
-0.01615081 -0.01985465 -0.013861934 4283855413
-0.014208734 -0.01971288 -0.014296645 4283855669
-0.012266569 -0.019570962 -0.014731286 4283528249
-0.010324307 -0.019428939 -0.01516586 4282939199
-0.008207541 -0.020041727 -0.014935629 4283070779
-0.0059082769 -0.021408811 -0.014042376 4282221374
-0.0041375533 -0.02051121 -0.015142003 4282090559
-0.0020072721 -0.021122634 -0.014914533 4282025279
0.00012839586 -0.02173353 -0.014688151 4282155074
0.0022694357 -0.022343919 -0.01446289 4282023238
0.0044158548 -0.022953816 -0.01423868 4281893954
0.0063745752 -0.022809558 -0.014676152 4281893954
0.00989905 -0.028692409 -0.0098339338 4282155073
0.013664518 -0.035325237 -0.0043417318 4282480964
0.017075837 -0.040448368 -0.00017763674 4283198278
-0.021027151 -0.027185172 -0.0090555456 4282873663
-0.019700024 -0.024009123 -0.012161342 4282286143
-0.018072188 -0.022350758 -0.013930144 4281959999
-0.016127706 -0.022208937 -0.014365496 4281959744
-0.014183126 -0.02206701 -0.014800793 4281633089
-0.012407362 -0.021167353 -0.015900278 4281567553
-0.010293685 -0.021782704 -0.015671121 4281632834
-0.0083488375 -0.021640353 -0.016106179 4281763138
-0.0062270127 -0.022254884 -0.015878605 4281633343
-0.0044589117 -0.021355256 -0.016976042 4281371458
-0.0023316331 -0.02196914 -0.016749507 4281566278
-0.00019897521 -0.022582427 -0.016524097 4281696838
0.0019390509 -0.023195215 -0.016299808 4281762374
0.0038922504 -0.023051471 -0.016736144 4281500743
0.0060383491 -0.023663409 -0.016513461 4281501508
0.009753976 -0.030319594 -0.011025036 4281697859
0.013517525 -0.036972113 -0.0055471947 4282154309
0.016726481 -0.041355386 -0.0020514466 4282935884
-0.02101307 -0.029557139 -0.0095699746 4282152268
-0.019682668 -0.026372202 -0.012669949 4281630794
-0.018373415 -0.023188651 -0.015765073 4281435463
-0.016431749 -0.02304706 -0.016199807 4281436228
-0.014656037 -0.022145391 -0.017297743 4281306434
-0.012548119 -0.022763461 -0.017069051 4281435973
-0.010263402 -0.024140567 -0.016179329 4281371203
-0.0081420057 -0.024757385 -0.015953446 4281371203
-0.006191913 -0.024614513 -0.016389569 4281370949
-0.0042417534 -0.024471536 -0.016825629 4281305414
-0.0022915266 -0.024328426 -0.017261604 4281370438
-0.00034124404 -0.024185181 -0.017697493 4281239368
0.0014217459 -0.023283437 -0.018791826 4281305159
0.0035594739 -0.023898274 -0.018569006 4281370694
0.0060878992 -0.026028581 -0.017032577 4281501508
0.0096089318 -0.03194645 -0.012215892 4281697094
0.013172584 -0.037861079 -0.0074085845 4281760589
-0.021309797 -0.030407444 -0.011415543 4282152015
-0.019981433 -0.027213961 -0.014508491 4281630794
-0.01851368 -0.024784386 -0.016933715 4281369928
-0.016735375 -0.023880519 -0.018030705 4281240644
-0.014630549 -0.0245011 -0.017803052 4281240644
-0.012520313 -0.025121175 -0.017576514 4281174853
-0.01023348 -0.02650246 -0.01669055 4281371459
-0.0081097707 -0.027121291 -0.016466839 4281436229
-0.0059806705 -0.027739584 -0.016244223 4281370949
-0.0042045116 -0.026835099 -0.017340152 4281108808
-0.0020699613 -0.027452752 -0.017118583 4281174088
-0.00048347935 -0.025787622 -0.018870661 4281239113
0.0016538426 -0.02640482 -0.018649513 4281239368
0.0036067367 -0.026261106 -0.019085774 4281371203
0.0063295364 -0.029157951 -0.016898973 4281436484
0.0094639212 -0.033573017 -0.013406539 4281566023
0.012630273 -0.037985623 -0.0099210953 4281826380
-0.021761142 -0.030487947 -0.013920201 4281955409
-0.020279769 -0.028051063 -0.016343603 4281434699
-0.018814258 -0.025615141 -0.018763406 4281173833
-0.016875558 -0.025473781 -0.019197499 4281174343
-0.014771082 -0.026096553 -0.018971412 4281044039
-0.012661189 -0.026718818 -0.018746434 4281173833
-0.010374893 -0.028104514 -0.017863652 4281305924
-0.0082515478 -0.028725557 -0.017641513 4281305158
-0.0061227903 -0.029346049 -0.017420476 4281239368
-0.0043465942 -0.028439388 -0.018514762 4281173834
-0.0023940206 -0.028296106 -0.018951258 4281108298
-0.00044139475 -0.028152689 -0.019387683 4281107789
0.0015112832 -0.028009161 -0.019824022 4281238604
0.0036536269 -0.028628007 -0.019605527 4281369164
0.0063781515 -0.031533405 -0.017425673 4281369674
0.0093189366 -0.035199255 -0.014596953 4281368908
0.012286354 -0.038862988 -0.011774062 4281888853
-0.021747127 -0.032861263 -0.014435554 4281823573
-0.020420182 -0.029650539 -0.017515047 4281237328
-0.018954262 -0.02720809 -0.019930014 4281369674
-0.017178524 -0.02630008 -0.021023152 4281435208
-0.014911577 -0.027691737 -0.020139562 4281435209
-0.012633886 -0.029082522 -0.019258222 4281238349
-0.010687079 -0.028940186 -0.019693831 4281173323
-0.0087401941 -0.028797731 -0.02012937 4281108043
-0.0066171139 -0.029420823 -0.019908709 4281107534
-0.0048462041 -0.028512388 -0.021000186 4281172814
-0.0027176701 -0.029134825 -0.020780554 4281237838
-0.00058376044 -0.029756725 -0.02056201 4281106514
0.0015555173 -0.030378118 -0.020344591 4280911439
0.0035107434 -0.030234247 -0.020781396 4281694544
0.0060422607 -0.032383874 -0.019260442 4281107023
0.008784499 -0.03529653 -0.017091034 4281302864
-0.021888129 -0.03446918 -0.015613209 4282214999
-0.020560574 -0.031249717 -0.018686255 4281301844
-0.01893425 -0.02956979 -0.020438334 4280976209
-0.017318446 -0.027890541 -0.022187905 4281042763
-0.015052035 -0.029286608 -0.021307485 4281172559
-0.013110794 -0.029144809 -0.021741951 4281302099
-0.010998853 -0.029771157 -0.021520646 4281367123
0.023943178 0.006658271 0.02713589 4285557793
0.026170468 0.0061118752 0.027385522 4285820188
0.029270276 0.002785109 0.03042651 4285885468
0.038296469 0.00060958415 0.031400036 4285361953
0.038955338 0.0049265102 0.026774656 4285493024
0.039814942 0.0085471869 0.022850994 4285689628
0.042060621 0.0080029294 0.023097184 4285885978
0.045502186 0.0039910376 0.02680904 4286016794
0.018738903 0.0081922263 0.023325291 4285295908
0.019695587 0.011830054 0.019387599 4285493023
0.02083688 0.014768228 0.016153626 4285558303
0.023240451 0.013519257 0.017107096 4285492514
0.026087888 0.010876343 0.019451309 4285754653
0.029395165 0.0068406686 0.023182645 4285885978
0.031846695 0.0055955201 0.024125699 4285558813
0.033859644 0.0057449341 0.023676984 4285493533
0.034963489 0.0086809397 0.020451825 4285559069
0.035816029 0.012311861 0.016537968 4285755929
0.037107043 0.014548481 0.014016025 4285623583
0.039323062 0.013999894 0.014267135 4285558049
0.042496063 0.010668457 0.017284166 4285754653
0.047379822 0.0024696738 0.025133509 4285820443
0.017562926 0.010046154 0.018632602 4285361188
0.018298721 0.014394209 0.014009241 4286083858
0.019846834 0.015939936 0.012177501 4285557538
0.022025485 0.015385583 0.012434673 4285557793
0.024642278 0.013432473 0.014080562 4285623584
0.027932256 0.0093824565 0.017805863 4285689374
0.030367251 0.0081317648 0.018749256 4285624349
0.032364078 0.0082799867 0.018304136 4285558558
0.033225529 0.011922397 0.014396492 4285558558
0.034290005 0.014864333 0.011186814 4285887509
0.035565514 0.017106295 0.0086733196 4285886999
0.037765212 0.016554318 0.0089264214 4285755164
0.040921107 0.013210729 0.011939023 4285755164
0.045305569 0.0063800812 0.018393546 4285886489
0.050715506 -0.0032370314 0.027592141 4285689628
0.016594483 0.011219732 0.014651854 4285229608
0.017737091 0.014175355 0.011430735 4285887508
0.019491015 0.015022896 0.010297908 4286018579
0.021666676 0.014466137 0.010554096 4285952279
0.02406387 0.013208076 0.011502462 4285952278
0.026909465 0.01054766 0.013833944 4285821463
0.029111743 0.0099931955 0.014084447 4285624349
0.030870913 0.01084163 0.01295083 4285624348
0.032170966 0.013091832 0.010436645 4285624349
0.033225458 0.016041711 0.0072358456 4285624348
0.03449076 0.018289529 0.0047295503 4285887253
0.036914345 0.017034151 0.0056725778 4285952789
0.040061131 0.013678983 0.0086789615 4285755673
0.044435497 0.0068257302 0.015119269 4285755418
0.049105946 -0.00072321296 0.022235107 4285624349
0.016654372 0.0088872313 0.014154516 4285098029
0.017800305 0.011851825 0.01093925 4285558559
0.019556962 0.01270175 0.009807473 4285623838
0.021308284 0.013551369 0.008676948 4285689373
0.023486283 0.01299271 0.0089310464 4285689629
0.02588827 0.011730745 0.0098751187 4285624094
0.028300911 0.01046966 0.010816952 4285558558
0.030276161 0.010616295 0.01037666 4285624604
0.031571351 0.012872681 0.0078685116 4285624348
0.032850496 0.015127987 0.005364025 4285558559
0.034345619 0.016679347 0.0035513397 4285558558
0.036299352 0.016824812 0.0031161644 4285624094
0.039202362 0.014160678 0.0054288078 4285558304
0.043086614 0.0086893439 0.010482166 4285558558
0.047984086 0.00041323155 0.018269073 4285558814
0.017655339 0.010230973 0.0097529124 4285493534
0.019201579 0.011789665 0.0079315044 4285624349
0.020524003 0.01405409 0.0054218452 4285624093
0.022909489 0.012786448 0.0063662175 4285689629
0.025305636 0.011519656 0.0073083509 4285689629
0.028154708 0.0088421702 0.0096259378 4285624094
0.029906008 0.0096944422 0.0084973555 4285624349
0.031651951 0.010546394 0.0073700938 4285624349
0.032705098 0.013513699 0.0041827746 4285624349
0.03420049 0.015069447 0.0023733322 4285624349
0.036154095 0.01521492 0.0019381996 4285755164
0.038819052 0.013246611 0.0035591386 4285755418
0.042459119 0.0084619597 0.0079155099 4285623838
0.047106288 0.00086331367 0.015000235 4285623584
0.017718012 0.0079014301 0.0092570316 4285493024
0.018636322 0.011591092 0.0053692814 4285690139
0.019740924 0.014570296 0.0021766145 4285886998
0.021686666 0.01471445 0.0017426722 4285952788
0.024505517 0.012025893 0.0040603261 4286018324
0.027566617 0.0086310282 0.0070605762 4285886999
0.029759888 0.008069478 0.0073082224 4285624348
0.031732179 0.0082160085 0.0068686754 4285558558
0.033017602 0.010484852 0.0043727644 4285624348
0.034055367 0.013459854 0.0011955611 4285755419
0.035774577 0.014312312 7.6154247e-05 4285886743
0.038199198 0.013044082 0.0010091644 4285886744
0.041353218 0.0096568689 0.0039892737 4285886744
0.045987427 0.0020332485 0.011058781 4285952023
0.016950635 0.0084124953 0.0060036052 4285426724
0.017651696 0.012823552 0.0014376175 4285821209
0.019171812 0.014389142 -0.00037127547 4285623839
0.020896671 0.015243456 -0.0014908556 4285623584
0.023488514 0.013255954 0.00013588183 4285820698
0.026096344 0.011269704 0.0017591827 4285755673
0.028943546 0.0085747465 0.0040640775 4285689884
0.030907709 0.008720696 0.0036263615 4285558558
0.032414328 0.010285974 0.00182092 4285689629
0.033447426 0.013269365 -0.0013486277 4285886744
0.035395447 0.013414435 -0.0017825048 4285689374
0.037343405 0.013559602 -0.0022162944 4285557539
0.040488329 0.010160789 0.0007576514 4285623584
0.044628084 0.0039296672 0.0064494349 4285689628
0.051752508 -0.010798678 0.020294614 4285689628
0.016184445 0.0089370534 0.00275998 4285426213
0.017088465 0.012647457 -0.0011080783 4286084113
0.018603496 0.014217094 -0.0029125717 4285689628
0.020107869 0.015785985 -0.0047145728 4285558049
0.022473112 0.014503866 -0.0037754942 4285623583
0.025069557 0.012510233 -0.0021546036 4285755418
0.027905174 0.0098057166 0.00014627911 4285689884
0.030084427 0.0092388839 0.00039384887 4285624094
0.031583332 0.010807931 -0.0014065113 4285624094
0.032840304 0.013087906 -0.0038861353 4285952534
0.034315117 0.014655367 -0.005680969 4285952534
0.03625229 0.014799759 -0.0061123371 4285754909
0.0391462 0.012100257 -0.0038239937 4285689373
0.043028846 0.0065591782 0.0011770222 4285689883
0.049643919 -0.0067952573 0.013634641 4285755674
0.015212433 0.010190658 -0.0011591967 4285359658
0.015896944 0.014626615 -0.0057016425 4285821209
0.017611284 0.015484415 -0.0068156552 4285887254
0.019320272 0.016341984 -0.0079284254 4285887508
0.021677004 0.015054837 -0.006990701 4285887508
0.024264719 0.013054073 -0.0053728502 4285755928
0.026868405 0.011054546 -0.0037584379 4285624349
0.02835962 0.012627266 -0.0055538677 4285624349
0.029840117 0.014199361 -0.0073468611 4285558558
0.031309925 0.015770704 -0.0091373548 4285558558
0.033236369 0.015914202 -0.0095664095 4285755929
0.035162751 0.016057789 -0.0099953692 4285821464
0.038045093 0.013348684 -0.0077109877 4285755928
0.041673683 0.0085022971 -0.0033981465 4285624604
0.047538526 -0.0027564466 0.00700064 4285624349
0.014448851 0.010744363 -0.0043814881 4285623583
0.015126415 0.015192874 -0.0089124907 4285689628
0.016832817 0.016052261 -0.010023084 4285558303
0.018748716 0.016194224 -0.01045035 4285558304
0.021099575 0.014902338 -0.0095146596 4285492768
0.023901403 0.012177758 -0.0072195232 4285492768
0.026056048 0.011604652 -0.0069698393 4285558558
0.027539525 0.013181165 -0.0087602418 4285624349
0.029012308 0.014757 -0.010548171 4285624349
0.030705184 0.015616208 -0.0116552 4285624604
0.032626167 0.015759319 -0.012083024 4285558813
0.034783248 0.015186884 -0.011833431 4285492769
0.037184376 0.013899624 -0.010908265 4285426979
0.040803451 0.0090372786 -0.0066048419 4285493279
0.045680437 0.00060282648 0.0010680091 4285427999
0.01389312 0.010591514 -0.0069116866 4285426724
0.014984999 0.013613299 -0.010068579 4285624094
0.016691461 0.014474869 -0.011177536 4285558814
0.018392593 0.015336171 -0.012285212 4285558813
0.020740263 0.014039703 -0.011352094 4285558813
0.023318544 0.01202511 -0.0097419973 4285624604
0.025690148 0.010730639 -0.008814049 4285624604
0.027396511 0.011592783 -0.009922551 4285558304
0.028869554 0.013173006 -0.01170723 4285492004
0.030793125 0.013316184 -0.012135714 4285558559
0.032949917 0.012741521 -0.011887811 4285492769
0.035347924 0.011449568 -0.010965325 4285558814
0.037517909 0.010876089 -0.010720207 4285558814
0.040416978 0.0081509426 -0.0084526418 4285558814
0.044800896 0.0011243671 -0.0021462627 4285493279
0.051950634 -0.013785049 0.011554886 4285493023
0.013957523 0.0082813203 -0.0073934076 4285425958
0.015261825 0.010590054 -0.009864402 4285557539
0.01718545 0.010732464 -0.010293485 4285558559
0.019109065 0.010874987 -0.010722482 4285558558
0.021032669 0.011017635 -0.011151375 4285426468
0.023615537 0.0089969039 -0.0095472774 4285492514
0.02599195 0.0076983944 -0.0086236494 4285557793
0.028153885 0.0071215928 -0.0083788047 4285557794
0.029637828 0.0087070316 -0.010162654 4285558049
0.031571917 0.0088510141 -0.010593464 4285558303
0.033972133 0.0075547248 -0.0096748052 4285558304
0.036382928 0.0062593818 -0.0087584564 4285558304
0.038089082 0.0071242601 -0.0098648211 4285492514
0.040513054 0.005830124 -0.0089512365 4285492514
0.044653777 -0.00049880892 -0.0033337623 4285493024
0.051799197 -0.015454277 0.010333743 4285492768
0.014021557 0.005967021 -0.0078781201 4285491493
0.015537877 0.0075583979 -0.0096664475 4285557539
0.017678265 0.0069772452 -0.0094188722 4285426468
0.0193955 0.0078441054 -0.010526833 4285492513
0.021541193 0.0072635785 -0.010280265 4285426468
0.024131335 0.0052368268 -0.0086826859 4285558049
0.026515197 0.0039345473 -0.0077640666 4285558049
0.028684787 0.0033561513 -0.007522556 4285558304
0.030176995 0.0049465299 -0.0093049044 4285492768
0.032118939 0.0050911158 -0.0097374497 4285558303
0.034293715 0.0045134425 -0.0094968481 4285492514
0.036944866 0.0024919063 -0.0079123406 4285426979
0.03889728 0.0026376098 -0.0083469683 4285426723
0.040849626 0.0027834177 -0.0087814918 4285361444
0.045237295 -0.0042864233 -0.0025089011 4285426723
0.0160219 0.0037918761 -0.008797857 4285623328
0.017958567 0.0039352626 -0.0092298454 4285492003
0.020109262 0.0033528209 -0.0089861276 4285492513
0.022481978 0.0020451397 -0.008068488 4285492258
0.02486534 0.00073832273 -0.0071530854 4285492768
0.02725932 -0.00056754053 -0.0062400028 4285558304
0.02898984 0.00030295551 -0.0073489258 4285558304
0.030714989 0.0011731684 -0.0084565589 4285492513
0.03243475 0.0020431429 -0.0095629422 4285492513
0.034847215 0.00073906779 -0.0086535914 4285426723
0.036799561 0.00088468194 -0.0090882732 4285492259
0.038989857 0.00030621886 -0.0088525815 4285426469
0.040944725 0.00045222789 -0.0092876656 4285229353
0.045332927 -0.0066393241 -0.0030316673 4285164073
0.016087722 0.0014696121 -0.0092891147 4285623328
0.018026907 0.0016131774 -0.0097216601 4285557793
0.020393774 0.00030060858 -0.0088060899 4285558304
0.022771293 -0.0010111183 -0.0078927744 4285492768
0.024940267 -0.0015941262 -0.0076545943 4285492513
0.027114538 -0.0021766499 -0.0074175112 4285492768
0.028845113 -0.0013039708 -0.0085247941 4285492513
0.031024639 -0.0018858537 -0.0082886927 4285558049
0.032749802 -0.0010133386 -0.0093945861 4285492513
0.034934551 -0.0015946031 -0.009159483 4285426723
0.036889423 -0.0014488101 -0.0095947236 4285426468
0.039082043 -0.0020292476 -0.0093611889 4285360934
0.041279927 -0.002609238 -0.0091287084 4285229353
0.045914467 -0.010448255 -0.0022223927 4285164329
0.014622789 -0.0024621934 -0.0080017615 4285556518
0.016569823 -0.0023181662 -0.0084361508 4285623329
0.01851685 -0.0021740273 -0.0088704564 4285623583
0.020677537 -0.0027601048 -0.0086322054 4285689629
0.022843521 -0.0033456385 -0.0083950963 4285623838
0.025014818 -0.003930673 -0.0081590824 4285623584
0.027413065 -0.005244948 -0.0072534867 4285426214
0.029597614 -0.0058287531 -0.0070202462 4285492259
0.031787455 -0.0064120442 -0.0067880973 4285492258
0.033752948 -0.0062656701 -0.0072258636 4285426468
0.035950683 -0.0068481416 -0.0069952942 4285426978
0.03768377 -0.0059726089 -0.0081011206 4285557539
0.039649084 -0.005825907 -0.0085385852 4285426214
0.042094883 -0.0071357861 -0.0076430105 4285229098
0.046980709 -0.015726298 -9.0746209e-05 4285098029
0.016842652 -0.0053859204 -0.0082645454 4285557283
0.019005651 -0.0059741065 -0.0080286041 4285623328
0.020960521 -0.0058292449 -0.0084645525 4285623839
0.023131493 -0.0064165741 -0.0082301944 4285557793
0.025307786 -0.0070034564 -0.0079969019 4285557283
0.028596576 -0.011249423 -0.0044195773 4285557029
0.031020869 -0.012565956 -0.0035230378 4285426214
0.033455782 -0.013881609 -0.0026287176 4285295143
0.035442434 -0.01373367 -0.0030712076 4285229608
0.038125314 -0.015779004 -0.0015136432 4285229098
0.040119842 -0.015630208 -0.001957681 4285229099
0.04258915 -0.016942829 -0.0010706652 4285294379
0.045309108 -0.018985033 0.00047892146 4285163308
-0.0079205669 -0.0058841854 -0.0094393343 4285034278
-0.03377527 -0.0063310713 -0.0077009965 4284968488
-0.031852089 -0.006191656 -0.0081322175 4284902954
-0.030075051 -0.0053081289 -0.0092442632 4285165349
-0.028154217 -0.0051686391 -0.0096747763 4285099304
-0.026081629 -0.0057726353 -0.0094255656 4285099559
-0.024312161 -0.0048893169 -0.010535657 4285165604
-0.022704855 -0.0032630339 -0.012323018 4285230373
-0.020788826 -0.0031234473 -0.012752118 4285230119
-0.018548127 -0.0044693872 -0.011826519 4285295654
-0.016296677 -0.0058143809 -0.010903277 4285295654
-0.014369681 -0.0056736469 -0.011334572 4285361189
-0.012272317 -0.0062749907 -0.011090271 4285296673
-0.010515392 -0.0053917766 -0.012196934 4285230884
-0.0080613494 -0.0074762106 -0.010605019 4285230119
-0.033631779 -0.0094067827 -0.0074993875 4285230373
-0.031703405 -0.0092670098 -0.0079317931 4285361189
-0.029920995 -0.0083809346 -0.0090434011 4285426979
-0.028143778 -0.0074951351 -0.01015377 4285427234
-0.026068851 -0.0081011429 -0.0099067371 4285427234
-0.024142578 -0.0079610497 -0.010338318 4285427233
-0.022216164 -0.0078208297 -0.010769833 4285492769
-0.020449065 -0.0069352984 -0.011877581 4285426978
-0.018363006 -0.0075400397 -0.011632703 4285426978
-0.016271502 -0.0081442371 -0.011388928 4285426978
-0.014341995 -0.0080033243 -0.011820786 4285426978
-0.01224231 -0.0086067021 -0.011578672 4285426979
-0.010309942 -0.0084653348 -0.012010986 4285426724
-0.0078513101 -0.010555968 -0.010425047 4285427234
-0.033488996 -0.01249101 -0.0073039578 4285360934
-0.031555437 -0.012350872 -0.0077375276 4285426468
-0.029913597 -0.010713868 -0.0095264213 4285492513
-0.028133668 -0.0098257065 -0.010635754 4285492513
-0.026056409 -0.010433726 -0.010390901 4285492513
-0.023973711 -0.011041239 -0.010147181 4285492513
-0.021885548 -0.011648282 -0.0099045495 4285492768
-0.019951183 -0.011507377 -0.010337773 4285558304
-0.018016715 -0.01136636 -0.010770936 4285426978
-0.016082112 -0.011225209 -0.011204039 4285361443
-0.014147427 -0.011083931 -0.011637058 4285426978
-0.012042765 -0.011689119 -0.011397708 4285426724
-0.010277756 -0.01080098 -0.012502898 4285426979
-0.0078172013 -0.012897953 -0.010922373 4285426978
-0.03348735 -0.014832713 -0.0077920044 4285360933
-0.031551279 -0.014692411 -0.0082261572 4285426468
-0.029906534 -0.013050854 -0.010012417 4285492258
-0.028123885 -0.012160346 -0.011120728 4285492258
-0.026044309 -0.012770385 -0.010878053 4285492513
-0.023959272 -0.013379961 -0.010636465 4285492768
-0.021556042 -0.015488505 -0.009048705 4285492513
-0.019931924 -0.013847917 -0.010829863 4285558304
-0.017671525 -0.015205458 -0.0099186162 4285492513
-0.015893474 -0.014314577 -0.01102537 4285492513
-0.013953604 -0.014172927 -0.011459556 4285426979
-0.01218332 -0.013282359 -0.012564384 4285426724
-0.010073587 -0.013889246 -0.012327732 4285492514
-0.0079584494 -0.014495611 -0.0120922 4285360933
-0.035149328 -0.018825427 -0.0064957617 4285294634
-0.033626266 -0.016425379 -0.008958702 4285492513
-0.031833224 -0.015532196 -0.010067894 4285492259
-0.030045353 -0.014639221 -0.011175877 4285426468
-0.028114453 -0.014499061 -0.011608695 4285558049
-0.026183411 -0.014358796 -0.012041471 4285426723
-0.02394519 -0.015722729 -0.011128799 4285426724
-0.022008579 -0.015581816 -0.011562637 4285492259
-0.020071846 -0.015440769 -0.011996415 4285426979
-0.017973505 -0.016051158 -0.011759234 4285426978
-0.01603388 -0.015909664 -0.012193476 4285426724
-0.013927341 -0.016519204 -0.011957944 4285361188
-0.012154356 -0.015626289 -0.013061748 4285295653
-0.010214455 -0.0154844 -0.013495759 4285361444
-0.0080996566 -0.016092971 -0.013261803 4285361188
-0.035426006 -0.019668862 -0.0083417324 4285228843
-0.033625089 -0.018773049 -0.0094511332 4285426978
-0.031686656 -0.018632606 -0.0098858448 4285426978
-0.029602699 -0.019246936 -0.0096476348 4285426723
-0.027661301 -0.019106045 -0.010082833 4285361188
-0.025569096 -0.019719563 -0.0098462971 4285361188
-0.023624778 -0.019578226 -0.010281966 4285492514
-0.021836318 -0.018682599 -0.011388043 4285360933
-0.02021173 -0.017033309 -0.013162744 4285426469
