# .PCD v0.7 - Point Cloud Data file format
VERSION 0.7
FIELDS x y z rgba
SIZE 4 4 4 4
TYPE F F F U
COUNT 1 1 1 1
WIDTH 682
HEIGHT 1
VIEWPOINT 0 0 0 1 0 0 0
POINTS 682
DATA ascii
-0.0089022294 -0.0071983337 0.01464474 4290067978
-0.0076900423 -0.00346075 0.010721384 4290393359
-0.011800572 -0.0053822994 0.01040457 4289540894
-0.009349335 -0.0074114203 0.012064448 4289344289
-0.0079842471 -0.0043851808 0.0088465121 4289605664
-0.007601168 0.0029706806 0.0014586505 4287905578
-0.014520679 -0.0042666197 0.0068711396 4288297513
-0.012240868 -0.0055792034 0.0078343842 4289343268
-0.010104883 -0.0061665326 0.0081000291 4290063643
-0.0082780086 -0.0053049177 0.0069750715 4289213218
-0.0072561018 -0.00082334876 0.0023803841 4287381809
-0.014357936 -0.007357493 0.0070891995 4287577138
-0.012832157 -0.0050401539 0.0045764204 4288754219
-0.010858923 -0.0049036592 0.0041484851 4289932319
-0.0087284558 -0.0054935068 0.004413832 4289539873
-0.014046971 -0.01118616 0.0079945028 4287053624
-0.012512755 -0.0088616461 0.0054847617 4288885544
-0.010994442 -0.0065381229 0.0029785465 4288754474
-0.00902123 -0.0064015388 0.0025506876 4289408804
-0.013588302 -0.015759133 0.0095823109 4287380533
-0.012194436 -0.012696087 0.00638384 4288427308
-0.010667693 -0.010365412 0.0038806424 4287642418
-0.0090001114 -0.0087665915 0.0020710509 4288688939
-0.013279606 -0.019615829 0.010467464 4287511858
-0.011725932 -0.017276876 0.0079632401 4287380279
-0.010342021 -0.014205627 0.0047734827 4287118139
-0.0086662211 -0.012601838 0.0029652864 4287183418
-0.0068417378 -0.01173155 0.0018473603 4287512878
-0.013417061 -0.021278001 0.0092775952 4287511349
-0.011711959 -0.019668087 0.0074661411 4287117883
-0.0098636895 -0.018794239 0.0063444786 4286987068
-0.0080206357 -0.017920569 0.0052240025 4286921789
-0.0065008514 -0.015577026 0.0027322508 4287381300
-0.011849154 -0.021325558 0.006279666 4286922045
-0.010000855 -0.020449512 0.0051596239 4286921789
-0.0080015734 -0.020311177 0.0047260672 4287118139
-0.0066375919 -0.017223544 0.0015537404 4287184439
-0.0052948259 -0.014137238 -0.001613874 4287250228
-0.010291319 -0.021364592 0.0032906607 4286987323
-0.0082948692 -0.021226466 0.0028577037 4287183929
-0.0067742728 -0.018869735 0.00037546083 4287118394
-0.0051082708 -0.017253235 -0.0014207363 4287118649
-0.0037808195 -0.014159113 -0.0045784786 4287708463
-0.010887664 -0.020790853 5.9738755e-05 4286726203
-0.0087435357 -0.021395162 0.00031065941 4286856253
-0.00675245 -0.021257311 -0.00012104958 4287118393
-0.0049223937 -0.020377792 -0.0012336522 4287511094
-0.0034252219 -0.018015817 -0.0037058257 4287903284
-0.0021104217 -0.014913678 -0.0068542659 4287314743
-0.0068892352 -0.022905067 -0.0013004616 4287642418
-0.0048981942 -0.022767082 -0.0017320663 4288100144
-0.0035615824 -0.01965481 -0.0048788823 4287510839
-0.0020799153 -0.017287225 -0.0073427558 4287249464
-0.000783097 -0.014177494 -0.010480697 4287249973
-0.0071840994 -0.023806408 -0.0031580329 4287773743
-0.005356662 -0.02292271 -0.0042668469 4287315509
-0.0036979131 -0.021293461 -0.0060516931 4287118903
-0.0022158474 -0.018919289 -0.0085108094 4287183928
-0.00058089197 -0.017291486 -0.010290273 4287184439
0.0012149103 -0.016409487 -0.01139186 4287250228
-0.0041607283 -0.021435961 -0.0085756034 4287119413
-0.0026835948 -0.019055553 -0.011028808 4287184693
-0.00071657822 -0.018918864 -0.011454932 4287380534
0.001079265 -0.018034667 -0.01255491 4287446324
0.0030437596 -0.017897904 -0.012980312 4287119924
-0.0041335411 -0.023819737 -0.0090707578 4286989109
-0.002653338 -0.021432564 -0.011519782 4287184949
-0.00085222721 -0.020545937 -0.012619384 4287446324
0.00094364211 -0.019659549 -0.013717744 4287380534
0.0030817203 -0.020272203 -0.013471358 4287315508
0.0045195706 -0.017887458 -0.015910823 4287250484
-0.00098783895 -0.022172667 -0.013783589 4287904559
0.0011498444 -0.022787675 -0.013538823 4287511349
0.0039871447 -0.026408672 -0.010614374 4287315254
0.0056176074 -0.024767682 -0.012382887 4287054389
-0.00061927363 -0.026061714 -0.012938269 4287184439
0.001526054 -0.026678376 -0.012696777 4287380278
0.0043702759 -0.030309841 -0.0097819054 4287118650
-0.022226926 -0.02136302 0.019203594 4283200064
-0.021171849 -0.016114272 0.013894765 4284638773
-0.022364866 -0.023038939 0.018003723 4282218568
-0.021170575 -0.018506877 0.013400035 4283985973
-0.024127487 -0.027057648 0.019324249 4282281298
-0.022502746 -0.02471453 0.016804064 4281891148
-0.021445405 -0.019434929 0.011517389 4282284104
-0.019722421 -0.017828621 0.0096984748 4282676804
-0.024662841 -0.026528761 0.016043881 4282476883
-0.023045707 -0.024179563 0.013530144 4282021708
-0.021719817 -0.020358235 0.0096381251 4281826380
-0.019999277 -0.018747695 0.0078229196 4281891913
-0.017860133 -0.019346379 0.0080794152 4283853884
-0.024932679 -0.027464539 0.014154127 4282346323
-0.023317795 -0.025108948 0.01164577 4282085969
-0.021856274 -0.022015572 0.0084515642 4281890384
-0.019995328 -0.021139257 0.007328324 4281760334
-0.017996702 -0.021001555 0.0068944748 4281825613
-0.015852425 -0.021601945 0.0071482509 4282219588
-0.023724165 -0.025292449 0.0090763997 4281757783
-0.021992695 -0.023672581 0.0072652269 4281694034
-0.020271737 -0.022053279 0.0054563712 4281694543
-0.01856127 -0.020434603 0.0036499426 4281760843
-0.016425315 -0.021037772 0.0039039031 4281566279
-0.024129752 -0.02546683 0.0065136179 4281625183
-0.022540558 -0.023099735 0.0040205717 4281759568
-0.020407874 -0.023705587 0.0042734295 4281760078
-0.018839691 -0.021339737 0.0017851703 4281564493
-0.016851891 -0.021202721 0.0013537109 4281761098
-0.01501175 -0.020323128 0.00023847446 4282741064
-0.022950303 -0.023258783 0.0014702249 4281495134
-0.02096292 -0.023122035 0.0010386799 4281890894
-0.019117709 -0.022240162 -7.6236203e-05 4281825613
-0.017132711 -0.022103339 -0.00050708652 4281760333
-0.015147574 -0.021966383 -0.00093787163 4282087244
-0.013162315 -0.021829307 -0.0013686009 4282348873
-0.021098431 -0.024767108 -0.00013909116 4281562453
-0.019111056 -0.024630263 -0.00057055429 4281890129
-0.017123546 -0.024493292 -0.0010019653 4281890893
-0.015283354 -0.02360934 -0.0021140054 4281956174
-0.013448384 -0.022725582 -0.0032248646 4282021963
-0.011313021 -0.023335099 -0.0029753521 4282805579
-0.019672532 -0.024026796 -0.0037889592 4282280789
-0.017693158 -0.023890376 -0.0042186044 4281890129
-0.015713651 -0.023753837 -0.0046481863 4281759823
-0.013734017 -0.023617178 -0.0050777122 4281760333
-0.011754278 -0.023480371 -0.0055071712 4281825613
-0.0096191429 -0.024091944 -0.0052591823 4282022728
-0.018117186 -0.02402541 -0.0067473985 4281693523
-0.016143169 -0.023889259 -0.0071758032 4281824848
-0.014169019 -0.023752987 -0.007604152 4281956429
-0.012347192 -0.022865653 -0.0087088495 4281891659
-0.010220375 -0.023480028 -0.0084606297 4282088263
-0.0082458816 -0.023343354 -0.0088887662 4282742084
-0.016425017 -0.024768978 -0.0090209693 4281626714
-0.014453687 -0.024632886 -0.0094486997 4281825104
-0.012482241 -0.024496689 -0.0098763779 4281826634
-0.010510676 -0.024360329 -0.01030397 4282024513
-0.0083814226 -0.024976641 -0.010057829 4281894209
-0.0059262924 -0.027097434 -0.0084666507 4282024258
-0.015036713 -0.023997173 -0.012637459 4281889618
-0.0127693 -0.025372133 -0.011716929 4281825868
-0.010645829 -0.025991097 -0.011471272 4281893444
-0.0083595477 -0.027364537 -0.010554601 4281698369
-0.0059024468 -0.029491842 -0.0089686746 4281762883
-0.0039174184 -0.0293542 -0.0093989344 4282938688
-0.013055973 -0.026242852 -0.013554092 4281953879
-0.01078096 -0.027621537 -0.012638346 4281566024
-0.008495193 -0.028999403 -0.011724805 4281370184
-0.0061986782 -0.030376345 -0.010813535 4281695053
-0.011224769 -0.027732655 -0.015144199 4281237328
-0.0091018789 -0.028355956 -0.014901591 4282216018
-0.035164107 -0.029828683 0.015150586 4282863974
-0.026191946 -0.031332612 -0.020147903 4282733414
-0.0083773918 0.0016506538 0.043919705 4285032493
-0.0064821579 0.0024841353 0.042755686 4285820189
-0.0036478862 -0.00082998723 0.04590743 4285819678
0.00033352152 -0.0089794248 0.054083109 4285885213
-0.012764301 0.00035987049 0.04287108 4285295653
-0.011463385 0.0039714649 0.038830973 4285558814
-0.0095815845 0.0048060939 0.037671387 4285558558
-0.0075504594 0.0049468353 0.037231073 4285558049
-0.005047638 0.0030073598 0.038943365 4285689374
-0.0018892176 -0.0017038882 0.043519922 4285754908
0.0017942749 -0.0084916279 0.050237529 4285558303
-0.015669908 0.0020026639 0.038504995 4285426978
-0.01392936 0.0035359785 0.036627516 4285493278
-0.012199331 0.0050687268 0.034752354 4285755929
-0.010328162 0.0059047863 0.033596665 4285820953
-0.008462172 0.006740585 0.032442182 4285754909
-0.0061303712 0.0054891929 0.033436656 4285755419
-0.0034684129 0.0028476939 0.035859592 4285886488
-0.00013558567 -0.0025733635 0.041137025 4285689373
0.0030750409 -0.007296212 0.045691036 4285492768
-0.022449676 0.002691932 0.035744555 4285754909
-0.020704057 0.0042296872 0.033868991 4285886234
-0.018546533 0.0036698952 0.034149185 4286017558
-0.016526956 0.003809385 0.033711046 4285689374
-0.014653359 0.0046475828 0.032556288 4285624349
-0.012784936 0.0054855272 0.031402729 4285558558
-0.010770224 0.0056249797 0.030965863 4285755674
-0.0089095272 0.0064626411 0.029814081 4285886999
-0.0065835454 0.0052063614 0.030806592 4285755673
-0.0040872805 0.0032532737 0.032510594 4285689883
-0.0014127158 0.00060395151 0.034924306 4285624348
0.0011184998 -0.0013465062 0.036620885 4285624604
0.0043358356 -0.0060842559 0.041162178 4285427489
0.0087818243 -0.015697859 0.050675578 4285427489
-0.026111294 -0.0020721778 0.038295209 4285230119
-0.024874981 0.0022781789 0.033546247 4285493024
-0.023399916 0.0052233338 0.03023901 4285689373
-0.021394145 0.005361639 0.029803691 4285623583
-0.019106951 0.0040976927 0.030800847 4285754908
-0.016952213 0.0035355464 0.031080125 4285689628
-0.014937937 0.0036747232 0.030643174 4285689884
-0.013220761 0.005215317 0.028777255 4285624094
-0.011211518 0.0053543597 0.028341549 4285624094
-0.009202119 0.0054935142 0.027905887 4285624094
-0.0070359446 0.0049327239 0.028183023 4285624094
-0.004386384 0.0022727028 0.03059561 4285624093
-0.0022012703 0.0017133728 0.030868838 4285689884
-0.00017536059 0.0018540993 0.030429909 4285820954
0.0025199242 -0.00080239028 0.032832779 4285820698
0.0060865805 -0.0069530979 0.038780458 4285820444
0.010737311 -0.017294191 0.048973553 4285557539
-0.027547952 0.0032827929 0.029918229 4285427744
-0.025940027 0.0055327043 0.027333679 4285755418
-0.024212781 0.0070778206 0.025468471 4285624093
-0.022082705 0.0065115765 0.025751261 4285689629
-0.019666221 0.0045389831 0.027462238 4285754909
-0.017090451 0.001864396 0.029883852 4285820954
-0.015076302 0.0020035431 0.029446909 4285689884
-0.013358895 0.0035485253 0.02758416 4285624349
-0.011349771 0.0036875382 0.027148461 4285624604
-0.0091867186 0.0031241924 0.027424553 4285624349
-0.0070181787 0.0025612935 0.02769958 4285624349
-0.0046850704 0.0012968034 0.028684041 4285624348
-0.0029883087 0.0028408542 0.026826216 4285755418
-0.00097320229 0.0029808134 0.026389612 4285820698
0.0012091435 0.0024193227 0.026661908 4285754909
0.0042459257 -0.0016485155 0.030474523 4285755164
0.0080047064 -0.008518748 0.037111089 4285952024
0.012167241 -0.016787164 0.045150436 4285623584
-0.02930912 -0.00063867122 0.031310216 4285361444
-0.027944159 0.0030314997 0.027296169 4285362209
-0.026473384 0.0059937909 0.024002733 4285690138
-0.02475391 0.0075427815 0.02214239 4285887253
-0.022632133 0.0069736913 0.022425381 4285886998
-0.0199438 0.0035826564 0.025559461 4285887253
-0.017371561 0.00089903921 0.027975271 4285755673
-0.01536021 0.0010379627 0.027538909 4285624093
-0.013645221 0.0025871173 0.025679974 4285624093
-0.011638891 0.0027258992 0.025244856 4285624348
-0.0094788261 0.0021601245 0.025519954 4285624348
-0.007313285 0.0015948191 0.025793934 4285624350
-0.005301211 0.0017343163 0.025357803 4285689883
-0.0037738346 0.0039863363 0.022796469 4285952278
-0.0019337982 0.0048294589 0.021654347 4285623583
0.00040182844 0.0035610572 0.022635235 4285557793
0.0030874647 0.00088631362 0.025027296 4285623329
0.0064836852 -0.0046004131 0.030239286 4285689374
0.0097477436 -0.0093808249 0.034736499 4285689629
0.013404503 -0.015564553 0.04063566 4285361444
-0.027951311 0.00066367537 0.026821991 4285427489
-0.026741419 0.0050516948 0.022107905 4285493278
-0.025024381 0.006604895 0.020251309 4285624349
-0.022768181 0.0053253546 0.02124534 4285624350
-0.02036104 0.0033388957 0.022948528 4285624094
-0.017794993 0.00064597279 0.025359208 4285624093
-0.015934508 0.001491949 0.0242137 4285689373
-0.014227305 0.0030449703 0.022359623 4285755164
-0.012229111 0.0031831637 0.021926248 4285755674
-0.0097705163 0.0012007505 0.023618707 4285689884
-0.0077640377 0.0013397336 0.023183702 4285623838
-0.0060749426 0.0028919131 0.02133392 4285623838
-0.0047192387 0.0058561713 0.018072763 4285886999
-0.0025643222 0.0052882582 0.01834766 4285952533
-0.00023720786 0.0040148199 0.019327121 4285885978
0.002608981 0.00062485784 0.022419708 4286083604
0.0053098537 -0.00205753 0.024802038 4285820698
0.00820693 -0.0054437369 0.027883759 4285689119
0.010775924 -0.0074174851 0.029553032 4285492513
0.013499986 0.013584092 0.007452175 4285032748
0.014513616 0.017243326 0.0035241917 4285820443
0.016467856 0.017380208 0.0031016208 4285951514
0.020579478 0.0097739622 0.01037184 4285951259
0.026141416 -0.0027543008 0.022520801 4285951258
-0.027571078 -0.0038406327 0.028481489 4285229608
-0.026481453 0.0012719855 0.02306292 4285493024
-0.02475616 0.0028300807 0.021207808 4285493278
-0.022904139 0.0036773235 0.020065514 4285559068
-0.020497691 0.0016841814 0.021763945 4285624603
-0.018502761 0.001821816 0.021331033 4285755419
-0.01679812 0.003378883 0.019480696 4285821208
-0.015104007 0.0049353838 0.017632691 4285952279
-0.012818146 0.0036540031 0.018617412 4285952279
-0.010368261 0.0016643852 0.020306809 4285952278
-0.0080581047 0.00038489699 0.021286426 4285623838
-0.0065300129 0.0026500374 0.018734513 4285623838
-0.0048565753 0.0042056069 0.016891425 4285624094
-0.002865877 0.0043438151 0.016460074 4285755418
-0.00054192916 0.00306575 0.017436972 4285820699
0.0017928071 0.0017885193 0.018411664 4285820954
0.0043102019 -0.00019563735 0.020087002 4285689373
0.0063199662 -5.5663288e-05 0.019651847 4285556773
0.010654557 0.014643222 0.0039105881 4285295908
0.011483688 0.019020259 -0.00070958957 4285624093
0.01266202 0.021982178 -0.0039249547 4285623584
0.0145921 0.022117347 -0.0043423064 4285557793
0.017893761 0.017309651 0.00012469292 4285689374
0.022027256 0.0096808225 0.0073724613 4285754908
0.027225865 -0.0014726073 0.018090567 4285623584
0.032917812 -0.014031105 0.030182375 4285295653
-0.028330792 -0.013493501 0.035546422 4284901168
-0.027063187 -0.0090752915 0.030839143 4285361188
-0.025959086 -0.0039463118 0.025428781 4285492258
-0.024623375 -0.00024504215 0.021445522 4285427233
-0.023040053 0.0020295829 0.018885879 4285493278
-0.021193136 0.0028788 0.017746327 4285624604
-0.019493755 0.0044397712 0.015900286 4285755673
-0.017804895 0.0060001612 0.014056562 4285754909
-0.015978832 0.0068482161 0.012921805 4285558048
-0.013556432 0.0048499331 0.014612252 4285623584
-0.010964829 0.0021415576 0.017004682 4285820699
-0.0086631887 0.00085709244 0.017982831 4285820699
-0.0069843046 0.0024173111 0.016141715 4285623838
-0.0051549077 0.0032661259 0.015006641 4285624348
-0.0030032881 0.0026935339 0.015278967 4285624093
-0.00084624067 0.0021214187 0.015550205 4285624093
0.00080907717 0.0036804378 0.013714524 4285623584
0.0019386187 0.0073689967 0.0097770523 4286736913
0.0060662776 0.014876693 0.0014979951 4285426978
0.0074675307 0.017140575 -0.0010207966 4285427744
0.0088528059 0.019403473 -0.0035361052 4285624604
0.010034367 0.022374272 -0.006745778 4285952279
0.011575457 0.023926213 -0.0085560754 4285689629
0.013492052 0.024060443 -0.0089705102 4285623583
0.016583178 0.019944668 -0.0052078366 4285623839
0.019904781 0.015123077 -0.00075643137 4285820699
0.02366595 0.0088882372 0.0050770398 4285820698
0.028290214 -0.00017429888 0.01367799 4285558559
0.034428887 -0.014185123 0.02712111 4285492769
-0.02809133 -0.017333381 0.036462612 4284966449
-0.026685905 -0.013616584 0.032472149 4285295653
-0.025438469 -0.0091864392 0.027778996 4285426468
-0.024088647 -0.0054732561 0.023800759 4285360678
-0.023039047 -0.00033250451 0.01841375 4285427489
-0.021747526 0.0033768937 0.014448335 4285559069
-0.020340305 0.0063702911 0.011194875 4285756183
-0.018519673 0.0072200224 0.010062829 4285952024
-0.016409177 0.0066417083 0.010341952 4285754908
-0.014142994 0.0053501576 0.011324367 4285820698
-0.011407394 0.0019188076 0.014416037 4286148884
-0.0089560561 -8.3878636e-05 0.016095472 4285886488
-0.0069631971 5.4225326e-05 0.015663462 4285689629
-0.005131077 0.00090540946 0.014529401 4285689629
-0.0033041984 0.0017563403 0.013396563 4285557794
-0.00025657937 0.014279135 0.00020827353 4285622818
0.0008151345 0.017974734 -0.0037084389 4285754654
0.0027446337 0.018109187 -0.0041261651 4285885979
0.0046742037 0.018243775 -0.0045438129 4285689118
0.0064216182 0.01908996 -0.0056588631 4285624349
0.0081637427 0.019935936 -0.0067727342 4285624348
0.0091503561 0.023626141 -0.010670623 4285821208
0.010490775 0.02589266 -0.013171166 4285952789
0.012779679 0.024604462 -0.012192365 4285886999
0.015861552 0.020474836 -0.0084374342 4285952789
0.019173712 0.015637144 -0.0039952975 4285755673
0.021920545 0.012932807 -0.0016414821 4285623838
0.025095876 0.0088100582 0.0020934902 4285558814
0.029953172 -0.00098887086 0.011359913 4285493534
0.03655649 -0.016459495 0.026143959 4285427488
-0.026696067 -0.016022995 0.031970292 4285294379
-0.025182318 -0.013013937 0.028699858 4285229353
-0.023823712 -0.0092891827 0.024727797 4285228843
-0.02276497 -0.0041323826 0.019350102 4285426979
-0.021882709 0.0017385781 0.013275458 4285559323
-0.020900954 0.0068902671 0.0079146307 4285558813
-0.019232947 0.0084579289 0.0060819313 4285755163
-0.017133418 0.0078766197 0.0063617881 4285886488
-0.014578369 0.0051479638 0.0087490473 4285885724
-0.011849161 0.0017051697 0.011833979 4285820189
-0.0092484988 -0.0010201111 0.014211504 4285689119
-0.0072584487 -0.00088223815 0.013780078 4285623328
-0.0060716979 0.0028317571 0.0098461248 4286870533
-0.0026709251 0.013963386 -0.0019207243 4285557029
-0.0021045804 0.019813791 -0.0079258978 4285755163
-0.00071071833 0.022090025 -0.01043367 4285820188
0.0013739914 0.021508902 -0.010149704 4285820699
0.004002206 0.01878655 -0.0077773966 4285886999
0.0059236959 0.01892066 -0.0081932284 4285689883
0.0078452379 0.019054897 -0.0086089857 4285624349
0.0088299774 0.022755958 -0.012498362 4285558558
0.010358188 0.024315789 -0.014299391 4285624094
0.012453884 0.023736089 -0.014017316 4285624093
0.01553183 0.019592993 -0.01027127 4285624093
0.018641822 0.015452251 -0.0065320758 4285558558
0.020981003 0.014163464 -0.0055670971 4285559069
0.022720713 0.01501222 -0.006678191 4285493278
0.0261035 0.010164484 -0.0022624787 4285558814
0.031402178 -0.001087144 0.0083564222 4285427233
0.038054585 -0.016602501 0.023094213 4285427233
-0.025058363 -0.01613491 0.02890609 4285031983
-0.023559812 -0.013118073 0.025645541 4285229354
-0.022355419 -0.0086643547 0.020981325 4285163563
-0.021600347 -0.002056092 0.014213448 4285361189
-0.020609435 0.0031115413 0.0088620093 4285295399
-0.019077707 0.0054026917 0.0063283034 4285558814
-0.016973156 0.0048195124 0.006605437 4285558558
-0.014563486 0.0028004944 0.0082839858 4285558048
-0.01168016 -0.0013711601 0.012061095 4285622309
-0.0055709779 0.015808761 -0.0061387876 4285558814
-0.0043213516 0.018809892 -0.0093443114 4285755418
-0.0030929819 0.0218096 -0.012545113 4285689374
-0.0015381984 0.023375042 -0.014349191 4285557539
0.00088854134 0.021358319 -0.012673521 4285557793
0.0031521767 0.02005899 -0.011696158 4285755164
0.0052447021 0.019476429 -0.011415357 4285755418
0.0071581006 0.019610077 -0.011829361 4285624349
0.0090715513 0.01974386 -0.012243284 4285624349
0.010605339 0.021308467 -0.014042277 4285624348
0.012513526 0.021442093 -0.014454903 4285624349
0.015202507 0.018715873 -0.012101732 4285624349
0.017912857 0.015991263 -0.0097531015 4285624349
0.019641928 0.016841345 -0.010860364 4285689628
0.021162465 0.018405631 -0.012656117 4285820953
0.023495801 0.017112263 -0.011692961 4285951769
0.027508089 0.010107353 -0.0052237045 4285885979
0.033052169 -0.0018907115 0.0060498584 4285951514
0.039328605 -0.016023368 0.019366151 4285885724
0.044412501 -0.025867403 0.028538579 4285885468
-0.024935048 -0.019264452 0.029106257 4284901169
-0.023697887 -0.01479549 0.024444589 4285229608
-0.022083592 -0.012492426 0.02189756 4285229608
-0.021041047 -0.0073059276 0.016546132 4285294888
-0.019894008 -0.0028428286 0.011904286 4285360933
-0.01877882 0.0016181767 0.0072694328 4285558559
-0.01681358 0.0017538443 0.0068430286 4285557794
-0.014548901 0.00044892728 0.0078159776 4285951258
-0.007953126 0.015520252 -0.0082562277 4285426979
-0.0066976696 0.018530451 -0.01145662 4285427743
-0.0052951276 0.020820223 -0.013956726 4285624348
-0.0037375242 0.02239009 -0.015758222 4285886999
-0.0020168424 0.023240648 -0.016862882 4285755418
0.00022754073 0.021935448 -0.015884703 4285820954
0.0026616603 0.019912757 -0.014215415 4285887508
0.0047485195 0.019327573 -0.01393502 4285624348
0.0070251115 0.018024974 -0.012963546 4285558558
0.0089384206 0.018158734 -0.013377443 4285624604
0.010851771 0.018292606 -0.013791274 4285624860
0.012572821 0.019143999 -0.01489543 4285559068
0.014678568 0.018560708 -0.014618695 4285624348
0.016592003 0.018694945 -0.01503228 4285690139
0.018305112 0.019546092 -0.01613448 4285755418
0.019809876 0.021113649 -0.017923525 4285689118
0.021715321 0.021247655 -0.018335139 4285623329
0.025079198 0.016367942 -0.013937954 4285754654
0.029535525 0.0079105496 -0.006116786 4286017049
0.034483239 -0.0019739717 0.003062252 4285819933
0.039938353 -0.013284497 0.013595687 4285688609
0.045916885 -0.026019908 0.025480138 4285229608
-0.023435514 -0.01864361 0.025348483 4285426468
-0.022085067 -0.014886431 0.021402536 4285295399
-0.020622317 -0.011854254 0.018162826 4285294633
-0.01932219 -0.0081003159 0.014227977 4285294888
-0.018048573 -0.0043480843 0.010298965 4285426469
-0.016361069 -0.002765879 0.0084717814 4285753379
-0.0075969435 0.011766225 -0.0073079551 4285426469
-0.0066638216 0.016228743 -0.011892996 4285426979
-0.0055944733 0.019967839 -0.015776969 4285493278
-0.0042101108 0.02226305 -0.018268185 4285690649
-0.0024947226 0.023115426 -0.019370092 4285755929
-8.0037862e-05 0.021084644 -0.017701566 4285690138
0.002350729 0.019055121 -0.016036421 4285689884
0.0046160743 0.017747208 -0.015065856 4285624094
0.0063397177 0.018600605 -0.016169218 4285624094
0.0082448833 0.018733799 -0.01658136 4285624093
0.010150094 0.018867098 -0.016993424 4285689884
0.01224748 0.018280923 -0.016716588 4285624093
0.013960604 0.01913406 -0.017817324 4285624349
0.0156684 0.019986935 -0.01891683 4285624093
0.016970564 0.022277646 -0.021389348 4285886998
0.018662374 0.02312962 -0.022485236 4285820699
0.020759832 0.022544026 -0.022207983 4285623328
0.023695268 0.01908502 -0.01919027 4285623584
0.027079038 0.014191404 -0.014808604 4285624349
0.030713636 0.0085824877 -0.0097507285 4285624603
0.035687909 -0.0013307929 -0.00060003996 4285558814
0.042487554 -0.016980484 0.013999237 4285427743
-0.022086855 -0.017284557 0.020904562 4285163308
-0.020898085 -0.012792379 0.016272994 4285228589
-0.019317288 -0.010478258 0.013743093 4285229354
-0.017896276 -0.0074400157 0.01051913 4285163053
-0.0061344393 0.011751883 -0.010253203 4285426469
-0.0053895414 0.016949706 -0.015516447 4285493534
-0.004170049 0.01997517 -0.018695934 4285493534
-0.0022786669 0.020106807 -0.019105529 4285559068
-3.52934e-05 0.018792741 -0.01813362 4285624348
0.0023974441 0.016756751 -0.016473778 4285624349
0.00412108 0.017612219 -0.017575607 4285689883
0.0056554638 0.019189857 -0.019365225 4285755419
0.0071792305 0.02076681 -0.021152416 4285952534
0.0094495453 0.019455194 -0.020185916 4285952534
0.011538606 0.018866241 -0.019908899 4285821464
0.013438389 0.018999383 -0.020319628 4285624094
0.014943607 0.020575516 -0.022102466 4285624094
0.016238183 0.022872284 -0.024568478 4285755673
0.017516766 0.025168009 -0.027030906 4285886998
0.020011161 0.02313754 -0.025383584 4285886999
0.022521574 0.021108262 -0.023739595 4285887254
0.025890544 0.016198263 -0.019366125 4285755929
0.028656926 0.013451934 -0.017048538 4285493279
0.033388436 0.0042261183 -0.0085968282 4285493279
0.039938472 -0.010754168 0.0052919835 4285493279
0.047264464 -0.027885601 0.021199448 4285361698
-0.020896558 -0.015181199 0.015780998 4285163053
-0.01945379 -0.012132764 0.012558637 4285098028
-0.017744657 -0.010540418 0.010733133 4285163309
-0.0049460791 0.0043541342 -0.0058600288 4285228843
-0.0048497841 0.012471713 -0.013880351 4285492514
-0.0039598979 0.016957745 -0.018436374 4285427489
-0.0025826283 0.019265719 -0.020916272 4285427998
-0.00034242496 0.017946981 -0.019946884 4285559069
0.0020869449 0.015904151 -0.018291188 4285624349
0.0036268458 0.017486446 -0.020078843 4285690139
0.0049723499 0.019792661 -0.022551531 4285820699
0.0064883493 0.021373481 -0.024333792 4285755163
0.0085610338 0.020781048 -0.024054954 4285820699
0.010830879 0.019465074 -0.023091467 4285952789
0.012916971 0.018873826 -0.022815343 4285689884
0.014614195 0.019730344 -0.023909325 4285558558
0.015706737 0.022757009 -0.027053921 4285624094
0.017587751 0.022889189 -0.027460331 4285624094
0.019878998 0.021575324 -0.026501097 4285689884
0.022596495 0.018816546 -0.024179598 4285624348
0.025335321 0.016059369 -0.02186263 4285558814
0.028095476 0.013303801 -0.01955018 4285493278
0.03238748 0.0054935813 -0.012478827 4285427488
0.039141208 -0.010256 0.0020590387 4285427488
0.04667566 -0.028162986 0.018609667 4285295398
-0.01959024 -0.013786964 0.011374379 4285098029
-0.0042553842 -0.0008943826 -0.0035615694 4285228844
-0.003976278 0.006520465 -0.010878047 4285228844
-0.0035801791 0.013204008 -0.017494194 4285360679
-0.0023674145 0.016246669 -0.020659182 4285493279
-0.00082474947 0.017833307 -0.022444377 4285559069
0.0012420937 0.017237775 -0.022166185 4285559068
0.0025906265 0.019550681 -0.024634745 4285821209
0.0042903982 0.020408995 -0.025728088 4285623839
0.0059848689 0.021267027 -0.026820214 4285557794
0.0080518983 0.020672038 -0.026541751 4285557794
0.010315884 0.019351289 -0.025580287 4285689373
0.01239631 0.01875744 -0.025304569 4285755418
0.014285162 0.018889949 -0.025712842 4285558558
0.01597444 0.019748218 -0.026803402 4285624604
0.017860647 0.019880764 -0.027210936 4285624603
0.020566586 0.017112248 -0.02489352 4285624604
0.023293866 0.014345363 -0.022580622 4285559069
0.026042473 0.011580102 -0.020272246 4285558814
0.028599475 0.0095411688 -0.018647863 4285624603
0.032681674 0.0024317056 -0.012274498 4285426978
0.03921818 -0.012641691 0.0015491322 4285492769
0.046529513 -0.029879555 0.017381983 4285295144
-0.017730255 -0.015303262 0.0097570121 4284966449
-0.015587647 -0.015897162 0.010016112 4285818404
-0.0035664812 -0.0061646551 -0.0012786891 4285163308
-0.0029375404 -0.00018702447 -0.0072068181 4285163308
-0.0026913323 0.0072475821 -0.014499892 4285294633
-0.0021529123 0.013219148 -0.020408235 4285624603
-0.0011308827 0.016999193 -0.024249315 4285559069
0.00057682022 0.017860003 -0.025342934 4285559068
0.0020985082 0.019449733 -0.027120145 4285755928
0.0037929751 0.020309918 -0.028210755 4285887254
0.0052960925 0.02189859 -0.029983778 4285689374
0.0071660466 0.022029407 -0.030388234 4285689373
0.0096102655 0.019975021 -0.028745044 4285755419
0.01187643 0.018650159 -0.027787203 4285690138
0.014153291 0.017326161 -0.026831595 4285624349
0.016042013 0.017458759 -0.02723976 4285559069
0.01833491 0.016136087 -0.026287392 4285558814
0.020843219 0.014086805 -0.024657609 4285559068
0.023989763 0.009856835 -0.020994058 4285558304
0.026748151 0.0070834681 -0.01869428 4285294378
0.029527858 0.0043117329 -0.016399002 4285228844
0.033190534 -0.0013653263 -0.011398951 4285228844
0.039512888 -0.01575806 0.0017131008 4285228843
-0.0038666762 -0.0070616901 -0.0031316485 4285163308
-0.002737429 -0.0032636076 -0.0069881361 4285229099
-0.0018046536 0.0012649447 -0.011524351 4285294634
-0.0012488887 0.0072552487 -0.017423445 4285360678
-0.00073573738 0.013242729 -0.02331328 4285426468
9.0580434e-05 0.017764173 -0.027826136 4285426979
0.0012460537 0.020820752 -0.030965511 4285558813
0.0031131171 0.020951137 -0.031369511 4285756183
0.0047943443 0.02181264 -0.032455526 4285821718
0.0068473779 0.021212243 -0.032177299 4285756183
0.0090969987 0.019881718 -0.031219214 4285624603
0.011745095 0.017091095 -0.028902613 4285558813
0.014021438 0.015762687 -0.027950125 4285558813
0.016308472 0.014435083 -0.026999824 4285558814
0.019009963 0.011648573 -0.024694499 4285558813
0.021732796 0.0088637024 -0.022393687 4285492514
0.024684183 0.0053509176 -0.019419929 4285426214
0.027452346 0.0025694817 -0.017128726 4285360424
0.030241815 -0.00021030009 -0.01484208 4285228843
0.034128752 -0.0066332817 -0.0091811484 4285228844
0.039806843 -0.018882915 0.0018709302 4285228844
-0.0027050413 -0.0056140944 -0.0074601201 4285228843
-0.00092014298 -0.0047439039 -0.0085675018 4285294889
-0.00017469749 0.00053103268 -0.013774062 4285426724
0.00018342212 0.0072714388 -0.02033807 4285360424
0.00049360096 0.014008589 -0.026891634 4285492258
0.0011165813 0.019275308 -0.032071371 4285493278
0.0026174299 0.020872541 -0.033837534 4285559069
0.0046647713 0.020269386 -0.03355974 4285492768
0.0067174733 0.019666769 -0.03328307 4285493023
0.00896658 0.018331811 -0.032328106 4285493023
0.01161379 0.015532352 -0.030017804 4285558813
0.014282361 0.012734517 -0.027712014 4285493023
0.016972277 0.0099382997 -0.025410749 4285690393
0.019683547 0.0071437061 -0.023114013 4285624604
0.022416156 0.0043507293 -0.020821797 4285360678
0.024963047 0.0022911653 -0.019210013 4285360679
0.027525943 0.00023278594 -0.017601566 4285229353
0.030529566 -0.0032870471 -0.014647013 4285294889
0.034635037 -0.01046066 -0.0083272336 4285229099
0.040100083 -0.022016317 0.0020227134 4285163309
-0.0010549016 -0.0063595921 -0.0097237853 4285491749
0.00020822883 -0.00327833 -0.012873786 4285426214
0.0011004172 0.0012739077 -0.017381562 4285294888
0.0014281124 0.0080320388 -0.023924343 4285228588
0.0017078668 0.014786944 -0.030456658 4285360934
0.0030367598 0.017124914 -0.032901458 4285361699
0.0047207363 0.017990991 -0.033984832 4285427743
0.0073403306 0.015180588 -0.031675205 4285427233
0.0095995851 0.013841949 -0.03072568 4285493279
0.012256578 0.011034407 -0.028423954 4285492768
0.014738746 0.0089631602 -0.02680338 4285492004
0.017634623 0.0054241717 -0.023834089 4285492258
0.020154137 0.0033558309 -0.022221448 4285492259
0.022689667 0.0012886971 -0.020612122 4285229354
0.025034335 -4.3213367e-05 -0.019680524 4285294889
0.027808703 -0.0028417706 -0.017403619 4285295399
0.031028772 -0.0071058497 -0.013784858 4285164074
0.035569921 -0.015767723 -0.0061374009 4285032493
0.00041808933 -0.0063620359 -0.012663062 4285229099
0.001665879 -0.0032729581 -0.015803186 4285229099
0.0023604259 0.0020293295 -0.020975845 4285228843
0.0026576966 0.0088052079 -0.027497368 4285228588
0.0034550168 0.013364367 -0.031974621 4285360679
0.0053323582 0.013495564 -0.032380782 4285295398
0.0079617202 0.010677107 -0.030079789 4285492768
0.010421801 0.0085974783 -0.028459478 4285426213
0.012897905 0.0065191016 -0.026842531 4285360679
0.015390024 0.0044420138 -0.025229005 4285426468
0.0182955 0.00089268386 -0.022269847 4285492003
0.020422317 0.00029148906 -0.022011975 4285360933
0.022962458 -0.0017818511 -0.020408554 4285360679
0.025725275 -0.0045901239 -0.018135717 4285163819
0.028718736 -0.0081327409 -0.015195253 4285163563
0.032586854 -0.014616385 -0.0095740594 4285032493
0.036717609 -0.021832108 -0.0032921284 4284966448
0.0018809661 -0.0063560307 -0.015593311 4285228843
0.0029362701 -0.0025187358 -0.019401053 4285228844
0.0032457188 0.0042777136 -0.025910661 4285228844
0.0042371415 0.0081108212 -0.029704381 4285360678
0.005942516 0.0089828148 -0.030789196 4285295144
0.0085816644 0.0061562061 -0.028496759 4285295143
0.011051711 0.0040707216 -0.026883444 4285229099
0.013537772 0.0019864514 -0.025273519 4285229354
0.015844043 0.00064256787 -0.024340464 4285294889
0.018557947 -0.002178289 -0.022063809 4285294889
0.021092057 -0.004258804 -0.02046399 4285229098
0.023845963 -0.0070765689 -0.018195847 4285229099
0.027240649 -0.012107797 -0.013918664 4285228843
0.003333699 -0.0063415021 -0.018514639 4285163053
0.0038322955 -0.00026712567 -0.024336359 4285359914
0.0048351586 0.003577739 -0.028124468 4285294634
0.0065512396 0.0044526756 -0.029209984 4285294889
0.0086372904 0.0038435683 -0.02894696 4285294889
0.011109278 0.0017516539 -0.027338974 4285295144
0.013404343 0.00040242076 -0.026406793 4285228843
0.016492587 -0.0039111003 -0.022789283 4285229099
0.019216269 -0.006740056 -0.020521229 4285294889
0.022564154 -0.011790141 -0.016245499 4285229098
0.025745763 -0.016096786 -0.012647856 4285163053
0.0040585361 -0.0033399835 -0.02412202 4285228843
0.0052496083 -0.00022819638 -0.027230192 4285425959
0.0067889579 0.0013937056 -0.028988387 4285295399
0.0088799968 0.00078279525 -0.028728103 4285360933
0.011736829 -0.0028031841 -0.025783038 4285360679
0.014620349 -0.0063871592 -0.022843642 4285098028
0.017921438 -0.011456169 -0.018569265 4285031983
0.0054810718 -0.0033004656 -0.027016735 4285491494
0.0072105452 -0.0024202019 -0.028101908 4285295399
0.009683758 -0.0045253634 -0.02650396 4285360679
0.013122611 -0.010359742 -0.021559961 4285229609
0.016411547 -0.015445039 -0.017294422 4285032493
0.020128343 -0.022019058 -0.011699371 4284966704
0.0060752928 -0.0078789517 -0.025469314 4285425704
0.0079998747 -0.0077444613 -0.025885697 4285360424
0.011421051 -0.013597682 -0.020950947 4285360679
0.014884919 -0.019447841 -0.016025294 4285229864
0.01858387 -0.026042953 -0.01044104 4285098284
