# .PCD v0.7 - Point Cloud Data file format
VERSION 0.7
FIELDS x y z rgba
SIZE 4 4 4 4
TYPE F F F U
COUNT 1 1 1 1
WIDTH 599
HEIGHT 1
VIEWPOINT 0 0 0 1 0 0 0
POINTS 599
DATA ascii
0.02147349 -0.007648252 0.051393822 4288749629
0.025139745 -0.013024352 0.056545272 4288292414
0.015235309 -0.0027773082 0.044088911 4286724675
0.016161632 0.0015580803 0.039331593 4289342758
0.018602591 0.00032997131 0.040241461 4290128414
0.02222994 -0.0050668418 0.045389414 4289799463
0.026694179 -0.013239071 0.053351484 4289799209
0.012077328 -0.0011817589 0.03982636 4288229173
0.013570651 0.0010736361 0.03719927 4289603368
0.015048187 0.0033279508 0.034576088 4289539109
0.017282266 0.0027916804 0.034780253 4289277224
0.020304691 -0.00053267181 0.037803926 4289146154
0.024147272 -0.0066425949 0.043639306 4289472553
0.02783663 -0.012051895 0.048759148 4288752689
0.031364787 -0.016761169 0.053165346 4289013808
0.008948382 0.00043852627 0.035573285 4288753964
0.010436755 0.0027000457 0.03295216 4289408038
0.012096945 0.0042604059 0.031040583 4289866019
0.013746645 0.0058200508 0.029131673 4290650908
0.015964482 0.0052802712 0.029338177 4289669924
0.018774312 0.0026429147 0.031654283 4289735203
0.022001784 -0.0013909489 0.035371151 4290454813
0.025462005 -0.0061211661 0.039782595 4290062114
0.028145481 -0.0080533177 0.041378308 4289080108
0.031257212 -0.011381194 0.044372212 4288883504
0.034604318 -0.015405171 0.048060082 4288098359
0.0047719516 0.006300576 0.027094062 4288491569
0.0080601573 0.001540646 0.031535767 4288818988
0.009723153 0.0031054914 0.029626653 4289538853
0.011375677 0.0046696737 0.027720172 4289931553
0.012827683 0.0069350824 0.025113054 4289997344
0.015034582 0.0063922182 0.025320604 4289670179
0.017832842 0.0037451237 0.027633034 4290193438
0.020652395 0.0010998249 0.029940307 4290127648
0.023493245 -0.0015436709 0.032242429 4289604389
0.0255423 -0.0013815463 0.03173909 4289276714
0.028003266 -0.0026207864 0.032634635 4289210924
0.031309202 -0.0066612065 0.036322776 4289341229
0.035491902 -0.013500288 0.042795692 4289340719
6.5941364e-05 0.0064168274 0.024768982 4288621874
0.0015416369 0.0086901709 0.022160456 4289995813
0.0037184358 0.008142136 0.022373416 4290323488
0.0073555373 0.0019559115 0.028214805 4290324254
0.0091953613 0.0028199553 0.027013849 4289670178
0.010655712 0.0050924793 0.024409462 4289997344
0.012290064 0.0066597238 0.022510767 4289277734
0.014491323 0.0061141476 0.022718098 4289277734
0.017088193 0.0041615888 0.024325054 4289800993
0.01950331 0.0029139295 0.025228396 4289539108
0.022129521 0.00096389651 0.026828308 4289669668
0.023756411 0.002531074 0.0249319 4289538853
0.025578491 0.0033945516 0.023736 4290585373
0.028228775 0.0014467761 0.025330249 4290192673
0.032372132 -0.0054174364 0.031796526 4290061093
0.037209556 -0.014384314 0.040337589 4290256934
0.041034378 -0.019835003 0.045385569 4290780194
-0.0014114603 0.0017511696 0.026887551 4289080618
-0.0011328198 0.0089862421 0.019350536 4289800483
0.0026670508 0.010006152 0.01766875 4289931554
0.0064705573 0.0030918717 0.024201348 4290978584
0.00866846 0.0025435239 0.02440758 4289997343
0.010497887 0.0034089908 0.023210905 4289932064
0.012132529 0.0049806312 0.021315385 4289474084
0.014525693 0.0037266091 0.02222069 4289277734
0.016929556 0.0024735704 0.023123406 4289800993
0.018949006 0.0026330873 0.022627134 4289604899
0.020968553 0.0027927533 0.022130936 4289670179
0.022582475 0.0043632612 0.020240951 4290062369
0.024391364 0.005227901 0.019049916 4289735203
0.026819482 0.0039773509 0.019947097 4288688684
0.030312279 -0.00079599768 0.024316601 4288622894
0.034482628 -0.007679984 0.030760109 4289210923
0.038273804 -0.013150901 0.035803273 4288556338
0.042326204 -0.019322492 0.041529149 4288229428
-0.0059303753 0.0011710152 0.02527089 4286856254
-0.0042568333 0.0027491972 0.023368374 4288492588
-0.0027645752 0.0050367638 0.020765338 4289801249
-0.001461532 0.0080330521 0.0174638 4290389788
0.00017272681 0.0096084774 0.015571196 4289277734
0.0025117509 0.008345224 0.016486138 4289081384
0.0055872835 0.0042458549 0.020200729 4289931808
0.0079583339 0.0029853806 0.021107912 4290455323
0.0099666379 0.0031435564 0.020614039 4289408548
0.01178566 0.0040104911 0.019421622 4289474084
0.01398357 0.0034602657 0.019626457 4289277989
0.016186897 0.002910547 0.019830093 4289670690
0.018395599 0.0023614243 0.020032454 4289408548
0.020209711 0.0032284036 0.018841568 4289343269
0.021815944 0.0048027411 0.016956687 4290586139
0.023206361 0.0070837438 0.014379773 4289931808
0.02562068 0.0058276728 0.01527714 4289015849
0.028677437 0.0024516657 0.018252119 4288688683
0.032400496 -0.0030424222 0.023298915 4289408038
0.035734214 -0.007119894 0.026951175 4289343014
0.040192507 -0.014726415 0.034052923 4288687918
0.044487968 -0.021622084 0.040449709 4288556848
-0.0036027841 0.0062166229 0.016770247 4289804054
-0.0021363758 0.0085088387 0.014178524 4290520859
-0.00033381954 0.0093761161 0.012991361 4290389788
0.0018207543 0.0088197067 0.013204802 4290324509
0.0047057159 0.005417861 0.016212922 4290716953
0.0072495341 0.0034407899 0.017817948 4289866528
0.0094362833 0.0028872415 0.018023718 4289670434
0.011060871 0.0044668391 0.016137138 4289932064
0.013058651 0.0046243817 0.015646003 4289801249
0.015251029 0.0040715858 0.015850689 4289343013
0.017843056 0.0020989105 0.017444223 4289277733
0.019452158 0.0036777183 0.015561849 4289212454
0.021050718 0.0052558184 0.013682086 4290128158
0.022228602 0.0082523748 0.010418823 4290128414
0.024631746 0.0069910437 0.011315605 4289932063
0.027466333 0.0043122843 0.01359353 4289800993
0.031174328 -0.0012005791 0.018631008 4289604644
0.034924753 -0.0067099258 0.023658108 4288950058
0.03937266 -0.014341503 0.030744549 4288950058
0.043878894 -0.021968253 0.037816729 4288425778
-0.0024637394 0.0075695589 0.012301663 4289409824
-0.0006637536 0.0084387809 0.011116741 4289539618
0.0016662069 0.0071660206 0.012027329 4289408548
0.0045499988 0.0037530884 0.01502759 4289604643
0.006909363 0.0024828613 0.015931107 4289735714
0.0087204538 0.0033534095 0.014743783 4289866528
0.0099594221 0.0063629076 0.011471445 4289997344
0.011752196 0.0072322562 0.010288795 4291044119
0.013928317 0.0066760033 0.010495795 4290782488
0.016700622 0.0039829314 0.012782071 4290913303
0.018695895 0.004140608 0.012291795 4289735713
0.020489018 0.0050104484 0.011109402 4289408548
0.021867156 0.0073036402 0.0085452627 4289343523
0.024267111 0.0060376078 0.0094396155 4288950823
0.027098063 0.0033497587 0.011711916 4289146919
0.030588755 -0.0014698207 0.016047839 4288884524
0.034547552 -0.007708326 0.021752644 4288295474
0.038990356 -0.015364476 0.028822441 4287313979
0.043712258 -0.023726381 0.036565598 4287117884
0.0016898885 0.0047965273 0.011546532 4290261779
0.0042135082 0.0028045252 0.013146644 4289866783
0.0063861944 0.0022453219 0.013352508 4289997854
0.0080059506 0.00383313 0.011473561 4289801759
0.0090488903 0.0075661168 0.0075156335 4289604898
0.010831114 0.0084368512 0.0063371453 4289735969
0.012996305 0.0078774765 0.0065452363 4289931808
0.016150463 0.0037453696 0.010211667 4290455323
0.018140297 0.0039026216 0.0097227264 4289735713
0.019928191 0.0047742203 0.0085432287 4289474084
0.021506187 0.0063595995 0.0066751186 4289343014
0.024110239 0.0043751001 0.0082563087 4289080873
0.027150186 0.00096475333 0.011210987 4288884778
0.030641917 -0.0038701072 0.015535276 4287903539
0.034816615 -0.010841578 0.021912679 4287183673
0.039044335 -0.017808668 0.028277114 4286725438
0.043325096 -0.0247714 0.034628645 4286267458
0.0035162494 0.0032969788 0.0098805353 4290784529
0.0054973736 0.0034528151 0.0093931947 4289867804
0.007292714 0.0043264925 0.0082129706 4289867038
0.0085171685 0.0073523894 0.0049571898 4290521878
0.010102965 0.0089421347 0.0030900035 4289277989
0.012647573 0.0069457963 0.0046804454 4289016104
0.01560118 0.0035170466 0.0076477528 4289277734
0.017784748 0.0029571652 0.0078498777 4289800994
0.019973677 0.0023978427 0.0080507081 4289212199
0.022167969 0.001839079 0.0082503203 4289211944
0.024781853 -0.00015124679 0.0098242108 4288819498
0.02783121 -0.0035718158 0.012768449 4287445558
0.031119527 -0.0077057704 0.016392693 4287053114
0.034869805 -0.013267905 0.021380823 4286660414
0.038662523 -0.018826552 0.026358631 4286333249
0.0063950717 0.0055533573 0.0042706858 4289804308
0.0079863407 0.0071477965 0.00240531 4290520603
0.0097581111 0.0080220625 0.0012326222 4290193184
0.012105655 0.0067380816 0.0021296293 4289538854
0.015052792 0.003297843 0.0050904024 4290520604
0.017628606 0.0012975484 0.006668495 4289997344
0.020018771 1.733005e-05 0.0075552445 4289211944
0.022623878 -0.0019804016 0.0091263223 4288165424
0.025658738 -0.0054132193 0.012065897 4287576374
0.0285106 -0.0081258044 0.014313517 4286987579
0.031808112 -0.012272209 0.017925747 4286594878
0.035352312 -0.017133586 0.02221445 4286333249
0.0074563809 0.0069523826 -0.00014011376 4290783253
0.0092229284 0.0078283772 -0.0013098465 4289146663
0.011564605 0.0065395907 -0.00041470118 4289146408
0.014505271 0.0030877814 0.0025395546 4289735713
0.017671246 -0.0010828301 0.0061738733 4289343013
0.020667691 -0.0045299307 0.0091145653 4288819498
0.023690697 -0.0079748109 0.012048824 4287903794
0.02653357 -0.010697015 0.01429205 4287249208
0.029397702 -0.0134174 0.016530156 4286856253
0.032495067 -0.016856022 0.019446429 4286529088
0.035618968 -0.020292409 0.022356275 4286332484
0.00926039 0.0054720938 -0.0017850548 4290718228
0.011797406 0.0034553185 -0.0002073627 4289604899
0.014938056 -0.00073061138 0.0034233201 4289408549
0.017912041 -0.0041906014 0.0063612964 4288034863
0.020912599 -0.0076483563 0.009292854 4288557868
0.023735877 -0.010381028 0.011534292 4287118394
0.026786909 -0.013834529 0.014453631 4286856509
0.029655343 -0.016563401 0.016684148 4286528833
0.015565321 -0.0052877218 0.0049819332 4288036393
0.018548716 -0.0087579563 0.0079094674 4287315509
0.021357704 -0.011500664 0.010147829 4288034354
0.023780696 -0.012791343 0.011016842 4287183418
0.026626896 -0.015530847 0.013246242 4286921789
0.018589411 -0.011159457 0.00739979 4287119159
0.021199293 -0.013183318 0.0089500733 4287249208
0.023621712 -0.014478453 0.0098159611 4286921788
0.026879067 -0.018681057 0.01339886 4286790974
0.029959543 -0.022154085 0.016294796 4286529089
0.018431809 -0.012835167 0.0062069446 4286791483
0.02104092 -0.014865689 0.0077525228 4287314233
0.023869198 -0.017624311 0.009973228 4287445049
0.026924577 -0.021110423 0.012867086 4286464064
0.017681152 -0.012314141 0.0029783025 4286856763
0.020682242 -0.01581578 0.0058771893 4287183929
0.023912873 -0.020046927 0.0094470195 4287445304
0.015135463 -0.012671284 0.00092638284 4286596153
0.01996623 -0.017701708 0.0021366142 4282674508
0.023391362 -0.022695996 0.006363187 4282413388
0.01225419 -0.013938002 -0.0029778136 4284638774
0.014434088 -0.01452031 -0.0027912585 4283328583
0.01701352 -0.016579606 -0.0012580305 4282413388
0.019608919 -0.018637545 0.00027142093 4282282574
0.022827405 -0.022909142 0.0038149804 4282477903
0.011715606 -0.014111541 -0.0055044098 4283133763
0.013889845 -0.014696509 -0.0053180968 4282478413
0.016660083 -0.017503895 -0.003115844 4282347598
0.019451577 -0.020309456 -0.00091869757 4282216528
0.022062156 -0.022372656 0.00060223415 4282346579
0.0088259615 -0.012943953 -0.0088845566 4283200063
0.011369269 -0.015019566 -0.0073523438 4282283083
0.013734519 -0.016350359 -0.0064954646 4282085969
0.016110446 -0.017680235 -0.005641073 4282150738
0.018696338 -0.019752033 -0.0041190833 4282019158
0.021500144 -0.022565283 -0.001931373 4282214999
0.0041845553 -0.012657128 -0.011102911 4284115258
0.0063313395 -0.013249047 -0.010913391 4282612544
0.0084834993 -0.0138404 -0.010725096 4281956939
0.011023384 -0.015922882 -0.0091969296 4281955409
0.013191614 -0.016512714 -0.0090123862 4282020434
0.015561666 -0.017847396 -0.0081598423 4282346069
0.018141493 -0.019926317 -0.0066411979 4281952093
0.0017101802 -0.012949027 -0.013128209 4284049979
0.0038485564 -0.013543941 -0.012938361 4282741828
0.0063636601 -0.015635215 -0.011409156 4282022729
0.0087064318 -0.016976833 -0.01055339 4281825103
0.011059869 -0.018317483 -0.0097002089 4281889874
0.01323038 -0.018909343 -0.0095178597 4282020434
0.015013758 -0.018005438 -0.01067207 4282214999
-0.0030517839 -0.011880882 -0.016012367 4284507958
-0.00092984736 -0.012479566 -0.015820228 4283724088
0.0015578158 -0.014579765 -0.01428936 4282414663
0.0036958344 -0.015176915 -0.014101047 4282218313
0.0062101707 -0.01727479 -0.012576513 4281956174
0.0085523762 -0.018620886 -0.011723876 4281954643
0.010905232 -0.019965954 -0.010873798 4282084949
0.012881983 -0.019810028 -0.011359733 4282083419
-0.0033776499 -0.01274877 -0.017836809 4283398198
-0.0012587346 -0.013349853 -0.017645601 4282417213
0.0014054887 -0.016210206 -0.015450306 4282087753
0.0033605359 -0.016056515 -0.015931301 4282021964
0.0058714524 -0.01816126 -0.014410801 4282020688
0.0080225319 -0.018759303 -0.014227133 4282215764
0.01036955 -0.020109273 -0.013378821 4282213979
-0.0079187043 -0.012403227 -0.020042285 4284705584
-0.0058135875 -0.013007879 -0.019849446 4282090813
-0.0037030689 -0.01361195 -0.019657891 4281827144
-0.0012329221 -0.015726857 -0.018132519 4281759823
0.0012531988 -0.017840333 -0.016611025 4281823828
0.0033904947 -0.018441923 -0.016425785 4282019923
0.0055331923 -0.019042991 -0.016241726 4281823318
-0.010001708 -0.014166653 -0.02071432 4284573749
-0.0078997277 -0.014773883 -0.020522434 4283073074
-0.0059639327 -0.014622211 -0.020999063 4281697604
-0.0038537718 -0.015228502 -0.020809043 4281760078
-0.0017382093 -0.015834227 -0.020620253 4281824338
0.00074185431 -0.017954804 -0.0191021 4282019668
0.0028734989 -0.018559046 -0.018917099 4282215508
-0.0098192729 -0.0173003 -0.020528223 4282943278
-0.0078811236 -0.017148592 -0.021005537 4282157879
-0.0061142482 -0.016236231 -0.022148456 4281633089
-0.0040044524 -0.016844757 -0.021959979 4281956683
-0.0015358329 -0.018972911 -0.020443957 4282085714
0.00059004873 -0.019579925 -0.020259257 4281888599
-0.010135364 -0.018153079 -0.022344444 4282739789
-0.0082000159 -0.018001594 -0.022821084 4282284869
-0.0064357407 -0.017087214 -0.023961786 4281567044
-0.0043289289 -0.017698206 -0.023774151 4282348364
-0.0018637441 -0.01983317 -0.022262204 4281757273
-0.0065857805 -0.018698432 -0.025109194 4281563729
-0.0044793263 -0.019311644 -0.024923097 4281953369
0.011185341 -0.026641451 -0.021025829 4282406249
-0.0097234584 0.0064627156 0.017533578 4285425449
-0.0079056211 0.0073307529 0.016342334 4285818914
-0.013299104 0.011087976 0.010517646 4285688863
-0.011502553 0.011956394 0.009333171 4285885469
-0.0090505518 0.0099647269 0.010955315 4285885469
-0.015723947 0.010732777 0.0084304791 4285623839
-0.014409062 0.013755783 0.0051450469 4285755163
-0.01246604 0.013907768 0.0046664495 4285689629
-0.010028023 0.01190839 0.0062871445 4285886489
-0.0070712306 0.0077595189 0.010001201 4285754908
-0.0047634207 0.0064802244 0.010913761 4285688863
-0.002790641 0.0066349804 0.010428162 4286801683
-0.019478548 0.0073541626 0.0096328948 4285032748
-0.018445168 0.011828184 0.0049456544 4285690139
-0.01681618 0.013419881 0.0030667707 4285755164
-0.015516493 0.016450457 -0.00020843744 4285623583
-0.013265315 0.015162028 0.00071451254 4285623839
-0.011168111 0.014593907 0.00093673915 4285689373
-0.0078938119 0.0089921355 0.0060403273 4285820954
-0.0055971481 0.0077075437 0.0069523621 4285623583
-0.0032897368 0.0064239576 0.0078617912 4285689374
-0.0011469163 0.0058598444 0.008073112 4285557028
-0.021885362 0.007010214 0.0075485762 4285163819
-0.020537902 0.010052972 0.0042678472 4285558813
-0.019057479 0.012371771 0.00169155 4285624348
-0.017436165 0.013967223 -0.00018221512 4285886744
-0.016143721 0.017006002 -0.0034491438 4285886489
-0.014062893 0.01643426 -0.0032246159 4285820953
-0.011976603 0.015863031 -0.0030013053 4285952278
-0.0088818558 0.010964103 0.0013963301 4285820699
-0.0064291544 0.0089528561 0.0030037612 4285624348
-0.004305359 0.0083849207 0.0032180361 4285624349
-0.0025263578 0.0092590377 0.0020431075 4285624094
-0.00057473779 0.0094123185 0.0015628543 4285557284
0.0020986386 0.0066843405 0.0038533844 4286147098
-0.025009256 0.010302693 0.0019702129 4285754144
-0.023075458 0.010453358 0.0014934428 4285885469
-0.021141466 0.010604143 0.0010167025 4285755163
-0.019668493 0.012928881 -0.0015528565 4285624093
-0.017898452 0.013803698 -0.0027245311 4285689884
-0.016451601 0.016126655 -0.0052875457 4285755674
-0.012290467 0.014978833 -0.0048415503 4285689629
-0.0093668811 0.010787703 -0.0011486011 4285624349
-0.007259462 0.010216184 -0.00093201548 4285689884
-0.0054911114 0.011091493 -0.0021028062 4285755419
-0.0044275634 0.014858417 -0.0060418723 4285886489
-0.0023250096 0.014286853 -0.0058238311 4285951514
0.00032357126 0.011548117 -0.0035337275 4285884449
-0.027520936 0.010718845 -0.00080032088 4285885724
-0.025740985 0.011596166 -0.001973155 4285885468
-0.02337319 0.0095642582 -0.00035526976 4286082328
-0.021441985 0.0097147748 -0.00083135068 4285886744
-0.019664105 0.010592259 -0.002003436 4285755164
-0.018359866 0.013649352 -0.0052603977 4285624348
-0.016600173 0.014525637 -0.0064278403 4285624348
-0.014522668 0.013949208 -0.0062057758 4285558559
-0.012111489 0.011921264 -0.0045980709 4285624349
-0.0095175095 0.0091688931 -0.002301448 4285624604
-0.0074104331 0.0085951015 -0.0020864336 4285690139
-0.0065022893 0.013099559 -0.006713043 4285820954
-0.00072773919 0.013552956 -0.0081341369 4286016794
0.0028411672 0.0071833357 -0.0024077995 4285754399
0.0049755052 0.0066123754 -0.0021989765 4285622308
-0.031382281 0.0080798939 -0.00029867515 4285427488
-0.03001501 0.01115001 -0.0035651578 4285624603
-0.028240476 0.012028985 -0.0047351299 4285623838
-0.026325647 0.012178004 -0.0052073458 4285623839
-0.024262581 0.0115977 -0.0049837558 4285689374
-0.022043373 0.010288619 -0.004066295 4285755163
-0.020120036 0.010438614 -0.0045403736 4285755418
-0.018508483 0.012046434 -0.0064020855 4285624348
-0.016748715 0.012924895 -0.0075679431 4285624349
-0.014510285 0.01161781 -0.0066549266 4285559068
-0.012425017 0.011039831 -0.0064362986 4285559068
-0.010167759 0.0097344369 -0.0055277562 4285624349
-0.0084073581 0.010613389 -0.0066934405 4285755929
-0.0073395036 0.014402427 -0.010617431 4285755419
-0.0064725019 0.018916957 -0.015224149 4285557794
-0.0042199567 0.017611608 -0.014314061 4285623838
-0.0014173537 0.014126293 -0.01134269 4285689629
0.0021416061 0.0077361092 -0.0056285551 4285689883
0.0044527315 0.0064357296 -0.0047326824 4285624349
0.0067745745 0.0051363036 -0.0038393009 4285426468
0.0092974715 0.0031117126 -0.0022631716 4285556519
-0.033727285 0.0077844337 -0.0023658974 4285164329
-0.032354239 0.010863662 -0.0056273947 4285493278
-0.030722361 0.012476794 -0.0074913641 4285755928
-0.02881578 0.012625046 -0.0079616336 4285821464
-0.027199376 0.014237136 -0.0098215844 4285689628
-0.024854217 0.012190178 -0.0082078697 4285820954
-0.022643488 0.010876074 -0.0072916215 4285886998
-0.02057511 0.010294177 -0.0070708292 4285624348
-0.018968549 0.011905931 -0.0089280298 4285624349
-0.01705559 0.012055308 -0.0093994094 4285689883
-0.014981423 0.011474185 -0.0091798166 4285624859
-0.012901772 0.010893606 -0.0089614755 4285558813
-0.01114941 0.011773966 -0.010123669 4285624350
-0.0092331879 0.011924043 -0.010595526 4285624348
-0.0081750192 0.015723303 -0.014509013 4285953044
-0.0066203512 0.017331816 -0.016352905 4285755418
-0.0047222413 0.017480813 -0.016820051 4285755673
-0.0015669242 0.012525611 -0.012482435 4285887254
0.0016255602 0.0075735077 -0.0081539163 4285755673
0.0043006055 0.0048106983 -0.0058896895 4285558559
0.0066218823 0.003506802 -0.0049994383 4285493024
0.0099047236 -0.0014378503 -0.00069288351 4285425959
-0.034143951 0.0076478496 -0.0049022203 4285295654
-0.032912564 0.011470146 -0.0088513503 4285558814
-0.031288322 0.013087004 -0.010710153 4285624603
-0.029674474 0.014703214 -0.01256635 4285755673
-0.027781058 0.014850505 -0.013033335 4285821719
-0.025592197 0.01353012 -0.012115003 4285755928
-0.023092035 0.01074338 -0.0098152915 4285624348
-0.021029282 0.010158807 -0.0095947655 4285624093
-0.019116621 0.010308042 -0.010066169 4285689629
-0.017361995 0.011190437 -0.011227542 4285689884
-0.015290815 0.010606848 -0.011008854 4285755418
-0.013704669 0.012221761 -0.012857591 4285755418
-0.011962797 0.013103485 -0.014015579 4285689374
-0.01022609 0.013984933 -0.015172211 4285624093
-0.0086659826 0.015598126 -0.017014291 4285624349
-0.0071162991 0.017210573 -0.018853666 4285689884
-0.0048701726 0.015895955 -0.017948579 4285690138
-0.0018958263 0.011656635 -0.01430676 4285624603
0.0014744475 0.0059576258 -0.0093044471 4285559069
0.0043332055 0.002454944 -0.006362943 4285559069
0.0072185285 -0.0010454729 -0.0034279246 4285623583
-0.034022946 0.0045718625 -0.0046547446 4285294634
-0.032785367 0.008405596 -0.0085972855 4285361443
-0.031434547 0.011500672 -0.011840289 4285493278
-0.029962536 0.013857752 -0.014385683 4285558814
-0.027927127 0.013268523 -0.014160295 4285624604
-0.025591377 0.011207625 -0.012554043 4285558558
-0.023239594 0.0091480687 -0.010951673 4285558558
-0.021177176 0.0085612461 -0.010732708 4285689884
-0.019730713 0.010916881 -0.013271407 4285689883
-0.018141959 0.012536094 -0.015117674 4285952533
-0.016402986 0.013419576 -0.016273553 4285886743
-0.014179263 0.012098171 -0.015366589 4286084114
-0.012110751 0.011512399 -0.015148713 4285952533
-0.010205384 0.011661597 -0.015617915 4285755164
-0.0089848228 0.014747821 -0.018827843 4285558558
-0.0070897676 0.014896445 -0.019294336 4285559068
-0.0048415475 0.013577528 -0.018392988 4285558813
-0.001865916 0.0093251839 -0.014761281 4285493278
0.001323387 0.0043420568 -0.010454757 4285559324
0.0045498945 -0.00063804537 -0.0061572362 4285558813
0.0074393228 -0.0041491464 -0.0032313745 4285491239
-0.033500705 -0.00073061883 -0.0023351517 4285228589
-0.032249015 0.0031151548 -0.0062730778 4285360934
-0.031023566 0.0069589764 -0.010204459 4285492769
-0.029682439 0.010062166 -0.013438507 4285559069
-0.027639408 0.0094713047 -0.01321664 4285558813
-0.025443699 0.0081426948 -0.012306567 4285624860
-0.023237232 0.0068149716 -0.011399031 4285624348
-0.021630023 0.0084398091 -0.013246818 4285624348
-0.020188373 0.010801561 -0.015779443 4285755418
-0.018920209 0.013899729 -0.018995011 4285755163
-0.016870867 0.013310008 -0.018774217 4285557538
-0.014653008 0.01198379 -0.017869119 4285689374
-0.012258653 0.0099216253 -0.016281629 4285820954
-0.010521803 0.010807432 -0.017435068 4285755163
-0.0087901168 0.011692934 -0.018587165 4285624349
-0.0067162402 0.011105731 -0.018371981 4285559068
-0.0041080005 0.0083109438 -0.016111104 4285427743
-0.0012994893 0.0047821626 -0.013173724 4285361443
0.001898814 -0.00021562725 -0.0088807959 4285295399
0.0047657974 -0.0037395731 -0.0059576239 4285229099
0.0078462549 -0.0079965219 -0.0023611439 4285228843
-0.033381823 -0.0038302615 -0.0021046232 4285163308
-0.031851079 -0.0014557168 -0.0046549533 4285229098
-0.030475084 0.0016587749 -0.0078911688 4285294633
-0.028978329 0.0040308759 -0.010432966 4285492768
-0.027352873 0.0056611225 -0.01228223 4285361188
-0.025590811 0.0065502152 -0.013440983 4285559069
-0.02383383 0.0074389875 -0.014598357 4285558813
-0.022234287 0.0090675205 -0.016440997 4285624348
-0.020955037 0.012175195 -0.019652899 4285952789
-0.019381616 0.01380197 -0.021488972 4285623839
-0.017498132 0.013949074 -0.021953076 4285623328
-0.01512586 0.011878476 -0.020365115 4285689374
-0.012737561 0.0098092481 -0.018781019 4285821209
-0.010669593 0.0092191324 -0.018566189 4285689628
-0.008596193 0.0086295381 -0.018352622 4285624604
-0.0063439198 0.007302016 -0.017458877 4285624859
-0.0035525821 0.0037607923 -0.014525486 4285559323
-0.0007346645 0.00022177398 -0.011598537 4285492768
0.0019284338 -0.0025772527 -0.0093574952 4285360678
0.0047968738 -0.0061120763 -0.0064428104 4285294634
0.0075051822 -0.008907266 -0.0042126914 4285163308
-0.033397283 -0.0061947033 -0.0025697658 4285098284
-0.031590965 -0.005300492 -0.0037381211 4285164074
-0.03006747 -0.0029198527 -0.0062817354 4285360424
-0.028559659 -0.00054038316 -0.0088213645 4285426468
-0.027067523 0.0018380359 -0.011357082 4285491749
-0.025591042 0.004215315 -0.013888817 4285558558
-0.024130274 0.0065914765 -0.016416658 4285558814
-0.022837285 0.0097088441 -0.019625561 4285558813
-0.021565285 0.012824699 -0.022829205 4285755929
-0.019999508 0.014455207 -0.02466011 4285953044
-0.017964076 0.01385998 -0.024439164 4285886999
-0.015923198 0.013265312 -0.024219472 4285952788
-0.01321559 0.0097060651 -0.021273941 4285755673
-0.010817323 0.007631138 -0.019697098 4285624094
-0.00806183 0.0040758848 -0.01676319 4285559069
-0.0056262426 0.0020041093 -0.015195357 4285493278
-0.0028228685 -0.0015471578 -0.012273064 4285624604
-0.00017143786 -0.0043559894 -0.010035736 4285492259
0.0025012679 -0.0071629807 -0.0078035844 4285426469
0.0050114095 -0.0092284307 -0.0062537557 4285294634
0.0075375549 -0.011292465 -0.0047077565 4285097519
-0.031876106 -0.0061752126 -0.0055800052 4285294378
-0.030216102 -0.0045337155 -0.0074315229 4285360679
-0.028425191 -0.0036383048 -0.0085943025 4285492259
-0.026783306 -0.0019980446 -0.010441145 4285426468
-0.025445048 0.0011313707 -0.013654901 4285426469
-0.024426255 0.0057486817 -0.01823161 4285426214
-0.023135211 0.0088746697 -0.021433543 4285360934
-0.021710645 0.011254802 -0.023947433 4285558814
-0.020144593 0.012889713 -0.025775168 4285558813
-0.018269327 0.013036132 -0.026237272 4285624604
-0.016231444 0.012438998 -0.026018482 4285558814
-0.013527643 0.0088684857 -0.023080137 4285558814
-0.010629494 0.0045569241 -0.019468715 4285559069
-0.0076994635 0.00024790317 -0.015865019 4285559068
-0.0050836541 -0.0025727004 -0.013625646 4285228844
-0.0027979575 -0.0039062873 -0.012746552 4285228844
-0.00032320619 -0.0059813187 -0.011193061 4285163053
0.0021675266 -0.0080549642 -0.0096434681 4285426214
0.0046742707 -0.010127239 -0.0080976626 4285360423
-0.030226219 -0.0068950579 -0.0078959232 4285360678
-0.028432589 -0.0059972182 -0.0090578105 4285426723
-0.026787791 -0.0043523684 -0.010902138 4285426469
-0.025153395 -0.0027082488 -0.012743844 4285426468
-0.023976531 0.0011759922 -0.016630514 4285491749
-0.022977639 0.0058050454 -0.021192547 4285492259
-0.021855954 0.0096852183 -0.025065452 4285624604
-0.020446617 0.012070827 -0.02757065 4285493278
-0.018414494 0.011470899 -0.027352106 4285559069
-0.016214695 0.010125652 -0.026455596 4285559069
-0.013179597 0.0050528795 -0.022168463 4285559324
-0.010274883 0.00072865933 -0.018568402 4285624859
-0.0071680807 -0.0043382347 -0.014298806 4285360678
-0.0048883595 -0.0056767985 -0.013421582 4285163053
-0.0024224371 -0.0077592358 -0.01187089 4285228844
-0.00011865422 -0.0090956315 -0.010999451 4285163563
0.0021958239 -0.010431059 -0.010130554 4285294633
0.0045210123 -0.011765547 -0.0092641404 4285294633
0.0066707879 -0.012355037 -0.0090737408 4285032494
-0.030098427 -0.010010429 -0.0076797483 4284901424
-0.02844033 -0.0083603039 -0.0095242178 4285098793
-0.026792649 -0.0067108497 -0.011366094 4285426724
-0.025155332 -0.0050621107 -0.013205273 4285361188
-0.023677256 -0.0026649013 -0.015722798 4285492259
-0.022517841 0.0012290105 -0.019596992 4285360678
-0.02123059 0.0043722913 -0.022784967 4285360423
-0.019964311 0.0075140521 -0.02596768 4285295144
-0.017762538 0.0061644092 -0.025074948 4285295144
-0.015388008 0.0040676519 -0.023507122 4285427489
-0.012503307 -0.0002714619 -0.019911924 4285557794
-0.0097541027 -0.0038602427 -0.017000934 4285360423
-0.0069782995 -0.007446833 -0.014096397 4285163053
-0.004866492 -0.0080420971 -0.013898718 4285163308
-0.0025739595 -0.0093839392 -0.013027812 4284966448
-0.00044868141 -0.0099779218 -0.012833289 4284901424
-0.026797835 -0.0090734288 -0.011832981 4285360934
-0.025157619 -0.0074201003 -0.013669643 4285360678
-0.023379143 -0.0065187886 -0.01482427 4285426469
-0.02221093 -0.0026132464 -0.018692536 4285360424
-0.020761121 -0.00021147728 -0.021198081 4285294633
-0.019327048 0.0021891966 -0.02369966 4285360424
-0.017112602 0.00083614886 -0.022813307 4285294888
-0.01472557 -0.0012662485 -0.021253383 4285360678
-0.011993531 -0.0048674643 -0.018346367 4285294888
-0.0095692091 -0.0069666579 -0.016795499 4285294634
-0.007298667 -0.0083148777 -0.015922623 4285295144
-0.0051898472 -0.0089125857 -0.015725838 4285163054
-0.002900552 -0.01025904 -0.014857451 4284966448
-0.026517097 -0.012948051 -0.010944519 4285032748
-0.025014471 -0.010535948 -0.013458497 4285164073
-0.023527507 -0.0081249699 -0.015968448 4285294889
-0.022056255 -0.0057150796 -0.01847451 4285229608
-0.020600688 -0.0033063293 -0.020976571 4285294633
-0.018848117 -0.0024044961 -0.022123003 4285294634
-0.016782645 -0.003008455 -0.021917583 4285229099
-0.014388453 -0.0051168278 -0.020364346 4285228843
-0.01197825 -0.0072238967 -0.018814931 4285228843
-0.0097189881 -0.0085774288 -0.01794265 4285163309
-0.0074489973 -0.0099300742 -0.017072883 4285229098
-0.0053405352 -0.010530017 -0.016877651 4285033004
-0.023379389 -0.011242352 -0.015759945 4285031983
-0.022204097 -0.0073143765 -0.019613756 4285163819
-0.020594541 -0.0056543723 -0.021436142 4285163563
-0.018995423 -0.0039950162 -0.023255916 4285229099
-0.016771507 -0.0053561255 -0.022378398 4285228843
-0.014536861 -0.006716229 -0.021503495 4285163564
-0.01229151 -0.0080754235 -0.02063109 4285097774
-0.010035437 -0.0094335973 -0.019761272 4285097518
-0.0079380386 -0.010036744 -0.019565042 4285032239
-0.021749225 -0.011944391 -0.01805668 4284901168
-0.020435456 -0.008764036 -0.021225266 4285098028
-0.019142698 -0.0055852458 -0.024388621 4285229354
-0.017077912 -0.0061936527 -0.024186281 4285163564
-0.014685232 -0.0083153024 -0.022642411 4285097773
-0.012276541 -0.010435648 -0.02110238 4285228589
-0.016908702 -0.0093044788 -0.023979343 4285032239
-0.014833566 -0.0099141225 -0.023781154 4285097518
-0.012247737 -0.015168481 -0.022053756 4285097773
