# .PCD v0.7 - Point Cloud Data file format
VERSION 0.7
FIELDS x y z rgba
SIZE 4 4 4 4
TYPE F F F U
COUNT 1 1 1 1
WIDTH 490
HEIGHT 1
VIEWPOINT 0 0 0 1 0 0 0
POINTS 490
DATA ascii
0.0066970885 0.0023798048 0.04191092 4288687409
0.0092495307 0.0004247576 0.043556187 4289276204
0.012807492 -0.0057482272 0.049443513 4289537068
0.016581014 -0.012620494 0.056026772 4287182653
0.0036937967 0.0040437952 0.037608463 4289145899
0.00510839 0.0070210993 0.034303024 4290192419
0.0076361895 0.0050576106 0.035949051 4290061348
0.010674179 0.00097922236 0.039709453 4289995303
0.014078975 -0.0045071021 0.044873334 4290126374
0.017356418 -0.0092851073 0.049322613 4287705913
0.0010272935 0.0043154359 0.034729857 4288556083
0.0021319836 0.0087180436 0.030017599 4289408294
0.0036825277 0.010994285 0.0274298 4289277223
0.0061883181 0.0090225786 0.029075935 4288819498
0.009203732 0.0049293041 0.032831736 4289277479
0.012418371 0.00013117492 0.037283916 4290192928
0.015160888 -0.0025424063 0.039618 4289146409
0.017752349 -0.0045072734 0.041244615 4289343013
0.019834474 -0.0043503493 0.040761705 4290192163
0.021738928 -0.0034867004 0.039577529 4288883503
0.023999073 -0.0040361583 0.039796058 4287837238
0.026814014 -0.0067037344 0.042113755 4287836728
0.030393422 -0.01219359 0.047224492 4288294454
-0.0014705509 0.0038912371 0.032563239 4287837495
-0.00020065904 0.0075970367 0.028563395 4290063388
0.0010428131 0.011300981 0.024569757 4290324509
0.0025778599 0.013582624 0.02199043 4289604389
0.004905358 0.012313068 0.02293209 4289538853
0.0079008378 0.0082051754 0.026682582 4290389788
0.010928366 0.0040998086 0.030425712 4290520603
0.013479061 0.0021251738 0.032056753 4289670434
0.015701294 0.0015703291 0.032282166 4289997598
0.017404169 0.0031430349 0.030405369 4289603879
0.019274108 0.0040062368 0.029230814 4290257953
0.022040129 0.0013260841 0.031553164 4289930788
0.025010448 -0.0020607412 0.034569152 4289799464
0.028007455 -0.0054454431 0.037579019 4290062624
0.031407621 -0.010244019 0.041977324 4287837239
-0.0028287545 0.0079073161 0.025702767 4289211433
-0.0011188388 0.0094840974 0.023826923 4289867294
0.00026834011 0.012485392 0.020547435 4290062879
0.0021108016 0.013347946 0.019380316 4290128159
0.0045938939 0.011361323 0.02102185 4289670179
0.0072571859 0.0086640194 0.023360945 4290455323
0.0099418834 0.0059684664 0.025695119 4289539618
0.012139738 0.005409427 0.025924496 4289670433
0.013998851 0.006273821 0.024753883 4289539363
0.01585279 0.0071378723 0.023584582 4289996833
0.017701525 0.0080016479 0.022416584 4289735459
0.020265277 0.0060218647 0.024039969 4289277223
0.023210526 0.0026221871 0.027053528 4289996323
0.025811706 0.00064549595 0.028668366 4289539108
0.029369123 -0.0048809797 0.033757992 4288820008
0.033541247 -0.012534112 0.040922981 4289015849
0.037385259 -0.018763088 0.046685614 4289866274
-0.0051432922 0.0068017617 0.024254873 4289735203
-0.0037318915 0.0098133758 0.020976163 4289408548
-0.0017284304 0.0099634305 0.020510808 4289473574
0.00011926144 0.010828428 0.019344021 4289800993
0.002278965 0.010263912 0.019580215 4289604899
0.0046053976 0.0089854896 0.020515501 4289670690
0.0067786947 0.0084222108 0.020748708 4289932574
0.0089574605 0.007859461 0.020980723 4289670945
0.010972448 0.0080110356 0.020513173 4289867039
0.012987576 0.0081627294 0.020045672 4289539618
0.014828272 0.0090279505 0.018881083 4290716953
0.016663782 0.0098929033 0.017717775 4289604388
0.019033644 0.0086185411 0.018643517 4288884778
0.021779288 0.0059194267 0.020957492 4289146664
0.024731465 0.002509445 0.023961276 4289408293
0.028837353 -0.0051729232 0.031123485 4289408294
0.033192314 -0.013562903 0.038965598 4289211943
0.037031718 -0.019811921 0.044714496 4288098359
-0.0060317367 0.0087222978 0.019535016 4290062368
-0.0044825301 0.011024229 0.016966924 4290585628
-0.0021836832 0.0097390413 0.017905027 4290913304
0.00012595952 0.0084547698 0.018840697 4290913304
0.00260479 0.0064545497 0.020473234 4289343013
0.0049386621 0.0051722899 0.021403484 4289670690
0.0067921802 0.0060402378 0.02023717 4289278244
0.0086405352 0.0069078729 0.019072182 4289409059
0.010314696 0.008491233 0.017211683 4289539618
0.012321696 0.0086422935 0.016746052 4289801249
0.01398015 0.010224752 0.01488933 4290258463
0.015982084 0.010375649 0.014425043 4290585629
0.017984115 0.010526672 0.013960812 4290193184
0.020715527 0.0078177378 0.016271506 4289997089
0.02420821 0.0022512749 0.021349717 4289865509
0.028681707 -0.0068849698 0.029880527 4288949293
0.033224411 -0.016015776 0.038395356 4288884014
-0.0083254129 0.0076365098 0.018096052 4289015593
-0.0067705959 0.0099453256 0.015531451 4289538853
-0.0049310923 0.010813795 0.014369644 4289277479
-0.0026380718 0.0095237419 0.015305839 4289931553
-2.3201108e-05 0.0067962036 0.017636102 4290258463
0.0022967011 0.0055083856 0.01856621 4289997344
0.0046273768 0.0042215139 0.019493848 4289212198
0.0061513036 0.006528616 0.016936958 4289670433
0.0079917349 0.0073978528 0.015775394 4289539618
0.0096581727 0.0089849755 0.01391995 4289539620
0.011828564 0.0084174052 0.014150761 4289015848
0.013656102 0.0092859641 0.01299247 4289604389
0.015655234 0.0094366372 0.01252882 4289277223
0.017654471 0.0095874295 0.012065226 4289211944
0.0205644 0.0061522648 0.015062276 4289865763
0.024609666 -0.0015828684 0.02220219 4289473574
0.029275849 -0.01146394 0.031401351 4289342759
0.033636346 -0.019905977 0.039202705 4288557104
-0.011039041 0.0087232739 0.014559962 4288098614
-0.0093418732 0.010316081 0.012699921 4289799718
-0.0075077787 0.011186205 0.01154092 4289735204
-0.0053787827 0.010612443 0.011779021 4288884778
-0.0032443106 0.010039188 0.012015922 4289342758
-0.00063832849 0.0073021874 0.014341701 4290258463
0.0016730726 0.0060093775 0.015270438 4290128159
0.0038346015 0.0054384843 0.015501305 4289800993
0.0056749657 0.0063097253 0.014341336 4290128413
0.0073441863 0.007901296 0.012488438 4289539363
0.0091715381 0.0087717846 0.011331653 4290651674
0.011507556 0.0074813738 0.012255093 4290782233
0.013506442 0.0076318905 0.011791395 4290651164
0.015505426 0.0077825412 0.011327764 4289604389
0.017863039 0.0064940825 0.012246443 4289669668
0.020959083 0.0023288503 0.015924837 4289538853
0.025194563 -0.0061491057 0.023735266 4289408294
0.029681187 -0.01534117 0.032220293 4289080873
0.033667333 -0.022371389 0.038623348 4286267714
-0.012037396 0.011426352 0.0091762915 4289015339
-0.010211401 0.012297921 0.0080207102 4289538854
-0.0080961809 0.011720806 0.0082602613 4290193183
-0.0059754848 0.011144198 0.0084986165 4289931554
-0.0038492978 0.010568134 0.0087358002 4289735204
-0.0014073551 0.0085453168 0.010361968 4290454814
0.00089288503 0.0072472617 0.011289986 4289735204
0.0028829873 0.0073965415 0.01082789 4289800483
0.0047101416 0.0082689524 0.0096726194 4289931809
0.0065321065 0.0091410801 0.0085186232 4289931554
0.0085173063 0.009290345 0.0080579296 4290585629
0.011015914 0.0072724447 0.0096714478 4289604389
0.01335682 0.0059781149 0.010590535 4290912538
0.015708473 0.0046847239 0.011507219 4289931554
0.018249936 0.0026703998 0.01311106 4289669925
0.021534324 -0.0022290722 0.017466959 4289539108
0.025962278 -0.011454046 0.025944076 4289800993
0.030272417 -0.019952498 0.033717614 4286922044
-0.013875544 0.008194305 0.0098438989 4287379003
-0.012466691 0.011248931 0.0065982807 4288884013
-0.010501601 0.01139567 0.0061414912 4289146409
-0.0086833313 0.012268923 0.0049894042 4289211943
-0.0065709278 0.011689484 0.0052280314 4288754219
-0.0044530332 0.011110522 0.0054655001 4289146408
-0.0021747351 0.0098063424 0.0063952301 4289538853
-4.324317e-05 0.0092286617 0.0066296682 4289669925
0.0020936988 0.0086514577 0.0068629608 4289735204
0.0039102659 0.0095252842 0.0057117306 4290062369
0.0060528107 0.0089487359 0.0059438907 4290258463
0.0080325641 0.0090975538 0.0054844376 4289538853
0.010183331 0.0085218772 0.0057148151 4288688684
0.012686618 0.006497927 0.0073223654 4289146409
0.015382178 0.0037510619 0.0096148606 4289931554
0.018456824 -0.00044216216 0.013278384 4289734949
0.022289544 -0.0075280517 0.019683857 4289341738
0.026543863 -0.016057037 0.027450457 4289145133
0.030301578 -0.022410832 0.033144105 4285875268
-0.01402168 0.0065591857 0.008656064 4287640889
-0.012470715 0.0088935271 0.0061118547 4288622638
-0.01064723 0.009769246 0.0049600564 4289081129
-0.0088288859 0.010644667 0.0038095824 4289016103
-0.0070156753 0.011519812 0.0026603844 4289212455
-0.0049034357 0.010938264 0.0028974619 4289538853
-0.0026309788 0.0096291825 0.0038252808 4289473574
-0.00066255033 0.0097766891 0.0033681057 4289670179
0.0011459664 0.010651946 0.0022202767 4289735204
0.0029493161 0.011526905 0.001073774 4289539364
0.004912857 0.011674382 0.00061798841 4290324509
0.0070445575 0.011094958 0.00085105561 4289735203
0.0091817006 0.010516025 0.0010829885 4289866019
0.011670969 0.008484453 0.0026888456 4290062114
0.014880307 0.0035484955 0.0070389528 4289996324
0.018662948 -0.0035631582 0.013439508 4289472554
0.022861488 -0.01212272 0.021199279 4289472043
0.027123902 -0.020677291 0.028944295 4286005828
-0.013890535 0.0034615397 0.0088564716 4288556083
-0.012192525 0.0050716847 0.0070091616 4288426799
-0.010504931 0.0066811293 0.0051644053 4288820263
-0.008827813 0.0082899183 0.0033221114 4289344033
-0.0068626329 0.0084368289 0.00286543 4289474848
-0.0050492212 0.0093142465 0.0017178804 4289539873
-0.0029318333 0.0087309852 0.0019521844 4289278499
-0.0012806132 0.010338254 0.0001162868 4289343269
0.00051999092 0.011215053 -0.001028033 4289343269
0.0023154393 0.012091562 -0.0021710647 4289670179
0.004270874 0.012238413 -0.002624982 4289866273
0.0063942671 0.011656158 -0.0023916522 4289342759
0.0083526075 0.011803456 -0.002846078 4289081128
0.011003651 0.0090356097 -0.00055650994 4289865509
0.014730901 0.0018978193 0.0058403667 4289145388
0.019046791 -0.0074210837 0.014279254 4288883503
0.023613002 -0.017462842 0.0233863 4287379258
-0.01376012 0.00035545975 0.0090506654 4287705913
-0.012197599 0.0027037039 0.0065135863 4288556849
-0.010507114 0.0043177381 0.0046713669 4289016614
-0.0083879083 0.0037320852 0.00490335 4289278498
-0.0065612942 0.0046125427 0.0037542805 4289737244
-0.0048915297 0.0062253103 0.0019171741 4289933594
-0.003077887 0.0071050525 0.00077123567 4289344543
-0.0014264062 0.0087166727 -0.0010614563 4289147939
0.00037426502 0.00959564 -0.0022041611 4289212963
0.0020074323 0.011206172 -0.0040324656 4289343269
0.0039600655 0.01135277 -0.0044857645 4288754474
0.0059128329 0.011499502 -0.0049389908 4289081128
0.00803601 0.01091513 -0.004707125 4288753963
0.010683458 0.0081383064 -0.0024233479 4289407528
0.014757134 -0.00048331916 0.0053257812 4289210669
0.019429483 -0.011291824 0.015109602 4289079598
-0.013906866 -0.0012875423 0.0078570805 4287837238
-0.012203023 0.00033167005 0.0060149804 4288624424
-0.010366082 0.0012148246 0.0048649609 4289148194
-0.0082418919 0.00062733144 0.0050941184 4289345053
-0.0065587685 0.0022453815 0.0032570548 4289410588
-0.0050375909 0.0045975223 0.00073482469 4289410588
-0.0032238811 0.0054794252 -0.00040949695 4289148703
-0.0014153197 0.00636103 -0.001552498 4289017888
0.00054752082 0.0065081492 -0.0020083506 4289279263
0.0023483783 0.0073893964 -0.0031493865 4289148449
0.004308857 0.0075365826 -0.0036045108 4288951333
0.0062694475 0.0076838881 -0.0040595736 4289212964
0.0082301572 0.0078312978 -0.0045145843 4289735459
0.011054732 0.0043128356 -0.0015555676 4289146154
0.01495843 -0.0036015436 0.0054903831 4288099124
0.019811027 -0.015175469 0.01593066 4286463553
-0.014191583 -0.0021922514 0.005974507 4287838004
-0.012490131 -0.00056887418 0.0041362364 4288689703
-0.010655791 0.0003162995 0.0029884037 4289475869
-0.0085345879 -0.00027368218 0.003216628 4289803288
-0.006853871 0.0013485178 0.0013833772 4289606938
-0.0050322786 0.0022330433 0.0002388116 4289476124
-0.0033698231 0.0038541034 -0.0015900172 4289672473
-0.0014046058 0.0040012673 -0.0020465236 4289606938
0.00056076795 0.0041485727 -0.0025029611 4289083168
0.0026881918 0.0035597458 -0.0022756662 4289410079
0.0046564937 0.0037074909 -0.0027326252 4289605663
0.006792143 0.0031195804 -0.0025070924 4289605663
0.0087633356 0.0032677874 -0.002964532 4289343013
0.011769954 -0.00099629164 0.0006652493 4288818989
0.015158989 -0.0067282841 0.00564887 4288229939
-0.0091184303 0.00030919909 -2.9029325e-05 4289345819
-0.0071485117 0.00045637041 -0.00048688613 4289410588
-0.0054806396 0.0020820573 -0.002313802 4289475869
-0.0035157055 0.0022290796 -0.0027703289 4289345309
-0.0015506223 0.0023762211 -0.0032268148 4289476123
0.00057365745 0.0017848387 -0.0030005332 4289214494
0.0027034059 0.0011940449 -0.0027754586 4289476124
0.0046742186 0.0013419837 -0.0032329988 4289606430
0.0068121776 0.00075202435 -0.0030096676 4289409823
0.0089555755 0.00016262382 -0.0027874913 4289212964
0.012138538 -0.0048519 0.0015111361 4288951078
0.015708808 -0.011338271 0.0071591549 4288034099
0.019682333 -0.019295283 0.014152881 4287510839
-0.0054754242 -0.00028403848 -0.0028109308 4288365599
-0.0035079792 -0.00013685971 -0.0032680687 4288363303
-0.0015403926 1.0453165e-05 -0.0037251469 4289083424
0.00026846677 0.00089870393 -0.0048632976 4289280539
0.0025567487 -0.00043512881 -0.0039586779 4289476378
0.0045274049 -0.00028723478 -0.0044162031 4289671709
0.0066650212 -0.00087941438 -0.0041944487 4289344288
0.0089775883 -0.0022110716 -0.0032951934 4289147684
0.012161657 -0.0072407424 0.00099164993 4288885543
0.015557837 -0.013007127 0.0059473366 4287903539
0.0020874701 -0.00057839602 -0.0064994451 4288562204
0.0042166561 -0.0011735633 -0.0062774373 4289346074
0.006184645 -0.0010257587 -0.0067342548 4289607448
0.0086606294 -0.0031043962 -0.0051599694 4289475104
0.011668563 -0.0074077025 -0.0015600063 4288885288
0.01540691 -0.014675625 0.004735779 4287576629
0.0058715232 -0.0019075572 -0.0085914759 4288692254
0.0085132271 -0.0047374293 -0.0063458672 4289083424
0.011519819 -0.0090539381 -0.002755451 4288362538
0.014907196 -0.014855839 0.0021759942 4286137153
-0.014751524 -0.0016118735 0.0027200654 4284318494
-0.016736716 -0.0041348115 0.0026794355 4282546499
-0.01558549 0.00046672672 -0.0018966217 4282286398
-0.013764471 0.001355052 -0.0030381586 4282873409
-0.011519745 1.719594e-05 -0.0021240618 4283462968
-0.017960802 0.00018823892 -0.0039889161 4281699134
-0.016417451 0.0025675893 -0.0064971503 4280853298
-0.014329463 0.0019683465 -0.0062663723 4280982073
-0.012093209 0.00062542409 -0.0053535718 4281569084
-0.010282405 0.0015153885 -0.0064909253 4283068739
-0.0081806332 0.00091751665 -0.0062631015 4282091323
-0.0060733929 0.0003201589 -0.0060364772 4281766963
-0.0038073286 -0.0010200292 -0.0051302975 4284056608
-0.019532584 -0.0045631602 -0.0019726669 4281892934
-0.018643349 0.0015588179 -0.0078977291 4280198969
-0.017110139 0.0039439425 -0.010398692 4280394044
-0.015033104 0.0033416674 -0.010167034 4280003384
-0.012807995 0.0019935295 -0.0092549305 4278636838
-0.010717355 0.001392521 -0.0090262648 4281568573
-0.0087690875 0.001538001 -0.0094791446 4281763903
-0.0065196306 0.00019203126 -0.0085724387 4281631558
-0.0045657456 0.00033815205 -0.0090264548 4281634364
-0.0024558902 -0.00026095659 -0.008801898 4282157114
-0.00065754354 0.00063081086 -0.0099343043 4283340568
-0.021643013 -0.0063349828 -0.0026963903 4282542163
-0.0207313 -0.00019402057 -0.0086136665 4280654398
-0.019324251 0.0029472634 -0.011793571 4280915008
-0.017664172 0.0045891181 -0.013606003 4281306690
-0.015455723 0.0032353029 -0.012693452 4281306943
-0.013236471 0.0018823966 -0.011783315 4280981308
-0.011151448 0.0012787133 -0.011554958 4280786744
-0.0092086345 0.0014237687 -0.012006586 4281176638
-0.0072656572 0.0015689507 -0.012458159 4280915264
-0.0053225309 0.0017142594 -0.012909679 4281242429
-0.0035349056 0.0026073158 -0.014038099 4282091069
-0.0015941486 0.0027526692 -0.014488896 4281765688
0.0006686002 0.0014037862 -0.013588233 4282547773
0.0031057075 -0.00069115311 -0.012014909 4283657788
0.011199541 -0.0099534318 -0.0046239113 4284055843
-0.022947639 -0.0011946335 -0.010010874 4281304903
-0.021663725 0.0027073994 -0.013867157 4280785213
-0.019735165 0.0028508082 -0.014315913 4280067898
-0.018080123 0.0044966713 -0.016123941 4280329274
-0.016017005 0.0038890019 -0.015892347 4280459323
-0.013948411 0.0032817796 -0.015661905 4279612724
-0.011729531 0.0019245818 -0.014754897 4280980799
-0.0097948238 0.0020690188 -0.015204651 4281046078
-0.007709831 0.0014634058 -0.014977807 4280850748
-0.0059249327 0.0023582652 -0.016104015 4280916029
-0.0043006316 0.0040025935 -0.017904239 4279743284
-0.0023706481 0.0041471347 -0.018352555 4279612469
4.1685998e-05 0.0020437166 -0.016778538 4278702629
0.0024700873 -5.8420002e-05 -0.01520812 4281569338
0.0049145371 -0.0021592304 -0.01364133 4281765179
0.007543724 -0.0050074384 -0.011405985 4281959233
0.010879729 -0.010848261 -0.0064889221 4282088264
0.014258325 -0.016685747 -0.0015816502 4282607699
-0.024401486 -0.0067148134 -0.0073227836 4281759314
-0.023733906 0.00096970052 -0.014576832 4281176128
-0.022068352 0.002620481 -0.016384205 4280979523
-0.02014523 0.002763465 -0.016831709 4281046079
-0.018358581 0.0036599189 -0.017957209 4281176128
-0.016298451 0.0030498132 -0.017726576 4281111104
-0.014374807 0.0031931698 -0.018173939 4281045823
-0.012161769 0.0018311068 -0.017268827 4281111359
-0.010232508 0.0019751266 -0.017717319 4280980799
-0.0081531703 0.0013669059 -0.017490814 4280589884
-0.0062209368 0.0015113801 -0.017939823 4280785214
-0.0045990497 0.0031599179 -0.019736281 4281176129
-0.0025139675 0.0025524274 -0.019510796 4281306689
-0.0004234612 0.0019455105 -0.019286534 4280915773
0.0023252778 -0.0016663298 -0.016375871 4281241664
0.00476899 -0.0037737489 -0.014813843 4281177659
0.007734254 -0.0081327111 -0.011243499 4281372733
0.010731515 -0.01248914 -0.0076804906 4281825104
-0.024922602 -0.0060618073 -0.010533794 4281891403
-0.023747139 -0.0013805255 -0.015056776 4281371459
-0.022078693 0.00027479231 -0.016861578 4281306178
-0.020286843 0.00117369 -0.017986735 4281371458
-0.018636607 0.0028278306 -0.019787086 4281371458
-0.016718574 0.0029706433 -0.020233246 4281306688
-0.01480037 0.0031135753 -0.02067936 4281241665
-0.012593172 0.0017467588 -0.019776212 4281176384
-0.010522291 0.0011356026 -0.019549476 4281045313
-0.0084459335 0.00052491575 -0.01932388 4280981054
-0.0065164939 0.0006691739 -0.019772256 4279742773
-0.0050520599 0.0030760095 -0.022237023 4280784703
-0.0029726401 0.0024659634 -0.022011911 4280915264
-0.00088778138 0.0018564388 -0.021787977 4280719423
0.002017539 -0.0025203899 -0.018213695 4280393278
0.0046234876 -0.0053879693 -0.015986141 4281371714
0.007755734 -0.010513254 -0.011756271 4281110084
0.010925263 -0.015635677 -0.0075349286 4282280278
-0.025065534 -0.0076709539 -0.011703021 4281760334
-0.023760721 -0.0037348792 -0.015539723 4281631558
-0.021958396 -0.0028331503 -0.016665781 4281175619
-0.020294815 -0.0011737347 -0.018466098 4280784193
-0.01850538 -0.00027275831 -0.01958899 4280980289
-0.016860038 0.0013854876 -0.021384848 4281045824
-0.014800392 0.00077106059 -0.021157315 4280980033
-0.012591079 -0.000599958 -0.020257955 4281045823
-0.010517873 -0.0012132004 -0.020033365 4281176128
-0.0088877901 0.00044441223 -0.021825364 4281176639
-0.0071159974 0.0013447776 -0.022943636 4281045823
-0.005659081 0.0037575662 -0.025401758 4280589373
-0.0034304559 0.0023885295 -0.024506396 4280393278
-0.001191102 0.001020439 -0.023613488 4280719424
0.0018730052 -0.0041255206 -0.019379431 4280979779
0.0048089474 -0.0085129663 -0.01582206 4280783173
0.0082811974 -0.015163966 -0.010269579 4281173834
0.01128903 -0.019545771 -0.0067287125 4282019669
-0.025082938 -0.010040499 -0.012196291 4281564239
-0.023646526 -0.0068538114 -0.015350505 4281565769
-0.021708071 -0.0067098364 -0.015801694 4281240133
-0.020036273 -0.0050455257 -0.017600613 4281044803
-0.018374905 -0.0033818558 -0.019397007 4281110084
-0.016723998 -0.0017188191 -0.021190939 4281109573
-0.01465939 -0.0023350567 -0.020966208 4280914244
-0.012733355 -0.0021914616 -0.021414092 4281045059
-0.01066047 -0.0028068945 -0.021191059 4280914754
-0.0090301484 -0.0011449382 -0.022979854 4281175874
-0.0075623021 0.0012750477 -0.025435647 4281241664
-0.006110236 0.0036940277 -0.027887719 4281305923
-0.0038874745 0.0023202077 -0.026994335 4281371714
-0.0016539618 0.00094727427 -0.026103316 4281046079
0.0015659183 -0.0049723312 -0.021212075 4281045314
0.0048283823 -0.010888688 -0.016330615 4281763394
0.0083013512 -0.017559238 -0.010793049 4282281299
-0.024975419 -0.013177104 -0.012018368 4281628753
-0.023533046 -0.0099812523 -0.015167422 4281369929
-0.021850578 -0.0083118752 -0.016965691 4281109318
-0.02004531 -0.007405512 -0.018089112 4281109829
-0.018109292 -0.0072614998 -0.018539567 4281109318
-0.016311631 -0.0063554868 -0.01966105 4281174598
-0.01451911 -0.0054497123 -0.020781238 4281175364
-0.012731746 -0.0045442209 -0.021900143 4281110084
-0.010803044 -0.0044003054 -0.022348549 4280913988
-0.0091724843 -0.002733998 -0.024134142 4280979778
-0.0075523853 -0.001068376 -0.025917161 4281044804
-0.0060972199 0.0013573542 -0.028365038 4280849218
-0.0037152395 -0.00078123063 -0.026808649 4281241153
-0.001317203 -0.0029184595 -0.025255933 4281437758
0.0019089095 -0.0088550821 -0.020379223 4281436739
0.0051776096 -0.014788382 -0.015512299 4281498958
0.008321166 -0.019958593 -0.011319488 4282214743
-0.025243856 -0.014026858 -0.013864294 4281694799
-0.023803502 -0.010822468 -0.017006353 4281239368
-0.021993048 -0.0099136084 -0.018129468 4281305668
-0.020187713 -0.0090050697 -0.019251276 4281240133
-0.018251844 -0.0088611022 -0.019701708 4281109574
-0.016454123 -0.0079529062 -0.020821579 4281109574
-0.014661551 -0.0070449635 -0.021940146 4281174343
-0.013017774 -0.0053735673 -0.023725726 4281044294
-0.011091858 -0.0052298754 -0.024173491 4280978759
-0.0091658235 -0.0050860494 -0.024621207 4281043783
-0.0073912293 -0.0041789934 -0.025735252 4281109574
-0.0057760477 -0.0025092885 -0.027513769 4280912714
-0.0037006512 -0.0031283945 -0.027294312 4281239369
-0.0013007149 -0.0052720532 -0.025746908 4281435208
0.0019263178 -0.011225991 -0.020883564 4281630794
0.0050310865 -0.016414531 -0.016693268 4282085203
-0.025636762 -0.014104612 -0.016377844 4281496154
-0.024201058 -0.010891892 -0.019512285 4281302098
-0.022395849 -0.009981297 -0.020632505 4281566024
-0.020330086 -0.010604374 -0.020413253 4281240388
-0.018394336 -0.010460421 -0.020863671 4281240644
-0.016596578 -0.0095500425 -0.021981906 4281370949
-0.014803946 -0.0086399466 -0.023098867 4281174598
-0.013159931 -0.0069641843 -0.024881229 4281239369
-0.011234164 -0.0068205148 -0.025328979 4281043019
-0.0094570071 -0.0059112236 -0.026442081 4280977228
-0.0073822141 -0.0065327808 -0.0262243 4281173068
-0.0054560453 -0.0063887388 -0.026671879 4281042764
-0.0035297275 -0.0062445626 -0.027119394 4281238603
-0.0011252165 -0.0083944127 -0.025577974 4281631048
0.0017813742 -0.012836464 -0.022053201 4281565259
0.0048846006 -0.018040366 -0.017874025 4282084439
-0.022537835 -0.01157809 -0.021792702 4281823829
-0.020472407 -0.012203366 -0.021575011 4281825103
-0.018536821 -0.01205945 -0.02202541 4281369929
-0.016601041 -0.011915386 -0.022475749 4281501764
-0.014805719 -0.011002935 -0.023591708 4281370439
-0.013015538 -0.010090724 -0.024706379 4281239624
-0.011376426 -0.0084108636 -0.026484258 4281173579
-0.0095992088 -0.0074994043 -0.027595736 4281042509
-0.0076759681 -0.0073556975 -0.028042722 4281238604
-0.0055987239 -0.0079791471 -0.027827073 4281108044
-0.0038290843 -0.007067889 -0.02893652 4281434953
-0.0014279634 -0.009224534 -0.027399238 4281304393
0.0013128333 -0.012913264 -0.024544116 4281434444
0.0045736805 -0.018899389 -0.019714672 4282541909
-0.015088633 -0.011829048 -0.025415685 4280974933
-0.01301495 -0.012455426 -0.025201205 4281106769
-0.011227228 -0.011541136 -0.026313595 4280975698
-0.0095930248 -0.0098571628 -0.028086953 4281041998
-0.0078182742 -0.008943595 -0.029196143 4281172814
-0.0058950409 -0.0087997764 -0.029643048 4281238604
-0.0038153827 -0.0094251186 -0.029429518 4281173833
-0.0015713051 -0.010819063 -0.028557342 4281304649
0.0011683404 -0.014518775 -0.025710151 4281564239
-0.011806324 -0.010818437 -0.029455446 4281298274
-0.0097353458 -0.011446968 -0.029241808 4281170773
-0.0081113651 -0.0097593591 -0.031009391 4281107278
-0.0060374662 -0.010387421 -0.030796237 4280976973
-0.0041142628 -0.01024349 -0.031243049 4281435208
-0.0017146245 -0.012413315 -0.029715247 4281370439
0.0010238886 -0.016123973 -0.026875969 4281366614
-0.0042567998 -0.011830859 -0.032396007 4281232739
-0.0020164847 -0.013233803 -0.031529523 4281498193
0.00055702031 -0.016182326 -0.029353559 4282214489
0.015502576 -0.025156669 -0.018586621 4282340714
