# .PCD v0.7 - Point Cloud Data file format
VERSION 0.7
FIELDS x y z rgba
SIZE 4 4 4 4
TYPE F F F U
COUNT 1 1 1 1
WIDTH 315
HEIGHT 1
VIEWPOINT 0 0 0 1 0 0 0
POINTS 315
DATA ascii
0.0011395141 -0.0015504137 0.030198589 4281826123
0.0033190474 -0.0021263435 0.030414149 4282086989
0.0062900409 -0.0063447505 0.034085426 4282478158
-0.0019310191 0.0010061935 0.02531125 4281566023
-0.0006807223 0.004813768 0.021383211 4280263229
0.0014692768 0.0042334273 0.021604013 4280653124
0.0044097528 -4.3958426e-07 0.025272671 4279480123
0.0080208406 -0.0071541741 0.031690583 4280330039
0.011035934 -0.011382125 0.035341822 4282739534
-0.0039435104 -0.0015445128 0.025270693 4281956429
-0.0032719746 0.0052095056 0.018586461 4281241918
-0.0017390624 0.0075596049 0.016050331 4281045314
0.00024053454 0.0077090412 0.015584479 4280783938
0.0030042976 0.0041935667 0.018559739 4280523329
0.0062731057 -0.0015181974 0.023591597 4281045569
0.0094224289 -0.0064939931 0.027926512 4281241409
0.011950001 -0.0085372701 0.029507414 4280913478
0.014493629 -0.010579161 0.031084597 4281955664
-0.0062478557 -0.0026271269 0.023848969 4282346833
-0.0054076388 0.0034121647 0.017863143 4281241408
-0.0041637644 0.0072409362 0.013952858 4279483439
-0.002946265 0.011067815 0.010048852 4281110848
-0.00098536164 0.011215828 0.009587395 4280980288
0.0014454648 0.0091583058 0.011185863 4280393278
0.0050071701 0.0019570887 0.017582607 4279937338
0.0078125522 -0.0015659556 0.020540051 4280914753
0.0103155 -0.0036176667 0.022121817 4280849219
0.012500066 -0.0041991994 0.022331625 4281369928
0.014520179 -0.0040460452 0.021856748 4281892678
0.016885482 -0.0053607002 0.022747677 4282348363
-0.0076859295 0.0023536906 0.016451895 4281175363
-0.006284982 0.0054558888 0.013234551 4280980289
-0.0050535128 0.0092946216 0.0093353475 4280459578
-0.0036973283 0.012393691 0.0061287163 4280199224
-0.0015934408 0.011803202 0.0063554486 4280263738
0.00098510087 0.0090011135 0.0086360304 4280068664
0.0042212531 0.0032518804 0.013649347 4280785214
0.0066914633 0.0011909828 0.015233799 4280980288
0.0086846352 0.0013418719 0.014765068 4280981564
0.010677949 0.0014928803 0.014296404 4281111869
0.011992685 0.0045896173 0.011100124 4280393789
0.014492616 0.0025314614 0.012677952 4280262464
0.017883483 -0.0032052919 0.01765538 4279023928
0.021494582 -0.0096745118 0.023302972 4280784704
0.024432398 -0.013197593 0.026221734 4282543184
-0.010238595 0.0027820989 0.013668434 4281045569
-0.0086915717 0.0051525459 0.011143348 4280589629
-0.0068690851 0.0060411021 0.0099939806 4281176639
-0.0053482503 0.0084098205 0.0074752411 4281176638
-0.0039940551 0.011517443 0.0042756042 4281371968
-0.0018931776 0.01092457 0.0045013567 4281371969
0.00068178028 0.0081133917 0.0067762425 4281111104
0.0035958514 0.0038251206 0.010411861 4281046078
0.0058958307 0.0024962425 0.011311217 4281045824
0.0077140704 0.0033852831 0.010163448 4280849984
0.0093603283 0.0050128847 0.0083359946 4281045313
0.010826617 0.0073783472 0.0058308234 4281566789
0.013137728 0.0060508028 0.0067279208 4280912458
0.016158711 0.0017713979 0.010338898 4280262209
0.019566536 -0.0039814934 0.01529937 4281306689
0.022476651 -0.0075175986 0.01821645 4281567808
0.025413416 -0.011051558 0.021127358 4281828419
0.028562225 -0.0153208 0.024708718 4282477393
-0.012636207 0.0024822652 0.011577169 4281502529
-0.011506528 0.0070883259 0.0069994321 4280330038
-0.0094092935 0.0064925328 0.0072240559 4278373934
-0.0073065832 0.0058972612 0.0074474644 4280394554
-0.0053464398 0.0060449168 0.0069859605 4281112124
-0.0036875308 0.0076770708 0.005158308 4281046333
-0.0015790313 0.0070825592 0.0053806035 4281112124
0.001002945 0.0042631701 0.0076472964 4281111870
0.0032889917 0.0029287487 0.0085465629 4281111358
0.0052631497 0.0030780286 0.0080821831 4281111360
0.0069095306 0.0047098324 0.0062579159 4280459068
0.0083787926 0.007081978 0.003756809 4279872314
0.010001548 0.0087122247 0.0019382751 4281175363
0.012301501 0.007379435 0.0028347066 4281175874
0.014786761 0.0053071603 0.0044062342 4280914499
0.018174253 -0.00046473742 0.0093583968 4280720699
0.021244518 -0.0047532693 0.012948149 4281176384
0.02471184 -0.010518856 0.017881744 4281241153
0.028036512 -0.015541457 0.0221304 4281500233
-0.014483534 -0.00078993291 0.012231083 4281632324
-0.01346904 0.0045761988 0.0069731902 4280849984
-0.012071781 0.0077040419 0.003776147 4281371459
-0.0098402947 0.0063603744 0.0046844697 4280589374
-0.0075980201 0.0050176755 0.005590314 4279938103
-0.0051971227 0.0029312745 0.0071758796 4281047099
-0.0035326704 0.0045682415 0.0053501334 4281177404
-0.0015723631 0.0047161058 0.0048887338 4281111613
0.0003881231 0.0048641041 0.0044273939 4281046588
0.0023487434 0.0050122365 0.0039661061 4281111358
0.0043094978 0.0051604733 0.0035048705 4281045569
0.0061066225 0.0060522482 0.0023653116 4281045313
0.0077321455 0.0076869354 0.00054929266 4279936828
0.0095162615 0.0085780099 -0.00058706244 4280263229
0.011638626 0.0079831406 -0.00036901375 4280328509
0.014463954 0.00441847 0.0025514159 4280068664
0.017669987 -0.00062882155 0.0068162177 4281307453
0.020913292 -0.0056731775 0.011072391 4281241153
0.024376191 -0.011456527 0.015993886 4281304648
0.027326651 -0.015011184 0.0188853 4281563728
-0.016736984 -0.0018271729 0.010828407 4281826888
-0.015705518 0.0035553202 0.0055779051 4281242428
-0.014162786 0.0059448257 0.0030683558 4280848963
-0.012496091 0.0075858012 0.001245039 4281436483
-0.010412797 0.0069845468 0.0014696368 4281175874
-0.0080340058 0.0048897788 0.0030553881 4280850238
-0.0057868138 0.0035431907 0.0039568823 4280916793
-0.0036791489 0.0029441044 0.004175989 4281243449
-0.0018719211 0.0038383231 0.00303532 4281046588
-6.9856644e-05 0.0047322884 0.0018959586 4281046078
0.0017270595 0.0056259856 0.00075789774 4281110849
0.0036797002 0.0057735965 0.00029854709 4281175873
0.0056324974 0.0059213564 -0.0001607365 4281045313
0.0074191839 0.006814681 -0.001296164 4280914498
0.0092006847 0.0077076778 -0.0024302464 4281110595
0.011491597 0.0063653961 -0.0015382036 4281110594
0.014315762 0.0027897134 0.0013743024 4280587589
0.017697077 -0.0030175671 0.006301688 4281109828
0.020941481 -0.0080771372 0.010546152 4281565768
0.024405286 -0.013877951 0.015454383 4282217039
0.027172435 -0.016699396 0.017665416 4282476118
-0.018984221 -0.0028591827 0.0094279144 4281952603
-0.018198885 0.0040401444 0.0028193276 4281438269
-0.016655877 0.0064360723 0.00031451741 4281111869
-0.014854923 0.0073313117 -0.00082357368 4280002874
-0.013198577 0.008975856 -0.002641191 4280394554
-0.010984056 0.0076221973 -0.0017354651 4280198969
-0.0087587461 0.0062694103 -0.00083215302 4280330293
-0.0063752457 0.0041685924 0.00074761221 4280916539
-0.0044259876 0.0043154731 0.00028870115 4281176893
-0.0023238137 0.0037138388 0.00050758803 4281046334
-0.00083781034 0.0061063915 -0.0019831224 4280523073
0.0007904768 0.0077496842 -0.0037935686 4279676983
0.0053225607 0.005051814 -0.0020050383 4280719168
0.0074387044 0.0044518337 -0.0017889864 4280914499
0.0092229173 0.0053472742 -0.0029221154 4281044804
0.011515915 0.0040007755 -0.0020338572 4280717638
0.014341597 0.00041428953 0.00087012909 4280717893
0.017723829 -0.0054104403 0.005784248 4281370948
0.020790026 -0.0097386166 0.0093454802 4281891659
0.024070114 -0.014810599 0.013570153 4282412368
-0.019645073 -0.0014808849 0.0055207182 4281693269
-0.0188687 0.0054373816 -0.0010710596 4281372224
-0.017201841 0.0070868507 -0.0028880588 4281306434
-0.015408762 0.0079836398 -0.0040226774 4281241409
-0.013481513 0.0081284046 -0.0044767493 4281306179
-0.011412136 0.0075216815 -0.0042521781 4281110849
-0.0093372688 0.0069155246 -0.0040287911 4280980798
-0.0071097165 0.0055586621 -0.0031292676 4280981309
-0.0048713759 0.0042027161 -0.0022321322 4280851004
-0.0029274076 0.0043492988 -0.0026897134 4280850493
-0.001138486 0.005246602 -0.0038227416 4280133688
0.00032953173 0.0076444373 -0.0063042431 4280915263
0.0025843456 0.0062902346 -0.0054106875 4280198969
0.0050130859 0.0041869357 -0.0038459019 4280067898
0.0072920397 0.0028347746 -0.002957789 4280914498
0.0092447847 0.0029827282 -0.0034169012 4280914753
0.01171102 0.00088269264 -0.001860695 4280718403
0.014540851 -0.002714403 0.0010341271 4281305414
0.017750204 -0.0078073516 0.0052638138 4281956938
0.020817704 -0.012148522 0.0088149318 4282218059
0.023917139 -0.016487129 0.012358644 4282478159
-0.020175785 -0.00083955377 0.0023066197 4281565768
-0.01901228 0.0038341284 -0.0022304037 4281499978
-0.017345168 0.0054879487 -0.004044225 4281042508
-0.015552022 0.0063869208 -0.0051772236 4281305158
-0.013764016 0.0072856769 -0.0063089631 4281175108
-0.011555858 0.0059227198 -0.0054082698 4281305923
-0.0096257627 0.0060678795 -0.0058628744 4281176894
-0.0076954812 0.0062131956 -0.006317412 4280980798
-0.0057650581 0.0063586235 -0.0067719123 4280916028
-0.0035297722 0.004998222 -0.0058773025 4280199479
-0.001748763 0.0058970824 -0.007006844 4280850238
-0.0004459247 0.0090534538 -0.010154963 4281370693
0.0019580796 0.0069416165 -0.0085893627 4281175618
0.0045410767 0.004078947 -0.0063554025 4280914753
0.0071454346 0.0012179986 -0.0041263793 4280850494
0.0094345734 -0.00013761967 -0.0032439027 4280980289
0.012076292 -0.0029954836 -0.0010234737 4281110084
0.014912941 -0.0066029876 0.0018615583 4282282063
0.017776217 -0.010208331 0.0047404328 4282477393
0.020308349 -0.012309603 0.0062765526 4282346834
0.023219585 -0.01591105 0.0091443546 4282281043
-0.020063758 -0.0039696023 0.0024950486 4281304393
-0.018893905 0.00071756542 -0.0020336453 4281303883
-0.017087623 0.0016196296 -0.0031682421 4281108044
-0.015422724 0.0032777488 -0.0049781892 4281043529
-0.013351537 0.0026666746 -0.0047574136 4280913989
-0.011557989 0.0035680607 -0.0058887242 4280980034
-0.0097695738 0.0044691786 -0.0070187426 4281176638
-0.0082800314 0.006881237 -0.0094958637 4281112123
-0.0065072179 0.0077814162 -0.010622038 4281113143
-0.0045873895 0.0079261437 -0.011073964 4280590903
-0.0026674196 0.0080710128 -0.01152583 4279156528
-0.00090478361 0.0089707822 -0.012649332 4280459323
0.0013330281 0.0076065361 -0.011758337 4280328764
0.0039071366 0.0047344491 -0.0095288325 4280459833
0.0068334341 0.00035572797 -0.0059646312 4281307709
0.0094555281 -0.0025124773 -0.0037462248 4281110339
0.012440424 -0.0068865344 -0.00019556144 4281240389
0.014937099 -0.0089972541 0.0013437504 4282216019
0.017625835 -0.011860065 0.0035467604 4282476629
-0.020080559 -0.006348975 0.0020003701 4281432149
-0.018776253 -0.0024074242 -0.0018430562 4281238604
-0.016964622 -0.0015028343 -0.0029772504 4281108043
-0.015294172 0.00016007572 -0.0047853086 4281239369
-0.01349543 0.001063928 -0.0059162881 4281044039
-0.011701815 0.0019674972 -0.0070459861 4280912714
-0.010201372 0.0043867826 -0.0095208827 4280847178
-0.008570008 0.0060471669 -0.011319345 4281044038
-0.0069491044 0.0077068955 -0.013115248 4280979523
-0.0050347224 0.0078512058 -0.0135659 4281307964
-0.0032748356 0.0087528452 -0.014687271 4281111359
-0.0013628304 0.0088972226 -0.015137185 4280980033
0.00086915493 0.0075281188 -0.014248041 4280523584
0.0037621483 0.0031336769 -0.010685908 4280784194
0.0066871047 -0.0012582168 -0.007131191 4280914499
0.0098118894 -0.0064037964 -0.0029162455 4281499214
0.012462318 -0.0092784688 -0.00071095955 4281758803
0.014960896 -0.011395596 0.00082299579 4282346069
0.016947996 -0.011244677 0.0003560828 4282541654
-0.020225637 -0.0079710707 0.00082733203 4281692503
-0.018920481 -0.0040185675 -0.0030081295 4281042508
-0.017108783 -0.0031118169 -0.0041407258 4281108044
-0.015438072 -0.0014445409 -0.0059455875 4281108299
-0.013500772 -0.0012990907 -0.0064020772 4280978248
-0.011845611 0.00036720186 -0.0082030538 4280978248
-0.010200895 0.0020328313 -0.010001486 4280977484
-0.0085666329 0.0036978498 -0.0117974 4280911693
-0.0069428235 0.0053621382 -0.013590736 4280783173
-0.0050259456 0.0055066049 -0.014042003 4280849729
-0.0034177601 0.0071700066 -0.015831515 4281045313
-0.001505889 0.0073143691 -0.016281396 4281306179
0.00072554499 0.0059408545 -0.015395408 4281110594
0.0036172047 0.0015332177 -0.011842767 4280718404
0.0067058355 -0.0036304966 -0.0076308572 4281041998
0.0096640401 -0.0080328509 -0.0040936796 4282020178
0.012483865 -0.011674501 -0.0012293188 4282477393
0.014638368 -0.012282111 -0.0010302691 4282541654
-0.02062609 -0.0080657825 -0.0016930988 4281236818
-0.01906465 -0.0056294426 -0.0041730129 4280976209
-0.017385922 -0.003957361 -0.0059765414 4281172814
-0.015581928 -0.0030488744 -0.0071056583 4281108044
-0.01378309 -0.0021406785 -0.008233415 4281043019
-0.011989348 -0.0012327805 -0.0093599055 4281108043
-0.010344386 0.00043722242 -0.01115513 4281108809
-0.0085636005 0.00134442 -0.012278439 4281042508
-0.0067879781 0.0022513345 -0.013400385 4280783174
-0.0048659295 0.0023961961 -0.013852855 4281044803
-0.0032521859 0.0040642917 -0.015640398 4280849473
-0.0011782944 0.0034476593 -0.015424578 4281045059
0.00090102851 0.0028315559 -0.015209945 4281565769
0.0037966445 -0.0015888736 -0.011668043 4281956428
0.006724216 -0.0060068145 -0.0081335297 4281824339
0.0098512024 -0.011182718 -0.0039420268 4281953879
0.012334913 -0.01331424 -0.0024144307 4282083928
-0.019338965 -0.0064744875 -0.006009283 4281232739
-0.017662615 -0.0047981814 -0.0078090229 4281106003
-0.015996687 -0.0031226128 -0.0096061993 4281172304
-0.014064945 -0.0029776096 -0.0100614 4281238348
-0.012133069 -0.0028324798 -0.010516549 4281108043
-0.010057583 -0.0034517869 -0.010303194 4280911948
-0.0084148571 -0.0017775074 -0.012094555 4281173323
-0.0066338778 -0.00086802989 -0.013216143 4281043784
-0.0048580542 4.1209161e-05 -0.014336484 4280978503
-0.003087379 0.00095015019 -0.015455456 4281109318
-0.0011652112 0.0010952353 -0.015907796 4281174854
0.0010757521 -0.00028629601 -0.015030598 4281108809
0.0036513805 -0.0031931475 -0.012827663 4281824848
0.006742239 -0.0083872154 -0.008639141 4281954644
0.0093684904 -0.011290036 -0.0064478992 4281823064
0.011676207 -0.01266598 -0.005586057 4281953369
-0.016004801 -0.0054893121 -0.010093937 4281104728
-0.014070563 -0.0053441525 -0.010549741 4281367889
-0.011995576 -0.0059657916 -0.01033798 4281172303
-0.010058381 -0.0058201775 -0.010794325 4281173579
-0.0082668811 -0.0049078539 -0.011916848 4281174089
-0.0066290498 -0.0032294765 -0.013703709 4281239113
-0.0048505217 -0.0023179054 -0.014823018 4281304649
-0.0030771568 -0.0014065504 -0.015941044 4281369673
-0.0011524782 -0.0012612641 -0.016393976 4281304649
0.0010905862 -0.0026470125 -0.015520541 4281369928
0.0039914846 -0.0070932135 -0.01199949 4281696074
0.0065954551 -0.010006569 -0.0098096309 4282018648
0.0090536922 -0.012153231 -0.0082859462 4282084184
0.011188466 -0.012769036 -0.008087269 4282410583
-0.01227998 -0.0068001747 -0.012163335 4281951839
-0.010202534 -0.0074237064 -0.011953711 4281041743
-0.0085566416 -0.0057404637 -0.013739286 4281173069
-0.0066245869 -0.0055950135 -0.014194245 4281173068
-0.0048433468 -0.0046810508 -0.015312552 4281303883
-0.0032209083 -0.0029992014 -0.017092397 4281369419
-0.0014526471 -0.0020859838 -0.01820747 4281369929
0.0011050627 -0.0050118268 -0.016013455 4281369673
0.0036841184 -0.0079359189 -0.013824361 4282084693
0.0062844902 -0.010858275 -0.011640194 4282018138
-0.0089914799 -0.0057974979 -0.016221453 4281299294
-0.0072130039 -0.0048816577 -0.017337631 4281302608
-0.0052888766 -0.0047366768 -0.017790612 4281237584
-0.00336463 -0.0045915693 -0.018243553 4281368653
-0.0012841523 -0.0052164942 -0.018035792 4281369164
0.0011191815 -0.0073807314 -0.016509328 4281368908
0.003861323 -0.011083148 -0.013667825 4281889874
0.0061379969 -0.012474827 -0.012808646 4281886304
-0.0036615282 -0.0054110885 -0.020054102 4281040214
-0.001739949 -0.0052660704 -0.020506326 4281040723
0.00081587583 -0.0082094744 -0.018324919 4281171028
-0.0017278716 -0.0076302066 -0.020998035 4282017373
0.00067134947 -0.0098078921 -0.019480363 4280777053
0.0032475516 -0.012758367 -0.017310198 4281559648
-0.035641678 -0.011724912 -0.021866266 4282929254
-0.0093763545 -0.016826503 -0.032071944 4282536808
-0.013702981 -0.017571487 -0.045482375 4282797928
