# .PCD v0.7 - Point Cloud Data file format
VERSION 0.7
FIELDS x y z rgba
SIZE 4 4 4 4
TYPE F F F U
COUNT 1 1 1 1
WIDTH 827
HEIGHT 1
VIEWPOINT 0 0 0 1 0 0 0
POINTS 827
DATA ascii
0.0091971308 -0.017623007 0.041346431 4287050563
0.0025662258 -0.0095575601 0.031305514 4289212199
0.0044456758 -0.008687973 0.030161137 4291041823
0.0070012063 -0.010696396 0.031782441 4289733929
0.0093998387 -0.011984237 0.032709733 4290648614
0.010930955 -0.009676069 0.030185083 4288754728
0.01226785 -0.0066500753 0.026974665 4288233253
0.0014284328 -0.0069011748 0.025913859 4290197009
0.0032919645 -0.0060306191 0.02477465 4289604644
0.0058307722 -0.0080467761 0.026394645 4289539108
0.0080400929 -0.0086187869 0.026633339 4290389533
0.0095529929 -0.0063054264 0.024117665 4289148450
0.00045764446 -0.0049424767 0.021230953 4290786823
0.0024751574 -0.0047947094 0.020784779 4289277224
0.0046627112 -0.0053706318 0.021026513 4289081385
0.0068557113 -0.0059460551 0.021267181 4289867039
0.0087035932 -0.0050741062 0.020133303 4289671708
0.0016599596 -0.0035410598 0.016808106 4290389534
0.00383652 -0.004119955 0.017050596 4289212198
0.0061909296 -0.0054241493 0.017977664 4290390553
0.0083810091 -0.0060018301 0.018217331 4289605918
0.0095100999 -0.002226688 0.014349075 4290526979
0.0013470054 -0.0044547021 0.014900295 4289212455
0.0030119345 -0.0028515831 0.013087945 4289605409
0.0055273548 -0.00488884 0.014698116 4289474848
0.0078839958 -0.0061971024 0.015621426 4289802268
0.0095411986 -0.0045941547 0.013811005 4290263308
-0.00063858181 -0.00697162 0.014806869 4290135044
0.0012011752 -0.0060941949 0.013679529 4289605409
0.0030357055 -0.005217053 0.012553426 4289539873
0.0053810477 -0.0065305606 0.013475763 4289736224
0.007562466 -0.0071132407 0.013714002 4289736224
0.0092172623 -0.0055061951 0.011907471 4289476125
-0.00094823539 -0.0078800544 0.012902146 4289475359
0.00088890269 -0.0070006922 0.01177703 4290717464
0.0025516488 -0.0053890422 0.0099717621 4290651929
0.0050629675 -0.0074396655 0.011572862 4290979349
0.0070668906 -0.0072926357 0.011129899 4290521114
0.0087166056 -0.0056816265 0.0093278345 4289345053
-0.0015847422 -0.0073136464 0.0096390117 4290522389
-0.00025444105 -0.0042280853 0.0064763222 4289997598
0.0017305054 -0.0040826872 0.0060373712 4289016103
0.0038871691 -0.0046716556 0.0062776338 4290193949
0.0063978434 -0.0067286715 0.0078739207 4289867294
0.0078628473 -0.0043798313 0.0053989012 4289148704
-0.0027103573 -0.004522115 0.0043479409 4290784018
-0.0013954192 -0.0014289916 0.0011952538 4289801504
0.00040462986 -0.00054792315 8.174777e-05 4288754729
0.0028851852 -0.0026138276 0.001679631 4288754473
0.0053818077 -0.0046783909 0.0032740179 4290063643
0.0071874484 -0.0037965775 0.0021595303 4289540894
-0.0054755807 -0.0033269003 0.00086743198 4290198283
-0.0035071149 -0.0031829774 0.00043191947 4290391573
-0.0022021942 -8.1934035e-05 -0.0027118959 4290259483
-0.00041275471 0.00080049038 -0.003821414 4289539618
0.0017139316 0.00020498037 -0.0035778638 4289932574
0.0045416541 -0.0033446476 -0.0006341096 4290128924
0.006336689 -0.0024614483 -0.0017445926 4289670945
-0.0062599368 -0.0019692406 -0.0030377675 4290196498
-0.004302267 -0.001826115 -0.0034709033 4290325273
-0.0026759319 -0.00020002574 -0.0052548852 4289474083
-0.00072338805 -5.7049096e-05 -0.0056867097 4288950823
0.0015713386 -0.001395978 -0.0047698822 4289343268
0.0038768165 -0.0027340502 -0.0038553104 4290128668
0.0058402792 -0.0025899038 -0.0042892676 4289736479
-0.0065620989 -0.0028258041 -0.0049046688 4288755748
-0.0044443868 -0.0034266934 -0.0046627652 4289278499
-0.0026522875 -0.0025398657 -0.0057696458 4289343013
-0.0005290322 -0.0031400993 -0.0055287741 4289343269
0.0014287867 -0.0029966235 -0.0059616771 4288820008
0.0037337281 -0.0043390766 -0.0050503183 4289082148
0.0056970492 -0.0041949525 -0.005484255 4289475104
0.0071239024 -0.0018228218 -0.0079308432 4288954904
-0.022475675 -0.0048147365 -0.0033106357 4287839788
-0.020807438 -0.0031779781 -0.0050981101 4288035884
-0.018861614 -0.0030365512 -0.0055292584 4288035884
-0.016768955 -0.0036421567 -0.0052839629 4288232234
-0.014820203 -0.0035002977 -0.0057155937 4288363048
-0.012719288 -0.0041050464 -0.0054720026 4288560163
-0.010458235 -0.0054558143 -0.0045549385 4288821793
-0.0085010938 -0.0053129867 -0.0049881581 4288821028
-0.0065438263 -0.0051700398 -0.0054213125 4288558379
-0.0045864545 -0.0050269589 -0.0058543999 4288427308
-0.0024636351 -0.0056295618 -0.0056151617 4288296493
-0.00016741082 -0.0069771856 -0.0047054347 4288688938
0.0019689128 -0.0075785294 -0.0044690501 4288492588
0.0039373264 -0.0074341595 -0.0049042106 4288558378
0.0055538565 -0.0057996884 -0.0066790162 4288623913
-0.022061959 -0.0094096735 -0.0017929617 4287642929
-0.020241655 -0.0085175559 -0.0029035974 4288297004
-0.018282674 -0.0083751902 -0.0033376776 4288296749
-0.016030535 -0.0097313151 -0.0024222545 4288231213
-0.014215112 -0.0088391975 -0.0035315361 4288427564
-0.012253039 -0.0086962581 -0.0039660372 4288624423
-0.010290839 -0.008553192 -0.0044004694 4288624423
-0.0081713758 -0.0091585442 -0.0041624866 4288886054
-0.0063660815 -0.0082666948 -0.0052691624 4288754728
-0.0044035241 -0.0081232414 -0.0057033934 4288362029
-0.0024408698 -0.0079796836 -0.0061375825 4288689194
-0.00031031296 -0.008583717 -0.0059016645 4288558379
0.0018256679 -0.0091872588 -0.0056668706 4288427308
0.0037939288 -0.0090429261 -0.0061020143 4288492844
0.0055864863 -0.0081512854 -0.0072053103 4288820009
-0.021649733 -0.014021717 -0.00028802641 4287511094
-0.020100698 -0.011622913 -0.0027479958 4288492844
-0.018136539 -0.01148019 -0.0031832345 4288296493
-0.015879609 -0.012840293 -0.0022722185 4288427564
-0.014058813 -0.011945643 -0.0033810455 4288427564
-0.01209157 -0.011802338 -0.003816694 4288558123
-0.0099698938 -0.012409814 -0.0035809558 4288558123
-0.0078427643 -0.013016813 -0.0033462923 4288885544
-0.0061890632 -0.011371695 -0.0051233042 4288623658
-0.0043836124 -0.010477565 -0.0062282598 4288558379
-0.0022535026 -0.011083938 -0.0059940219 4288296493
-0.00028556585 -0.010939889 -0.0064292876 4288296493
0.0018527322 -0.011545412 -0.0061966693 4288427309
0.0036505722 -0.010651372 -0.0072995899 4288492333
0.0056187734 -0.010506921 -0.0077346181 4289015848
-0.02179151 -0.015633903 -0.001488911 4287968819
-0.020101264 -0.013982616 -0.0032713227 4288558124
-0.018134587 -0.013839729 -0.003707137 4288165935
-0.015875511 -0.015204079 -0.0027998928 4288558379
-0.014052004 -0.01430703 -0.0039076954 4288558379
-0.011930801 -0.014916889 -0.003673587 4288362029
-0.010112356 -0.014019974 -0.0047800951 4288427564
-0.0079855695 -0.014629178 -0.0045470297 4288492844
-0.0061722137 -0.013732411 -0.0056522377 4288885544
-0.0043640509 -0.012835957 -0.006756152 4288427564
-0.0023963675 -0.012692027 -0.0071914522 4288362029
-0.00042857975 -0.012547977 -0.0076266816 4288230958
0.0018794611 -0.013907664 -0.0067294426 4288296493
0.0036800019 -0.01301121 -0.0078313267 4288230704
0.0056507029 -0.012866594 -0.0082669361 4288427308
-0.021795318 -0.018002175 -0.0020179227 4288034099
-0.020242751 -0.015590169 -0.004468713 4288754218
-0.018276215 -0.015447296 -0.0049045067 4288558379
-0.016017683 -0.016816013 -0.0040004794 4288427564
-0.014194138 -0.015916832 -0.0051066522 4288362029
-0.012073264 -0.016528882 -0.0048741382 4288231214
-0.010100856 -0.016385116 -0.005310867 4288492843
-0.0081283227 -0.01624123 -0.0057475343 4288492843
-0.0063149147 -0.015342303 -0.006851092 4288820008
-0.0045067221 -0.014443688 -0.0079533681 4288428073
-0.0023746304 -0.015054263 -0.0077229105 4288363048
-0.00040433928 -0.014910035 -0.0081587024 4288231724
0.001735948 -0.01551982 -0.007929828 4288100654
0.0035365261 -0.014621221 -0.0090300702 4287970093
0.0053318739 -0.013722919 -0.010129023 4288101673
-0.021799438 -0.020374484 -0.0025499556 4287772214
-0.019962966 -0.019472621 -0.0036575757 4288230449
-0.017845519 -0.020087413 -0.0034262892 4288427308
-0.015576862 -0.021459721 -0.0025278404 4288165934
-0.013594232 -0.021315478 -0.0029670335 4287969839
-0.011762511 -0.020413436 -0.0040732734 4288166189
-0.010089699 -0.018754266 -0.0058447011 4288166443
-0.0082710385 -0.017852969 -0.0069478191 4288297769
-0.0067756735 -0.015437834 -0.0093803257 4287971368
-0.0051344521 -0.013780601 -0.011144478 4288036393
-0.0030106977 -0.014393948 -0.010913849 4287710248
-0.00088151172 -0.015006818 -0.01068433 4287382574
0.0012530871 -0.015619136 -0.01045591 4287119923
-0.021666341 -0.023511656 -0.0024165697 4286071618
-0.019684277 -0.02336783 -0.0028559342 4286202944
-0.017559193 -0.023984231 -0.0026280135 4286530109
-0.015283093 -0.025360294 -0.001734592 4286595899
-0.013292626 -0.025215499 -0.002175536 4286530363
0.0085831471 -0.012774877 -0.014177315 4284640558
0.010360088 -0.011875354 -0.015270293 4284444719
0.012317423 -0.011731215 -0.015702553 4284378929
0.014274806 -0.011586972 -0.016134743 4283922478
0.016614225 -0.012951992 -0.015250321 4283792684
0.018964324 -0.01431606 -0.014368203 4283726638
0.021717742 -0.017187871 -0.012174193 4283529523
0.024890456 -0.021566153 -0.0086718388 4284115514
-0.0036455691 -0.013720252 -0.014094889 4283658043
-0.0015247203 -0.014335863 -0.013865191 4283397178
0.0006015487 -0.014951013 -0.013636552 4283069759
0.0025610738 -0.014807351 -0.014069788 4282938944
0.0045206659 -0.01466357 -0.014502954 4282612033
0.0064803325 -0.014519639 -0.014936019 4282417724
0.0080797672 -0.012860246 -0.016686995 4282483514
0.010034233 -0.012716465 -0.01711873 4282025533
0.011803284 -0.011815302 -0.018208176 4281633343
0.014319599 -0.013942666 -0.016667489 4281566534
0.016470328 -0.014554955 -0.016443521 4281697348
0.01901333 -0.016680084 -0.014908601 4281763394
0.022160735 -0.021073364 -0.011410691 4282089028
0.025737675 -0.026976667 -0.0066100629 4283067208
-0.0088683367 -0.019552328 -0.01067305 4282544969
-0.0076947361 -0.015601791 -0.014418717 4281761354
-0.0062250309 -0.013175465 -0.016835496 4281565768
-0.0041152611 -0.013794221 -0.016605068 4281240644
-0.0020000823 -0.01441244 -0.016375791 4281044548
0.00012051314 -0.015030138 -0.016147617 4281370693
0.0022465177 -0.01564727 -0.015920516 4281240644
0.0042032935 -0.015503712 -0.016353063 4281110339
0.00616014 -0.015360005 -0.016785525 4281436738
0.0079371072 -0.014456354 -0.017875254 4281632834
0.0098914169 -0.014312558 -0.018306948 4281632578
0.011845779 -0.014168672 -0.018738568 4281436739
0.014176078 -0.015543155 -0.017858885 4281566789
0.016326454 -0.016157635 -0.017636508 4281827908
0.019061998 -0.019048162 -0.015451953 4281762628
0.022602573 -0.024971582 -0.010656708 4281828164
0.026185784 -0.030891746 -0.0058707241 4282153543
-0.0088547431 -0.021922566 -0.011208396 4282413133
-0.007677678 -0.017960973 -0.014946528 4281565513
-0.0062048659 -0.015528001 -0.017358981 4281631304
-0.0042565763 -0.015385561 -0.017790038 4281109828
-0.0021417402 -0.016005956 -0.017562345 4281175364
0.00014761463 -0.017388619 -0.01667767 4281109829
0.0021041594 -0.017245196 -0.017110266 4281174853
0.0040607825 -0.017101638 -0.017542779 4281305668
0.0058403835 -0.016195752 -0.018631522 4281175363
0.0079742335 -0.016814135 -0.018407557 4281436484
0.009931054 -0.01667016 -0.018839803 4281435974
0.012073014 -0.017287739 -0.018617392 4281174599
0.014032595 -0.017143331 -0.019050065 4281370439
0.016182616 -0.017760001 -0.018829271 4281696583
0.018724136 -0.019898184 -0.017303981 4281566023
0.022260342 -0.025839232 -0.012521015 4281762884
0.02544236 -0.03025572 -0.0090506347 4283131469
-0.0088414699 -0.024296872 -0.011746713 4281955663
-0.0078192241 -0.019558467 -0.016136177 4281434699
-0.0063459873 -0.017118983 -0.018543735 4281239114
-0.0043978468 -0.016976543 -0.018974762 4281174344
-0.0022833608 -0.017599158 -0.018748678 4281044039
-0.00033237785 -0.017456271 -0.019180138 4280978503
0.0017902628 -0.018078022 -0.018955648 4281174344
0.0035698339 -0.017170094 -0.020042818 4281174088
0.005697947 -0.017791189 -0.019819342 4281369929
0.0076518878 -0.017647602 -0.02025108 4281369928
0.0096058846 -0.01750385 -0.020682722 4281238858
0.011929713 -0.018887587 -0.019808356 4281304138
0.014076687 -0.01950676 -0.019588649 4281434699
0.016038809 -0.019362025 -0.020021781 4281695818
0.018386714 -0.020743571 -0.019152492 4281433933
0.021527458 -0.025176235 -0.015683018 4282217038
-0.0089839771 -0.025907077 -0.012945865 4282348620
-0.0078026466 -0.021923609 -0.016668361 4281500488
-0.0061656013 -0.020245112 -0.018415067 4281173324
-0.0043756925 -0.019334801 -0.019503273 4281304394
-0.0022588894 -0.019959398 -0.019279353 4281173323
-0.0003053993 -0.019816317 -0.019711364 4281238603
0.0014767982 -0.018906198 -0.020797573 4281434443
0.0036018305 -0.019529797 -0.020575162 4281435719
0.005555544 -0.019386344 -0.021006949 4281630794
0.00768869 -0.020009108 -0.020786159 4281695819
0.0096451975 -0.019865178 -0.021218345 4281499978
0.011971138 -0.021253087 -0.020347789 4281761609
0.013933066 -0.021108501 -0.020780981 4281303118
0.016085044 -0.021729343 -0.020563945 4281564238
0.018242385 -0.022349678 -0.020347994 4281760588
0.021186445 -0.026030175 -0.017537199 4282280788
-0.0094369203 -0.025976397 -0.015457194 4282019159
-0.0081021972 -0.022752561 -0.018514808 4281172303
-0.0063070357 -0.02183985 -0.019602623 4281303374
-0.0041906722 -0.022466756 -0.019380368 4281432913
-0.0020688884 -0.023093186 -0.019159153 4281236819
-0.00044728816 -0.021411113 -0.020898826 4281823063
0.00150612 -0.021267943 -0.021330751 4282084949
0.0034596138 -0.021124639 -0.021762583 4282280533
0.0057662018 -0.022518672 -0.020891365 4282345558
0.0079043284 -0.023143195 -0.020673312 4282279513
0.0096841641 -0.022230588 -0.021756947 4282148698
0.011643216 -0.022086374 -0.022189628 4282148444
0.025510952 -0.033671476 -0.019448237 4282143088
-0.013380148 0.013837904 0.030475544 4285425703
-0.010629326 0.01045531 0.033569135 4285491238
-0.0064744949 0.00072519481 0.043016456 4285163308
-0.033987738 0.013586998 0.030833671 4285230118
-0.032495491 0.016570359 0.027547346 4285689118
-0.030393407 0.0160041 0.027820224 4285885979
-0.027899235 0.013310015 0.030222883 4285951514
-0.025252037 0.0099083334 0.033330545 4285820443
-0.023248874 0.010053962 0.032886714 4285492513
-0.021519177 0.011617377 0.031025847 4285558559
-0.020078957 0.01459749 0.027751459 4285558814
-0.01851771 0.016867697 0.025189171 4285558559
-0.016972274 0.019136846 0.022630455 4285820698
-0.01500015 0.019280672 0.022193851 4285820699
-0.012427233 0.016593054 0.024579631 4285755418
-0.0092214942 0.011076309 0.02978071 4285952023
-0.0045735389 -0.00080469251 0.041312039 4285754909
-0.0371788 0.01822608 0.023661548 4285164584
-0.035699435 0.021217056 0.020384645 4285493278
-0.033994481 0.022782579 0.018532189 4285623839
-0.03192199 0.022211917 0.018809972 4285558304
-0.029457994 0.019506909 0.021212606 4285689628
-0.026972495 0.016803607 0.023610504 4285689374
-0.02486743 0.016235575 0.023881273 4285624604
-0.023166768 0.01780124 0.02203011 4285558813
-0.021337271 0.018655345 0.02088769 4285624348
-0.019796878 0.020930506 0.018334994 4285821208
-0.017983004 0.021783672 0.01719618 4285689118
-0.016026996 0.021926291 0.016763119 4285557794
-0.013620928 0.019938774 0.018441977 4285623839
-0.010740794 0.01582294 0.022227423 4285689374
-0.0067414306 0.0067417473 0.030925302 4285755418
-0.038026802 0.020904951 0.018206695 4285558814
-0.036442265 0.023189008 0.015648672 4285690138
-0.034750357 0.024757884 0.013802418 4285623584
-0.032691486 0.024184033 0.014081521 4285623329
-0.030241691 0.021469325 0.016480559 4285689374
-0.027770385 0.018756218 0.018874934 4285886999
-0.02581273 0.018898457 0.01844112 4285689883
-0.023991324 0.019754015 0.01730206 4285624349
-0.022314183 0.021322317 0.015459532 4285624348
-0.020647533 0.022889994 0.01361935 4285886998
-0.018702485 0.023031674 0.01318861 4285952788
-0.016463019 0.021748565 0.014163783 4285886999
-0.014062971 0.019754119 0.015838908 4285886999
-0.011341903 0.016336806 0.018914046 4285821463
-0.0078184828 0.0093621761 0.025489131 4285624348
-0.0023483709 -0.0061484128 0.040459156 4285558559
-0.038401924 0.020743184 0.015602743 4285493279
-0.036942534 0.02374997 0.01234355 4285821464
-0.035258338 0.025322527 0.010502337 4285952789
-0.033207759 0.024745919 0.010781547 4285952789
-0.030895092 0.022737779 0.01247046 4285887253
-0.028566264 0.020730957 0.014155822 4285755673
-0.026488446 0.020156585 0.014429199 4285624349
-0.02481389 0.021728911 0.012590477 4285624349
-0.023010887 0.022585355 0.011457199 4285558558
-0.021213017 0.023441523 0.010325143 4285624093
-0.01927606 0.0235826 0.0098961834 4285689628
-0.017045118 0.022294514 0.010869825 4285755419
-0.014803357 0.021007337 0.01184115 4285689629
-0.012094028 0.017578252 0.014910562 4285624350
-0.0084284358 0.0098669752 0.022171231 4285558558
-0.002970688 -0.0056923181 0.037107304 4285558558
-0.038776211 0.020590417 0.013005475 4285493023
-0.037201412 0.022886746 0.010459518 4285624349
-0.035396844 0.023744889 0.0093271211 4285623838
-0.033346556 0.023166046 0.0096046869 4285623838
-0.031162679 0.021869518 0.010584893 4285624094
-0.028837189 0.019855864 0.012266012 4285624094
-0.026895747 0.019996844 0.011835733 4285624349
-0.025090188 0.020855524 0.010703461 4285624349
-0.023289762 0.021713912 0.0095724035 4285624349
-0.021353118 0.02185484 0.0091434103 4285624094
-0.019560345 0.022712901 0.0080141425 4285623838
-0.017332554 0.021420203 0.0089851804 4285623839
-0.015093975 0.020128414 0.0099538509 4285623839
-0.012388401 0.01668822 0.013015689 4285623838
-0.0087277144 0.0089526698 0.020259107 4285624093
-0.0035918057 -0.0052227825 0.033765383 4285558814
-0.038915165 0.019004434 0.011823965 4285427234
-0.037219994 0.020586334 0.009986816 4285624349
-0.035412714 0.021446794 0.0088554416 4285624093
-0.033485301 0.021586448 0.0084280353 4285755163
-0.031429797 0.021005861 0.0087028202 4285755164
-0.029238217 0.019705579 0.0096780676 4285689628
-0.027169019 0.019126162 0.0099499542 4285624093
-0.025230169 0.019267023 0.0095202979 4285624348
-0.023291126 0.019407995 0.0090906788 4285624604
-0.021493129 0.020268448 0.0079618767 4285624093
-0.019844152 0.021847837 0.0061356183 4285689883
-0.018059149 0.022707537 0.005009843 4285886743
-0.015831716 0.021410577 0.0059776194 4286018069
-0.013137899 0.017958663 0.0090337098 4285886744
-0.0093355998 0.0094798878 0.016957888 4285754909
-0.0046832487 -0.0025852025 0.028346395 4285624094
0.00069926679 -0.017515615 0.042495251 4285558303
0.02019796 -0.0029481649 0.025038259 4285688098
0.023000009 -0.0056608096 0.027341207 4285754144
0.025823435 -0.0083717704 0.029639533 4285097519
0.029535899 -0.0066377819 0.027359666 4285098284
0.030776616 -0.0036265403 0.024164597 4285164328
0.031996012 -0.00061677396 0.020974295 4285295653
0.033194087 0.0023915544 0.017788799 4285820189
0.035844438 0.00039833039 0.019395476 4285950748
0.038937151 -0.0030217916 0.022365334 4285951004
0.043567456 -0.011437073 0.030108528 4285885724
-0.039054058 0.017418712 0.010642642 4285361188
-0.037478335 0.019728027 0.0081064161 4285689883
-0.035918362 0.022036314 0.0055737738 4286018324
-0.033874013 0.021452576 0.0058493037 4286018069
-0.031951845 0.021591887 0.0054230932 4285952533
-0.029377691 0.018119618 0.0084967259 4285952533
-0.027441822 0.018260129 0.0080676265 4285755419
-0.025370069 0.017678797 0.0083373263 4285624349
-0.023569502 0.01854147 0.0072095264 4285558813
-0.021915123 0.020125464 0.0053853057 4285755419
-0.020271197 0.021708764 0.003563527 4285755418
-0.018491454 0.022570215 0.0024405569 4285820953
-0.016120851 0.020547487 0.0041020997 4285820699
-0.013430797 0.017084435 0.0071506519 4285952278
-0.01009661 0.010741048 0.012971962 4285952024
-0.0059293285 0.00079926848 0.02225302 4285689374
-0.001687292 -0.0091369301 0.03151761 4285493024
0.0010062158 -0.011867449 0.033836931 4285425959
0.013402507 -0.0029068962 0.02308028 4285491493
0.014694225 0.00011599809 0.01988001 4285689118
0.016337313 0.0017009601 0.018059662 4285689118
0.018536776 0.0011310279 0.01830277 4285689119
0.021124903 -0.00087404996 0.019917523 4285820954
0.023534777 -0.0021602139 0.020843061 4285755164
0.025364386 -0.0012930855 0.019710625 4285624349
0.026989032 0.00029107183 0.017894784 4285559069
0.028400714 0.0025916025 0.015397327 4285689629
0.030001404 0.0041741654 0.013586985 4285755164
0.031799093 0.0050393865 0.012461936 4285623584
0.034432709 0.0030384585 0.014067257 4285557793
0.037295312 0.00032249838 0.016350856 4285689373
0.041257493 -0.0059721544 0.022035399 4285689628
0.046140935 -0.01512666 0.030431548 4285558303
-0.039309748 0.016558789 0.0087601785 4285164329
-0.037855722 0.019599654 0.0055287778 4285624348
-0.03617844 0.02118893 0.0037022661 4285689373
-0.034261912 0.021327727 0.0032772161 4285557793
-0.032345176 0.021466628 0.002852194 4285623584
-0.030167922 0.020156555 0.0038238894 4285755163
-0.027979836 0.018847413 0.0047932211 4285755419
-0.026051879 0.018987402 0.0043659247 4285624349
-0.024261892 0.019851454 0.0032421108 4285624349
-0.022617906 0.021439001 0.0014235079 4285821208
-0.020840898 0.022302285 0.00030271336 4285755419
-0.019069068 0.023165308 -0.00081685185 4285558048
-0.016855985 0.021858573 0.00014739297 4285557794
-0.014329135 0.019106768 0.0024965908 4285623838
-0.010856006 0.01201997 0.0089992546 4285689883
-0.007015828 0.0034919903 0.016875071 4285755674
-0.0031115636 -0.0050312132 0.024736794 4285558303
0.011807896 0.0012014136 0.01634864 4285491238
0.013262387 0.0035108402 0.013846142 4286083094
0.015259326 0.0036578625 0.01340512 4285688864
0.01725632 0.003805019 0.012964172 4285557794
0.01982774 0.0017921552 0.014577648 4285689118
0.02202695 0.0012203082 0.014819281 4285755164
0.02403474 0.0013685897 0.014376203 4285624093
0.025643654 0.0029558763 0.012567205 4285624094
0.027241904 0.0045425221 0.010760607 4285689628
0.028829522 0.0061284378 0.0089564677 4286018069
0.030821387 0.0062759891 0.0085172504 4285820954
0.033023372 0.0057050213 0.0087587833 4285755164
0.036081836 0.0022606999 0.011719519 4285755163
0.039813321 -0.0033363402 0.016712936 4285755674
0.04489617 -0.01323846 0.025770428 4285624348
-0.040031642 0.018614136 0.0040825531 4285164328
-0.038470946 0.020935245 0.0015596598 4285690394
-0.036804043 0.022528082 -0.00026123226 4285820954
-0.035022937 0.023393124 -0.0013818145 4285689118
-0.032992311 0.022804134 -0.0011065938 4285755164
-0.030696243 0.020762198 0.00056092069 4285886489
-0.028649278 0.020174563 0.00083265267 4285755673
-0.026596792 0.01958745 0.0011032503 4285624348
-0.024814725 0.020453058 -1.716055e-05 4285624349
-0.023319088 0.022770256 -0.0025250912 4285690139
-0.021695957 0.024360657 -0.0043356381 4285952788
-0.019645475 0.023773775 -0.0040643048 4285886999
-0.017440878 0.022462018 -0.0031014923 4285886743
-0.014771648 0.01897572 -6.5036118e-05 4285887254
-0.011767752 0.01404158 0.00434836 4285820953
-0.0079433508 0.0054864213 0.012207648 4285624094
-0.0042141452 -0.0023393407 0.019362586 4285492258
0.012566391 0.0040452182 0.010574957 4286017304
0.014369264 0.0049142614 0.0094514173 4286017814
0.016544051 0.0043381974 0.0096965786 4285886488
0.018724218 0.003762655 0.0099406447 4285886489
0.021103684 0.0024655983 0.010866171 4285821209
0.02310067 0.0026130751 0.010425476 4285624349
0.025097691 0.002760686 0.0099848714 4285624348
0.026892804 0.003629826 0.0088635497 4285624093
0.028478008 0.0052199066 0.0070632864 4285689884
0.030052543 0.0068093613 0.005265424 4285821209
0.032246206 0.0062355474 0.0055071618 4285755419
0.035082944 0.0035003945 0.0077830944 4285690138
0.03880205 -0.0021148846 0.012765912 4285624348
0.043653414 -0.011328116 0.021125788 4285558814
0.049015239 -0.021976158 0.030823847 4285558814
-0.040518574 0.019231863 0.00081747212 4285033258
-0.039084554 0.022288568 -0.0023962706 4285493789
-0.037184447 0.022425994 -0.0028178189 4285756184
-0.035408579 0.023292787 -0.0039355941 4285887254
-0.033510722 0.023430251 -0.0043564904 4285821463
-0.031353101 0.022110075 -0.0033871941 4285690138
-0.029184662 0.020790778 -0.0024202242 4285624348
-0.027140461 0.020200811 -0.0021494403 4285558813
-0.025366344 0.021068014 -0.0032664984 4285558813
-0.023878239 0.02339109 -0.005767744 4285624350
-0.022262841 0.024985284 -0.0075733047 4285624348
-0.02022066 0.024395563 -0.0073017757 4285624348
-0.017876156 0.022351354 -0.0056495182 4285689884
-0.015515529 0.020308383 -0.0040007103 4285624094
-0.012523755 0.01535818 0.00040368922 4285624093
-0.0090252869 0.0082299113 0.0068674963 4285624349
-0.0051552653 -0.00034780055 0.014696697 4285558558
0.011871595 0.004593052 0.0073137116 4285624349
0.013852257 0.0047388598 0.0068762656 4285755163
0.015832979 0.0048848018 0.0064389054 4285755163
0.01819589 0.003582038 0.0073647033 4285820698
0.020569496 0.0022802055 0.008288173 4285689629
0.022757404 0.0017032847 0.0085290335 4285624349
0.024751615 0.0018506721 0.0080890451 4285624349
0.026745845 0.0019981787 0.0076491367 4285624349
0.028535701 0.0028692186 0.0065307375 4285624093
0.029906094 0.0051864311 0.0040575676 4285624094
0.031889684 0.0053334832 0.0036202651 4285623839
0.034510452 0.003312178 0.0052135531 4285624094
0.037792377 -0.00087568909 0.0088320933 4285624348
0.042412642 -0.009395659 0.016497606 4285558813
0.047758028 -0.020077415 0.026174283 4285493024
-0.041236892 0.021326996 -0.0038305353 4285361953
-0.039815523 0.024391435 -0.007034827 4285493789
-0.037807234 0.023796223 -0.0067581963 4285558813
-0.035793401 0.02320151 -0.0064827148 4285492768
-0.03364712 0.021876015 -0.0055142902 4285558559
-0.03149002 0.020551421 -0.0045482479 4285624349
-0.029454321 0.019958593 -0.0042773876 4285624349
-0.02741313 0.019366257 -0.0040076692 4285558813
-0.025779158 0.020965837 -0.0058141574 4285624604
-0.024155684 0.022564761 -0.0076182429 4285624349
-0.022399798 0.023432977 -0.008729456 4285624349
-0.020357929 0.022841044 -0.0084595419 4285624349
-0.017865904 0.020060569 -0.0061228219 4285558558
-0.015503302 0.01801122 -0.0044794679 4285558814
-0.013124593 0.015963145 -0.0028396025 4285624348
-0.0097924173 0.0095416158 0.0029221568 4285558813
-0.0059354939 0.00093694031 0.010734254 4285492514
-0.0024991632 -0.0054767653 0.016473131 4285556774
0.011909503 0.0022455752 0.0067891255 4285624348
0.013336077 0.0045724586 0.0043078866 4285689374
0.015311331 0.0047179982 0.0038717221 4285623583
0.017286636 0.0048636422 0.0034356397 4285623838
0.020036116 0.0021038577 0.0057169218 4285624094
0.022610761 7.198751e-05 0.0073147994 4285689628
0.024803691 -0.00050662458 0.0075529683 4285624348
0.026800446 -0.00035893172 0.0071125012 4285624349
0.028388824 0.0012400597 0.0053182095 4285624348
0.029759675 0.0035638139 0.0028499514 4285689884
0.031533595 0.0044360459 0.0017368942 4285755163
0.033938766 0.0031329766 0.002650734 4285820699
0.037214041 -0.0010683611 0.0062607508 4285689884
0.041608922 -0.0088902637 0.013233939 4285624093
0.046723008 -0.018880926 0.022214649 4285427233
-0.039594486 0.020644285 -0.0061033722 4285427744
-0.037578501 0.020047389 -0.0058300924 4285493534
-0.035432935 0.018717416 -0.0048649888 4285624604
-0.03340324 0.018121764 -0.0045946315 4285624603
-0.031368062 0.017526589 -0.0043254327 4285624603
-0.029327355 0.016931877 -0.0040573347 4285624603
-0.027415879 0.017070554 -0.0044810716 4285689629
-0.02564162 0.017942041 -0.0055948757 4285689884
-0.024012551 0.019545667 -0.0073968861 4285624094
-0.021965839 0.018951856 -0.0071298424 4285558048
-0.019913651 0.018358521 -0.0068639452 4285557793
-0.017559908 0.0163019 -0.0052237269 4285623839
-0.015642136 0.016441651 -0.0056483857 4285558048
-0.013110772 0.013655521 -0.0033268481 4285623329
-0.010089856 0.0086771622 0.0010478068 4285623583
-0.0062380508 4.6081841e-05 0.0088410806 4285688864
0.011399027 0.0020820647 0.0042213853 4285624094
0.01300605 0.003685981 0.0024256334 4285689628
0.014602479 0.0052891895 0.00063235499 4285952534
0.016950991 0.0039767399 0.0015546158 4286018068
0.019503549 0.0019365698 0.0031523239 4286018069
0.022464141 -0.0015590191 0.0061007794 4285689884
0.024656739 -0.0021398142 0.0063373633 4285624349
0.026653353 -0.0019921288 0.0058969297 4285624348
0.02803798 0.00033896416 0.0034305714 4285624348
0.029406611 0.0026690438 0.00096779317 4285689883
0.031177919 0.0035432652 -0.00014301203 4285952534
0.033367887 0.00296285 9.4590709e-05 4285952278
0.036421832 -0.00052499026 0.003023101 4286148374
0.040154416 -0.006191127 0.0079630557 4286017048
0.045029607 -0.015486941 0.016252788 4285623839
0.05019673 -0.025503859 0.025198584 4285361698
-0.039374508 0.016884327 -0.0051813982 4285492513
-0.037472092 0.01702182 -0.0056035351 4285492513
-0.035197802 0.014951982 -0.0039514359 4285623584
-0.033160456 0.014354683 -0.0036844704 4285624093
-0.031117588 0.01375787 -0.0034186617 4285689884
-0.029332973 0.014632002 -0.0045332313 4285557793
-0.027284406 0.014035814 -0.0042685233 4285689629
-0.025367565 0.014174953 -0.0046933927 4285689883
-0.023450546 0.014314204 -0.0051182248 4285689883
-0.021533363 0.014453582 -0.0055430066 4285689629
-0.019470841 0.013858825 -0.0052810758 4285558049
-0.017255001 0.012530454 -0.0043341611 4285558558
-0.015178874 0.011936896 -0.0040750764 4285558303
-0.01294411 0.010610171 -0.0031322278 4285623328
-0.0099193417 0.005616881 0.0012299437 4285557794
-0.0063816756 -0.0015734062 0.0076350924 4285623074
0.010889363 0.0019276366 0.0016603284 4285689629
0.012306165 0.0042667761 -0.00080876984 4285754908
0.014082666 0.0051426217 -0.0019197632 4285754908
0.016044352 0.0052872524 -0.0023528505 4285689118
0.018585511 0.0032397881 -0.00075767003 4285952533
0.021534324 -0.00026748329 0.0021850653 4285821209
0.023715921 -0.00085131824 0.0024224389 4285624349
0.025902871 -0.0014345869 0.0026586801 4285624349
0.027279936 0.00090249628 0.00019894913 4285689884
0.028434545 0.0039682761 -0.0029302817 4285820954
0.030195244 0.0048438683 -0.0040370841 4285623584
0.032374211 0.0042604879 -0.0037987139 4285557794
0.035630848 3.1732023e-05 -0.00020453893 4285689374
0.038919434 -0.0041944906 0.00338264 4285558813
0.043998379 -0.014248408 0.012324447 4285493023
0.04915192 -0.024296634 0.021249922 4285427489
-0.0388005 0.010896474 -0.0021961443 4285427233
-0.036882229 0.011035077 -0.0026218202 4285558304
-0.03484007 0.010435782 -0.0023576543 4285558558
-0.032918751 0.01057481 -0.0027838498 4285623583
-0.030868217 0.0099763647 -0.0025214236 4285623584
-0.029075548 0.010853209 -0.0036361385 4285558049
-0.027019329 0.010255374 -0.0033748206 4285558048
-0.025231622 0.011132084 -0.0044882633 4285492513
-0.02330941 0.011271685 -0.0049142633 4285558304
-0.021244705 0.010674782 -0.0046545826 4285558304
-0.019174524 0.010078393 -0.0043960363 4285558303
-0.017098859 0.0094825104 -0.0041386131 4285558304
-0.015168041 0.0096231624 -0.0045661964 4285558049
-0.012778148 0.007556349 -0.0029438511 4285557539
-0.0099052042 0.0032838807 0.0007230863 4285426468
-0.006683547 -0.0024571344 0.0057472195 4285360169
-0.0035801344 -0.0074595883 0.010080451 4286540309
0.010015953 0.0032495633 -0.0022475775 4285557283
0.011607483 0.0048610047 -0.004033247 4285886233
0.013376035 0.0057384148 -0.0051408354 4285623329
0.015519865 0.0051493198 -0.0048971046 4285492258
0.017862026 0.0038277879 -0.0039799754 4285689374
0.020606097 0.0010417625 -0.0017174687 4285755929
0.022776699 0.0004549548 -0.0014793295 4285624604
0.024550747 0.0013334081 -0.0025877152 4285558813
0.026319485 0.0022115335 -0.0036948044 4285624348
0.027670365 0.004553251 -0.0061436277 4286018579
0.02942311 0.0054304823 -0.0072470438 4285820953
0.031593751 0.0048442557 -0.0070084669 4285689628
0.034626782 0.0013332069 -0.004092006 4285689884
0.037686449 -0.0021757483 -0.0011813287 4285755929
0.042309944 -0.010799237 0.0064035803 4285493023
0.047886457 -0.022340901 0.016646488 4285427233
-0.038583249 0.0071043819 -0.0012981333 4285360934
-0.036898814 0.0087242126 -0.0031030476 4285558558
-0.034854315 0.0081229284 -0.0028411336 4285558048
-0.033056617 0.009002082 -0.0039554611 4285557794
-0.03087759 0.0076616481 -0.0030076914 4285557794
-0.029082172 0.008540839 -0.0041213632 4285492259
-0.027023621 0.0079409853 -0.0038622469 4285426468
-0.025370017 0.0095591992 -0.005659854 4285492514
-0.023168981 0.0082207844 -0.0047166329 4285492513
-0.021241419 0.0083608702 -0.0051437486 4285492768
-0.019168884 0.0077624545 -0.0048874058 4285558304
-0.016943417 0.006426096 -0.0039493069 4285558559
-0.015007429 0.0065671057 -0.0043780562 4285492513
-0.01246012 0.0037561432 -0.002080122 4285492514
-0.0098913871 0.00094679743 0.00021318346 4285492514
-0.0069849789 -0.0033361837 0.0038628224 4285425959
-0.0045288466 -0.005404301 0.0054657068 4286867219
0.0091441348 0.0045893118 -0.0061423033 4285558304
0.010355737 0.0076756626 -0.0092715267 4286083604
0.012295771 0.0078185648 -0.0096999351 4285952279
0.014425937 0.0072262958 -0.0094548557 4285886999
0.016946994 0.0051643103 -0.0078651905 4285887253
0.019484058 0.003103666 -0.0062790178 4285690394
0.021442898 0.0032484233 -0.0067112166 4285558813
0.023401763 0.0033933148 -0.0071433224 4285558814
0.025360644 0.003538318 -0.0075753462 4285624349
0.026701299 0.005885765 -0.010016927 4285624348
0.028234698 0.0074982941 -0.011785625 4285821464
0.030180253 0.007642664 -0.012214439 4285755928
0.033410247 0.0033859536 -0.008634381 4285690138
0.036672194 -0.00086821616 -0.0050613042 4285558813
0.041063111 -0.0087855384 0.0018395782 4285493024
0.046622984 -0.02036307 0.012059515 4285361698
-0.038603075 0.0047850013 -0.0017850827 4285360934
-0.036795072 0.0056668222 -0.0029002279 4285558304
-0.034868881 0.0058060363 -0.0033276323 4285492513
-0.032942474 0.005945392 -0.003754992 4285557793
-0.030758642 0.0046009347 -0.0028116461 4285426468
-0.02882655 0.0047409013 -0.0032401141 4285492004
-0.027028248 0.0056225285 -0.0043527037 4285426468
-0.025235102 0.0065039098 -0.0054640621 4285426468
-0.023307823 0.0066438317 -0.0058912244 4285492514
-0.021096505 0.0053019151 -0.0049535576 4285492513
-0.01901897 0.0047016442 -0.004699951 4285558304
-0.016935982 0.0041019022 -0.0044475347 4285492514
-0.014997452 0.0042430833 -0.0048768502 4285558304
-0.012753598 0.002903983 -0.0039460417 4285558049
-0.010343697 0.00082570314 -0.0023380723 4285492258
-0.0076018386 -0.0027308986 0.00062415004 4285491493
0.0088195987 0.0037325993 -0.0080031771 4285492514
0.010029186 0.0068274215 -0.011125246 4285624349
0.01177917 0.0077078119 -0.01222547 4285624094
0.01409357 0.0063754544 -0.01130897 4285558303
0.016611215 0.0043067411 -0.0097236056 4285558813
0.019144896 0.0022393242 -0.0081416294 4285559069
0.020903047 0.0031207576 -0.0092432294 4285559068
0.022655876 0.004001908 -0.010343576 4285559324
0.024606617 0.0041463152 -0.010773798 4285559069
0.026351474 0.0050271824 -0.01187223 4285559068
0.028091013 0.0059076995 -0.012969371 4285558813
0.029825214 0.0067879632 -0.01406523 4285493279
0.032409586 0.0047251135 -0.012493795 4285559069
0.035443 0.0011925623 -0.0095939841 4285427744
0.039599072 -0.0060144067 -0.0033732746 4285361953
0.045139626 -0.017627962 0.0068242364 4285164328
-0.038623221 0.0024615452 -0.0022750907 4285360424
-0.036812477 0.0033456907 -0.0033891946 4285361188
-0.034760632 0.0027405694 -0.0031322762 4285426469
-0.032577477 0.0013915747 -0.0021921564 4285295398
-0.030511945 0.00078763813 -0.001938127 4285295144
-0.028572008 0.00092812628 -0.0023683589 4285294889
-0.02689942 0.0025562271 -0.004163621 4285426214
-0.024964474 0.0026965812 -0.0045925882 4285426469
-0.023168445 0.0035804585 -0.0057028998 4285426469
-0.021094061 0.0029776543 -0.0054503679 4285360678
-0.019014202 0.002375409 -0.0051990096 4285426469
-0.016928874 0.0017736778 -0.0049487669 4285557539
-0.014987826 0.0019149929 -0.0053786766 4285623328
-0.012894221 0.0013140887 -0.0051300973 4285557029
-0.0106401 -2.8543174e-05 -0.0042047817 4285556774
0.0084954984 0.0028805062 -0.0098605473 4285360933
0.0097030438 0.0059838593 -0.012975566 4285492769
0.01163746 0.0061263517 -0.013402736 4285558814
0.013761625 0.0055292472 -0.013159635 4285624604
0.016468231 0.0027143583 -0.010908926 4285624603
0.018806159 0.0013796315 -0.01000078 4285624858
0.020759378 0.001523979 -0.01043174 4285625113
0.022512266 0.0024073124 -0.011530418 4285558814
0.024462854 0.0025516897 -0.011960624 4285558813
0.026207764 0.0034347177 -0.013057401 4285624604
0.028155696 0.0035791472 -0.013486827 4285624603
0.029892616 0.0044617727 -0.014581623 4285624349
0.032265238 0.0031304583 -0.013680482 4285558559
0.034864828 0.0010624155 -0.012117354 4285493024
0.03901346 -0.0061668083 -0.0059116166 4285361954
0.044323705 -0.017078325 0.0035980642 4285229863
-0.038055606 -0.0036014095 0.00065425225 4285228843
-0.036228858 -0.0027139187 -0.00046180747 4285164073
-0.033915497 -0.004813537 0.0011565443 4285229609
-0.031585969 -0.0069118664 0.0027713925 4285230119
-0.029496819 -0.0075162947 0.0030185021 4285229864
-0.027533069 -0.0073740855 0.0025829785 4285163309
-0.026103437 -0.0042480454 -0.00057621859 4285228844
-0.024422459 -0.0026149452 -0.0023699626 4285425703
-0.02302976 0.00050862879 -0.005520802 4285557028
-0.021091945 0.0006493926 -0.0059502441 4285557028
-0.019009762 4.5113266e-05 -0.0057010856 4285556263
-0.016775213 -0.0013035834 -0.0047750771 4285622054
-0.014978528 -0.00041712075 -0.0058835112 4285884448
0.0085348375 0.00054825097 -0.010373818 4285426214
0.0099298619 0.0029182211 -0.01281316 4285623839
0.012056295 0.0023190603 -0.01257235 4285689884
0.014377601 0.00097858161 -0.011664096 4285690138
0.016709622 -0.00036103278 -0.010758074 4285690138
0.018857498 -0.00095825642 -0.010521719 4285690394
0.02081323 -0.00081373006 -0.010953242 4285624093
0.022969145 -0.0014101192 -0.010718482 4285558049
0.02492759 -0.0012651458 -0.011150399 4285492004
0.026680548 -0.00037941337 -0.012247255 4285558049
0.028428182 0.00050606579 -0.013342826 4285558048
0.03059211 -8.9250505e-05 -0.013109466 4285492514
0.032547873 5.6006014e-05 -0.013540434 4285492514
0.034719765 -0.00053846836 -0.013308628 4285361443
0.038866274 -0.0077894703 -0.0071190586 4285361189
0.044173405 -0.018733673 0.0023663417 4285295144
0.0087551475 -0.0025326982 -0.010221401 4285426213
0.010155924 -0.00015576929 -0.012657052 4285492514
0.012100704 -1.2531877e-05 -0.013086526 4285558304
0.014234837 -0.00061319023 -0.012848997 4285558303
0.016566314 -0.0019571781 -0.011946192 4285558048
0.018908475 -0.0033001974 -0.011045679 4285558049
0.020866726 -0.0031554922 -0.011477756 4285558049
0.023024973 -0.0037539005 -0.011245123 4285492258
0.024985928 -0.0036087558 -0.011677611 4285492514
0.027152173 -0.0042062998 -0.011446602 4285492514
0.028907847 -0.0033180714 -0.012542292 4285492514
0.030868806 -0.0031725541 -0.012974492 4285492514
0.033043034 -0.0037691221 -0.012744951 4285492514
0.035438523 -0.005107224 -0.011855456 4285426724
0.039156329 -0.010895498 -0.0070053553 4285295398
0.044023126 -0.020388708 0.0011348575 4285229099
0.010565039 -0.0039847866 -0.011840696 4285426978
0.012517661 -0.0038409755 -0.012271895 4285492514
0.014470331 -0.0036970451 -0.012703027 4285492513
0.016614813 -0.0042989701 -0.01246935 4285492514
0.018959101 -0.0056462213 -0.011572598 4285492513
0.021116972 -0.0062469169 -0.01134169 4285492514
0.023280185 -0.006847091 -0.011111866 4285492514
0.025246318 -0.0067015514 -0.01154549 4285426723
0.02762264 -0.0080458894 -0.010655473 4285426979
0.029386353 -0.0071549043 -0.011751275 4285426979
0.031144731 -0.0062641874 -0.012845795 4285426723
0.033110857 -0.006118156 -0.013279038 4285426723
0.035508461 -0.0074604228 -0.012393336 4285360933
0.039227203 -0.013265915 -0.007556743 4285295143
0.044093937 -0.022787236 0.00056186318 4285163053
0.011156604 -0.0085752979 -0.010368957 4285492513
0.012933478 -0.007682167 -0.011466763 4285427234
0.014705062 -0.0067892596 -0.012563343 4285492513
0.016662948 -0.0066448301 -0.012995533 4285492513
0.019009363 -0.0079962388 -0.012102577 4285492513
0.021169547 -0.0085989162 -0.01187384 4285492513
0.022935938 -0.0077059492 -0.012968852 4285492513
0.025303718 -0.0090553686 -0.01208037 4285426979
0.027682172 -0.010403924 -0.011194105 4285426979
0.029863715 -0.011004537 -0.010969709 4285361444
0.031419892 -0.0093642324 -0.012723363 4285361188
0.033391196 -0.0092178062 -0.013157736 4285361444
0.036009144 -0.011310466 -0.011618557 4285426723
0.039734147 -0.017132781 -0.0067966431 4285360934
0.011196453 -0.010930099 -0.010899718 4285493024
0.013162091 -0.010785319 -0.0113338 4285427233
0.014939059 -0.009889923 -0.012429885 4285426978
0.016902119 -0.0097450987 -0.012863203 4285426979
0.018865213 -0.00960017 -0.013296447 4285426978
0.02102505 -0.010205038 -0.013069301 4285361188
0.023389604 -0.011559151 -0.012183531 4285426978
0.025764842 -0.012912385 -0.011299974 4285427234
0.028150734 -0.014264666 -0.010418717 4285493025
0.030132547 -0.014117695 -0.0108556 4285426978
0.03211436 -0.013970621 -0.011292394 4285361188
0.034096163 -0.013823427 -0.011729095 4285361188
0.036508668 -0.015173264 -0.010853268 4285360934
0.039803877 -0.019515641 -0.0073572807 4285229354
0.009087339 -0.012680404 -0.011660944 4285098029
0.010869563 -0.011782713 -0.012756716 4285099048
0.012832381 -0.011638172 -0.013190187 4285295654
0.014795251 -0.011493497 -0.013623572 4285164838
0.016758155 -0.011348702 -0.01405688 4285165348
0.0187211 -0.011203773 -0.014490083 4285099304
0.021273606 -0.013315089 -0.012947175 4285033258
0.023842134 -0.015425138 -0.011407658 4285032748
0.026628494 -0.01828558 -0.0092140511 4285032493
0.0068009384 -0.013674594 -0.013083108 4285032748
