# .PCD v0.7 - Point Cloud Data file format
VERSION 0.7
FIELDS x y z rgba
SIZE 4 4 4 4
TYPE F F F U
COUNT 1 1 1 1
WIDTH 839
HEIGHT 1
VIEWPOINT 0 0 0 1 0 0 0
POINTS 839
DATA ascii
0.001234401 -0.0038734004 0.027734306 4287314234
0.0029590577 -0.0023155659 0.025930665 4288754728
-0.0038417503 -0.0015053675 0.023116086 4290845728
-0.0021224469 5.6214631e-05 0.021316636 4290061348
-0.00011003762 0.00018513948 0.020919248 4290389534
0.0020569973 -0.00040169805 0.02122134 4289474339
0.0042294711 -0.00098808855 0.021522418 4289348368
-0.0080047324 -0.00341966 0.022707589 4289146918
-0.0068492964 0.0010218546 0.018109381 4289539364
-0.0051406063 0.0025870129 0.016315211 4290127648
-0.0031445213 0.0027147532 0.015920941 4289866529
-0.00084496289 0.0014061257 0.016923413 4290913813
0.0014654063 9.8280609e-05 0.017923832 4289933083
0.0036295429 -0.0004908666 0.018224977 4289998873
0.0059588328 -0.0017972663 0.019221827 4288756514
-0.010702178 -0.0023191646 0.019103207 4289478674
-0.0091182366 -2.7708709e-05 0.016610097 4289410079
-0.0076937303 0.0029838458 0.013421861 4289932064
-0.0061443895 0.0052733645 0.01093572 4289474083
-0.0040156767 0.0046794191 0.011241898 4289539874
-0.0017299876 0.003365472 0.01224388 4289867039
0.0010290891 -0.00010851771 0.015332419 4290652949
0.0033444203 -0.0014203116 0.01632867 4289736733
0.0056705475 -0.0027313307 0.017322909 4289802268
-0.0099480562 0.0019486696 0.01192973 4289738009
-0.0082497895 0.0035218075 0.010144003 4290194203
-0.0065621249 0.0050943494 0.0083605014 4290390044
-0.0045877434 0.0052206591 0.0079704933 4289539874
-0.0023105741 0.0039018169 0.0089708343 4290848534
0.00043946132 0.00041628629 0.012052972 4289932829
0.002746284 -0.00090048462 0.013047665 4289802269
0.0053826496 -0.0036607087 0.015427407 4289670943
0.0073922724 -0.003531538 0.015030891 4289214748
-0.010495231 0.0024962649 0.0086568948 4289807113
-0.0086616464 0.0033478662 0.0075711273 4290064154
-0.0068333223 0.0041992366 0.0064864941 4289473829
-0.0047132671 0.0036003515 0.0067910999 4289343013
-0.002587758 0.0030019209 0.0070947148 4289866783
-0.00014909357 0.00095456094 0.0087833963 4289801248
0.0019926652 0.0003574118 0.0090839826 4289409058
0.0042990558 -0.00096360594 0.010075523 4289605918
0.0067781433 -0.0030080155 0.011756495 4289606173
0.0089442171 -0.0036032721 0.012052525 4289215768
-0.0066672117 0.0011266693 0.0066948831 4290063134
-0.0043937825 -0.00020132214 0.0076893102 4289866273
-0.0025625527 0.00065262616 0.0066058859 4289670433
-0.00058291107 0.00077950209 0.0062150024 4289866783
0.0010840967 0.0023598894 0.0044424329 4290979348
0.0035356469 0.00030705333 0.0061237849 4290782744
0.0060033575 -0.0017446503 0.0078020878 4289932319
0.0083228052 -0.0030690283 0.0087880027 4289474848
0.010151777 -0.002214469 0.0077055097 4288758809
-0.0069381483 0.00023435801 0.0048229024 4289998619
-0.0048160478 -0.00036879629 0.0051238239 4289735969
-0.0029901452 0.00048698485 0.0040430725 4289736733
-0.0013230294 0.0020716637 0.0022736043 4290325018
0.00033345819 0.0036557391 0.00050636753 4290128668
0.0024559051 0.0030530766 0.00080757029 4290389788
0.0050684288 0.00026517361 0.003172487 4290782233
0.0075382143 -0.0017928705 0.0048455521 4289540894
0.0098572224 -0.0031214803 0.0058283359 4289934358
-0.0072087124 -0.00065322965 0.0029543601 4290198538
-0.0049416125 -0.0019904003 0.0039434843 4289867803
-0.0032663494 -0.0004009977 0.0021756217 4290064154
-0.0017550588 0.0019191727 -0.00027829781 4289409315
-0.00010374188 0.0035073161 -0.0020413063 4289081638
0.0018543378 0.0036330149 -0.0024277717 4289212453
0.0046193786 0.00010497868 0.00061901473 4289343780
0.0069190934 -0.0012293682 0.0016022399 4289801759
0.0092295669 -0.0025629327 0.002583418 4289867804
0.010873161 -0.00097470731 0.00082243979 4290000914
0.028476689 -0.014660172 0.011722771 4287840298
0.032606784 -0.022545777 0.018812135 4288231723
-0.0039936565 0.00091668218 -0.001749862 4289932574
-0.0024927147 0.0032427236 -0.0041968618 4290520604
-0.00069605559 0.0041012242 -0.0052684005 4289800993
0.0014123693 0.0034932643 -0.0049677193 4289081383
0.0040098317 0.00068687648 -0.0026129074 4290259739
0.0063010156 -0.00065241009 -0.0016312692 4290128923
0.0084364191 -0.0012583062 -0.0013355911 4289932828
0.010577213 -0.0018637255 -0.0010409392 4289802524
0.022823131 -0.010736354 0.0058642793 4287775528
0.025758911 -0.014263161 0.0088700224 4287904559
0.029849434 -0.022175483 0.01594907 4287970094
0.033808224 -0.029352784 0.022337414 4287904049
-0.0063737929 0.00065547228 -0.0039051361 4290003208
-0.0044189207 0.00078058243 -0.004291255 4289998363
-0.0029229634 0.0031128079 -0.0067323335 4289604389
-0.000975959 0.0032376647 -0.0071167145 4289342759
0.0011294708 0.0026273131 -0.0068170764 4289277734
0.0037234277 -0.0001880601 -0.0044681095 4290651673
0.005847726 -0.00079696625 -0.0041720327 4290193949
0.0081438348 -0.0021402016 -0.0031945445 4289801759
0.010619774 -0.0042172819 -0.0015372159 4289736479
0.013111826 -0.0062932 0.00011702999 4289279263
0.015794411 -0.0091022551 0.0024489742 4289019419
0.018144237 -0.010441519 0.0034162346 4287971879
0.020325016 -0.01104603 0.0037017483 4287774509
0.022876093 -0.013117664 0.005344728 4287838768
0.025998674 -0.017388873 0.0090206545 4287904303
0.0300925 -0.025325 0.016081106 4287707443
0.034054771 -0.03252399 0.022452485 4287641654
-0.0031996742 0.0022541434 -0.0085778404 4289409059
-0.00094447285 0.00090339035 -0.0075958669 4289408549
0.0013214946 -0.00044652075 -0.0066159833 4289081383
0.0037591122 -0.0025330037 -0.0049562715 4289343013
0.0060493201 -0.0038811043 -0.0039809803 4288950824
0.0083502941 -0.0052284375 -0.0030076811 4288689194
0.010999825 -0.0080486163 -0.00067593902 4288427819
0.013499238 -0.010130584 0.00097191148 4288688939
0.016014764 -0.01221142 0.0026167277 4288231214
0.018369447 -0.013554752 0.0035797637 4287904304
0.020375647 -0.013424985 0.0031845253 4288035119
0.022928737 -0.015503041 0.0048222076 4287838513
0.026052803 -0.019787274 0.0084880497 4287903794
0.030147262 -0.027747445 0.015530467 4287707190
0.033919983 -0.034232743 0.021209314 4287641399
-0.0030180179 -0.00082004815 -0.0083743967 4289741323
-0.00060262531 -0.0029147193 -0.0067154206 4289212198
0.0018289089 -0.0050082728 -0.0050594928 4289081638
0.004115887 -0.0063611344 -0.0040869014 4288820009
0.0064136237 -0.0077131316 -0.0031163665 4288165935
0.0087221414 -0.0090642944 -0.0021478543 4288100398
0.011378866 -0.011892751 0.00017593987 4288100399
0.013885655 -0.013980858 0.0018174741 4288558379
0.016234454 -0.015329055 0.0027783159 4288623659
0.01859401 -0.016676486 0.0037371721 4288034864
0.02060541 -0.016546398 0.0033408981 4287773234
0.022981055 -0.017892487 0.0042967331 4287772979
0.026106626 -0.022189766 0.0079525355 4287772468
0.030014217 -0.029436089 0.014301894 4287706933
0.033595059 -0.035203472 0.019291934 4287445048
-0.00010659546 -0.0074878037 -0.0051646018 4288165678
0.0021771453 -0.0088453665 -0.0041947225 4288297004
0.0044716597 -0.010202073 -0.0032269107 4288100399
0.0067769438 -0.011558004 -0.0022610957 4288100654
0.0094247535 -0.0143959 5.7833269e-05 4287904303
0.011756912 -0.015749805 0.0010185 4287904303
0.014099829 -0.01710289 0.0019771326 4288230959
0.016279588 -0.017714329 0.0022577997 4288427053
0.01846472 -0.018325247 0.0025374573 4288034609
0.020834498 -0.019676216 0.0034910869 4287903794
0.023396958 -0.021766745 0.0051171575 4287772468
0.026529348 -0.026076667 0.0087617729 4287903284
0.029881194 -0.031124406 0.013073545 4287641143
0.032890558 -0.034689866 0.016032375 4287314234
-7.6875091e-05 -0.0098453239 -0.0056606168 4288298279
0.002209045 -0.011207081 -0.0046944739 4288100653
0.0043453872 -0.011824101 -0.0044073993 4287904303
0.0068132132 -0.01392819 -0.0027682427 4287904303
0.0092971511 -0.016031116 -0.0011321772 4287904303
0.011797193 -0.018132843 0.00050076284 4287904048
0.01414229 -0.019490205 0.0014557447 4288100399
0.016324392 -0.020103641 0.0017342661 4288623148
0.018864706 -0.022202365 0.0033595692 4287903283
0.021600209 -0.02504269 0.0056551751 4287772468
0.024175383 -0.027138971 0.0072738286 4287641654
0.027135523 -0.030718811 0.01023398 4287772468
0.030309573 -0.035038985 0.013860725 4286725438
-4.7471374e-05 -0.012206875 -0.0061596306 4288036138
0.0020831302 -0.012826554 -0.0058731483 4288297259
0.0043793321 -0.014191911 -0.0049122106 4287904304
0.0068491623 -0.016302437 -0.0032783542 4287904304
0.0095006451 -0.019157574 -0.00097320415 4287904048
0.011837155 -0.020519942 -1.992844e-05 4287904048
0.014526211 -0.023372404 0.0022779983 4287969073
0.017063156 -0.025478072 0.0038990248 4288230449
0.019792438 -0.028327696 0.0061892066 4287510584
0.022364227 -0.030430816 0.007803496 4286137154
-0.00017302111 -0.013823844 -0.0073365215 4288297769
0.0021145716 -0.015194245 -0.0063772481 4287970094
0.0044129677 -0.016563855 -0.0054199528 4287773489
0.006722115 -0.017932631 -0.0044647511 4287904814
0.0093727559 -0.020796552 -0.0021659527 4287511858
0.012212899 -0.024406768 0.0008009579 4287511859
0.015079856 -0.028015122 0.0037626754 4287053624
0.017800227 -0.03087417 0.0060480125 4286202944
-0.00014405698 -0.016191356 -0.007839879 4288494374
0.0018314049 -0.016064607 -0.0082298312 4288166954
0.0041266084 -0.017438754 -0.0072752219 4287642929
0.0065951049 -0.019562468 -0.005650891 4287315764
0.009410087 -0.023185365 -0.002687281 4283067718
0.012755509 -0.0290564 0.002283169 4283132488
0.0035212971 -0.0168036 -0.010468328 4283723324
0.0061434358 -0.01968696 -0.0081770588 4282546499
0.0092820935 -0.024825901 -0.003881163 4282349894
0.012961373 -0.032218881 0.0024146624 4282609483
-0.0031277686 -0.015777595 -0.013158945 4284180284
-0.00085778534 -0.01716236 -0.012206079 4283461183
0.0012661666 -0.017791264 -0.011924775 4282676548
0.0030765235 -0.016909853 -0.012982639 4282414918
0.0058546402 -0.020557053 -0.010028137 4281958214
0.0089892745 -0.025711574 -0.0057428172 4282153543
0.012496483 -0.032372288 -0.00012985989 4282413898
-0.011800699 -0.014094494 -0.016134301 4284247348
-0.0097096004 -0.014728285 -0.015848657 4283530288
-0.0076130554 -0.015361637 -0.015564015 4282680118
-0.0055110753 -0.015994489 -0.015280345 4281959234
-0.0034036525 -0.016626917 -0.014997603 4281892934
-0.0012908094 -0.017258801 -0.014715878 4281827908
0.0011407547 -0.019404821 -0.01309914 4281762373
0.0031104609 -0.01927834 -0.013487877 4281762374
0.0057282262 -0.022179402 -0.011208834 4281631049
0.0086968318 -0.02659253 -0.0076010404 4281696073
0.011864934 -0.031759977 -0.0033336682 4282674509
-0.015818834 -0.015938304 -0.016525684 4284445738
-0.013871357 -0.015814267 -0.016910797 4283334193
-0.01192379 -0.015690111 -0.017295839 4282221118
-0.0098330118 -0.016326122 -0.017011778 4281829949
-0.0077367947 -0.016961679 -0.016728701 4281699644
-0.0056351349 -0.017596737 -0.016446596 4281763393
-0.0033769123 -0.018991165 -0.015497981 4281762374
-0.0012617186 -0.019625075 -0.015218345 4281631559
0.0010153726 -0.021018051 -0.014273273 4281434954
0.0033032298 -0.022410162 -0.013330279 4281499978
0.0056018457 -0.023801439 -0.012389297 4281238604
0.0084047541 -0.027468801 -0.009455855 4281498958
0.011234462 -0.031134248 -0.006527639 4282280789
-0.021782883 -0.017904826 -0.016531361 4284444718
-0.019835912 -0.017781205 -0.016916661 4282809913
-0.018021032 -0.016894281 -0.01797145 4282352188
-0.015941575 -0.017533563 -0.017687051 4281697859
-0.01413184 -0.016646706 -0.018740626 4281370949
-0.012046844 -0.017285414 -0.018457158 4281305414
-0.0099563859 -0.017923631 -0.018174661 4281305414
-0.0075692758 -0.020086072 -0.01655929 4281370949
-0.0056108721 -0.019960858 -0.016946191 4281304904
-0.0035014413 -0.02059748 -0.016667163 4281369929
-0.0013865754 -0.021233626 -0.016389115 4281303629
0.00089002401 -0.022630997 -0.015447205 4281237584
0.0031773821 -0.024027474 -0.014507348 4281302098
0.005313836 -0.024661846 -0.014233259 4281301333
0.0079487041 -0.027579196 -0.0119705 4281300058
-0.02347973 -0.021920882 -0.015298629 4283267894
-0.021651722 -0.021031186 -0.016354566 4282547773
-0.019958325 -0.019376136 -0.018077863 4282024769
-0.018275499 -0.017721601 -0.019799015 4281763903
-0.016333781 -0.017598085 -0.020183096 4281370949
-0.014391966 -0.01747442 -0.020567099 4281174599
-0.01230995 -0.018115558 -0.020284632 4281370183
-0.010079738 -0.019520856 -0.019337343 4281304904
-0.0076932833 -0.021689869 -0.017726718 4281369673
-0.0057350397 -0.02156467 -0.018113593 4281500999
-0.0037767217 -0.021439336 -0.018500393 4281368909
-0.001664862 -0.022077851 -0.018223381 4281237075
0.00045241416 -0.022715919 -0.017947337 4281106004
0.0027339272 -0.024117194 -0.017009562 4281366868
0.0048647039 -0.024754114 -0.016735984 4281431129
0.0073292032 -0.026917197 -0.015140153 4281952094
-0.025314368 -0.025182419 -0.014740481 4283788859
-0.023230694 -0.025826313 -0.014460555 4282351168
-0.021647736 -0.023398079 -0.016851345 4282220609
-0.020209916 -0.020203054 -0.019905744 4281893443
-0.018529579 -0.018544339 -0.021623151 4281566789
-0.016456135 -0.019188367 -0.021340838 4281305159
-0.01437721 -0.019832008 -0.021059481 4281173834
-0.012292854 -0.020475127 -0.020779138 4281238859
-0.010203052 -0.021117754 -0.02049979 4281238858
-0.0081078112 -0.021759927 -0.020221414 4281370184
-0.0061550699 -0.02163507 -0.020607205 4281237583
-0.0042022653 -0.02151008 -0.020992907 4280974168
-0.0020960793 -0.022151165 -0.020716412 4282083164
-0.023477443 -0.02666349 -0.016297301 4282219334
-0.021896817 -0.024228901 -0.018682757 4282220099
-0.02046115 -0.021025248 -0.021730257 4281696328
-0.018651582 -0.020132132 -0.022779124 4281565258
-0.016712852 -0.02000881 -0.02316262 4281172559
-0.014499854 -0.021424212 -0.022218587 4281237839
-0.01269532 -0.020531006 -0.023266217 4281237583
-0.010468759 -0.021945305 -0.022324683 4281302608
-0.0085216165 -0.021820955 -0.022709468 4281171028
-0.0065743849 -0.021696456 -0.023094175 4281756764
-0.023847386 -0.026723526 -0.018795447 4282477905
-0.022145525 -0.025055028 -0.020510772 4282022728
-0.02045425 -0.023387067 -0.022223888 4281434443
-0.018773541 -0.021719627 -0.023934877 4281499723
-0.016969196 -0.020824574 -0.024981001 4281106769
-0.014896285 -0.021472894 -0.024701757 4281237073
-0.012957495 -0.021349318 -0.025085079 4281236563
-0.010876365 -0.021996878 -0.024807272 4282084439
-0.022267826 -0.026650958 -0.021672739 4281887069
-0.020576365 -0.02497866 -0.023382662 4281497683
-0.018764094 -0.024080999 -0.024428869 4281105748
-0.010204189 -0.033003636 -0.035736915 4282601068
0.028373875 0.018972665 0.033051774 4285688864
0.031739421 0.014293537 0.037635442 4285819934
0.023431214 0.012083977 0.038023304 4285295653
0.024009261 0.01773569 0.031926554 4285493024
0.02491625 0.0220052 0.027260821 4285689373
0.026545482 0.023514353 0.025444314 4285689119
0.029502984 0.020197034 0.028601188 4285754909
0.033845082 0.012056917 0.036720376 4285886489
0.013088457 0.01819244 0.029858772 4285556518
0.015099987 0.018322162 0.029462196 4285556518
0.017461605 0.017066695 0.030489154 4285623584
0.019478589 0.017196983 0.030091662 4285558303
0.021315211 0.018019676 0.028983567 4285558813
0.022780351 0.020226434 0.026456263 4285689884
0.024229422 0.022432201 0.023932245 4285886744
0.025850819 0.023945279 0.022120513 4285755164
0.028417066 0.021999627 0.023853853 4285689628
0.031968363 0.016597949 0.029124286 4285689373
0.036937922 0.0063602179 0.03933901 4285755163
0.0096134916 0.021972954 0.023358721 4285623584
0.011094943 0.02418682 0.02083274 4285820189
0.013249021 0.023619615 0.021152668 4285951259
0.015933048 0.020968251 0.023602016 4285951514
0.018283518 0.019707732 0.024628013 4285689629
0.020464519 0.019142561 0.02494286 4285624093
0.022102229 0.020660833 0.02313108 4285624093
0.023358062 0.023566887 0.019905422 4285755673
0.025157217 0.024389684 0.018806525 4285952789
0.027523836 0.023130715 0.019829717 4285821208
0.030675653 0.019097984 0.023676585 4285755673
0.034252252 0.013680466 0.028929058 4285558303
0.038866669 0.0047993511 0.037700076 4285558558
0.0058289878 0.018685989 0.024376143 4285427489
0.0073321722 0.020907596 0.021850672 4285624859
0.0088193268 0.023128301 0.019328389 4285623839
0.010459766 0.024650626 0.017518975 4285557539
0.012433514 0.024777912 0.01712985 4285623584
0.014931314 0.022814102 0.018866349 4285754908
0.017445257 0.020851426 0.020599809 4285689884
0.019615239 0.020283349 0.020915177 4285689628
0.021425156 0.021108784 0.019815683 4285624348
0.022673516 0.024023123 0.01659805 4285624349
0.024464682 0.02484756 0.015502412 4285624094
0.02701354 0.022887684 0.017229311 4285623839
0.029965393 0.019537181 0.020362873 4285623838
0.032551769 0.017579935 0.022082534 4285624350
0.035750654 0.013537318 0.025910486 4285558559
0.040996637 0.0025435686 0.036764752 4285558559
0.0052180067 0.019147284 0.02105457 4285427489
0.0065497532 0.022074938 0.017826427 4285689883
0.0081930235 0.02360177 0.016019605 4285886999
0.0099947751 0.024428368 0.014922976 4285886489
0.012306679 0.023156367 0.015949856 4285820698
0.014629349 0.021885224 0.016974658 4285886743
0.01713996 0.019915737 0.018703852 4285689884
0.019486824 0.018646352 0.019724037 4285624348
0.021114245 0.02017273 0.017920829 4285624349
0.02254572 0.022397123 0.015414964 4285624349
0.024524847 0.022525363 0.015025232 4285558558
0.02726634 0.019860782 0.017450623 4285558558
0.029642727 0.018593825 0.018465381 4285689629
0.031441957 0.019421294 0.017370019 4285689883
0.033633072 0.018853106 0.017680135 4285886489
0.03744008 0.012705117 0.023602486 4285885723
0.043947339 -0.0025053024 0.038630031 4285885723
0.0054126978 0.016110428 0.021282632 4285426723
0.0060959458 0.021855883 0.015230082 4285558814
0.0079003721 0.022684731 0.014134483 4285624603
0.0098684505 0.022811532 0.013746383 4285690139
0.012179889 0.021535121 0.014770079 4285755673
0.014327746 0.020961009 0.015086379 4285689629
0.016481014 0.020387344 0.01540168 4285624093
0.018639667 0.019814156 0.015716013 4285624093
0.020621324 0.019942336 0.015325613 4285624349
0.02297312 0.018669046 0.016341746 4285624348
0.024960164 0.018797807 0.01595046 4285624349
0.027328039 0.017525814 0.016963538 4285624348
0.029127335 0.018355377 0.015869729 4285689883
0.030529676 0.020584874 0.013374822 4285755164
0.032114379 0.022113495 0.011583781 4285755163
0.035297483 0.018043675 0.015395273 4285885724
0.04034717 0.0076799914 0.025496211 4285951514
0.0059282556 0.011655942 0.022917237 4285491494
0.0061331764 0.019532777 0.014757928 4285558558
0.0076080933 0.021772377 0.012252769 4285558814
0.0097421631 0.021194987 0.012569997 4285559069
0.012053121 0.01991415 0.013590505 4285624349
0.014026526 0.020041488 0.013201503 4285624348
0.015823124 0.020872466 0.012109341 4285689629
0.017793911 0.020999856 0.011721015 4285755418
0.020129129 0.019721009 0.012737064 4285755673
0.022844847 0.017037027 0.01515428 4285689884
0.024831768 0.01716578 0.01476302 4285624349
0.026628423 0.017997287 0.013671242 4285624350
0.027840942 0.020935871 0.010480581 4285821208
0.029227592 0.023170926 0.0079936776 4285689373
0.031192999 0.023298711 0.0076069664 4285492258
0.033962268 0.020618834 0.01001412 4285492259
0.038178511 0.013028122 0.017302532 4285492514
0.043485373 0.001933381 0.028066438 4285492513
0.0066598691 0.015085898 0.016395412 4285556518
0.0076480731 0.019451961 0.011781877 4285426213
0.0096158907 0.019578718 0.011393806 4285558814
0.011583775 0.019705601 0.011005817 4285624603
0.013377704 0.020538442 0.009915771 4285689884
0.014636304 0.023488171 0.0067220666 4285886999
0.016770221 0.022908993 0.0070379917 4285952279
0.019091558 0.021624856 0.0080534965 4285952278
0.022347173 0.01681567 0.012566984 4285886999
0.024515983 0.016239055 0.012876265 4285624348
0.026119942 0.017777383 0.011087744 4285624350
0.026749387 0.022838458 0.00580924 4285689883
0.028123034 0.025079217 0.00332986 4285887254
0.030273028 0.024501808 0.00364317 4285755673
0.033231542 0.021108292 0.0067428909 4285755929
0.036623787 0.016308673 0.011230079 4285756183
0.040465839 0.010104038 0.01710153 4285689884
0.045817979 -0.0010226518 0.027830396 4285558814
0.0071852356 0.010621682 0.018020343 4285818404
0.0076877475 0.017127417 0.011307983 4285622563
0.00915277 0.019379579 0.0088147018 4285624349
0.010772876 0.020922631 0.0070256647 4285690138
0.012382317 0.022465043 0.0052388553 4285886999
0.013981055 0.024006918 0.0034541842 4285623839
0.016106639 0.023424946 0.0037701484 4285557794
0.018783158 0.02072084 0.0061818808 4285689119
0.021665685 0.017310746 0.0092879403 4285689628
0.024013365 0.01602421 0.010295106 4285689883
0.025422269 0.018273659 0.0078134928 4285624349
0.026429925 0.021935873 0.0039414931 4285624349
0.027801279 0.024183057 0.0014674701 4285558813
0.029948287 0.023603268 0.0017797351 4285624349
0.03290312 0.020198576 0.0048720073 4285624349
0.035884723 0.016795717 0.0079590846 4285493278
0.038893089 0.013394721 0.011040989 4285493534
0.042971544 0.006466493 0.017586004 4285493278
0.049005669 -0.0068089068 0.030358784 4285492768
0.0078927167 0.014087938 0.011531634 4286212634
0.0088586286 0.018478967 0.0069421306 4285688864
0.0099633932 0.022157557 0.0030585323 4285623838
0.011562329 0.023703672 0.001277063 4285821464
0.013326883 0.024539098 0.00019616075 4285886998
0.015444111 0.023954444 0.00051208958 4285689883
0.017930087 0.021950699 0.0022217352 4285755673
0.020985253 0.017819382 0.0060186889 4285953044
0.023324409 0.016527891 0.0070242602 4285624348
0.02491539 0.018074147 0.0052448381 4285558813
0.026303224 0.020328902 0.0027723573 4285559069
0.027870057 0.021873809 0.0009978544 4285559068
0.030217204 0.020583294 0.0020021852 4285493533
0.032775506 0.018584996 0.0036981571 4285559069
0.035552982 0.015879504 0.0060841721 4285493024
0.038146038 0.013883732 0.0077734273 4285427233
0.042006079 0.0076409802 0.013612 4285558303
0.047392517 -0.0035534427 0.024281923 4285558303
0.008262448 0.010327004 0.012447935 4286211868
0.008732982 0.016870186 0.0057713855 4286213653
0.0096676834 0.021272399 0.001197977 4285623328
0.011090681 0.023535214 -0.0012770426 4285689883
0.012849905 0.024372518 -0.0023553129 4285755928
0.014961474 0.023785263 -0.0020398591 4285821464
0.017441437 0.021774612 -0.00033397228 4285887253
0.020305876 0.018341497 0.0027592499 4285690139
0.022636518 0.017045043 0.0037632696 4285624604
0.024219658 0.018595211 0.0019886252 4285558813
0.026176546 0.018722236 0.0016034413 4285493024
0.028328327 0.018138282 0.0019114204 4285558813
0.030880643 0.016132928 0.0036035944 4285624603
0.033248737 0.01483947 0.0046006627 4285624349
0.036033411 0.012125745 0.0069786794 4285624349
0.038633864 0.010123856 0.0086616315 4285624094
0.042500243 0.0038618222 0.014484249 4285558304
0.047891784 -0.007367231 0.025126975 4285492514
0.0091111735 0.01311662 0.0066911988 4286212378
0.0095429718 0.019677125 3.7087128e-05 4285885213
0.010966346 0.021946505 -0.0024331175 4285624094
0.012725607 0.022786006 -0.003509758 4285558304
0.015015528 0.021482214 -0.002501227 4285558813
0.017316174 0.020179264 -0.0014947765 4285559069
0.019811589 0.0181631 0.00020327978 4285559069
0.022323074 0.016148143 0.0018982142 4285558814
0.024471901 0.015561543 0.0022050254 4285624348
0.026626069 0.014975458 0.0025108252 4285426468
0.02898032 0.013676547 0.0035071392 4285426469
0.031542704 0.011665292 0.0051924307 4285426214
0.033921026 0.010368161 0.0061841756 4285492259
0.036512822 0.0083590299 0.007863842 4285426469
0.039326116 0.0056384951 0.010229832 4285426469
0.043409649 -0.001355052 0.016724817 4285426978
0.049233306 -0.014042959 0.02871602 4285492259
0.010440946 0.013779812 0.0030442458 4286081054
0.011361402 0.018207468 -0.0015066639 4285688864
0.013128757 0.019049637 -0.0025832243 4285557794
0.01524774 0.018458523 -0.0022725407 4285493278
0.017734442 0.016435124 -0.00057775527 4285558813
0.019869544 0.015845276 -0.00027008168 4285624349
0.022383068 0.01382383 0.0014195815 4285492769
0.024723453 0.012519412 0.0024151858 4285492514
0.027266454 0.010500111 0.0040992275 4285426468
0.029630942 0.0091974959 0.0050902665 4285426213
0.032203384 0.0071803108 0.0067686643 4285491749
0.034392022 0.0065946206 0.0070663076 4285426214
0.036991198 0.0045794249 0.0087396298 4285360934
0.039401114 0.003280215 0.0097220708 4285361189
0.043693423 -0.0044497997 0.016887855 4285492004
0.04951914 -0.017176911 0.028849203 4285492003
-0.019745424 0.002945818 0.015077956 4285294124
-0.017630979 0.0023501962 0.01538638 4285819679
-0.015245501 0.00031170249 0.017094728 4285688609
-0.012708388 -0.0024470761 0.019499823 4285490728
0.010826074 0.010014139 0.003953319 4286342938
0.011928417 0.013736449 0.00010296144 4286017049
0.013706528 0.014581479 -0.00097408704 4285754399
0.015835922 0.013988853 -0.00066709891 4285623583
0.018151684 0.012678124 0.00032983348 4285623839
0.020294528 0.012086548 0.00063438714 4285557794
0.022815423 0.010059066 0.002317667 4285492259
0.025163379 0.0087507144 0.0033085532 4285426469
0.027905472 0.0060074702 0.0056750439 4285426469
0.030474581 0.0039834604 0.0073490888 4285492004
0.032665621 0.0033955723 0.007644577 4285426469
0.034662236 0.0035255477 0.0072518475 4285426468
0.037063666 0.0022212937 0.0082326028 4285360678
0.039680898 0.0002008453 0.0098975748 4285360933
0.044184282 -0.0082698017 0.017730337 4285360934
-0.025107123 -0.0034094229 0.019278705 4285295908
-0.023960494 0.0017892048 0.013976056 4285558304
-0.02247747 0.0048123971 0.010782231 4285754909
-0.020888478 0.0071102008 0.0082925558 4285754653
-0.01866585 0.0057869703 0.0093029961 4285886489
-0.016167164 0.0030168071 0.0117091 4286082839
-0.013782188 0.00097180158 0.013412708 4285688864
-0.011656925 0.00037501007 0.013717603 4287131909
0.01104011 0.0069570169 0.0041615665 4286342939
0.012321308 0.009969376 0.001009088 4286146843
0.014458407 0.009374924 0.0013128296 4285688354
0.016422749 0.009501867 0.00092575513 4285623073
0.018748747 0.0081874356 0.0019174069 4285492258
0.020901993 0.0075943395 0.0022182744 4285426468
0.023246774 0.0062813461 0.0032064002 4285426468
0.025413414 0.00568939 0.0035047568 4285492004
0.027776957 0.0043777972 0.0044894014 4285426214
0.030345406 0.0023471937 0.0061586797 4285360678
0.032929927 0.00031770021 0.0078249201 4285360679
0.035330907 -0.00099105388 0.0088024214 4285294888
0.037742585 -0.002299048 0.0097779427 4285295143
0.04077974 -0.0057637766 0.012805186 4285294888
0.045296967 -0.014259748 0.020615634 4285294889
-0.031452894 -0.0039762706 0.017868076 4285031984
-0.029572763 -0.0031228811 0.016772155 4285295399
-0.028046884 -8.8520348e-05 0.013576081 4285427233
-0.026661277 0.0036714822 0.0096843988 4285493024
-0.025058851 0.0059764311 0.0071968324 4285755164
-0.023472317 0.0082805082 0.0047124401 4285689119
-0.021647573 0.0091308728 0.0036279224 4285623584
-0.019438796 0.0078023672 0.0046378281 4285623328
-0.016954325 0.0050225258 0.0070401877 4285754653
-0.014583383 0.0029700473 0.0087416545 4285820443
-0.012609582 0.0030958727 0.008351421 4285557539
0.011083547 0.0046151057 0.0036737695 4286539544
0.012540579 0.0069129393 0.0012164898 4286015519
0.014507435 0.0070399418 0.00082883239 4285622563
0.016830258 0.005720742 0.0018177871 4285623074
0.019344451 0.0036794618 0.0034924019 4285557539
0.021508094 0.0030848905 0.0037895404 4285492004
0.023677107 0.0024907589 0.004085768 4285492004
0.025851475 0.001897119 0.0043809749 4285360424
0.028031189 0.0013039485 0.0046752207 4285360678
0.030604349 -0.00073296577 0.0063387081 4285361189
0.033587005 -0.004212521 0.0093682334 4285425959
0.03679584 -0.0084119663 0.013076618 4285360169
0.039632622 -0.011166066 0.015411772 4285294889
0.043105088 -0.016082816 0.019791722 4285294633
0.047444798 -0.023881897 0.026894305 4285098029
-0.036725 0.002164267 0.0097554922 4285360169
-0.034977444 0.0037477762 0.0079654958 4285885469
-0.032907888 0.0031419173 0.0082772821 4285885724
-0.03071928 0.0018070713 0.0092874058 4285754908
-0.02886837 0.0026608482 0.0081990119 4285558813
-0.027141511 0.0042434633 0.0064134225 4285558813
-0.025546752 0.0065544993 0.003932206 4285755673
-0.023843661 0.0081358328 0.0021514893 4285821208
-0.022024229 0.008988075 0.0010696016 4285754908
-0.020080447 0.0091116056 0.00068502501 4285820698
-0.017739736 0.0070505142 0.0023874771 4286017814
-0.015517764 0.0057186857 0.003391657 4285689629
-0.013422564 0.0051155016 0.0036992356 4285689629
-0.011181615 0.0037850961 0.0046998225 4285688608
0.012414321 0.0052993521 4.2295083e-05 4286146079
0.014030803 0.0068773106 -0.0017196946 4285426468
0.016525565 0.0048281029 -4.6230853e-05 4285426213
0.019216904 0.0020548478 0.0023102947 4285491749
0.021563388 0.00073305517 0.0032915045 4285426214
0.023920583 -0.00058789551 0.0042706393 4285425959
0.026288513 -0.0019080564 0.0052478071 4285294378
0.02885833 -0.0039518103 0.0069069266 4285163053
-0.042348646 -0.0027500764 0.012552692 4285098283
-0.040774673 0.0003041178 0.0093596429 4285427489
-0.039221905 0.0033570752 0.0061708614 4285624094
-0.037584998 0.0056766346 0.0036857519 4285689374
-0.035747975 0.006531395 0.002601428 4285689375
-0.033584088 0.005190447 0.0036131311 4285820954
-0.031409331 0.0038503408 0.0046227109 4285689628
-0.029455751 0.003973946 0.0042357799 4285689628
-0.027620681 0.0048289523 0.0031522065 4285624349
-0.025790825 0.0056837648 0.0020697545 4285624349
-0.02421426 0.008000277 -0.00040290132 4285690139
-0.02252689 0.0095850825 -0.0021771742 4285821209
-0.020591259 0.0097080842 -0.0025601471 4285689883
-0.018391319 0.0083703473 -0.0015549725 4285623839
-0.01618053 0.007033363 -0.00055182725 4285689884
-0.014233787 0.0071574226 -0.00093673915 4285624349
-0.012006711 0.0058217272 6.3305721e-05 4285558048
0.014079716 0.0045407191 -0.0022048559 4285492003
0.016398871 0.0032125786 -0.0012217574 4285361189
0.019089377 0.0004305318 0.0011284109 4285360678
0.021801328 -0.00235001 0.0034744404 4285360679
0.024163399 -0.003675051 0.0044493955 4285360168
0.027289545 -0.007906571 0.0081540979 4285359659
0.030638855 -0.012862533 0.012534982 4285359659
-0.043151535 0.00077289343 0.0064767804 4285230119
-0.041495927 0.0030999333 0.003992673 4285493534
-0.039856181 0.0054261237 0.001511747 4285755929
-0.038021974 0.0062827393 0.00042957254 4285689119
-0.036300763 0.0078732669 -0.0013487218 4285623329
-0.034037545 0.005793266 0.00035854429 4285820699
-0.031871282 0.004448168 0.0013665594 4285886743
-0.029809996 0.003837578 0.00167685 4285689629
-0.027980268 0.004694432 0.00059594959 4285624348
-0.026155718 0.0055510998 -0.00048388541 4285558813
-0.024336368 0.0064074993 -0.0015625637 4285558558
-0.022522233 0.0072636679 -0.002640143 4285624349
-0.020713307 0.0081196353 -0.0037165927 4285624094
-0.018777668 0.0082427487 -0.0040994836 4285689629
-0.016841911 0.0083659664 -0.0044823317 4285755164
-0.015043296 0.0092216134 -0.0055564949 4285689628
-0.012550183 0.0064164102 -0.0031752735 4285689374
0.014477864 0.00074022263 -0.0013249926 4285556518
0.016982013 -0.0013215169 0.00033681467 4285425448
-0.041716941 0.0022380278 0.002131151 4285361953
-0.040181801 0.0053073093 -0.0010411106 4285625114
-0.038457893 0.0069022924 -0.0028168131 4285821463
-0.036636844 0.0077603161 -0.0038947007 4285886743
-0.034379616 0.0056733042 -0.0021911338 4285886999
-0.032219172 0.00432349 -0.0011852831 4285755418
-0.030163534 0.003710337 -0.00087552518 4285624093
-0.028339118 0.0045690089 -0.0019537564 4285624349
-0.02627781 0.0039564446 -0.0016449559 4285624348
-0.024334714 0.0040796474 -0.0020296052 4285558814
-0.022517852 0.0049381852 -0.00310608 4285558813
-0.020706221 0.0057964697 -0.004181467 4285755419
-0.018899813 0.0066545606 -0.0052557141 4285820954
-0.016964182 0.0067777559 -0.0056385435 4286018069
-0.015165538 0.0076355636 -0.0067110946 4285951768
-0.01281302 0.0055558756 -0.0050255079 4286017049
-0.010444313 0.0034772754 -0.003343001 4285754399
-0.0079143047 0.00066586584 -0.00097539462 4285884449
-0.041838087 0.00064174086 0.00096863136 4285295908
-0.040404551 0.0044586584 -0.0028923023 4285493534
-0.038787946 0.0067965612 -0.0053588077 4285624349
-0.03686472 0.0069178566 -0.0057400167 4285623838
-0.034610778 0.0048240572 -0.0040407013 4285624094
-0.032566324 0.0042078868 -0.0037304554 4285623838
-0.030631863 0.0043302029 -0.0041136555 4285624093
-0.028815441 0.0051905215 -0.0051886998 4285689628
-0.026520714 0.0030997992 -0.0034971684 4285624348
-0.024580441 0.0032228008 -0.0038812831 4285624348
-0.02276624 0.0040833205 -0.004955627 4285624348
-0.020957254 0.0049436241 -0.0060288552 4285689884
-0.019153468 0.0058037043 -0.0071009714 4285820698
-0.017354928 0.0066636056 -0.008172011 4285623583
-0.01542468 0.0067865625 -0.0085537024 4285623584
-0.013354696 0.0061730817 -0.0082476325 4285886234
-0.010994691 0.004087396 -0.0065683555 4285689118
-0.0086184964 0.0020028427 -0.0048921388 4285557538
-0.040320978 0.0013914183 -0.0026596766 4285295908
-0.038803309 0.0044771358 -0.0058153793 4285559068
-0.036770195 0.0038578138 -0.0055047069 4285559068
-0.034621567 0.0024983138 -0.0045031197 4285689883
-0.032800078 0.0033609122 -0.0055777021 4285689883
-0.031099141 0.0049635619 -0.0073420424 4285952279
-0.029290713 0.0058255494 -0.0084138773 4285952278
-0.027004659 0.0037276372 -0.006725518 4285820954
-0.024825782 0.0023706481 -0.0057295524 4285689629
-0.023014233 0.0032331645 -0.0068017542 4285624093
-0.021336623 0.0048348978 -0.0085610561 4285624348
-0.019669585 0.0064360276 -0.010318149 4285952788
-0.017879032 0.007297568 -0.011385931 4285689629
-0.015820194 0.0066810921 -0.011079442 4285623584
-0.013895322 0.0068038031 -0.011459989 4285689374
-0.011543989 0.0047109574 -0.0097838659 4285755418
-0.0093212873 0.0033576861 -0.0087958798 4285624094
-0.007087782 0.0020052269 -0.0078099333 4285688354
-0.040136203 -0.0024276078 -0.0017413087 4285229863
-0.038714446 0.001410462 -0.0055835526 4285493533
-0.036783457 0.0015321895 -0.0059663448 4285559324
-0.034852289 0.0016540363 -0.0063490961 4285689884
-0.033145957 0.003261283 -0.0081113242 4285886999
-0.031565353 0.0056104064 -0.010560615 4285755164
-0.029764935 0.0064740404 -0.011629254 4285820699
-0.027487546 0.0043690056 -0.0099440925 4285886998
-0.025317162 0.0030070916 -0.008949725 4285755419
-0.023513608 0.0038712695 -0.010018721 4285624093
-0.021843828 0.00547681 -0.011773188 4285624349
-0.020184636 0.0070818439 -0.013525512 4285755928
-0.018536001 0.0086862817 -0.015275617 4285887254
-0.016351603 0.0073258206 -0.014283599 4285886999
-0.014295634 0.0067070946 -0.013978088 4285887253
-0.011808354 0.0038665682 -0.011621743 4285624094
-0.0098780654 0.0039898381 -0.012003209 4285492768
-0.0075057596 0.0018920079 -0.010335948 4285557793
-0.0052672923 0.00053559989 -0.0093541704 4285949473
-0.039749078 -0.0077504739 0.00054821931 4285228844
-0.038626216 -0.0016646609 -0.0053579602 4285493534
-0.03701099 0.00069285184 -0.0078094862 4285559069
-0.035301976 0.0023044497 -0.0095690545 4285689883
-0.033603467 0.0039155409 -0.011326501 4285689628
-0.032030515 0.006270662 -0.013769357 4285557793
-0.030120388 0.006391488 -0.014147699 4285623329
-0.027969375 0.005023852 -0.013152864 4285689629
-0.025684454 0.0029128492 -0.011474002 4285755418
-0.023760498 0.0030348897 -0.011854826 4285624348
-0.022093199 0.0046446696 -0.013605591 4285558813
-0.020436488 0.0062538683 -0.015354129 4285624604
-0.018790334 0.0078624859 -0.0171005 4285559068
-0.01660908 0.0064974427 -0.016111134 4285558814
-0.014417004 0.0051332042 -0.015123816 4285558814
-0.011930544 0.0022838786 -0.012773849 4285493278
-0.0097114854 0.00092157722 -0.011791635 4285492769
-0.0073344931 -0.0011824891 -0.010130256 4285426468
-0.0049413368 -0.0032854304 -0.0084719257 4285425448
-0.039465055 -0.012347348 0.0021332819 4285163308
-0.038642772 -0.0040007457 -0.0058266958 4285361444
-0.037451796 0.0013528317 -0.011024406 4285427489
-0.0359696 0.004462637 -0.014153413 4285756184
-0.034284271 0.0060772449 -0.015904995 4285821464
-0.032494642 0.006944418 -0.016968342 4285689373
-0.030475147 0.0063180476 -0.016659589 4285755419
-0.028209753 0.0041991249 -0.01498186 4285886743
-0.026173905 0.0035740286 -0.014676165 4285689884
-0.024258114 0.0036955327 -0.015055392 4285558813
-0.02247043 0.0045631528 -0.016117932 4285558813
-0.020557038 0.0046847388 -0.016496506 4285559324
-0.018777125 0.0055520833 -0.017557342 4285559324
-0.016457409 0.0034373403 -0.015889883 4285559068
-0.014399394 0.0028142929 -0.015588025 4285558559
-0.011911087 -4.3682754e-05 -0.013244962 4285558558
-0.0098341219 -0.00066521764 -0.012946695 4285689629
-0.0073108189 -0.0035207048 -0.010610364 4285557538
-0.0047660097 -0.0063746497 -0.008278233 4285490728
-0.039283626 -0.016211532 0.0030186716 4285228589
-0.0385556 -0.0070906654 -0.0056118174 4285163054
-0.037784897 0.0012767613 -0.013543572 4285427489
-0.036526196 0.0058937222 -0.018036081 4285558813
-0.034851357 0.0075120106 -0.019782342 4285755673
-0.032843016 0.0068825856 -0.019473055 4285886999
-0.030829176 0.0062536597 -0.019164825 4285821463
-0.028569758 0.0041277707 -0.017490821 4285690139
-0.026416875 0.0027516112 -0.016502803 4285624349
-0.024503909 0.0028729215 -0.016881486 4285558813
-0.022334687 0.0014979914 -0.015896546 4285559069
-0.020416096 0.0016199127 -0.016276157 4285559068
-0.018230565 0.00024622679 -0.015294222 4285558814
-0.016170301 -0.00037895143 -0.014994577 4285624603
-0.013965793 -0.0017511919 -0.014016222 4285492514
-0.011891935 -0.00237526 -0.013719086 4285492259
-0.009668503 -0.0037460104 -0.012744322 4285492259
-0.0071406625 -0.0066099539 -0.010415421 4285425959
-0.036535546 0.0035848171 -0.018486269 4285295654
-0.035081536 0.0067103952 -0.021596577 4285493278
-0.032961644 0.0053273737 -0.020605512 4285558814
-0.030948117 0.0046962202 -0.02029887 4285493023
-0.028569482 0.0018128604 -0.017947858 4285558559
-0.026414387 0.0004324466 -0.016963564 4285558559
-0.024373673 -0.00019662827 -0.016662037 4285492259
-0.022199571 -0.0015756637 -0.015681293 4285492258
-0.020145208 -0.0022036359 -0.01538229 4285623583
-0.018085375 -0.0028311685 -0.015084296 4285558304
-0.01588415 -0.0042081028 -0.014108639 4285558049
-0.013810709 -0.0048345104 -0.01381315 4285426469
-0.011731815 -0.0054604486 -0.01351864 4285426468
-0.0096474588 -0.0060859248 -0.013225132 4285492259
-0.0074110255 -0.0074601546 -0.012256087 4285425959
-0.036327191 -0.00023572892 -0.017574815 4285229608
-0.034864619 0.0028991178 -0.020680306 4285493278
-0.032965891 0.0030190274 -0.021056538 4285624859
-0.030949995 0.0023858473 -0.02075199 4285690393
-0.028689191 0.00024692714 -0.019088063 4285558303
-0.026289821 -0.0026437417 -0.016747607 4285623583
-0.023993969 -0.0047801659 -0.015090493 4285492258
-0.021809652 -0.006162934 -0.014115036 4285492004
-0.019875303 -0.0060400516 -0.014497791 4285491749
-0.017807752 -0.0066692755 -0.014202953 4285558049
-0.015870497 -0.0065459684 -0.014586107 4285492514
-0.013656273 -0.0079262927 -0.013616242 4285492514
-0.01171343 -0.0078023896 -0.014000309 4285426468
-0.0094829351 -0.009181492 -0.013033458 4285492004
-0.0072416514 -0.010559723 -0.012068667 4285426468
-0.034537159 -0.0016808137 -0.019093249 4285229098
-0.032627873 -0.0015602335 -0.019471571 4285492258
-0.030718431 -0.0014395341 -0.019849841 4285492258
-0.028450258 -0.0035845116 -0.018192323 4285492004
-0.02616588 -0.005728364 -0.016537875 4285426468
-0.023865327 -0.0078711063 -0.014886548 4285492259
-0.021803699 -0.0085031316 -0.014592358 4285360933
-0.019866824 -0.0083800927 -0.014975616 4285361189
-0.017929822 -0.0082569495 -0.015358814 4285492259
-0.016128287 -0.007379435 -0.016417354 4285492259
-0.014055483 -0.0080102608 -0.016125008 4285426724
-0.011695344 -0.010148473 -0.014484932 4285426979
-0.0094626732 -0.011531748 -0.013521803 4285426978
-0.0073654875 -0.012160666 -0.013234005 4285426724
-0.034545034 -0.0040040538 -0.019554509 4285294889
-0.032519192 -0.0046411157 -0.019255307 4285492514
-0.030487858 -0.0052777454 -0.018957114 4285492259
-0.02833166 -0.006671384 -0.017982885 4285492259
-0.026164621 -0.0080641732 -0.01701076 4285426468
-0.02411145 -0.0086991042 -0.01671659 4285360934
-0.021925442 -0.010090478 -0.015748052 4285360933
-0.019988708 -0.0099674687 -0.016131299 4285360933
-0.017919116 -0.010600947 -0.015840137 4285361189
-0.01597948 -0.010477521 -0.016223771 4285426979
-0.013901636 -0.011110209 -0.015934063 4285492513
-0.011818331 -0.011742495 -0.015645308 4285493023
-0.0095861517 -0.013130195 -0.01468535 4285361443
-0.0074892864 -0.013761304 -0.014399117 4285229863
-0.034553185 -0.0063313842 -0.02001876 4285295399
-0.032411128 -0.0077305287 -0.019045182 4285624094
-0.030258238 -0.0091288388 -0.018073697 4285558048
-0.028213687 -0.0097667053 -0.017779669 4285426723
-0.026163645 -0.010404125 -0.0174866 4285426723
-0.024108134 -0.011041053 -0.01719456 4285361188
-0.022047132 -0.011677511 -0.016903529 4285360933
-0.020110555 -0.011554532 -0.01728675 4285360933
-0.018041275 -0.012190215 -0.016997164 4285295399
-0.015831288 -0.013584107 -0.016036319 4285098794
-0.013886344 -0.013460204 -0.016420914 4284901678
-0.034339622 -0.010187551 -0.019135194 4285229608
-0.03253106 -0.0093040243 -0.020190969 4285492769
-0.030262284 -0.011468731 -0.018548338 4285492258
-0.028215371 -0.012108691 -0.018256379 4285492259
-0.026162975 -0.012748122 -0.017965449 4285558048
-0.024105102 -0.013387077 -0.017675517 4285426979
-0.021914698 -0.014786921 -0.016714385 4285295143
-0.019972906 -0.014663614 -0.017098641 4285229863
-0.018031009 -0.014540173 -0.017482834 4285164839
-0.034237854 -0.013291977 -0.018934811 4285097518
-0.032423928 -0.012405962 -0.01999004 4285361188
-0.030382819 -0.013048537 -0.019698685 4285492259
-0.028217368 -0.014454708 -0.018736092 4285492003
-0.026041076 -0.015860058 -0.017775612 4285492514
-0.023729742 -0.018028311 -0.016145995 4285492513
-0.032317422 -0.015516423 -0.019795252 4285294634
-0.030155256 -0.01692725 -0.018835397 4285031984
-0.027982272 -0.018337302 -0.017877622 4284966704
