# .PCD v0.7 - Point Cloud Data file format
VERSION 0.7
FIELDS x y z rgba
SIZE 4 4 4 4
TYPE F F F U
COUNT 1 1 1 1
WIDTH 932
HEIGHT 1
VIEWPOINT 0 0 0 1 0 0 0
POINTS 932
DATA ascii
-0.0098141544 -0.005143974 0.018443367 4288886309
-0.0080449805 -0.0043002665 0.017294729 4288756513
-0.0064530671 -0.0027581081 0.015439717 4288560928
-0.0045222752 -0.0026137047 0.015001154 4288561693
-0.0029461049 -0.0010725819 0.013149912 4288692508
-0.00084040686 -0.0016264804 0.013418417 4288234528
-0.009458635 -0.0088441111 0.019388629 4288624169
-0.0076813959 -0.0079976469 0.018239794 4289475613
-0.0057375319 -0.0078523867 0.017798172 4289737499
-0.0039680488 -0.0070063062 0.016651241 4289607703
-0.0022037812 -0.0061605461 0.015505558 4289738263
-8.5081905e-05 -0.0067156665 0.015769443 4289738518
0.0018565431 -0.006570179 0.015328629 4289542678
0.0039834082 -0.0071245022 0.015590796 4288953883
0.0061156787 -0.0076783188 0.015851812 4288953883
0.0078723878 -0.0068326294 0.014708227 4289346329
0.010203276 -0.0080851912 0.01566931 4289346329
0.012349062 -0.008637704 0.015927484 4288953884
0.014897183 -0.010587562 0.017584382 4289150234
0.018265858 -0.015330918 0.022034967 4288888349
0.024525119 -0.029850565 0.036259212 4289410078
-0.0092705712 -0.011853673 0.019618874 4289212709
-0.0073189512 -0.011707954 0.019175397 4289933594
-0.0055388436 -0.010859035 0.018027624 4289933339
-0.0037639625 -0.010010358 0.016881073 4290260504
-0.0018173233 -0.009864714 0.016438952 4289868058
0.00030905381 -0.0104215 0.016699454 4290195479
0.0022585429 -0.010275446 0.016256837 4290522644
0.0043930821 -0.010831401 0.016515585 4289933849
0.006533023 -0.011386819 0.016773196 4289999128
0.0084880851 -0.01124005 0.01632954 4289933849
0.010636151 -0.011794679 0.016585452 4289999128
0.012789622 -0.012348838 0.016840255 4289999128
0.015146725 -0.013603553 0.017792178 4289737499
0.018318281 -0.01766099 0.021532567 4289410079
0.024372278 -0.031525791 0.035025239 4289344799
0.031770442 -0.049585417 0.052672744 4289278499
-0.0089171156 -0.015577406 0.020546803 4289671708
-0.0072951913 -0.014020115 0.018694805 4290392084
-0.005340904 -0.013874114 0.01825078 4289933339
-0.0035606138 -0.013022929 0.017104683 4290260504
-0.0016087703 -0.012876913 0.016661366 4290456854
0.00034317374 -0.0127308 0.016218102 4290129944
0.0024773031 -0.013289057 0.016475203 4290129944
0.0044320896 -0.013142519 0.016031446 4290064408
0.0065743737 -0.013699964 0.016286852 4290195479
0.008531969 -0.013553031 0.0158426 4290260758
0.010682397 -0.014109701 0.016096363 4289868058
0.012838185 -0.014665835 0.01634893 4290325783
0.015197434 -0.015924759 0.017297031 4289802523
0.018571079 -0.020698279 0.021723287 4289605919
0.02421947 -0.033200726 0.033791475 4289474848
0.031200172 -0.049912006 0.050007269 4289737243
-0.0090625361 -0.017190352 0.019358208 4289866784
-0.0072717667 -0.016336381 0.01821118 4289866784
-0.0053149462 -0.016190223 0.017766556 4289736734
-0.0035319179 -0.015336677 0.01662148 4290260758
-0.0017541014 -0.014483407 0.015477667 4289868058
1.8488616e-05 -0.013630435 0.01433512 4290129944
0.0021496303 -0.014191113 0.014591223 4290457108
0.0044707395 -0.015457764 0.015544271 4290195223
0.0064281449 -0.015310943 0.015099989 4289868058
0.0083856173 -0.015164025 0.014655763 4289933594
0.010343164 -0.015016995 0.014211604 4290064409
0.012691185 -0.016281262 0.015158897 4289998873
0.015247781 -0.018250056 0.016798867 4290129944
0.018622562 -0.023038737 0.021213232 4289802014
0.024269888 -0.035580471 0.033251777 4289867549
0.030836599 -0.050934404 0.048041731 4289735968
-0.0092079192 -0.018803023 0.018169822 4289539618
-0.0074170828 -0.017946884 0.017024415 4289932829
-0.0056314245 -0.017091088 0.015880307 4289868314
-0.0036772713 -0.016945042 0.015436357 4290195478
-0.0018993877 -0.016089611 0.014294183 4289933849
-0.0001267232 -0.015234478 0.013153257 4290391828
0.0020040981 -0.015797369 0.013407771 4290261268
0.0041403249 -0.016359769 0.01366112 4289737754
0.0060949326 -0.016213179 0.013217453 4289802778
0.0080496222 -0.016066469 0.012773857 4290064919
0.010196719 -0.016627736 0.013024984 4290129944
0.01273923 -0.018604256 0.014663136 4289868058
0.015297771 -0.020579495 0.016297722 4289474848
0.018874016 -0.026090764 0.021393018 4289736478
0.02472594 -0.039378822 0.034093574 4289867293
0.031090442 -0.054073319 0.048154585 4289735968
-0.0022207946 -0.016984083 0.01241421 4289348369
-0.00027189404 -0.016838245 0.011971593 4289479183
0.0018585995 -0.017403357 0.012224507 4289675279
0.0039945021 -0.017967962 0.012476264 4289675024
0.005762171 -0.017110728 0.011338364 4289281814
0.0077140629 -0.016964249 0.010895388 4289543189
0.0098581724 -0.017527916 0.011145532 4289412374
0.0125921 -0.020221315 0.0134719 4289477653
0.015149914 -0.022203125 0.015101677 4289804054
0.01872443 -0.027731948 0.020184079 4289345054
0.024572428 -0.04106164 0.032853998 4289345054
0.031138055 -0.056511424 0.047571182 4289409568
0.030980036 -0.05824215 0.046296358 4288167718
-0.010838453 0.0013309903 0.014646897 4282478669
-0.0092575736 0.0028678589 0.012791077 4282349893
-0.0076872408 0.0044040717 0.010937667 4282219334
-0.006127432 0.0059395544 0.0090867672 4281957958
-0.0045781769 0.0074743144 0.0072383173 4281633344
-0.0026790313 0.0076165572 0.0068070982 4283332918
-0.00041401386 0.0063674562 0.0077894721 4283267128
0.0018617399 0.0051192604 0.0087694768 4283201849
0.0035835803 0.0059579127 0.0076304283 4282809148
0.0053001679 0.0067962594 0.0064926408 4282350659
0.0070114918 0.0076343007 0.0053561144 4282415173
0.008913748 0.0077773295 0.0049246121 4282350403
0.011213791 0.0065314062 0.0058994535 4281826378
0.01473378 0.0011204295 0.011087289 4281499214
0.021563657 -0.015393235 0.027496627 4281499214
0.017206389 -0.0095223747 0.01902966 4284639283
0.023453973 -0.023997106 0.033291392 4283920439
-0.011457369 -0.022173516 0.016238945 4283002694
-0.010159835 -0.019169651 0.013003688 4282745143
-0.0082115009 -0.01902429 0.01256087 4282680373
-0.0062630326 -0.01887881 0.012118109 4282744378
-0.0043144673 -0.018733226 0.011675395 4283267383
-0.0023657866 -0.018587522 0.011232737 4284182579
-0.00041701645 -0.018441714 0.010790143 4284639539
-0.011602469 -0.023785293 0.015051154 4282350404
-0.010469396 -0.020056024 0.011126455 4281570103
-0.0083560497 -0.020627357 0.01137957 4281439544
-0.0065781809 -0.019765638 0.010242112 4281830713
-0.0046323948 -0.01962027 0.0098000243 4281700663
-0.0026865229 -0.019474804 0.0093579851 4282353208
-0.00074053183 -0.019329213 0.0089160129 4282287928
0.0012055375 -0.019183517 0.0084740929 4281441073
0.003519237 -0.020468228 0.0094155483 4281440053
0.0054708011 -0.020321898 0.0089725554 4281310259
0.0074224286 -0.020175464 0.0085296202 4281570104
0.0093741268 -0.020028912 0.0080867559 4281569339
0.011520293 -0.02059669 0.0083331726 4281569339
0.013671838 -0.021163948 0.0085784644 4281766454
0.017426666 -0.027443133 0.014326783 4281962548
0.023860693 -0.042998686 0.029000713 4282027829
0.030616987 -0.059258923 0.044334956 4282158134
-0.011585239 -0.026115797 0.014558429 4282349384
-0.010448635 -0.022375442 0.010641254 4281701939
-0.0085005537 -0.022230148 0.010198455 4281441073
-0.0067226253 -0.021366261 0.0090626404 4281310003
-0.0047769658 -0.021220915 0.0086205676 4281441073
-0.0028312169 -0.021075472 0.008178547 4281376304
-0.00088535994 -0.020929918 0.007736586 4281376304
0.0012414828 -0.021501921 0.0079853497 4281376304
0.0033737384 -0.022073351 0.0082329437 4281506098
0.0053251721 -0.021927051 0.007789962 4281311279
0.00746556 -0.022497669 0.0080358647 4281375284
0.0096113347 -0.023067765 0.0082806256 4281375284
0.011568282 -0.022920735 0.0078366399 4281505334
0.013722166 -0.023490049 0.0080797728 4281374009
0.017677262 -0.030504972 0.014499402 4281440564
0.024112076 -0.046108276 0.029136615 4281505333
0.030254366 -0.06027101 0.04237701 4281635383
-0.011568341 -0.028450377 0.014062697 4282154819
-0.01059296 -0.023977891 0.0094603505 4281765179
-0.0084776133 -0.024553448 0.0097096078 4281374773
-0.0066969469 -0.023687236 0.0085748527 4281244978
-0.0047487617 -0.023541726 0.0081321914 4281114928
-0.0028004795 -0.023396112 0.007689584 4281179953
-0.00067405775 -0.023970403 0.0079366565 4281244978
0.0010963753 -0.023104511 0.0068045612 4281310259
0.0032282919 -0.023678191 0.0070505384 4281244978
0.005179584 -0.023531906 0.0066075865 4281245998
0.0073196404 -0.024104737 0.0068518929 4281375284
0.0094650872 -0.024677031 0.0070950761 4281309494
0.011615925 -0.02524887 0.0073371548 4281310003
0.013772119 -0.025820158 0.0075780544 4281439544
0.017528411 -0.032138377 0.013296181 4281570359
0.023958694 -0.047789872 0.027897941 4281570359
0.029892178 -0.061278373 0.040422536 4281765179
0.034060903 -0.06829863 0.046777405 4281828928
-0.011551779 -0.030789033 0.013563948 4282350404
-0.010737233 -0.025580063 0.0082796477 4281634873
-0.0091238134 -0.023988754 0.0064560119 4281439543
-0.0070113428 -0.024566606 0.0067043286 4281572143
-0.0050659664 -0.024421327 0.0062622894 4281507373
-0.0027701072 -0.025720797 0.0071975645 4281703214
-0.00064135343 -0.0262971 0.0074424315 4281571379
0.0013123006 -0.02615089 0.0069987569 4281636404
0.0032660514 -0.02600453 0.0065551605 4281441583
0.0052198693 -0.025858082 0.0061116144 4281636914
0.0071737617 -0.025711492 0.0056681503 4281311279
0.0093188658 -0.026286013 0.0059097316 4281441329
0.011469372 -0.026860051 0.006150227 4281311279
0.01382171 -0.028154351 0.0070733223 4281571889
0.017578732 -0.034492113 0.012776345 4281766963
0.023805343 -0.049471155 0.026659491 4281832244
0.029734889 -0.06300126 0.039153479 4282092598
0.033487201 -0.068603352 0.044129491 4282414919
-0.01347572 -0.024424598 0.0047818534 4282223159
-0.012853552 -0.01847709 -0.0011739321 4281118244
-0.011271797 -0.016883865 -0.0029870402 4282161958
-0.008852262 -0.018916301 -0.0013566501 4282487594
-0.0062443316 -0.021672264 0.00095782429 4281902369
-0.0036150031 -0.024426527 0.0032675099 4281769259
-0.0013195872 -0.02573023 0.0041996036 4281834284
0.0008062683 -0.026308864 0.0044435952 4281768493
0.0025715716 -0.025438905 0.0033159945 4281702959
0.0041460097 -0.023845464 0.0015051328 4281636658
0.0057098791 -0.022252701 -0.00030323863 4281181229
0.0078360103 -0.022830836 -5.9019774e-05 4281377068
0.010548383 -0.025578082 0.0022324119 4281377834
0.01347838 -0.029046617 0.0052012559 4281637423
0.017230805 -0.03540428 0.010890413 4281506608
0.02284562 -0.04826171 0.022697462 4281636914
0.028760562 -0.061834186 0.035163216 4281700664
0.032707416 -0.068176851 0.040808573 4281433168
0.016883312 -0.03631179 0.009007914 4283866888
0.028195996 -0.062098451 0.032543577 4282496010
-0.021603629 -0.020288244 -0.016828926 4284573494
0.0010447912 0.042997781 0.055934764 4278800294
0.0028107166 0.043774635 0.054736063 4278272954
0.021461537 0.035519209 0.062480077 4280044694
-0.0026531368 0.046937112 0.048386149 4278472109
-0.0014505535 0.049612269 0.044927225 4278995878
0.00046419352 0.0497563 0.044492938 4279455389
0.0033091232 0.046739437 0.047830366 4279192229
0.0065581687 0.042460669 0.05266922 4278732973
0.0098446608 0.038184721 0.05749964 4278929579
0.012586519 0.035806399 0.060064018 4278930854
0.014759738 0.035323896 0.060367778 4278538153
0.015941609 0.037997764 0.056913756 4278406574
0.016294114 0.043193996 0.050461724 4278733994
-0.0043725818 0.043932859 0.04916244 4279325339
-0.00059544668 0.051348805 0.039562076 4278798764
0.0018634647 0.049588706 0.041388944 4278470834
0.0075941607 0.043536268 0.048037924 4278602669
0.0097243935 0.04304824 0.04834976 4278537643
0.011270557 0.044461474 0.046409443 4278930854
0.013204437 0.044607162 0.045970984 4278668714
0.01584544 0.048696551 0.040603206 4279192738
0.017970607 0.048208389 0.040916301 4279454879
0.021360075 0.043925162 0.04571192 4278799784
0.026699297 0.033953406 0.057219118 4278799784
-0.0055671707 0.046163775 0.043467477 4279391129
-0.0045408234 0.049493607 0.039268591 4278799528
0.0066847578 0.044482976 0.043861248 4278602923
0.0084168203 0.045263961 0.042675242 4278668713
0.010143626 0.046044558 0.041490518 4278865319
0.011666216 0.047460373 0.03955894 4278471854
-0.0060603246 0.045862891 0.04079961 4279456153
-0.0048609488 0.048563901 0.037361309 4278669479
-0.0035027005 0.050624136 0.034678578 4278865318
-0.0014293641 0.050127286 0.034999788 4278996644
0.0010202453 0.048353285 0.036818773 4278865574
0.0038621053 0.045303371 0.040131867 4278537898
0.0059677325 0.044809077 0.040445849 4278538154
0.007885363 0.044953421 0.040010981 4278668969
0.009410888 0.046373811 0.038081981 4278800039
0.010925829 0.047793411 0.036155477 4278472618
0.012430154 0.049212255 0.034231402 4278537389
0.014536101 0.04871821 0.034545481 4278798764
0.016854171 0.047587439 0.035603002 4278537134
0.019811202 0.044546552 0.03889025 4278865064
0.025339972 0.033866327 0.051092677 4278603944
-0.0069091991 0.039650016 0.04532823 4282536553
-0.006552618 0.045570906 0.038138367 4279324829
0.0035303347 0.044364072 0.038220584 4278472108
0.0060141347 0.042586155 0.040026866 4278341548
0.0077411607 0.043371059 0.03884536 4278800039
0.0094629303 0.044155609 0.037665084 4278537898
0.010583773 0.046859793 0.034251519 4278603689
0.013984904 0.048425972 0.031900696 4278405299
0.020084701 0.041681297 0.039206266 4278407338
0.02561532 0.030964086 0.051379889 4278669479
-0.0073970594 0.039347641 0.042657726 4282208624
-0.0070440657 0.045287892 0.035483643 4278668968
-0.0058538727 0.048005641 0.032060713 4278537899
0.0030113384 0.04407227 0.035567068 4278864554
0.0052987859 0.042930145 0.036624633 4278602923
0.0072109662 0.043074038 0.036190972 4278799784
0.0089275353 0.043860368 0.035013519 4278668458
0.010043792 0.046572931 0.03160765 4278733483
0.013230875 0.048784416 0.028520556 4278271169
-0.0089129433 0.042932536 0.035508022 4281290624
-0.0082312487 0.047598578 0.029847408 4278406574
-0.0068794936 0.049677901 0.027181001 4278471088
-0.0051846653 0.050464462 0.026009904 4279324319
-0.0033129081 0.050605103 0.025585251 4278931363
-0.00070179999 0.048164222 0.028139079 4278470578
0.0043945424 0.043932419 0.03248886 4278799273
0.0062959902 0.044075485 0.032057621 4278799784
0.0080020241 0.044863235 0.030884175 4278668203
0.010193411 0.050302725 0.02409515 4279388323
0.012274578 0.049800228 0.024409825 4279978648
0.01518571 0.046723027 0.027682425 4278273463
0.018958807 0.041073542 0.033905715 4278864299
0.02552923 0.027063733 0.04971955 4278864299
-0.01008302 0.045255646 0.02987632 4280307853
-0.0092420354 0.049287431 0.024976125 4278341293
0.0010394529 0.046752501 0.026567789 4278537643
0.0034919307 0.044952493 0.028366128 4278668713
0.0051900297 0.045741759 0.027196093 4278800039
0.0064923204 0.047824204 0.0245462 4278537388
0.011726465 0.049541429 0.021789668 4278272698
-0.011079561 0.046954483 0.025008606 4278866084
-0.010077029 0.050347839 0.020864932 4278603689
-0.0083953589 0.051137682 0.019700075 4278865829
-0.0063607655 0.050626807 0.020021597 4279192738
-0.0043207258 0.050116401 0.020341927 4279192738
-0.0019064173 0.048306849 0.022143835 4278996388
0.00033688545 0.047148168 0.023201326 4278800548
0.002590958 0.045990326 0.024256466 4278800038
0.0042785294 0.046780925 0.023090513 4278734503
0.0053756051 0.049518168 0.019708918 4278472874
0.0070446506 0.050307475 0.018547246 4278668458
0.011179198 0.049291547 0.01917615 4278731953
0.017419396 0.041797563 0.0271597 4278537389
0.023964822 0.027689757 0.04290583 4278668969
-0.011219647 0.04541051 0.023871088 4278800803
-0.010216169 0.048814829 0.019735506 4278538664
-0.0068578012 0.050398502 0.017410258 4278796469
-0.0044602714 0.048581097 0.019210869 4278337723
-0.0020466372 0.04676491 0.021007912 4279061669
0.00038309023 0.044949986 0.022801345 4278735014
0.002260264 0.045091126 0.02237553 4278669478
0.003945291 0.045883734 0.021211753 4278538664
0.0048455559 0.04928074 0.017099926 4278669478
0.0065093972 0.050071836 0.015941093 4278538408
0.0081679635 0.050862584 0.014783496 4279192228
0.010632761 0.049050629 0.016569233 4279323298
0.013319127 0.046589606 0.019086232 4279126948
0.016859729 0.041529454 0.024535725 4278866084
0.0238171 0.026072845 0.041714869 4278669734
-0.011359666 0.043866705 0.022733683 4278604199
-0.010355264 0.047281984 0.018606195 4278669734
-0.0071753263 0.049524609 0.015544796 4278796469
5.5562705e-05 0.044055618 0.02092311 4278538153
0.0019300021 0.044196527 0.020497898 4278669479
0.003804516 0.044337496 0.020072712 4278473129
0.0049003959 0.047092054 0.016704729 4278341548
0.013383348 0.04439066 0.018680548 4278271679
0.016716916 0.03996551 0.023383757 4278405553
0.023880085 0.023803892 0.041256152 4278406828
-0.011840601 0.043637834 0.020117337 4278537899
-0.010840606 0.047063675 0.015999155 4278537899
-0.0093397051 0.048516631 0.014101991 4279585693
-0.0076708682 0.049312033 0.012945021 4279716764
-0.0051015243 0.046824146 0.015474873 4278404278
-0.0028783791 0.045650732 0.016526857 4278864809
-0.00045799464 0.043821957 0.018312382 4278603179
0.0014110357 0.043962438 0.017888376 4278669479
0.0030883364 0.044758774 0.016729722 4278668969
0.0043714158 0.046865962 0.014104078 4278602669
0.0054414123 0.049627393 0.010748617 4278601648
0.0072893761 0.049766518 0.010329567 4278732718
0.0095423497 0.048595719 0.011375142 4278405044
0.023732198 0.022185134 0.040063828 4278537899
-0.014348514 0.04393838 0.017191367 4282602344
-0.013172116 0.046715923 0.013817959 4278341549
-0.0079872869 0.048449446 0.011087945 4278537134
-0.0013432689 0.044914078 0.014239656 4278865318
0.00051502138 0.045053735 0.01381808 4278865574
0.001990173 0.046509411 0.011930382 4278799528
0.0049086697 0.049418606 0.0081623029 4278864044
0.0069508404 0.048899941 0.0084757339 4279978649
0.0092006624 0.047724564 0.0095186364 4278865064
0.012076035 0.044579048 0.012749383 4278799018
0.016223758 0.037494943 0.020350775 4278536879
0.02379461 0.019909985 0.039600477 4278536879
-0.014989574 0.044392113 0.013851697 4279456408
-0.013820436 0.047177777 0.010486627 4278407849
-0.012154251 0.047977209 0.0093334094 4278537644
-0.0040743761 0.045885205 0.010599202 4278472109
-0.0020408258 0.045363389 0.010912675 4278668969
-0.00037935376 0.046162792 0.0097608529 4278668969
0.0010854527 0.047622047 0.0078788269 4278603433
-0.015294921 0.043530826 0.011992469 4278932128
-0.014297627 0.046989057 0.0078997537 4278473128
-0.012636639 0.047790218 0.0067494083 4278407594
-0.011156086 0.04925463 0.0048668366 4278800548
-0.0091524385 0.048728172 0.0051852707 4278734758
-0.006962806 0.047539007 0.0062347632 4278866083
-0.0043959841 0.045024723 0.0087452028 4278735014
-0.0023653843 0.044500474 0.0090576597 4278669479
-0.00089500472 0.045964435 0.007177636 4278603689
0.00056478381 0.047427699 0.0053000152 4278603944
0.0022078678 0.048228022 0.0041541196 4278538409
0.0038456805 0.049028002 0.0030094627 4278799528
0.0058766305 0.048504103 0.0033220854 4278733484
0.0083167106 0.046657488 0.0050884094 4278537389
0.01097738 0.044150762 0.0075779464 4278668968
0.015317068 0.036356289 0.015872354 4278669479
-0.015432801 0.042007744 0.010870257 4278735524
-0.0071000904 0.046026751 0.0051206369 4278340784
-0.0047171563 0.044168815 0.0068945717 4278669479
-0.0028751828 0.044307124 0.0064765997 4278407083
-0.0012214631 0.045110285 0.0053298455 4278472874
0.00023597851 0.046577722 0.003456071 4278407083
0.0018765181 0.047380015 0.0023124069 4278407083
0.0035117827 0.048181981 0.0011699833 4278407338
0.0053407736 0.048319638 0.00075520575 4278407083
0.0077748373 0.046466045 0.0025178418 4278341803
0.010429282 0.043950114 0.005002128 4278473384
0.015175175 0.034802072 0.014727538 4278342058
-0.015904274 0.041822001 0.0082841087 4279390364
-0.014910467 0.045301747 0.0042087883 4278538663
-0.0072373264 0.044514693 0.0040066484 4278272698
-0.0050378814 0.043317504 0.0050473157 4278799783
-0.003013175 0.04278842 0.0053577591 4278538408
-0.0011712015 0.042926766 0.0049398188 4278800038
0.00028922781 0.044398785 0.0030686893 4278668713
0.0017390735 0.045870032 0.0012000594 4278537643
0.015446929 0.03191686 0.015028836 4279059628
-0.01687476 0.043657601 0.0035132729 4279324829
-0.014250707 0.047953583 -0.0016922373 4279127203
-0.012613229 0.048759513 -0.0028322628 4278997664
-0.010626417 0.048225172 -0.002515059 4279258529
-0.0080943182 0.045681946 -1.6821548e-05 4279061413
-0.0055407919 0.0431404 0.0024766084 4278275249
-0.0035217032 0.042608682 0.0027866401 4278930853
-0.001497183 0.0420774 0.0030955393 4278734504
-3.9108098e-05 0.043553591 0.0012282599 4278472109
0.0012151115 0.045697771 -0.0013608951 4278930599
0.0026493259 0.047172301 -0.0032226583 4278536879
0.0044701584 0.047309328 -0.0036355993 4279323553
0.0068948604 0.045441873 -0.0018807957 4278272443
0.0097434819 0.04223977 0.001314329 4278536879
0.015098069 0.031026449 0.013159677 4278603689
-0.01900246 0.042686976 0.0020885263 4281749624
-0.01800964 0.046188377 -0.0019700788 4279193248
-0.0040293746 0.0424379 0.00022218563 4278603433
-0.0020104833 0.04190404 0.00053063966 4278538153
-0.00074782595 0.044055328 -0.002055496 4278406574
0.0017296933 0.0483546 -0.0072168568 4278536878
0.0035397783 0.0484908 -0.0076273717 4279258528
0.0061542057 0.04594557 -0.0051540583 4278734249
-0.019302011 0.041857708 0.00025198609 4281553018
-0.018643387 0.046720143 -0.0052522412 4278407083
-0.017515279 0.049554974 -0.0085682441 4278341294
-0.015722133 0.049689189 -0.0089754611 4278406573
-0.01142795 0.047260351 -0.0068907309 4278406829
-0.0090851672 0.045373105 -0.0051278183 4278538153
-0.0067262873 0.043487098 -0.0033684578 4278800549
-0.0050908513 0.04429746 -0.0045045214 4278800549
-0.0030855797 0.043760382 -0.0041946545 4278538664
-0.0016455241 0.04524387 -0.0060511678 4278538664
0.0082452297 0.043237302 -0.0052348254 4278340018
0.014401648 0.029259359 0.0094316304 4278537133
-0.019437723 0.040355459 -0.00085495599 4281553019
-0.01844576 0.043878503 -0.0048967358 4279456154
-0.017142907 0.046045281 -0.0074824812 4278669734
-0.015170507 0.045503106 -0.0071671596 4278736033
-0.013540685 0.046314925 -0.0083005186 4278867104
-0.011209354 0.044420183 -0.0065400666 4278736034
-0.0090412684 0.043203034 -0.0055057118 4278997408
-0.0068624318 0.041986804 -0.004473784 4278800803
-0.0052268915 0.042799346 -0.0056082187 4278932383
-0.0037839487 0.044287361 -0.0074621784 4279128989
-0.0021615699 0.045099057 -0.0085935164 4278931873
-0.00073713064 0.046585798 -0.010443117 4278866083
0.00067669898 0.048071846 -0.012290301 4279062688
0.0024759397 0.04820722 -0.012698368 4279193759
0.0046765842 0.046993099 -0.011670955 4279062944
0.0079046115 0.042407066 -0.0070604375 4279128478
0.014260076 0.027708368 0.0082891881 4278735779
-0.017585531 0.038309999 -0.0016516931 4279390619
-0.015929215 0.039125841 -0.0027895886 4279063199
-0.014278091 0.039941348 -0.0039261924 4278932383
-0.012458365 0.040077575 -0.0043394268 4279063453
-0.010815009 0.040892635 -0.0054741604 4279325594
-0.0086394325 0.039671704 -0.0044448953 4279522198
-0.0068167225 0.039808374 -0.0048586419 4279128734
-0.004993923 0.039945126 -0.0052723512 4278932128
-0.003358189 0.040759921 -0.0064051216 4278866849
-0.0017277114 0.041574381 -0.0075366506 4279128733
-0.00010249391 0.04238854 -0.0086669223 4279259804
0.0015174448 0.043202404 -0.0097959898 4278866083
0.003132116 0.044015918 -0.010923753 4278866083
0.0051424503 0.043475185 -0.010618106 4278866338
0.0081738532 0.039551076 -0.0067361472 4278539173
0.014530145 0.024804501 0.0085766576 4278539173
-0.016727634 0.03271538 0.001574032 4279849109
-0.014886927 0.032853 0.0011558924 4279193758
-0.013217062 0.03367205 1.6666949e-05 4278735523
-0.011552401 0.034490839 -0.0011213571 4278276779
-0.0097166672 0.034628309 -0.0015381929 4278277289
-0.0077018738 0.034085073 -0.0012356471 4278277289
0.00072285905 0.037494168 -0.0061872434 4278277034
0.015005041 0.021213273 0.0095711108 4278538918
-0.016368382 0.029146535 0.0026183352 4279195034
-0.014519777 0.029284712 0.0021983795 4278932384
-0.012671042 0.029422982 0.0017784573 4278998429
-0.010822192 0.029561331 0.0013585649 4278801059
-0.0091493241 0.030382922 0.00022042356 4278669989
-0.0071241707 0.029838298 0.00051889196 4278735524
-0.0054564252 0.030659655 -0.00061796978 4278669989
-0.0036098398 0.030798161 -0.0010371022 4278866594
-0.001763165 0.030936738 -0.0014562048 4278669989
-0.00029524043 0.032439705 -0.0033057854 4278604709
0.0013541691 0.033260003 -0.0044382438 4278669989
0.0031930581 0.033398248 -0.004855386 4278342314
0.0050319992 0.033536572 -0.0052724853 4278473383
0.0066709034 0.034356363 -0.0064024236 4278538918
0.0093182251 0.031770028 -0.0039698025 4278801314
0.01588957 0.016247209 0.011979306 4278735779
-0.016175479 0.026250841 0.0029340424 4280046478
-0.014657434 0.027761312 0.0010758638 4278932894
-0.012638249 0.027213758 0.0013738684 4278735779
-0.010613602 0.026666733 0.0016706493 4278866594
-0.0087594129 0.026805544 0.0012495909 4278669989
-0.0067265667 0.026259301 0.0015446395 4278735524
-0.0050507262 0.027083429 0.00040758587 4278801059
-0.0030123591 0.026537757 0.0007015001 4278670244
-0.0013416819 0.027361656 -0.00043426082 4278670244
0.00013453141 0.028869638 -0.0022824481 4278670244
0.0016001649 0.030376852 -0.0041281395 4278735779
0.0034442805 0.030515481 -0.0045464747 4278801314
0.0050912425 0.031337924 -0.0056766029 4278473638
0.0069327988 0.031476513 -0.0060942406 4278408614
0.0097870827 0.02819843 -0.0029586628 4278736289
0.016361717 0.012625702 0.012951454 4278736289
-0.016313381 0.024723323 0.0018084571 4279850129
-0.014459655 0.024861826 0.0013872925 4278801314
-0.012435436 0.024312487 0.0016824305 4278473638
-0.010405764 0.023763634 0.0019763894 4278670244
-0.0087220371 0.024590353 0.00083907321 4278670244
-0.006865181 0.024729418 0.00041745044 4278408103
-0.0051892437 0.025555717 -0.00071797706 4278735779
-0.0029674992 0.024320878 0.0002875682 4278342569
-0.0012940504 0.025147153 -0.0008471664 4278604709
0.00037414581 0.025973121 -0.0019806428 4278670244
0.001653716 0.028171491 -0.0045357579 4278604709
0.0035003945 0.028310293 -0.0049546892 4278670244
0.0051501207 0.029135117 -0.0060837902 4278473638
0.00699424 0.029273894 -0.0065020137 4278408103
0.0096477531 0.026670558 -0.0040841131 4278670754
0.016422674 0.010362003 0.012497244 4278670754
-0.016451247 0.023196032 0.00068303198 4279653779
-0.01459761 0.023334512 0.00026187673 4278997919
-0.012573689 0.022782939 0.00055539608 4278474149
-0.010544319 0.022231866 0.00084774569 4278736289
-0.0086850077 0.022371011 0.00042548776 4278801824
-0.0066474229 0.02182067 0.00071613863 4278801824
-0.0047852471 0.021960197 0.0002933573 4278670754
-0.0029229745 0.022099821 -0.00012937933 4278474149
-0.0014329255 0.023617448 -0.0019741468 4278801314
0.00023536012 0.024445577 -0.0031059999 4278801314
0.001898393 0.025273399 -0.004236592 4278670754
0.0035561509 0.026100965 -0.0053659622 4278473638
0.0054054409 0.02624003 -0.0057854345 4278473638
0.0070553161 0.02706713 -0.0069128424 4278604709
0.0099127218 0.02376746 -0.0037946096 4278801824
0.016483266 0.0080941506 0.012039972 4278801824
-0.015765835 0.01820533 0.0031290185 4280440453
-0.01406629 0.019037299 0.0019912105 4279587988
-0.012201991 0.019176621 0.0015676674 4279326104
-0.010337561 0.019316044 0.0011441652 4279063963
-0.0086483136 0.020147488 8.8829547e-06 4278802588
-0.006786339 0.020286895 -0.00041393004 4278802333
-0.0049242675 0.020426393 -0.00083670765 4279129499
-0.0030621067 0.020565983 -0.001259435 4278736289
-0.0013858117 0.02139684 -0.0023915619 4278670754
0.0002852343 0.022227356 -0.0035223812 4278670754
0.0023335777 0.021676091 -0.0032355674 4278736543
0.0039994232 0.022506392 -0.0043650726 4278736543
0.0058566108 0.022646042 -0.0047863433 4278801314
0.0077138431 0.022785785 -0.0052075563 4278866593
0.0105808 0.019475937 -0.0020997999 4278735779
0.017361894 0.0030632131 0.014400376 4278735779
-0.009441819 0.013614397 0.0042775217 4280050559
-0.0060364157 0.0152837 0.0020041969 4279853698
-0.0041611269 0.015424177 0.0015784111 4279917448
-0.0021026693 0.014871217 0.00186106 4279786379
-0.00022453815 0.015012078 0.0014347639 4279589519
0.0014652461 0.015846163 0.00030134059 4279392149
0.0033408552 0.015987016 -0.00012425147 4279654034
0.0050227754 0.016820721 -0.0012558028 4279130774
0.0070922486 0.016268998 -0.00097526796 4278802843
0.0089680217 0.016410127 -0.0014006924 4279064219
0.012054265 0.012398578 0.0023989324 4279129499
0.018647358 -0.0033732951 0.018151952 4279063964
0.013653487 -0.0040964223 0.013862593 4285032494
-0.015072327 -0.019467309 -0.0025877384 4285099304
-0.014144368 -0.014959298 -0.0071495157 4285361698
-0.012747783 -0.012635693 -0.0096423887 4285689118
-0.010350257 -0.014676355 -0.0080119353 4285688863
-0.0079366639 -0.016715653 -0.006385088 4285427233
-0.0049826279 -0.020934097 -0.0027055861 4285429529
-0.0027063787 -0.022243597 -0.0017724596 4285562893
-0.00041938946 -0.023552187 -0.00084169768 4285693709
0.001330018 -0.022681296 -0.0019640001 4285696513
0.0040607005 -0.018037148 -0.0069342451 4285495318
0.0061652102 -0.01861909 -0.0066867871 4285230629
0.0092421845 -0.022827499 -0.0030346373 4285231394
0.01274332 -0.028483793 0.0019714888 4285102873
-0.016504049 -0.015200287 -0.009241296 4285427744
-0.015104488 -0.012870066 -0.011729971 4285755163
-0.013720743 -0.01054097 -0.014214931 4285885724
-0.01133725 -0.012589164 -0.012586316 4285885724
-0.0087657534 -0.015365265 -0.010276841 4285820444
-0.0059982836 -0.018868633 -0.0072883805 4285427233
-0.0035586059 -0.020912342 -0.0056722322 4285362208
-0.0014627092 -0.021497555 -0.0054248208 4285296928
9.0882182e-05 -0.019897111 -0.0072244136 4285362463
0.0012634285 -0.016840957 -0.010384282 4285427743
0.0027905479 -0.015242279 -0.012177704 4285689628
0.0050693005 -0.016555414 -0.011248065 4285885979
0.0081316382 -0.020777948 -0.0076025324 4285820188
0.011421852 -0.025725394 -0.0032851966 4285557794
0.015940623 -0.035033025 0.0050938185 4285164074
0.021735864 -0.048697211 0.017523671 4284901933
0.027632276 -0.062353693 0.029930649 4284902188
-0.018376604 -0.017628379 -0.0092714122 4285164583
-0.017288223 -0.013826631 -0.013128076 4285624603
-0.015571326 -0.012954637 -0.014240293 4285558303
-0.014026031 -0.011351146 -0.016035207 4285557539
-0.011814997 -0.012674563 -0.015094167 4285623328
-0.0092497505 -0.015459843 -0.012789922 4285689628
-0.0064887255 -0.018974572 -0.0098082907 4285690139
-0.0042321607 -0.020294264 -0.0088773509 4285558814
-0.0021445677 -0.020882316 -0.0086296638 4285558813
-0.00059871376 -0.019278087 -0.010424245 4285689883
0.00075154006 -0.016944215 -0.01289605 4285689883
0.0020858943 -0.014611371 -0.015364196 4285689374
0.0041657723 -0.015199512 -0.015114462 4285689884
0.0068300962 -0.01797647 -0.012832025 4285887509
0.0099071153 -0.022210844 -0.009199691 4285755419
0.014801219 -0.033007093 0.00051612221 4285624094
0.021383235 -0.049630575 0.015622916 4285493278
0.027680371 -0.06478674 0.029350957 4285493278
0.030994397 -0.069002785 0.03292992 4285296163
-0.019465812 -0.014777981 -0.014523936 4285230629
-0.018231653 -0.011700861 -0.01768533 4285756184
-0.016527988 -0.01082769 -0.018792894 4285755673
-0.014829542 -0.009954799 -0.019899188 4285623838
-0.012460794 -0.012017153 -0.018277172 4285689629
-0.009732917 -0.015545346 -0.015296387 4285886998
-0.0071525313 -0.018338077 -0.013002126 4285690138
-0.0049044751 -0.019662805 -0.01207253 4285558813
-0.0030047297 -0.019520678 -0.012504008 4285558813
-0.0014692619 -0.017912902 -0.014292935 4285624349
-0.00012918934 -0.015573271 -0.016757453 4285886998
0.0015699677 -0.014699385 -0.017863264 4285689119
0.0034540296 -0.014557987 -0.018290842 4285557793
0.0059166104 -0.016612358 -0.016689332 4285623584
0.0091771483 -0.021592461 -0.012388463 4285558813
0.014258265 -0.033153646 -0.0020199027 4285624604
0.021231839 -0.051290579 0.014400138 4285493278
0.027321169 -0.065761551 0.02742047 4285427488
0.030425062 -0.069259964 0.030317103 4285296164
-0.019920468 -0.014847971 -0.017026614 4285296163
-0.018690988 -0.011762559 -0.020180343 4285558813
-0.016829215 -0.011623941 -0.020603703 4285821719
-0.015133359 -0.010749079 -0.021707758 4285821718
-0.012768012 -0.012818225 -0.020089963 4285821463
-0.010386586 -0.014886104 -0.018475685 4285821719
-0.0079891086 -0.016952626 -0.016865017 4285624348
-0.0061055496 -0.016811833 -0.017292913 4285624604
-0.004221905 -0.016670927 -0.017720742 4285624348
-0.0025201589 -0.015794955 -0.018825628 4285624348
-0.0006390214 -0.015653998 -0.019252706 4285952789
0.0010548793 -0.014778398 -0.020355636 4285952789
0.0031234436 -0.01537174 -0.020106655 4285886998
0.0053900033 -0.01669877 -0.01918407 4285887254
0.0088389516 -0.022428475 -0.014219168 4285821464
0.014112037 -0.03475865 -0.0032022167 4285689883
0.021481693 -0.054417334 0.014523389 4285689883
0.026962409 -0.066731632 0.025493456 4285492768
0.029856553 -0.069508083 0.027710965 4285361444
-0.020374298 -0.01490891 -0.019522684 4285296419
-0.018988974 -0.0125539 -0.021988336 4285559068
-0.01696685 -0.013154037 -0.021731338 4285493023
-0.015270919 -0.012277022 -0.022833768 4285558303
-0.012906294 -0.014352746 -0.021220779 4285558558
-0.010696746 -0.015689291 -0.020289246 4285558558
-0.0084764585 -0.017024875 -0.019360116 4285558813
-0.0065983571 -0.016884506 -0.019786781 4285558813
-0.0047201775 -0.016744018 -0.020213377 4285558813
-0.0030236915 -0.01586628 -0.021315414 4285624349
-0.0015169047 -0.014251858 -0.023091132 4285624348
0.00035351515 -0.014111601 -0.023515698 4285755419
0.0024137646 -0.014707796 -0.02326645 4285755929
0.005056642 -0.017512396 -0.020999076 4285690139
0.0086962879 -0.023996003 -0.015373911 4285493534
0.014361344 -0.037835233 -0.0030404646 4285493534
0.021530367 -0.056816809 0.013969136 4285493534
0.02660406 -0.067696981 0.02356985 4285493024
0.029083142 -0.069011725 0.024441412 4285361189
-0.020669647 -0.015701942 -0.021332709 4285296418
-0.019126222 -0.014081508 -0.023114175 4285559068
-0.017104432 -0.01468385 -0.022858759 4285690138
-0.015408441 -0.013804659 -0.023959555 4285689883
-0.013044555 -0.01588697 -0.022351382 4285624348
-0.011006471 -0.016487762 -0.022099417 4285558813
-0.0087893754 -0.017827988 -0.021172836 4285558813
-0.0069140717 -0.017687827 -0.021598864 4285559068
-0.0048597679 -0.01828707 -0.02135033 4285624604
-0.0031632259 -0.017407164 -0.022450732 4285558813
-0.0018404275 -0.015049286 -0.024896499 4285558558
-0.00015971437 -0.014170349 -0.025993144 4285558559
0.0020844266 -0.01550781 -0.025072217 4285558559
0.0047237203 -0.01832141 -0.022810617 4285558558
0.008163888 -0.024086595 -0.017870188 4285559069
0.013819676 -0.037967734 -0.0055661481 4285559069
0.020978069 -0.05700659 0.011402883 4285559069
0.026043288 -0.067919977 0.020980669 4285427743
-0.021436915 -0.014260434 -0.02517255 4285558813
-0.019743755 -0.013379529 -0.026271228 4285755929
-0.017730273 -0.013984673 -0.026015598 4285952534
-0.015711367 -0.014589302 -0.025761109 4285952533
-0.013350841 -0.01667843 -0.024157099 4285952534
-0.011315759 -0.017281614 -0.02390611 4285689883
-0.0091018565 -0.018626429 -0.022982124 4285624604
-0.0068772286 -0.019970298 -0.022060534 4285624604
-0.0049993284 -0.019829832 -0.022487072 4285624603
-0.0033027232 -0.018947758 -0.023585841 4285690139
-0.0023475662 -0.01510077 -0.027370142 4285755164
-0.00067211688 -0.014220059 -0.028463937 4285821208
0.0015661679 -0.015562296 -0.02754499 4285821208
0.0041992031 -0.01838506 -0.025288593 4285689884
0.0078270026 -0.024908632 -0.019690536 4285558813
0.013673551 -0.039571807 -0.0067477776 4285558814
0.020626603 -0.057927392 0.0095113665 4285427743
0.025280673 -0.067393951 0.017730674 4285427743
-0.021888047 -0.014292113 -0.027647007 4285689884
-0.020360067 -0.012664154 -0.029418416 4285689629
-0.0183549 -0.013272107 -0.02916256 4285623329
-0.016179055 -0.014624447 -0.028233496 4285689119
-0.013824575 -0.016720541 -0.02663308 4285886489
-0.011624616 -0.018070817 -0.025709376 4285689883
-0.0094139092 -0.019420169 -0.024788015 4285689883
-0.0075442083 -0.019280456 -0.0252128 4285558813
-0.0054958984 -0.019884549 -0.02496618 4285689883
-0.0039857589 -0.018257 -0.026732832 4285755674
-0.0024861768 -0.01663015 -0.028496953 4285821209
-0.00081067532 -0.015747286 -0.029589117 4285820954
0.0014270656 -0.017093912 -0.028673366 4285886999
0.0038673431 -0.019182555 -0.027091648 4285886999
0.007879518 -0.027211361 -0.020172104 4285690394
0.013527453 -0.041175567 -0.0079291677 4285558813
0.020075753 -0.0581012 0.0069568045 4285493534
0.0245193 -0.066854529 0.01449061 4285427743
-0.023408592 -0.018190868 -0.026320081 4284967214
-0.022338353 -0.014314726 -0.030114857 4285755419
-0.020815432 -0.012682855 -0.031881776 4285821209
-0.019140661 -0.011798903 -0.032972902 4285558048
-0.016810961 -0.013903446 -0.031371966 4285623583
-0.0142975 -0.016753577 -0.029102456 4285689628
-0.012103379 -0.018108673 -0.028180687 4285821208
-0.010071538 -0.018716358 -0.027932208 4285624093
-0.0082099624 -0.01857727 -0.028355151 4285624349
-0.0063483045 -0.018438049 -0.028778024 4285689883
-0.0046675503 -0.017552853 -0.029869899 4285821208
-0.0029920638 -0.01666788 -0.030960534 4285623584
-0.0011355132 -0.016528696 -0.031381976 4285557794
0.0010990389 -0.017879963 -0.030468781 4285558049
0.0035359003 -0.019975342 -0.028891306 4285624093
0.0075430907 -0.028028421 -0.021988785 4285558814
0.013578333 -0.043523684 -0.0084448894 4285558813
0.01992495 -0.059754916 0.0057386495 4285493534
0.024163675 -0.067790151 0.012588901 4285295908
-0.022787832 -0.014328375 -0.032576032 4285558558
-0.021110445 -0.013442181 -0.033666193 4285821464
-0.019600466 -0.011806786 -0.035426818 4285886998
-0.017441638 -0.013169117 -0.034500539 4285821464
-0.014937099 -0.016028538 -0.03223566 4285821719
-0.012751482 -0.017388627 -0.031315282 4285690139
-0.010727957 -0.01799912 -0.031066574 4285624349
-0.0090499669 -0.017112188 -0.032156348 4285558813
-0.0071990937 -0.016973786 -0.032576777 4285558813
-0.0057097264 -0.015339136 -0.034332111 4285821463
-0.0038640238 -0.015200883 -0.034751192 4285821464
-0.0020182543 -0.015062526 -0.035170201 4285689628
0.00020511448 -0.016418971 -0.034257777 4285689883
0.0028220415 -0.019268982 -0.032017574 4285755929
0.0072070993 -0.028840825 -0.023802031 4285690393
0.013235353 -0.044382162 -0.010291285 4285624603
0.019774187 -0.061408304 0.0045207292 4285493279
0.024010554 -0.069467589 0.011353323 4285427488
-0.024913788 -0.015221231 -0.033941966 4285361954
-0.023236491 -0.01433295 -0.035030596 4285558814
-0.021405049 -0.014196813 -0.035447225 4285558559
-0.01973547 -0.013308935 -0.036533885 4285624093
-0.017741822 -0.013924174 -0.036280312 4285624093
-0.015575457 -0.015290163 -0.035358969 4285492513
-0.01339836 -0.016655192 -0.034440011 4285492769
-0.011555765 -0.016517647 -0.034858733 4285493279
-0.0098883621 -0.015629351 -0.035944462 4285493278
-0.0080482624 -0.015491761 -0.036362451 4285493279
-0.0063886829 -0.014603823 -0.037446219 4285493023
-0.0049176142 -0.012966089 -0.039194006 4285690138
-0.002713453 -0.014328443 -0.038280629 4285755929
-0.00068717822 -0.01494021 -0.038033675 4285755929
0.0021093935 -0.018549196 -0.035134025 4285624604
0.0062898546 -0.027400814 -0.027600393 4285624348
0.012892805 -0.045235969 -0.012134238 4285624348
0.019424247 -0.062312521 0.0026414357 4285558558
0.023453731 -0.069647439 0.0087959301 4285361699
-0.025048733 -0.01672738 -0.035052098 4285164074
-0.023371376 -0.015836954 -0.036139108 4285164328
-0.021699198 -0.014946841 -0.037224799 4285229863
-0.019708656 -0.015564598 -0.036972262 4285295398
-0.017877132 -0.015428238 -0.037388749 4285361189
-0.015878398 -0.016045205 -0.03713787 4285426724
-0.01370449 -0.017414816 -0.036221493 4285426979
-0.011692282 -0.018030502 -0.035973541 4285427234
-0.010024827 -0.017140061 -0.037057642 4285427233
-0.0085403398 -0.01549726 -0.038805299 4285559069
-0.0068860352 -0.014607511 -0.039886273 4285493278
-0.0052369609 -0.013718076 -0.040965918 4285426978
-0.0034074411 -0.013580941 -0.041381247 4285426978
-0.0012011081 -0.014947355 -0.040471572 4285492769
0.0013979711 -0.017816029 -0.038240615 4285558558
0.0057616159 -0.02744586 -0.030063201 4285558558
0.012354326 -0.045333825 -0.014634411 4285558558
0.019273749 -0.063963093 0.0014255941 4285493279
0.023099409 -0.070569046 0.0069046151 4285295908
-0.024722792 -0.020502985 -0.034155987 4285032494
-0.023037396 -0.019609846 -0.035243127 4285427234
-0.021357186 -0.018716961 -0.036328997 4285492769
-0.019520596 -0.018580355 -0.03674674 4285558558
-0.017519645 -0.019199409 -0.036498144 4285558558
-0.015513275 -0.019817933 -0.036250688 4285624094
-0.013501499 -0.020435944 -0.036004383 4285558558
-0.01148431 -0.021053486 -0.035759181 4285558304
-0.0096365996 -0.020915471 -0.036178999 4285558559
-0.0079663582 -0.020022482 -0.03726203 4285493023
-0.0063013546 -0.019129828 -0.03834375 4285493278
-0.0048244521 -0.017483026 -0.040086202 4285427489
-0.0028015822 -0.018099509 -0.039841879 4285493023
-0.0011496842 -0.017207459 -0.04092034 4285493278
0.0014511235 -0.020084731 -0.038696345 4285492514
0.0054277033 -0.028235503 -0.031859688 4285492514
0.012012836 -0.046176076 -0.016468853 4285492514
0.018526826 -0.063353725 -0.0017652996 4285360933
0.022141095 -0.069226891 0.0030432921 4285098028
-0.024244562 -0.025050201 -0.032602198 4285031983
-0.022548467 -0.024154097 -0.033690121 4285426469
-0.02085758 -0.023258269 -0.034776784 4285492258
-0.019171901 -0.022362694 -0.035862226 4285492514
-0.017327361 -0.02222538 -0.036281683 4285558049
-0.01531601 -0.022845753 -0.036036983 4285558049
-0.012960523 -0.024980731 -0.034466572 4285558304
-0.010933034 -0.025599673 -0.034225367 4285492513
-0.0092495307 -0.024703667 -0.035309859 4285492004
-0.0075712539 -0.023807943 -0.036393017 4285492003
-0.0058982149 -0.022912532 -0.0374749 4285558303
-0.0042304359 -0.022017375 -0.038555507 4285624094
-0.0025679171 -0.021122448 -0.039634865 4285558558
-0.00072267279 -0.020984016 -0.040053669 4285624094
0.001694534 -0.023113452 -0.038496509 4285492768
0.0058674067 -0.032043681 -0.03102066 4285492514
0.012063675 -0.048524827 -0.016985048 4285492514
0.018575594 -0.065752484 -0.0023190351 4285360678
0.021788226 -0.070132583 0.0011637155 4285163309
-0.022216946 -0.027954787 -0.032814652 4285360424
-0.020359494 -0.027816758 -0.033237234 4285492004
-0.018985517 -0.025397524 -0.035650764 4285492258
-0.0168081 -0.026780121 -0.034745298 4285492259
-0.01495298 -0.026641928 -0.035167083 4285492259
-0.012590248 -0.028782926 -0.033603251 4285492514
-0.010726962 -0.028643861 -0.034026705 4285492259
-0.0088635981 -0.028504699 -0.034450106 4285492259
-0.0073544458 -0.026847072 -0.036193475 4285492768
-0.0054962337 -0.026708037 -0.036615498 4285492513
-0.003637962 -0.026568875 -0.037037455 4285558304
-0.0019647628 -0.02567099 -0.038117595 4285558303
-0.0002968125 -0.024773419 -0.039196394 4285558304
0.0019371957 -0.026150659 -0.038302846 4285492514
0.0063059367 -0.035864599 -0.030191097 4285426468
0.012505669 -0.05239322 -0.016192585 4285426468
0.018028758 -0.065882608 -0.0048413659 4285294888
0.021033637 -0.069518797 -0.002021634 4284900914
-0.023904771 -0.031143576 -0.032188058 4285032238
-0.022197947 -0.030242376 -0.03327515 4285360678
-0.020496316 -0.029341444 -0.034360968 4285492259
-0.018799894 -0.028440744 -0.035445549 4285492259
-0.016945019 -0.02830267 -0.035867371 4285492259
-0.014923722 -0.028926671 -0.035628259 4285492259
-0.012390096 -0.031835906 -0.033409625 4285558048
-0.01052165 -0.031696491 -0.033834271 4285492258
-0.0086531155 -0.031556927 -0.034258835 4285492259
-0.0071383938 -0.029894568 -0.036000177 4285492513
-0.0054546297 -0.028994016 -0.037081197 4285492514
-0.0034115836 -0.029615611 -0.036846511 4285492258
-0.0019179285 -0.027954474 -0.038582794 4285492513
0.00012789294 -0.028575622 -0.038348552 4285492513
0.0021790788 -0.02919624 -0.038115434 4285427233
0.0065504238 -0.038938209 -0.030025713 4285427234
0.012359824 -0.053994492 -0.017372157 4285426978
0.017879177 -0.067523159 -0.0060498202 4285295399
-0.023888826 -0.033437595 -0.032652602 4285098028
-0.022023797 -0.033299141 -0.033077009 4285360679
-0.020158648 -0.033160567 -0.033501364 4285426469
-0.018454202 -0.032257155 -0.034586087 4285426468
-0.016591504 -0.032118522 -0.035009705 4285492259
-0.014728706 -0.031979769 -0.035433255 4285492514
-0.012528259 -0.033369116 -0.034539476 4285492514
-0.01048851 -0.033993669 -0.034306034 4285492258
-0.0086174645 -0.033853926 -0.034731172 4285492514
-0.0069230981 -0.032950513 -0.035813093 4285492514
-0.0052339658 -0.032047383 -0.036893688 4285492258
-0.0033680201 -0.031907655 -0.037317388 4285492258
-0.0016867369 -0.031004898 -0.038396031 4285492258
0.00017666817 -0.03086511 -0.038818963 4285492514
0.0024202056 -0.032250263 -0.037934236 4285427234
0.0066014342 -0.041257858 -0.030519761 4285492513
0.012214012 -0.05559548 -0.018551517 4285492513
0.017531609 -0.068401501 -0.0079100626 4285360934
-0.021695107 -0.037131675 -0.032225013 4285228843
-0.019822128 -0.036992542 -0.032651164 4285294889
-0.017788447 -0.03762015 -0.0324184 4285295143
-0.0159126 -0.037480541 -0.032845002 4285360934
-0.013870738 -0.038107321 -0.032613926 4285426469
-0.011992045 -0.037967257 -0.033040993 4285360934
-0.010113254 -0.037827052 -0.033467986 4285426468
-0.0084082857 -0.036920846 -0.03455073 4285426468
-0.0065319985 -0.036780611 -0.034976978 4285426723
-0.0048348494 -0.035874747 -0.036057755 4285426469
-0.0031429455 -0.034969129 -0.037137233 4285360423
-0.0012717694 -0.034828894 -0.037562035 4285426214
0.0004122667 -0.033923589 -0.03863959 4285492259
0.0024707317 -0.034548052 -0.038411401 4285493025
0.0062670782 -0.042052589 -0.032319993 4285492513
0.01167791 -0.055667527 -0.021032605 4285492513
0.017184475 -0.069275148 -0.009766845 4285360934
-0.012517907 -0.046566807 -0.027845584 4285491238
-0.010783829 -0.045656525 -0.028933484 4285425449
-0.0090549812 -0.044746473 -0.030020081 4285425704
-0.0075050592 -0.04306858 -0.031759653 4285360424
-0.0057893358 -0.042159274 -0.032843091 4285295143
-0.0038998425 -0.042017937 -0.033272255 4285295398
-0.0021919496 -0.041108981 -0.034353726 4285294888
-0.00030498207 -0.040967569 -0.034782119 4285294889
0.0013950579 -0.040058941 -0.035861611 4285294888
0.0036587566 -0.041451238 -0.034988061 4285295399
0.0068946704 -0.046676129 -0.03086685 4285360679
0.011922475 -0.05879651 -0.020909552 4285295143
