# .PCD v0.7 - Point Cloud Data file format
VERSION 0.7
FIELDS x y z rgba
SIZE 4 4 4 4
TYPE F F F U
COUNT 1 1 1 1
WIDTH 659
HEIGHT 1
VIEWPOINT 0 0 0 1 0 0 0
POINTS 659
DATA ascii
0.01104743 -0.0033523515 0.029449634 4289341993
0.012984522 -0.0025055781 0.028355788 4289144623
0.015431888 -0.004533954 0.030069284 4289863979
0.018421672 -0.0094354674 0.034583934 4289994284
0.021449149 -0.014334477 0.039091494 4290189614
0.0098105595 0.0014571249 0.021894921 4289539873
0.011597522 0.0030256361 0.02010686 4290389788
0.013888717 0.0017098859 0.021120653 4289407783
0.016716301 -0.0024880245 0.024930127 4289799973
0.019442149 -0.0059632435 0.028034642 4289995813
0.021921463 -0.0079958662 0.029737338 4288948783
0.024277553 -0.009307079 0.030739121 4289341229
0.026360251 -0.0091773793 0.030344177 4288491059
0.028153457 -0.007607758 0.028555553 4287444539
0.0070440844 0.0032871813 0.017551564 4289410079
0.0089462176 0.0041359961 0.016467541 4290455833
0.010591432 0.006431058 0.01398702 4289539364
0.012991905 0.0043867081 0.015699413 4289081128
0.01553984 0.0016204938 0.018106643 4289146664
0.01824325 -0.0018670335 0.021207139 4289669924
0.020563871 -0.0031849816 0.022212289 4289799973
0.022616804 -0.0030572712 0.021822885 4289538089
0.024527885 -0.0022071823 0.020737793 4289276459
0.026433703 -0.0013572425 0.019653745 4289277479
0.028481569 -0.0012294948 0.019265573 4289733929
0.031279542 -0.0047104731 0.022348642 4289799209
0.034104444 -0.0081896633 0.025426757 4289471788
0.03742237 -0.013831265 0.030579448 4290779428
0.040467214 -0.018027596 0.034338728 4288556083
0.0041889176 0.0058672428 0.012520812 4290393614
0.0063181818 0.0052656159 0.012837417 4289474849
0.0083299354 0.0053900927 0.012455314 4289997599
0.010090455 0.0069656298 0.010678846 4290520093
0.012353882 0.0056394041 0.011691272 4290193184
0.015021335 0.0021386296 0.014790229 4290520093
0.017448261 8.9600682e-05 0.016492806 4290454814
0.019754998 -0.0012335926 0.017497268 4289604389
0.021516159 0.00034252554 0.015721098 4289669668
0.02340848 0.0011935979 0.014641196 4289473574
0.025295541 0.0020444691 0.013562389 4289800483
0.027324475 0.0021710172 0.013177782 4289604388
0.029653173 0.00084981322 0.014178477 4289015339
0.032450255 -0.0026419759 0.01725354 4289603878
0.035584662 -0.0075792149 0.021706838 4289603623
0.039230376 -0.014684297 0.028226335 4288687408
0.042929836 -0.021785878 0.034735758 4288818478
0.0037133694 0.0064145848 0.0092163943 4289475613
0.005714111 0.0065382496 0.0088362806 4289998108
0.0077150166 0.006662026 0.008456219 4289604644
0.0097160488 0.0067859292 0.0080762096 4289015594
0.01210184 0.0047275648 0.00978145 4288884779
0.014503863 0.0026702583 0.011483736 4289408038
0.016922113 0.00061409175 0.013183024 4289866018
0.018947821 0.00073996186 0.012798678 4289538853
0.020834684 0.0015928 0.011721324 4289473829
0.022716302 0.00244537 0.010645095 4289408038
0.024448358 0.0040242076 0.0088779591 4290650908
0.026463732 0.004149884 0.0084959101 4290062369
0.028628867 0.0035495758 0.0088049285 4289080873
0.031408861 4.5835972e-05 0.011874974 4289015594
0.034680896 -0.0056335256 0.01700997 4289603878
0.038469091 -0.013486959 0.024205305 4289472553
0.042316411 -0.021336593 0.031389583 4288883504
0.0033561587 0.0062450767 0.0066173375 4289343779
0.0053514093 0.0063683689 0.0062382482 4289669668
0.007346794 0.0064917803 0.0058592111 4289277224
0.0094677024 0.0058854669 0.0061742254 4289342503
0.01172214 0.0045499802 0.0071816817 4289342503
0.013987441 0.003215313 0.0081871711 4289604389
0.016263604 0.001881361 0.0091907084 4289277223
0.018278427 0.0020065308 0.0088084098 4289474084
0.02029337 0.0021318495 0.0084261857 4289277733
0.022308417 0.0022572652 0.0080440175 4289408293
0.023891144 0.0045688003 0.0055907071 4289996833
0.025751509 0.0054224283 0.0045203194 4289996833
0.027905598 0.0048192441 0.0048297737 4289931554
0.030978262 -0.00015246123 0.0092715397 4289931298
0.034243442 -0.0058496073 0.014394581 4289669158
0.038181856 -0.014455289 0.022261027 4289080873
0.042184729 -0.023056813 0.030115362 4288818223
0.0032339618 0.0046195686 0.0054127388 4289343524
0.0049894229 0.0062074959 0.0036469586 4290716443
0.0071018189 0.0055983886 0.0039618015 4290650909
0.0092197284 0.0049897283 0.0042756647 4290650909
0.011598907 0.0029177964 0.0059722643 4289734948
0.013733178 0.0023103952 0.0062832106 4289538853
0.016006187 0.00097186863 0.0072840285 4289343014
0.018018179 0.0010968596 0.0069022533 4289408548
0.01989169 0.0019531846 0.0058307219 4289212198
0.021759935 0.0028092414 0.0047603063 4289277734
0.023478955 0.004395932 0.0030022115 4289538853
0.025627278 0.0037900656 0.0033110045 4289080873
0.027781054 0.0031846762 0.0036188606 4289015594
0.030700386 -0.0010719597 0.0073620286 4289866019
0.034270819 -0.0082471892 0.013846204 4289407528
0.038367137 -0.017608903 0.022378918 4289277734
0.042213164 -0.025506489 0.029527124 4288360499
0.0026438907 0.0059331357 0.0014393516 4289539874
0.0043888092 0.0075247288 -0.00032115355 4290193184
0.0064901859 0.0069127381 -5.889684e-06 4289800484
0.0089721456 0.0040986091 0.0023805983 4290650909
0.011220288 0.002753973 0.0033826679 4289669668
0.013479277 0.0014101341 0.0043826941 4289408038
0.015749123 6.7122281e-05 0.0053807795 4289408038
0.017622545 0.00092542917 0.0043108482 4289277734
0.019213844 0.0032502338 0.0018656626 4289277734
0.021212507 0.0033746064 0.0014865808 4290389788
0.023211259 0.0034990907 0.0011075642 4290389788
0.025503088 0.0021580234 0.0021019187 4290193438
0.027805723 0.00081773102 0.003094295 4289604644
0.030726597 -0.0034519136 0.0068273023 4289474338
0.034452423 -0.011381157 0.013979882 4289409058
0.038709022 -0.021503158 0.023175228 4289146919
0.042081378 -0.027228221 0.028251767 4286529343
0.00053849816 0.0041945577 0.00061875209 4289671453
0.0021720007 0.0065275505 -0.0018302202 4289736224
0.0037895516 0.0088597387 -0.0042760968 4288950313
0.0061242655 0.0067717582 -0.0025811568 4288623148
0.0084752142 0.00468494 -0.00088924542 4289146408
0.010969929 0.0018630177 0.0014882963 4290323999
0.013225779 0.0005145818 0.0024856683 4289538853
0.015359551 -9.7155571e-05 0.002793448 4289342759
0.017092038 0.0014986992 0.0010391157 4289800993
0.018537354 0.0045650974 -0.0020862687 4289670179
0.020525146 0.0046887845 -0.0024632961 4290847769
0.022800304 0.0033421814 -0.001469193 4290455324
0.025378931 0.00052626431 0.00089303963 4291044119
0.027979098 -0.0022881925 0.0032512825 4290193438
0.031055875 -0.0073052794 0.0076575521 4289278244
0.03494215 -0.015992627 0.015474368 4289081893
0.039206989 -0.026144564 0.024645042 4289015084
-0.00015261769 0.0062748417 -0.0040263478 4289605409
0.0014678389 0.0086135417 -0.0064678937 4290324509
0.0033110082 0.0094736442 -0.0075293817 4289473574
0.0053930208 0.0088560209 -0.0072137248 4289146408
0.0077299178 0.0067618042 -0.00552411 4290651164
0.010083038 0.0046686307 -0.0038374625 4289931554
0.012322314 0.0033148676 -0.0028402954 4289473574
0.014439698 0.0026998967 -0.0025310088 4289669668
0.0162917 0.0035612434 -0.0035936441 4290062113
0.018000346 0.0051600486 -0.0053400882 4289866018
0.019979943 0.0052832067 -0.0057155713 4289146408
0.022246573 0.0039317235 -0.0047231503 4289343270
0.024816342 0.0011065453 -0.0023658536 4290390044
0.027705338 -0.0031913221 0.0013532992 4289146664
0.031081166 -0.0096976832 0.0071135964 4289473828
0.035276376 -0.019884534 0.016274273 4288753709
0.039232999 -0.028593406 0.024058014 4287771448
-0.0023542419 0.0052903742 -0.005529359 4288887328
-0.00061441958 0.0068944246 -0.0072792126 4289080873
0.0012313202 0.007756725 -0.0083396407 4289211434
0.003071852 0.0086187869 -0.0093989298 4288884523
0.0051508695 0.0079988167 -0.0090844231 4288557613
0.0072353855 0.0073792636 -0.0087708244 4289866018
0.0094526038 0.0060196668 -0.0077728638 4289734948
0.011420883 0.0061416328 -0.0081465701 4289800484
0.013787031 0.0040429831 -0.0064671785 4289669925
0.015763588 0.0041656941 -0.0068422789 4289866019
0.017602317 0.0050284564 -0.0079006115 4290650908
0.019295149 0.0066307634 -0.0096407318 4289211944
0.021407269 0.0060137957 -0.0093317935 4288885289
0.024254795 0.0017001629 -0.0056147855 4289146664
0.027431931 -0.004089728 -0.00054126419 4289866019
0.03140885 -0.013572253 0.0079281274 4289538599
0.035455588 -0.023050278 0.016384393 4289079854
0.038788535 -0.028830126 0.021428697 4287183419
-0.0024742708 0.0036882907 -0.0067166993 4287905578
-0.00096155703 0.0067838728 -0.0098359073 4287903028
0.00087884814 0.0076479539 -0.01089364 4288099379
0.002952069 0.0070253387 -0.010579766 4287968308
0.0049090832 0.0071462542 -0.010951609 4288099124
0.0069906116 0.0065243691 -0.010639158 4289865509
0.0088235363 0.0073884502 -0.011695114 4289080619
0.010910675 0.0067671388 -0.011383549 4289669413
0.013003312 0.0061462671 -0.011072879 4289604133
0.01510141 0.0055258647 -0.010763221 4289604389
0.016929425 0.0063901171 -0.011817894 4289800483
0.018752173 0.0072541907 -0.012871523 4289211943
0.020855945 0.0066344589 -0.012562622 4289146919
0.023840096 0.0015656874 -0.0081736306 4289669923
0.02730741 -0.0057249069 -0.0017526541 4289473318
0.031584393 -0.016718373 0.0080540907 4289341994
0.035480294 -0.025483355 0.015809644 4288949549
-0.0023726299 0.00059460104 -0.0065334421 4287120179
-0.00074055791 0.00295344 -0.008962539 4287052604
0.0011079162 0.0038201809 -0.010020166 4286660158
0.0030700192 0.0039412826 -0.010393065 4286529344
0.010790199 0.0051717088 -0.012565733 4287052604
0.012750268 0.0052932575 -0.012937815 4287575863
0.014710456 0.005414933 -0.013309826 4288491824
0.016395517 0.0070252717 -0.015041932 4288949803
0.01821024 0.0078909695 -0.016092356 4288361519
0.020448618 0.0065246299 -0.015104514 4288230703
0.023280453 0.0021839589 -0.01140431 4289604133
0.027034588 -0.0066161901 -0.003641868 4289343013
0.031457257 -0.018386021 0.0068186782 4289277733
0.035197306 -0.026433945 0.013877831 4289670178
-0.0023822412 -0.0017593652 -0.0070400322 4287119669
-0.00052049756 -0.00088977814 -0.0080986386 4286856509
0.0013360381 -2.0347536e-05 -0.0091562094 4286790973
0.0033060461 0.00010123104 -0.0095306234 4286921789
0.0052761734 0.00022292137 -0.009904989 4286660159
0.0072464496 0.00034473091 -0.010279291 4286725438
0.0090901405 0.001213789 -0.011334025 4286594623
0.010928586 0.002082631 -0.012387679 4286856253
0.012761787 0.0029512793 -0.013440245 4286790974
0.014589727 0.0038197637 -0.014491753 4287183418
0.016412422 0.0046879724 -0.015542154 4287314489
0.01836998 0.0048097223 -0.01591349 4286987579
0.020470433 0.004185468 -0.015607317 4287249208
0.023158312 0.00057777762 -0.012594254 4287706934
0.026910298 -0.0082485825 -0.0048511866 4288295984
0.031330157 -0.020053335 0.0055835247 4288164404
-0.0023921132 -0.0041173697 -0.0075496268 4287249973
-0.00052768737 -0.0032454804 -0.0086071249 4287052348
0.0014473945 -0.003123723 -0.0089826044 4287052348
0.0033040941 -0.0022520572 -0.01003844 4287314234
0.0052767769 -0.0021302253 -0.010413297 4287118139
0.0072495788 -0.0020082667 -0.010788088 4287118139
0.0093490779 -0.0026354939 -0.010483945 4287314233
0.011195585 -0.0017639846 -0.011537486 4286921789
0.012904935 -0.000143677 -0.013267853 4287117883
0.014872856 -2.156198e-05 -0.013641358 4287183163
0.01684089 0.00010071695 -0.014014785 4287248699
0.018809021 0.00022308528 -0.014388146 4287117883
0.020919885 -0.00040268898 -0.014085595 4287052604
0.023326855 -0.0025243387 -0.012433318 4287183163
0.026934054 -0.010628596 -0.0053854529 4287706169
0.031052399 -0.020972483 0.0036742538 4287444029
-0.0024022907 -0.0064794645 -0.0080622528 4287577138
-0.0005351454 -0.0056052282 -0.009118611 4287117884
0.0013267919 -0.0047312006 -0.010173904 4287183419
0.003065154 -0.0031053647 -0.011906946 4287445049
0.005035013 -0.0029837191 -0.012281278 4287510328
0.0071287081 -0.0036136508 -0.011977727 4287575864
0.0094806813 -0.0057460293 -0.010320643 4287445303
0.011332568 -0.0048720315 -0.01137357 4287314234
0.013310958 -0.004749395 -0.011749169 4287314233
0.015289459 -0.0046266317 -0.012124693 4287445049
0.017268073 -0.004503727 -0.012500135 4287379514
0.019246776 -0.0043806881 -0.012875507 4287445048
0.021368053 -0.0050080121 -0.012576593 4287576118
0.023785092 -0.0071355402 -0.010931166 4287510329
0.027253196 -0.014513001 -0.0045762938 4287379259
0.030925527 -0.022636972 0.0024411753 4286855488
-0.002743192 -0.0065816492 -0.010613998 4287839023
-0.00076855719 -0.0064600781 -0.010989523 4287838513
0.0012062266 -0.0063383803 -0.011364972 4287707189
0.0030629709 -0.0054623932 -0.012417546 4287510839
0.0050353557 -0.0053406283 -0.012792381 4287576118
0.0072549731 -0.0067263693 -0.011814816 4287576118
0.0096116699 -0.0088650286 -0.01016354 4287510838
0.011468925 -0.0079884976 -0.011215901 4287183673
0.013452537 -0.0078655481 -0.011592483 4287380024
0.015301976 -0.0069893152 -0.012643138 4287641653
0.017420053 -0.0076192468 -0.012345457 4287510838
0.019264337 -0.0067430884 -0.013394935 4287380024
0.021387979 -0.007372424 -0.013098115 4287445303
0.023807056 -0.0095063597 -0.01145803 4287641144
0.027423702 -0.017657809 -0.0044482145 4287313723
0.030798703 -0.024301119 0.0012083538 4286528578
0.0030605048 -0.0078234598 -0.012931218 4287119413
0.0050354153 -0.0077015385 -0.01330653 4287183928
0.0071338415 -0.008335501 -0.013007248 4287707953
0.0094899125 -0.010480717 -0.011360796 4287510583
0.011604663 -0.011113435 -0.011064427 4287445048
0.013593484 -0.010990173 -0.011442019 4287641653
0.015448306 -0.010111421 -0.012492033 4287510838
0.017434645 -0.0099880546 -0.012868965 4287380023
0.019281618 -0.0091095269 -0.013917366 4287576118
0.021265469 -0.0089860857 -0.014293639 4287706933
0.023973554 -0.012635946 -0.011317374 4287706423
0.027298555 -0.019302018 -0.0056663081 4286921278
0.0094940849 -0.012854114 -0.011885399 4286988853
0.011739783 -0.01424671 -0.010919224 4286922553
0.013865072 -0.014880873 -0.010626371 4287510839
0.015594006 -0.013241887 -0.012347206 4287641654
0.017585553 -0.013118252 -0.012725147 4287445303
0.019577198 -0.012994424 -0.013102996 4287641654
0.021568939 -0.012870505 -0.013480773 4287706679
0.024139419 -0.015773892 -0.011182993 4287444793
0.027320798 -0.021702625 -0.0062157623 4286659648
0.020289231 -0.019170225 -0.01029333 4286006338
0.022155084 -0.018286109 -0.011341884 4286594624
0.024449151 -0.019679338 -0.010387558 4286267203
0.027195551 -0.023348369 -0.0074349893 4286790209
-0.020163089 -0.010694757 -0.0044986885 4283787839
-0.018622935 -0.0067937449 -0.0082906708 4283922988
-0.016835183 -0.0051616728 -0.010030683 4284446249
-0.020196825 -0.013068333 -0.0050144549 4282740299
-0.018741898 -0.0083981678 -0.0094800312 4281957958
-0.016771473 -0.0082777813 -0.0098554436 4281958214
-0.014800847 -0.0081572607 -0.010230815 4281761865
-0.012926623 -0.0072789267 -0.011285821 4281826888
-0.011057608 -0.0064008534 -0.012339713 4282285124
-0.0091937408 -0.0055229813 -0.013392532 4282677313
-0.0072304383 -0.0054024756 -0.013766175 4282807873
-0.0052669793 -0.0052818507 -0.014139755 4282873663
-0.0031933784 -0.0059179217 -0.013836192 4283984443
-0.020145118 -0.016206466 -0.0048531685 4282346578
-0.018684 -0.011522926 -0.0093100574 4281630539
-0.016981587 -0.009121716 -0.011723662 4281761098
-0.015013769 -0.0090013966 -0.012098515 4281565514
-0.013142228 -0.0081211179 -0.013151342 4281696073
-0.01127585 -0.0072410554 -0.014203092 4281826634
-0.0094146505 -0.0063612014 -0.015253784 4281827399
-0.0074541569 -0.0062408745 -0.015626894 4281891913
-0.0054935217 -0.0061204433 -0.01599996 4281826890
-0.0035327151 -0.005999878 -0.016372954 4282022728
-0.0014592633 -0.0066380352 -0.01607093 4282740298
0.00085006654 -0.008793138 -0.014420914 4283132234
0.0029398799 -0.0094300508 -0.014121829 4283786818
-0.020436257 -0.016302377 -0.007411941 4282347853
-0.018891431 -0.012368612 -0.011180168 4281434699
-0.017191343 -0.0099610537 -0.013588401 4281565003
-0.015319936 -0.009078756 -0.014639659 4281499468
-0.013357438 -0.0089586526 -0.015013417 4281499724
-0.011394762 -0.0088384598 -0.015387138 4281499723
-0.0094319135 -0.008718133 -0.015760811 4281696073
-0.0074688941 -0.0085976869 -0.016134428 4281630538
-0.0055057108 -0.0084770918 -0.01650797 4281630793
-0.0036520436 -0.0075951964 -0.017555339 4281435209
-0.0016912371 -0.0074745417 -0.017928259 4281891914
0.00038473308 -0.0081146061 -0.017628284 4281891659
0.0025838912 -0.009514913 -0.016656937 4282022474
0.0045531541 -0.0093933791 -0.01703121 4282021964
0.0068917423 -0.011552833 -0.015391415 4281957194
0.0096237063 -0.015991777 -0.011742215 4282414663
0.012131117 -0.01890853 -0.0094396314 4283591233
-0.020641312 -0.017154127 -0.0092872074 4282216528
-0.01901041 -0.013974346 -0.012370526 4281303884
-0.017309971 -0.011560276 -0.0147739 4281303884
-0.015345119 -0.011440173 -0.015148209 4281303883
-0.013476186 -0.010555759 -0.01619727 4281369164
-0.011513643 -0.010435566 -0.016570976 4281434698
-0.0095509291 -0.010315269 -0.01694463 4281500489
-0.0073797703 -0.011722229 -0.015971692 4281434698
-0.0055182055 -0.010837808 -0.017019009 4281630538
-0.0036618263 -0.0099536031 -0.01806525 4281434953
-0.0019228533 -0.0083063394 -0.019782176 4281630793
0.0001501441 -0.0089488178 -0.019483251 4281630539
0.0022286251 -0.0095907897 -0.019185318 4281761098
0.0043125898 -0.010232329 -0.018888349 4281826379
0.00677073 -0.013161056 -0.01658318 4281695564
0.0096271299 -0.018375523 -0.012274417 4281826890
0.012136418 -0.021300793 -0.0099788187 4282806598
-0.020846009 -0.018001154 -0.011159065 4282019414
-0.019041419 -0.016346619 -0.012885938 4281303628
-0.017337963 -0.01392588 -0.015284972 4281303374
-0.015463829 -0.013039097 -0.01633347 4281303628
-0.013594881 -0.012152538 -0.017380903 4281435719
-0.011533849 -0.012798578 -0.017081914 4281370948
-0.0095686167 -0.012678146 -0.017456064 4281370694
-0.007499218 -0.013323449 -0.01715851 4281369929
-0.0056376308 -0.012436882 -0.018204192 4281304394
-0.0037812367 -0.011550501 -0.019248793 4281239113
-0.0019300506 -0.010664329 -0.020292317 4281500234
3.0606985e-05 -0.010543585 -0.020665152 4281369674
0.0019914061 -0.010422707 -0.021037916 4281499723
0.0040723756 -0.011066601 -0.020742027 4281827144
0.0066497475 -0.014768958 -0.017774707 4281696073
0.0095048733 -0.019998677 -0.013477216 4281826378
0.012013342 -0.022932708 -0.011188063 4282869329
-0.019248232 -0.017184906 -0.014750577 4281821024
-0.017547093 -0.014757797 -0.017144227 4281561433
-0.015582509 -0.014637753 -0.017518515 4280843608
-0.013713539 -0.013749048 -0.01856433 4281172304
-0.011652812 -0.014397278 -0.018266944 4281304139
-0.0096877068 -0.014276877 -0.018641083 4281238603
-0.007618621 -0.014924362 -0.018345108 4281108298
-0.0058635026 -0.013267756 -0.020058697 4281369674
-0.0039006025 -0.013147116 -0.020432131 4281303883
-0.0019375607 -0.013026357 -0.020805528 4281499978
2.5629997e-05 -0.012905464 -0.021178847 4281238603
0.0018717647 -0.01201719 -0.022219578 4281304393
0.0039524138 -0.01266329 -0.021925287 4281631049
0.0065288246 -0.016376562 -0.018966017 4281630539
0.0092573911 -0.020854779 -0.015345815 4281890893
-0.0099077374 -0.01510489 -0.020494794 4281562453
-0.0079452842 -0.014984533 -0.020868337 4280911183
-0.0060890168 -0.01409398 -0.021909749 4281173323
-0.0042379573 -0.013203569 -0.022950096 4281434445
-0.0021687225 -0.013852939 -0.022655515 4281564748
2.0369887e-05 -0.015271395 -0.021695549 4281303883
0.0017521456 -0.013611406 -0.023401039 4281370439
0.0039522126 -0.015028924 -0.022442965 4281303629
0.0062855333 -0.017214775 -0.020821964 4281368144
0.0090102851 -0.021706268 -0.017210916 4281497684
0.001749441 -0.015976906 -0.023918008 4281036898
0.003832154 -0.016627222 -0.023627417 4281038939
0.0059203655 -0.017277054 -0.02333775 4281431894
-0.020091087 0.0047935024 0.03406518 4285295909
-0.018222049 0.0063482523 0.032247312 4285688608
-0.015739597 0.0028999597 0.035429925 4285753888
-0.022904128 0.0087404773 0.027506802 4285032748
-0.021134801 0.011015616 0.024981756 4285820444
-0.019295044 0.012572937 0.023172691 4285754398
-0.016931958 0.0098286644 0.025640354 4285819933
-0.014363907 0.00565245 0.02952785 4285754653
-0.011763468 0.0014783815 0.033409219 4285360678
-0.0093246549 -0.0012609586 0.035862692 4285163563
-0.025358781 0.009846814 0.023817934 4284901169
-0.023753554 0.013567246 0.0198735 4285755418
-0.021841101 0.014408797 0.018781517 4285558304
-0.019847609 0.014530875 0.018401925 4285557794
-0.017587498 0.012496002 0.020154845 4285557793
-0.015128106 0.0090245157 0.02332532 4285689118
-0.012735859 0.0062734708 0.025780939 4285689628
-0.01070933 0.00639797 0.025395356 4285558813
-0.0085830614 0.0058042333 0.025718562 4285558814
-0.006757848 0.0073654875 0.023916014 4285493024
-0.0048382655 0.0082082003 0.022823237 4285755419
-0.0028162822 0.0083328038 0.022438802 4285885978
-0.00024284422 0.0048689842 0.025588151 4285885978
0.0021317229 0.0028420761 0.027319923 4285754399
0.004985027 -0.0020532683 0.031871594 4285294634
0.0077577606 -0.0062289312 0.035710946 4284900913
-0.026025958 0.013260156 0.017623737 4285164328
-0.024277553 0.01554694 0.015112404 4285689883
-0.022295162 0.015668213 0.01473482 4285821208
-0.020226568 0.015068196 0.015067015 4285886744
-0.017975092 0.01302626 0.016816542 4285886743
-0.015524693 0.0095433071 0.019980438 4285821208
-0.013329245 0.0082247183 0.021014765 4285689629
-0.011316232 0.0083483383 0.020631716 4285623838
-0.009303011 0.0084720775 0.020248696 4285690139
-0.0074936971 0.010036707 0.018452391 4285755163
-0.0055901632 0.010880545 0.017364345 4285689118
-0.003691785 0.011724159 0.016277343 4285623584
-0.0013582483 0.00968799 0.01801189 4285754654
0.0011043251 0.0069332644 0.020447981 4285819933
0.0035885423 0.0041799471 0.022880085 4285623583
0.0063306615 -1.0751188e-05 0.026715349 4285426724
0.0091051199 -0.0041992888 0.030544516 4285884704
-0.02783595 0.008617647 0.019639447 4285032748
-0.026379734 0.013808176 0.014290895 4285493279
-0.024478123 0.014653169 0.01320418 4285624349
-0.022581637 0.015497953 0.012118518 4285689884
-0.020432867 0.014171854 0.013158128 4285624093
-0.018184692 0.012123108 0.01490334 4285624093
-0.015920192 0.010075457 0.016645525 4285624094
-0.013827085 0.0094750375 0.016971525 4285624349
-0.011824921 0.0095979571 0.01659051 4285624093
-0.0097233579 0.0089982748 0.016915068 4285689884
-0.0078199804 0.0098441392 0.015828591 4285952533
-0.0060263276 0.011412174 0.01403866 4285820954
-0.00424321 0.012979716 0.012250781 4285754909
-0.002030924 0.011658356 0.013279013 4285820953
0.00041743368 0.0088940263 0.01571117 4286214674
0.0030027404 0.005409345 0.018841807 4285689118
0.0054970682 0.0026480034 0.021265432 4285557538
-0.028256573 0.0098906904 0.015595175 4285230373
-0.026654869 0.013643309 0.011676006 4285558813
-0.024678275 0.013764054 0.011299402 4285689883
-0.022618502 0.013159022 0.011629794 4285755164
-0.02046749 0.011828639 0.012665693 4285624093
-0.018305562 0.010499045 0.013699532 4285624093
-0.016223669 0.0098956525 0.014025927 4285558558
-0.014229886 0.010017917 0.013646401 4285624349
-0.012332238 0.010865375 0.012562491 4285624349
-0.010439739 0.011712611 0.011479642 4285624093
-0.0084506869 0.01183489 0.011101242 4285755419
-0.006565854 0.012681842 0.010019992 4285821209
-0.0046861693 0.013528652 0.0089397673 4285886489
-0.0025921613 0.012926653 0.0092644319 4285820698
-0.00015529245 0.010152802 0.011692174 4285689118
0.0024183244 0.0066565126 0.014816757 4285492004
0.0047833174 0.0046095178 0.016535558 4286674184
-0.028675854 0.011181496 0.011564046 4285361698
-0.026851803 0.012759082 0.0097741671 4285755929
-0.024878033 0.01287961 0.0093980618 4285952278
-0.022655629 0.010816 0.011138029 4286018324
-0.020502388 0.0094813704 0.01217017 4285755418
-0.018514507 0.0096030459 0.011791598 4285624348
-0.016435578 0.0089972466 0.012116879 4285558813
-0.014538117 0.0098467171 0.011034541 4285689883
-0.012741983 0.011423305 0.0092504323 4285624349
-0.010956362 0.012999274 0.0074684378 4285689629
-0.0090797171 0.013847783 0.0063902978 4285623839
-0.0068955421 0.012515768 0.0074170232 4285623839
-0.0049142763 0.012637734 0.007040238 4285623583
-0.0027136356 0.011306897 0.0080640316 4285624349
-0.00050212443 0.0099768639 0.0090857893 4285624349
0.0019502342 0.0071953759 0.011504058 4285557793
-0.029093727 0.012490086 0.0075460859 4285624093
-0.027280211 0.014071323 0.0057614688 4285755418
-0.025317252 0.014191143 0.00538739 4285623584
-0.023106158 0.012120247 0.0071245842 4285820699
-0.020793468 0.0093203783 0.0095619187 4285689883
-0.018723086 0.0087116882 0.0098871067 4285689628
-0.016737774 0.0088332742 0.0095090717 4285624349
-0.014752284 0.0089549571 0.0091310665 4285624348
-0.013150692 0.011994585 0.0059483387 4285689884
-0.011372894 0.013574451 0.0041710716 4285886743
-0.0095042735 0.014424592 0.0030960776 4285952534
-0.0073285773 0.013087638 0.0041211415 4286083859
-0.0051420033 0.011751488 0.0051441621 4285755164
-0.0029444993 0.010416128 0.0061651878 4285624603
-0.00073609501 0.0090814829 0.0071842596 4285492768
0.001368396 0.0084759668 0.0075036939 4286280464
-0.031251997 0.011497796 0.0060268678 4285361443
-0.029361382 0.012350477 0.0049485881 4285755673
-0.027475901 0.013202928 0.0038713515 4285623839
-0.025595531 0.014055215 0.0027951282 4285623329
-0.023472868 0.012709834 0.0038263556 4285755164
-0.02116897 0.0099006444 0.0062587727 4285886743
-0.019194722 0.010021403 0.0058827382 4285689628
-0.017220289 0.010142282 0.0055067353 4285624349
-0.015245616 0.010263264 0.0051307697 4285690139
-0.013558351 0.012579307 0.0026561227 4285755418
-0.011788398 0.014162973 0.00088367239 4285886489
-0.0098265409 0.014283463 0.00051035918 4285886743
-0.0074488595 0.01147949 0.002929261 4286018324
-0.0052627325 0.010138936 0.003949048 4285754909
-0.0029564202 0.0080683082 0.0056638829 4285558558
-0.00074581057 0.0067294687 0.006679168 4285425958
-0.031800017 0.01430662 0.00062325411 4285493278
-0.029702596 0.012955084 0.0016557202 4285625113
-0.027902052 0.014544144 -0.00011988916 4285887254
-0.025873087 0.013928264 0.00020957552 4285887509
-0.023756228 0.012578189 0.0012385435 4285887254
-0.021543436 0.010494359 0.0029655192 4285755674
-0.019489691 0.0098802745 0.0032904819 4285624093
-0.01770141 0.011469081 0.0015175864 4285624349
-0.015830606 0.01232335 0.00044520386 4285690138
-0.014060676 0.013911255 -0.001324106 4285755419
-0.012202859 0.014764935 -0.0023938511 4285557794
-0.010148115 0.014151409 -0.0020687059 4285557538
-0.0078803152 0.012071654 -0.00035167299 4285689374
-0.0054898337 0.0092598423 0.0020582434 4285755164
-0.0031868219 0.0071825013 0.0037686974 4285558303
-0.00086756796 0.0051062256 0.0054761842 4285359913
-0.033865944 0.01259847 -0.00018360838 4285361699
-0.031988859 0.013454497 -0.0012561399 4285493023
-0.029968657 0.012835689 -0.0009268187 4285493278
-0.028096467 0.013691619 -0.0019982737 4285558304
-0.026070438 0.013073355 -0.0016699173 4285558303
-0.023956716 0.011718698 -0.00064368546 4285558559
-0.021916859 0.011101469 -0.00031782128 4285558558
-0.019958943 0.011221156 -0.00069080479 4285558558
-0.018090993 0.012077294 -0.0017610919 4285558558
-0.016228192 0.012933224 -0.002830321 4285690138
-0.014466092 0.014524922 -0.0045948103 4285887253
-0.012616299 0.015380286 -0.0056614596 4285755419
-0.01046896 0.014028355 -0.0046410486 4285755163
-0.0082071424 0.011941709 -0.0029278956 4285952533
-0.0057165399 0.0083854049 0.00017088838 4285952023
-0.0034168437 0.0063013136 0.0018770043 4285623584
-0.032034747 0.011127718 -0.0017335042 4285493023
-0.030086093 0.011246346 -0.0021050964 4285558559
-0.028137222 0.011365063 -0.0024766773 4285558559
-0.026188128 0.011483915 -0.0028482098 4285493024
-0.02407483 0.01012484 -0.0018252283 4285493278
-0.0222046 0.010983057 -0.0028944798 4285427488
-0.020252153 0.011102401 -0.0032664314 4285493278
-0.018389508 0.011960343 -0.0043340866 4285559068
-0.016532034 0.012818083 -0.0054006744 4285559069
-0.014775105 0.014413826 -0.0071609598 4285624603
-0.012930617 0.015270971 -0.0082249176 4285690138
-0.010789104 0.013914339 -0.0072067659 4285624603
-0.0086366832 0.012558438 -0.0061905682 4285689883
-0.0061550662 0.0089907348 -0.0030983761 4285624093
-0.0038640499 0.0068994984 -0.0013955515 4285425958
-0.031867534 0.0065713078 -0.00012082979 4285493023
-0.030055888 0.0081739426 -0.0018888414 4285558558
-0.028025322 0.0075514391 -0.0015647877 4285623839
-0.026147448 0.0084120706 -0.0026340075 4285558048
-0.024111077 0.007790111 -0.0023109168 4285690139
-0.02232261 0.009391658 -0.0040741805 4285558559
-0.020457461 0.010251813 -0.0051407535 4285624603
-0.018597484 0.011111736 -0.0062062778 4285624858
-0.016742647 0.011971511 -0.0072707813 4285559068
-0.014892966 0.012830995 -0.0083341915 4285559069
-0.01304844 0.0136903 -0.0093965251 4285493279
-0.010907397 0.012329258 -0.0083816126 4285493279
-0.0088586807 0.011708818 -0.0080602113 4285493279
-0.0064866394 0.0088697523 -0.0056666769 4285558814
-0.0042015836 0.0067716241 -0.0039676726 4285556774
-0.033671148 0.0018779859 0.0018548127 4285097773
-0.031772524 0.0027417764 0.00078299083 4285426978
-0.029879019 0.0036053061 -0.00028773397 4285492514
-0.027914315 0.0037249327 -0.00066238083 4285492513
-0.025949381 0.0038446635 -0.0010369886 4285492513
-0.023984231 0.0039645135 -0.0014115665 4285492259
-0.022187546 0.0055708736 -0.0031731296 4285426469
-0.020401351 0.0071767494 -0.004932655 4285426468
-0.018535972 0.0080391392 -0.0059975851 4285360678
-0.01667574 0.0089013427 -0.0070614405 4285426214
-0.01491572 0.010505915 -0.0088157523 4285426724
-0.01297076 0.010625131 -0.0091860238 4285492514
-0.010925218 0.010002196 -0.00886577 4285493024
-0.0089772046 0.0101218 -0.0092364661 4285427234
-0.006711714 0.0080158636 -0.0075388281 4285163054
-0.033653215 -0.0012205988 0.0020541139 4285097774
-0.031749196 -0.00035438687 0.00098292157 4285426724
-0.029776819 -0.00023441762 0.00060672313 4285426723
-0.027880348 0.00063152611 -0.00046286918 4285426723
-0.025910191 0.00075154752 -0.00083850324 4285426724
-0.023939811 0.00087166578 -0.0012141149 4285426723
-0.022137567 0.0024827272 -0.0029735044 4285426724
-0.020432681 0.0048384815 -0.0054221861 4285426469
-0.018564582 0.0057031885 -0.0064860061 4285426724
-0.016701639 0.0065676868 -0.0075487634 4285360679
-0.014748968 0.0066872388 -0.007920607 4285426468
-0.012796111 0.0068069175 -0.0082924003 4285426979
-0.010742813 0.0061823055 -0.0079753222 4285492514
-0.0088898242 0.007046625 -0.0090358621 4285492513
-0.033703819 -0.0035791099 0.0015537851 4285097774
-0.031867713 -0.0019621998 -0.00020911358 4285360934
-0.029822141 -0.0025904998 0.00010698847 4285360678
-0.027846962 -0.0024703071 -0.00026969984 4285360678
-0.02587159 -0.0023499802 -0.00064633787 4285360678
-0.023977302 -0.0014818385 -0.0017137546 4285426469
-0.02208817 -0.00061390549 -0.0027801059 4285426469
-0.020290881 0.0010012537 -0.0045352094 4285360678
-0.018504091 0.0026158541 -0.0062881745 4285360678
-0.016543701 0.0027357489 -0.0066615911 4285426469
-0.014583126 0.0028557628 -0.0070349602 4285360679
-0.012524955 0.0022291392 -0.0067205625 4285360678
-0.010661416 0.0030961484 -0.0077815512 4285294633
-0.0087002739 0.00321652 -0.0081547843 4285425959
-0.006422624 0.0010982454 -0.0064693894 4285360424
-0.031774744 -0.0058214068 0.00067266822 4285228844
-0.029867731 -0.00495065 -0.00039576739 4285295399
-0.027890012 -0.0048303232 -0.00077296607 4285360678
-0.025990561 -0.0039598122 -0.0018398035 4285295398
-0.024096265 -0.0030895099 -0.002905583 4285426469
-0.022207089 -0.0022194311 -0.0039703157 4285426469
-0.020323053 -0.0013495088 -0.0050340276 4285360934
-0.018533394 0.00026957691 -0.0067842687 4285360678
-0.016570464 0.00038959086 -0.0071581928 4285360678
-0.014607348 0.00050973892 -0.0075320592 4285295144
-0.012546793 -0.00011892617 -0.0072197868 4285294633
-0.010580622 1.6093254e-06 -0.0075940778 4285294634
-0.008614257 0.00012227893 -0.0079683261 4285294889
-0.0064371526 -0.0012538582 -0.0069733215 4285294633
-0.029694609 -0.0095726401 0.0011657346 4285033004
-0.027781971 -0.008699283 9.7934157e-05 4285294634
-0.025874481 -0.0078261346 -0.00096881762 4285294888
-0.023972102 -0.0069531649 -0.0020345561 4285295144
-0.022074856 -0.0060804561 -0.0030992012 4285295144
-0.020269148 -0.0044561625 -0.0048493017 4285295143
-0.018473923 -0.0028323829 -0.0065973774 4285426979
-0.016689219 -0.0012091845 -0.0083433231 4285295398
-0.01463183 -0.0018403381 -0.0080321832 4285229353
-0.012568906 -0.0024710745 -0.0077220369 4285294889
-0.010699928 -0.0015994459 -0.0087808119 4285229099
-0.0086312741 -0.0022295937 -0.00847157 4285229354
-0.0064519569 -0.0036099628 -0.007480314 4285294633
-0.01859282 -0.0044352114 -0.0077855419 4284901423
-0.016807936 -0.0028076768 -0.0095282476 4285163819
-0.014656603 -0.0041945204 -0.0085353479 4285164073
-0.01268819 -0.0040739924 -0.0089101791 4285163819
-0.010719612 -0.0039533377 -0.0092849527 4285031983
-0.0088531226 -0.0030796081 -0.010341546 4285097774
-0.0066769496 -0.0044645295 -0.0093529951 4285228843
-0.014681622 -0.0065527931 -0.0090414751 4285034279
-0.012807429 -0.0056765974 -0.010098102 4284967214
-0.0089724883 -0.004680112 -0.011527838 4284901169
