# .PCD v0.7 - Point Cloud Data file format
VERSION 0.7
FIELDS x y z rgba
SIZE 4 4 4 4
TYPE F F F U
COUNT 1 1 1 1
WIDTH 460
HEIGHT 1
VIEWPOINT 0 0 0 1 0 0 0
POINTS 460
DATA ascii
-0.011823576 0.00040994585 0.013362981 4288425779
-0.010445651 0.004106313 0.009383861 4290324764
-0.0086987503 0.0056652129 0.0075398274 4290586648
-0.0066933073 0.005800046 0.0071165338 4292157449
-0.0045505352 0.0052234456 0.007401932 4290391829
-0.012589943 0.0023086742 0.0086119846 4289211943
-0.010966625 0.0045865029 0.0060612001 4289604643
-0.0090958439 0.0054351464 0.004930187 4289146408
-0.0069615506 0.0048556179 0.0052157082 4290128159
-0.0045477562 0.0028490573 0.0069142319 4289867038
-0.0023971386 0.002270855 0.007196404 4289867803
-0.00038333982 0.0024065524 0.0067715645 4290587923
0.0011955649 0.0046820343 0.0042306297 4290328078
-0.014980678 0.0019452572 0.0064237379 4288491058
-0.013228338 0.003513068 0.0045848079 4290322978
-0.011357669 0.004363738 0.0034553856 4289866019
-0.0096236505 0.0059304982 0.0016205274 4289016104
-0.0073635317 0.0046320558 0.0026121549 4289212454
-0.005092565 0.0033344179 0.0036016144 4290586393
-0.0026712678 0.0013218671 0.0052937455 4289474339
-0.00066028908 0.0014573485 0.004869476 4289539364
0.0012060143 0.0023083836 0.0037414692 4289801248
0.0029196106 0.0038744062 0.0019114017 4289801248
0.0047728159 0.0047248006 0.00078625605 4290587158
0.0067736618 0.0048600435 0.00036445819 4291765003
0.0087746345 0.0049953982 -5.729124e-05 4291897604
-0.017238881 0.0008726269 0.0049470961 4288359733
-0.01560713 0.0031639636 0.0024040397 4289275693
-0.013865221 0.0047353953 0.00057058781 4289734949
-0.012005184 0.0055875629 -0.00055502541 4290323999
-0.010150332 0.00643944 -0.0016794186 4290128158
-0.0077647232 0.004417628 1.5236437e-05 4289735714
-0.0053629614 0.0023970306 0.0017064996 4289604899
-0.0030843057 0.001095593 0.0026911478 4289670178
-0.00093681738 0.00051285326 0.0029707756 4289801248
0.00092685223 0.0013658702 0.0018449295 4289866784
0.0027853213 0.0022186637 0.00072026066 4290063134
0.0046385638 0.0030712411 -0.00040327571 4289997344
0.0069446266 0.0017722249 0.0005760137 4289343270
0.0091061331 0.0011909828 0.00085309707 4290652184
0.011115078 0.0013269708 0.00042973645 4289605918
0.01376687 -0.0014031678 0.0028017815 4290129943
0.017256912 -0.0077136382 0.0086607561 4290196498
0.021625262 -0.017601736 0.017998204 4289347603
-0.017974023 0.0028248876 0.00022760034 4289341994
-0.016108964 0.00367935 -0.00089762174 4289211434
-0.013997499 0.0030912757 -0.00061247498 4289081384
-0.012008954 0.0032246411 -0.0010324493 4289343013
-0.010020245 0.0033581257 -0.0014523845 4289277989
-0.0078975745 0.0027711838 -0.0011693966 4289539618
-0.0057693981 0.0021846965 -0.00088750198 4289605154
-0.0036357157 0.0015987009 -0.00060668401 4289932063
-0.001638364 0.0017332062 -0.0010281149 4289670179
0.00021467358 0.002587676 -0.0021501128 4289670178
0.0020624883 0.0034419149 -0.0032709334 4290586139
0.0039051175 0.0042959303 -0.0043905582 4289604643
0.0061999634 0.0029917657 -0.0034122299 4289015848
0.0088159591 0.00025016069 -0.0010393281 4289277733
0.011453431 -0.0024898499 0.0013291482 4289866783
0.014593873 -0.0073845983 0.0057848766 4289801503
0.018261347 -0.01443246 0.012322877 4288950823
0.022148203 -0.022195011 0.019545835 4286792249
-0.01985861 -0.00039950758 0.00087415799 4288949548
-0.018346515 0.0026285201 -0.0023635048 4289668903
-0.016363818 0.0027612448 -0.0027824305 4289538853
-0.014129687 0.0014474541 -0.0017953254 4290062623
-0.012013007 0.00085765123 -0.0015128907 4289539620
-0.010021772 0.00099128485 -0.0019333735 4289670433
-0.00789674 0.00040227175 -0.0016525313 4289474083
-0.0059024878 0.00053632259 -0.0020734984 4289539618
-0.003908094 0.00067049265 -0.0024944078 4289474083
-0.0020551644 0.0015270263 -0.0036148559 4289539364
-0.00020743161 0.0023833066 -0.0047341306 4289866529
0.0011941865 0.0054050162 -0.0079476554 4290520604
0.0031731203 0.0055385977 -0.0083649699 4290193184
0.0054568015 0.0042292774 -0.0073875487 4289473574
0.0085261948 -0.00068593025 -0.0029283557 4290127648
0.011633076 -0.0055984259 0.0015229862 4289800739
0.015098114 -0.011950254 0.0073578581 4289212199
0.018774334 -0.019019485 0.013877742 4288493099
-0.020577852 0.0015829653 -0.0038271081 4289015339
-0.018838335 0.0031671524 -0.0056505632 4290388769
-0.016741004 0.0025735646 -0.0053658113 4289866018
-0.014387283 0.00052949041 -0.0036793984 4290716444
-0.012145471 -0.00078809261 -0.0026971046 4290585884
-0.010023598 -0.0013796538 -0.002417326 4289800994
-0.0080296434 -0.0012457669 -0.0028383285 4289866784
-0.0060355403 -0.0011117533 -0.0032592788 4289801249
-0.0043188222 0.00047163665 -0.0050773118 4289277478
-0.0026126541 0.002054438 -0.0068930909 4289669923
-0.00062878057 0.0021881014 -0.0073116291 4289866274
0.00091486424 0.0044941902 -0.0098207761 4289735459
0.0028909966 0.0046275407 -0.010237528 4289081128
0.0051715113 0.0033135712 -0.0092626531 4288819243
0.0083916299 -0.002340816 -0.0041187909 4289342504
0.01196954 -0.009438917 0.0024053734 4289407528
0.015440825 -0.015810087 0.008224275 4289014574
-0.0226884 -0.00018577278 -0.0045863837 4288948784
-0.021178026 0.0028595477 -0.0078108013 4289604389
-0.019329023 0.0037192628 -0.008927865 4289342504
-0.017362591 0.0038508475 -0.0093433931 4288753963
-0.015020218 0.0017994046 -0.00765948 4289931554
-0.012789574 0.00047664344 -0.0066781081 4289996834
-0.010548089 -0.00084523112 -0.005698977 4289866274
-0.0085622706 -0.00071189553 -0.0061182678 4289931809
-0.0065763183 -0.00057846308 -0.0065375268 4290128158
-0.004867401 0.001008749 -0.0083506834 4289866273
-0.0030277483 0.0018687099 -0.0094651245 4289604643
-0.00090540573 0.0012755394 -0.009186659 4289801248
0.00078257173 0.0028617382 -0.010995189 4289800993
0.0029078498 0.0022689253 -0.010717144 4289800994
0.0051905178 0.00095073879 -0.0097460356 4289343779
0.0084117353 -0.0047211573 -0.0046154205 4289538598
0.012304954 -0.013292283 0.0032784026 4289473318
0.015942458 -0.020408206 0.0097738877 4289407274
-0.025133651 0.00023850799 -0.007448541 4288425268
-0.023391407 0.0018313229 -0.0092662461 4289014573
-0.021776702 0.0041540787 -0.01178159 4290257954
-0.020058084 0.0057455301 -0.013594142 4289604389
-0.018105116 0.005876191 -0.014006841 4289146408
-0.015651662 0.0030872226 -0.011626614 4289800739
-0.013432194 0.0017593503 -0.01064619 4290192928
-0.01120187 0.00043231249 -0.0096679665 4289865763
-0.0092268847 0.00056488812 -0.010084998 4290193438
-0.0071159713 -3.1679869e-05 -0.0098059885 4290324253
-0.0054148547 0.0015594214 -0.01161431 4289997088
-0.0035831667 0.0024210364 -0.012725461 4290913048
-0.0014691614 0.0018250793 -0.012446878 4290847769
0.00079675764 0.00050105155 -0.011475643 4291043864
0.0029243715 -9.3758106e-05 -0.011199763 4289604643
0.0053609982 -0.0021443665 -0.0095397513 4289604388
0.0085859708 -0.0078335255 -0.0044229832 4289997853
0.01248223 -0.016430818 0.0034507513 4289867039
0.015963346 -0.022840843 0.0092383251 4287444793
-0.025710154 0.0015414506 -0.011418892 4288753963
-0.023864124 0.0024050921 -0.012532273 4289605409
-0.022257019 0.0047338679 -0.015041164 4289473828
-0.020426627 0.005596675 -0.016151093 4289473574
-0.018479135 0.0057269335 -0.016562659 4289146408
-0.016281646 0.0043930188 -0.015580899 4289866019
-0.014073346 0.0030599758 -0.014601379 4289538598
-0.011984419 0.0024595559 -0.014319571 4289669669
-0.0098899938 0.0018595755 -0.014038786 4290062624
-0.0079256557 0.0019915178 -0.014453504 4290651419
-0.0062376745 0.003586106 -0.016255818 4289931553
-0.0044193007 0.0044489801 -0.017362557 4289539364
-0.0020317845 0.0023881048 -0.015697332 4289866273
0.00051812828 -0.00040222704 -0.013343351 4290520604
0.0030895174 -0.0031910315 -0.010993777 4289866274
0.0056824051 -0.0059782788 -0.008648647 4289735204
0.0090680718 -0.012414753 -0.0028557573 4289473063
0.01281577 -0.020307794 0.0043067932 4288426288
-0.025728244 -0.00081387907 -0.01188696 4288558124
-0.024107609 0.0015222356 -0.014393948 4289080873
-0.022386063 0.0031225458 -0.016200777 4288884778
-0.020675 0.0047222078 -0.018005282 4288950058
-0.018730316 0.0048522726 -0.018416267 4288623149
-0.016660709 0.0042481199 -0.018132184 4289015593
-0.01445822 0.0029102266 -0.01715466 4289473574
-0.012505021 0.0030411854 -0.017567202 4289539108
-0.01055165 0.0031722635 -0.017979704 4289997088
-0.0087335445 0.004037112 -0.019084986 4290455069
-0.0070586614 0.0056351423 -0.020881251 4290127648
-0.0052536018 0.0064993054 -0.021983571 4288557869
-0.0028801151 0.0044309124 -0.020320321 4288884779
-5.2262098e-05 0.00016495585 -0.016588701 4289931554
0.0029565021 -0.004831396 -0.012173856 4290258464
0.0060027689 -0.0098251253 -0.0077667776 4289276969
0.0097028501 -0.017745666 -0.0006121695 4288949549
0.012834769 -0.022733361 0.0037770346 4286267714
-0.02563544 -0.0039107203 -0.011661772 4287902263
-0.023895185 -0.0023049563 -0.013469368 4288230194
-0.022281963 3.7312508e-05 -0.015969863 4288557868
-0.020565335 0.0016417652 -0.017772347 4288296238
-0.018859196 0.0032455698 -0.019572496 4288165423
-0.016789924 0.0026391819 -0.019289978 4288819499
-0.014842357 0.0027696192 -0.019701436 4288950313
-0.013024505 0.0036363602 -0.020805174 4289604133
-0.011079285 0.003766872 -0.02121597 4289669669
-0.0092691295 0.0046333224 -0.022317914 4289865763
-0.0076020472 0.0062352419 -0.024109347 4290258463
-0.0059455074 0.0078364834 -0.025898445 4289080873
-0.0034401529 0.0050254166 -0.023548121 4288623149
-0.00047561154 1.0624528e-05 -0.01913541 4289734948
0.003120672 -0.0079413354 -0.011976903 4289799973
0.0066245683 -0.015154392 -0.0055185854 4289341738
0.010181982 -0.022363722 0.00092855096 4288425778
0.013166595 -0.026631743 0.0046176724 4286987068
-0.025432225 -0.0077557415 -0.01074799 4287640633
-0.023570057 -0.0068844706 -0.011860013 4288033333
-0.021945771 -0.0045349523 -0.014357952 4288295983
-0.020218257 -0.0029254258 -0.016159521 4288099889
-0.018622939 -0.00057762861 -0.018651171 4288034864
-0.016670328 -0.00044695288 -0.01906378 4288230703
-0.01471756 -0.00031620264 -0.01947636 4288426798
-0.013024058 0.0012914985 -0.021270407 4288688684
-0.011341047 0.002898559 -0.023062104 4288819499
-0.0096685626 0.004505083 -0.02485154 4289473319
-0.0078688972 0.0053731054 -0.025949573 4289277224
-0.0062148087 0.0069785789 -0.027734915 4288884778
-0.0038560219 0.0048960298 -0.026078315 4288819243
-0.00075250864 -0.00087195635 -0.020988164 4289735204
0.0029873885 -0.0095854849 -0.013159725 4289407528
0.0066404119 -0.017557561 -0.0060309991 4289210924
0.010044824 -0.024051994 -0.00028592348 4285940804
-0.025562588 -0.009388119 -0.011922857 4287575098
-0.02370039 -0.0085146874 -0.013033285 4287771703
-0.02184331 -0.0076415539 -0.014142511 4288165425
-0.020110253 -0.0060273409 -0.015941979 4288164914
-0.018266153 -0.0051548332 -0.01704829 4288230450
-0.016303014 -0.0050235167 -0.017463161 4288165425
-0.014466587 -0.00415124 -0.018567728 4288230704
-0.012894358 -0.0017980784 -0.021049386 4288099889
-0.011205819 -0.00018624961 -0.022839079 4288230703
-0.0093929134 0.00068473816 -0.023938378 4288492844
-0.0077227391 0.0022955388 -0.025723958 4288623403
-0.0060631074 0.0039057732 -0.027507288 4288754219
-0.0038425215 0.0025565922 -0.026542852 4288426798
-0.00059236959 -0.0039683655 -0.020780148 4288884524
0.0032987706 -0.013447277 -0.012286658 4288295474
0.0069576837 -0.021443129 -0.0051770061 4286006338
-0.025692906 -0.011020221 -0.013097524 4287574844
-0.023830656 -0.010144621 -0.014206353 4287968054
-0.021857541 -0.010012984 -0.014623589 4288230449
-0.020002905 -0.009137705 -0.015730605 4288165168
-0.018032085 -0.0090060234 -0.016147204 4287968819
-0.016185109 -0.0081310421 -0.017252438 4288165168
-0.014469977 -0.0065133348 -0.019044628 4288099889
-0.012765359 -0.0048961639 -0.020834556 4288034354
-0.011071246 -0.0032796189 -0.02262214 4288296238
-0.0092529841 -0.0024060681 -0.023721011 4288427309
-0.0074399002 -0.0015327856 -0.024818661 4288557868
-0.0056320243 -0.00065972656 -0.025915118 4288623403
-0.0034012683 -0.0020125881 -0.024956139 4288623148
-0.00028755143 -0.0078149587 -0.019894114 4288295729
0.0033130832 -0.015838973 -0.012790113 4288099379
-0.025712658 -0.01339823 -0.013582028 4287378238
-0.023847703 -0.012520343 -0.014689795 4287771448
-0.021987889 -0.01164262 -0.01579643 4287903028
-0.020133223 -0.010765195 -0.016901858 4288034610
-0.018162545 -0.010633528 -0.017318428 4288034353
-0.016315509 -0.0097563714 -0.018422067 4287969074
-0.014600184 -0.0081342757 -0.020211069 4288165679
-0.012895357 -0.0065127388 -0.021997815 4287838259
-0.01106919 -0.0056366399 -0.023096787 4287969328
-0.0091137104 -0.005505383 -0.023509713 4288296493
-0.007158082 -0.0053740293 -0.023922591 4288230959
-0.0052023195 -0.0052425414 -0.024335412 4288427053
-0.0029614009 -0.0065991282 -0.023381835 4288230193
1.6245991e-05 -0.011674508 -0.019017331 4288033588
0.0034749098 -0.018978462 -0.012614518 4287772215
-0.021771196 -0.015516281 -0.014907367 4287510584
-0.020145159 -0.013140291 -0.017386235 4287511094
-0.018292945 -0.01226072 -0.018489443 4287904048
-0.016322222 -0.012128949 -0.018905953 4287904049
-0.014604006 -0.010502301 -0.020692335 4287838513
-0.012767304 -0.009623453 -0.021792023 4287707699
-0.011199098 -0.0072507337 -0.024258232 4287838513
-0.0092437603 -0.0071195364 -0.024671154 4288231214
-0.007151287 -0.0077348426 -0.024401287 4288099889
-0.0050533302 -0.0083496869 -0.024132511 4288034353
-0.0028075688 -0.0097103715 -0.023183161 4288034610
-0.00011600181 -0.013308555 -0.020192936 4287706933
0.0033407249 -0.020634562 -0.013805948 4287183929
-0.01818167 -0.015387535 -0.018291198 4287118903
-0.016205754 -0.015255421 -0.01870881 4287642418
-0.014481995 -0.013624012 -0.020493183 4287707954
-0.012768742 -0.011993207 -0.022275202 4287511349
-0.011197489 -0.0096137449 -0.024737203 4287904049
-0.0092396326 -0.0094823912 -0.025150662 4288230958
-0.0072816201 -0.0093509033 -0.025564069 4288034353
-0.0051839985 -0.009967953 -0.025296846 4288034353
-0.0027965792 -0.012081578 -0.023670655 4288165168
-0.00010338053 -0.01569061 -0.020688888 4288034098
0.0027641095 -0.020045862 -0.017033808 4287118649
-0.010802243 -0.014235169 -0.023177095 4287053369
-0.0091018118 -0.012600638 -0.024953 4287838258
-0.0068653263 -0.013970941 -0.024008427 4288034609
-0.0050359853 -0.013087742 -0.02510298 4288099889
-0.002785895 -0.014456868 -0.024161085 4288099634
-0.00038036332 -0.016575709 -0.02254349 4288165679
0.0021885969 -0.019443706 -0.020251915 4286529343
-0.0086970665 -0.017234206 -0.023404449 4287054134
-0.0065868907 -0.017855003 -0.023143183 4286857018
-0.00488865 -0.01621598 -0.024915263 4287314743
-0.0026337318 -0.017589211 -0.0239776 4287837748
-0.0003680326 -0.018961564 -0.023042172 4287642418
0.0072382726 -0.024424911 -0.016358268 4282804303
0.0064938255 -0.023073539 -0.020248931 4282346833
0.0037632287 -0.021838456 -0.023707528 4283000399
0.012322273 -0.035612628 -0.025969645 4282994534
0.0066388659 0.0067495778 0.03739832 4285229609
0.0093152784 0.0041439906 0.039856184 4285360424
0.012928303 -0.0025780722 0.046649653 4285294378
0.0038450696 0.0076462999 0.033705641 4285098283
0.0053232275 0.010541618 0.030378547 4285689628
0.00782777 0.008614473 0.032112207 4285754654
0.010805499 0.0046227872 0.03600784 4285820188
0.014435451 -0.0021200553 0.042781506 4285492514
0.0014989339 0.0064882562 0.032188613 4284966958
0.0028414242 0.010084115 0.028144311 4285690394
0.0044509545 0.012295999 0.025548287 4285492513
0.0067919903 0.011052214 0.026559278 4285557539
0.0094481632 0.008427687 0.0290084 4285623584
0.012590338 0.0037330091 0.033611838 4285689118
0.015140079 0.0018025413 0.035331327 4285623838
0.017705977 -0.00012671947 0.037047487 4285493278
0.019962337 -0.00067468733 0.03732447 4285427743
0.021727607 0.00084737688 0.035448361 4285229608
0.023818653 0.00098948181 0.035008114 4285228843
0.00065405294 0.0082492158 0.027356073 4285296163
0.0021278933 0.011161678 0.0240428 4285755419
0.0037271641 0.013379432 0.021453813 4285952534
0.005907733 0.012823619 0.021744743 4285886489
0.008549694 0.010189317 0.024190329 4285952534
0.011522483 0.0061709955 0.028067458 4285821208
0.01389819 0.0049253777 0.02906812 4285558814
0.016284708 0.0036806464 0.030066546 4285559324
0.018356711 0.0038212165 0.029630132 4285559324
0.019932803 0.0060381517 0.027046502 4285755674
0.021660969 0.0075621903 0.025181532 4285820188
0.024231959 0.005627051 0.026892014 4285820189
0.027685877 0.0002355352 0.03216948 4285754398
0.031710774 -0.0072270557 0.039578568 4285163819
-0.0016712807 0.0071108937 0.025848296 4285361698
-4.7877431e-05 0.0093366876 0.02325888 4285558558
0.0017034374 0.01086574 0.021391589 4285624093
0.0034442134 0.012394197 0.019526605 4285689628
0.0054726861 0.012531303 0.019098978 4285689628
0.0079566725 0.010582976 0.020822313 4285689629
0.010611292 0.007940799 0.023258768 4285624349
0.012973148 0.0066898689 0.024259027 4285558813
0.015186016 0.0061343685 0.024541859 4285624348
0.016916875 0.0076627955 0.022679362 4285821208
0.018472001 0.0098848417 0.020105068 4285689628
0.020346828 0.010717757 0.018961336 4285558048
0.022898432 0.0087746903 0.020671003 4285624094
0.025985699 0.0047516376 0.024514765 4285689373
0.029632695 -0.0013497993 0.030487586 4285624093
0.034042004 -0.010221355 0.039295759 4285493024
-0.0024996884 0.0089087635 0.021038793 4285624348
-0.00060738996 0.0097439736 0.019892287 4285821208
0.0014233328 0.0098810121 0.019464023 4285820954
0.0034542121 0.010018148 0.01903579 4285624093
0.0054852255 0.010155402 0.018607616 4285558303
0.0078196116 0.0088979974 0.019610237 4285624094
0.010164827 0.0076413527 0.020610705 4285624348
0.012206934 0.0077796727 0.020180415 4285624348
0.014249161 0.0079180896 0.019750174 4285624349
0.016129196 0.008753337 0.018606812 4285689884
0.017674033 0.010981254 0.016039547 4285952533
0.019538239 0.011815608 0.01489972 4285821209
0.021908145 0.01056131 0.015895396 4285821209
0.024980832 0.0065240636 0.019732449 4285755928
0.028964039 -0.00098979473 0.027114451 4285558813
0.034076214 -0.012672961 0.038742673 4285558814
-0.0049396344 0.0084908679 0.018823035 4285493023
-0.0033262484 0.010729022 0.016245391 4285820953
-0.0013065003 0.010865182 0.015819337 4285755163
0.0010002293 0.0096011683 0.016824294 4285952534
0.0034639053 0.0076379701 0.018541999 4285886744
0.0056462325 0.0070756003 0.018827617 4285624093
0.0076826103 0.0072132871 0.018398359 4285624349
0.0095650144 0.0080505088 0.017255921 4285624604
0.011285428 0.0095867291 0.015402 4285624349
0.013314161 0.0097242221 0.014974587 4285624094
0.015180882 0.010560736 0.01383565 4285624094
0.017042361 0.011396967 0.012697931 4285689628
0.019233529 0.010835916 0.012982231 4285689883
0.021600287 0.0095769465 0.013975348 4285690139
0.025014706 0.0041299239 0.019222002 4285558814
0.029173955 -0.0041060597 0.027294695 4285493278
0.034644593 -0.017222106 0.040311147 4285427744
-0.005886618 0.011030808 0.013322536 4285821209
-0.0040130652 0.011868984 0.012183119 4285558049
-0.0017230064 0.0105993 0.013188232 4285426214
0.00057790801 0.0093304291 0.01419118 4285623583
0.0030355789 0.0073601976 0.015905242 4285755164
0.0052122511 0.0067952052 0.016190406 4285624093
0.0075456612 0.0055288747 0.017186683 4285558558
0.0092741959 0.0070699081 0.015334215 4285689883
0.010992158 0.0086103827 0.013484001 4285689883
0.012858823 0.0094489455 0.012346655 4285755419
0.015044134 0.0088850558 0.012630384 4285755419
0.017234907 0.0083216131 0.012913089 4285689629
0.019263826 0.0084594041 0.012485854 4285558559
0.021802712 0.0064956844 0.014183465 4285558814
0.025220904 0.0010312423 0.019416332 4285493533
0.029909125 -0.0093314573 0.029590245 4285493534
-0.0084294043 0.011347339 0.01040611 4285492769
-0.006696362 0.012892358 0.0085553303 4286084114
-0.004560668 0.012321979 0.0088471882 4285952278
-0.0022790916 0.011047259 0.0098508634 4285754908
1.3295561e-05 0.0097734183 0.010852277 4285952278
0.0026080161 0.0070915967 0.013275005 4285755673
0.0049274527 0.0058197603 0.014270924 4285624093
0.0071066208 0.0052528232 0.014553998 4285624093
0.008676298 0.0075017661 0.011995744 4285689883
0.010230049 0.0097497478 0.0094409324 4285886743
0.012245163 0.0098862723 0.0090163611 4285820954
0.014583915 0.0086162686 0.010008603 4285886743
0.017097898 0.0066439807 0.011706445 4285953044
0.019460898 0.005375877 0.012693696 4285624348
0.022174243 0.0027030557 0.015092146 4285493023
0.025943786 -0.0041836724 0.021722838 4285427743
0.030642511 -0.014578648 0.031870112 4285361699
-0.01030698 0.0081403404 0.011063728 4285031984
-0.0088275783 0.011105344 0.0077879131 4285492003
-0.0069647841 0.011947036 0.0066538937 4285689119
-0.0048320629 0.011374213 0.0069447272 4285886488
-0.0025536455 0.010094859 0.0079457872 4285820698
-0.00026439503 0.0088163912 0.0089446045 4285820954
0.0020356923 0.0075387508 0.0099412017 4285624093
0.0040501654 0.0076747835 0.0095164292 4285624094
0.0063665695 0.0063984171 0.010509793 4285624093
0.0080795214 0.0079471767 0.0086670257 4285952533
0.0096256733 0.010201171 0.0061187297 4285623583
0.011473734 0.011042818 0.0049885251 4285558048
0.013962869 0.009062171 0.0066865757 4285623838
0.016796675 0.0056720302 0.009793777 4285689629
0.019490357 0.0029889643 0.012189753 4285689883
0.022714332 -0.0018074885 0.016696583 4285493278
0.026664898 -0.00942038 0.024013676 4285362208
0.031374134 -0.019847624 0.034134313 4285230119
-0.0068287216 0.0088778287 0.0068882667 4286409238
-0.0046909787 0.008303076 0.0071764253 4285491748
-0.002687756 0.0084379986 0.0067537762 4285623584
-0.00054170191 0.0078640506 0.0070402883 4285558559
0.0014644936 0.0079993829 0.0066171624 4285624604
0.0033227764 0.0088434741 0.0054861009 4285624348
0.0053265803 0.008978866 0.0050636381 4285624348
0.0070237257 0.010530949 0.0032274611 4285952534
0.0085542575 0.012790442 0.00068730302 4286215183
0.010703783 0.012217388 0.00097357482 4285689373
0.013342969 0.0095215887 0.0033743456 4285755164
0.016331788 0.0054122955 0.0071799196 4285820953
0.019519512 0.00059792399 0.011682842 4285624859
0.02325302 -0.0063354 0.018288519 4285362208
0.027728431 -0.016092911 0.027694732 4285098538
0.001039613 0.0077626184 0.0040098056 4285490983
0.0025968887 0.01003018 0.0014686454 4285492514
0.0045898594 0.01016482 0.001048455 4285623839
0.0064297616 0.011010036 -7.6971948e-05 4285623839
0.0082644224 0.011855051 -0.0012012571 4285885978
0.010410972 0.011279538 -0.00091595575 4286148629
0.012885403 0.0092846751 0.00077540614 4285886489
0.01603156 0.0044519305 0.0052756518 4285755929
0.019548357 -0.0017972738 0.011173014 4285493789
0.023790289 -0.010880627 0.019867927 4285296164
0.02827372 -0.02066838 0.029249653 4285296164
0.0044560544 0.0085172653 -0.00013675168 4286343449
0.0064490177 0.0086519867 -0.00055687502 4286147353
0.0082864091 0.0094993263 -0.0016800798 4285622819
0.010276936 0.0096341074 -0.0020995233 4285557538
0.012589652 0.0083447248 -0.0011149161 4285558303
0.01573173 0.0034963712 0.0033747479 4285558814
0.019909639 -0.0056200475 0.012061954 4285493279
0.024495237 -0.016154893 0.022135235 4285493279
0.028817613 -0.025261223 0.030792147 4285230373
0.025198411 -0.021450862 0.02438686 4285294634
