# .PCD v0.7 - Point Cloud Data file format
VERSION 0.7
FIELDS x y z rgba
SIZE 4 4 4 4
TYPE F F F U
COUNT 1 1 1 1
WIDTH 543
HEIGHT 1
VIEWPOINT 0 0 0 1 0 0 0
POINTS 543
DATA ascii
0.013018042 0.0028652772 0.035081461 4287705913
0.015208922 0.002276659 0.035388529 4291237918
0.017951377 -0.0011786297 0.038504064 4289864488
0.021556031 -0.0089316294 0.045825467 4289667884
0.0068437979 7.7679753e-05 0.035738818 4286724163
0.0082748085 0.0038039014 0.031828307 4288752433
0.0099357739 0.0060896203 0.029327624 4289014318
0.011580773 0.0083744898 0.026830047 4289604644
0.013878226 0.0070628077 0.027841955 4288687918
0.016731933 0.0028761104 0.031654797 4289014829
0.020035081 -0.0034648478 0.037562214 4289864489
0.02367004 -0.011239894 0.044859812 4289275949
0.026786529 -0.016137324 0.049349383 4288359733
-0.002077952 0.0014944971 0.032571211 4287836474
-0.00049196929 0.0045111254 0.02936409 4289798698
0.0015424266 0.0046373233 0.028972127 4290845728
0.0034568906 0.0054858103 0.027877938 4289014829
0.0056117326 0.0048900321 0.028188322 4289342759
0.0073956773 0.0064602494 0.026394084 4289473574
0.0090409219 0.0087515637 0.023901287 4290585629
0.010408551 0.012484945 0.020011324 4290193183
0.01268407 0.011167496 0.021024149 4289081128
0.015379 0.0076874122 0.024132363 4289473573
0.018795229 0.00060418993 0.03072856 4289604133
0.021982118 -0.005033955 0.035918329 4290192674
0.025212012 -0.010669276 0.041099902 4289211179
0.028778777 -0.017742731 0.047667425 4289014574
-0.0052311495 0.0062189773 0.025414284 4288752433
-0.0035463125 0.0085185692 0.022918306 4290060839
-0.0017628223 0.010092668 0.021127094 4289930278
0.00036191195 0.0094925985 0.021441456 4290715933
0.0026120916 0.008168675 0.022455409 4290454814
0.0047505423 0.0075697228 0.022767257 4289866019
0.0067692026 0.0076952353 0.022378545 4289931809
0.00827609 0.010716252 0.019193567 4289931554
0.0093697011 0.015907101 0.013917129 4290389278
0.011359282 0.016031124 0.013534262 4289604389
0.014165133 0.011815198 0.017336607 4289996833
0.01783552 0.0032622665 0.025314908 4290193183
0.020580672 -0.00022540241 0.02840542 4289277224
0.023496814 -0.0044341013 0.032186799 4289539364
0.027472515 -0.013699435 0.040830348 4289473828
0.030920301 -0.020070218 0.046680748 4288360499
-0.0092915967 0.0035876706 0.025683343 4288293689
-0.0078007653 0.0073495135 0.021785278 4288686644
-0.0061184466 0.0096554235 0.01929456 4289408294
-0.0045637488 0.012687467 0.016106423 4289408039
-0.0026870742 0.013537653 0.015022627 4289539109
-0.00046432018 0.01220756 0.016038507 4289866019
0.0020088628 0.0094251111 0.018450402 4289866273
0.0043812022 0.007370472 0.020159736 4289604899
0.0063943639 0.0074956119 0.01977206 4289800993
0.0080242306 0.0097990185 0.017292015 4289539363
0.0092466697 0.014279149 0.012724304 4289146663
0.011236116 0.014403157 0.01234145 4289343013
0.01376912 0.011625089 0.014742333 4289735458
0.017016388 0.0052216128 0.020616174 4289670179
0.019182269 0.0046229586 0.020921681 4289473574
0.021929231 0.0011245832 0.024003703 4289473319
0.025875792 -0.0081709698 0.032631531 4288819498
0.030041441 -0.018186741 0.041939329 4288883759
0.032762796 -0.020952307 0.044304546 4286528324
-0.010140076 0.0070400164 0.019566208 4287968054
-0.008561112 0.010082074 0.016379777 4289211178
-0.0067855939 0.011664085 0.014596487 4290062368
-0.0052437633 0.014704041 0.011417366 4289277479
-0.0032662302 0.014826506 0.011036207 4289081128
-0.001054652 0.01349131 0.012050929 4290193184
0.0016462356 0.009241879 0.015853312 4289997344
0.003767997 0.0086374804 0.016165059 4289735458
0.005895257 0.0080335364 0.01647583 4289670178
0.0077727474 0.0088864788 0.015393906 4289800993
0.0092540197 0.01192347 0.012227043 4289212198
0.011246007 0.012047596 0.011843675 4289408804
0.013645202 0.0099886209 0.013543318 4289539620
0.016337343 0.0064756498 0.016627517 4289473828
0.018492181 0.0058741048 0.01693349 4290323999
0.021083709 0.003091298 0.019316811 4290847258
0.024721704 -0.0047794804 0.026541803 4290323489
0.028418802 -0.012646489 0.033755574 4290192164
0.03171964 -0.018329434 0.038884364 4289930024
-0.010365993 0.0061317906 0.017665222 4286660159
-0.0090012699 0.010645896 0.01308897 4288753709
-0.0074510574 0.013694972 0.0099146878 4289669923
-0.0059221014 0.016742855 0.0067446008 4289735203
-0.0039580762 0.016864449 0.0063660219 4289735203
-0.001643613 0.014792867 0.0080764666 4290520093
0.0010454282 0.010529637 0.011871246 4289997344
0.0032782927 0.0091915801 0.012878734 4289539108
0.0055220202 0.0078542531 0.013884238 4289539364
0.0076491348 0.0072482154 0.014193474 4289539364
0.0097817332 0.0066426173 0.014501731 4289670433
0.011654142 0.007497631 0.013422574 4289474083
0.013656843 0.0076225325 0.01303723 4289866783
0.015659664 0.0077475682 0.012651945 4289800993
0.017803468 0.0071431324 0.012958388 4290520603
0.02023989 0.0050802529 0.014646201 4290062879
0.023131236 0.00083077699 0.018402908 4290127394
0.0266506 -0.006332919 0.024914011 4290651163
0.030223675 -0.013493143 0.031414881 4289145644
0.033387586 -0.018463664 0.035838254 4288490804
-0.010385133 0.0037600175 0.017162215 4286267458
-0.0091227517 0.0090213567 0.01189833 4288426799
-0.0078976974 0.014280543 0.0066416916 4289800739
-0.0061537847 0.015869379 0.0048710834 4289277734
-0.004078649 0.015257344 0.0051882491 4289343013
-0.00164821 0.012445875 0.0075885952 4289800993
0.00068454444 0.01036898 0.0092906086 4289800739
0.0029115826 0.0090261474 0.010295971 4289604643
0.0051494762 0.0076841339 0.011299274 4289146919
0.0071436018 0.0078081265 0.010915301 4289474084
0.0092678666 0.0071997643 0.01122355 4289343013
0.010999586 0.0087887868 0.0094559258 4289735714
0.01299141 0.008912988 0.009072653 4289735714
0.01498336 0.0090373084 0.0086894399 4290520603
0.017116129 0.0084299818 0.0089963591 4289539364
0.019397784 0.0070914626 0.0099918945 4288623148
0.021982413 0.0042908415 0.012363493 4288754473
0.024886116 2.9154122e-05 0.01610807 4289473829
0.028276429 -0.0064237639 0.021910559 4289407529
0.031560961 -0.012142591 0.027016383 4288360499
0.035045281 -0.018589355 0.03280101 4286659904
-0.009992376 -0.0015610829 0.019438982 4286267203
-0.0090327486 0.0059248582 0.012098235 4286988088
-0.0080181137 0.012671612 0.0054625161 4288688939
-0.0062739924 0.014264807 0.0036951341 4289539363
-0.0041991696 0.013650544 0.0040107034 4289735713
-0.0018859506 0.01156573 0.0057115201 4289800993
0.00032438338 0.010217391 0.0067166789 4289866273
0.0024237931 0.009604983 0.0070277592 4290978583
0.0045287013 0.0089930221 0.0073378598 4290782233
0.006766282 0.0076466799 0.0083380667 4290978583
0.0087550357 0.0077704191 0.0079551889 4289539108
0.010611407 0.0086287856 0.0068823872 4289997089
0.012462534 0.0094869956 0.0058106398 4289408549
0.014170554 0.011079058 0.0040510483 4290454814
0.016149055 0.011202648 0.0036704987 4290586139
0.018127665 0.011326365 0.0032900199 4289604388
0.020690039 0.0085156187 0.0056593372 4289342758
0.023571141 0.0042393878 0.0093984148 4290127904
0.026787069 -0.0015013143 0.014504212 4289015084
0.030199938 -0.0079723522 0.020287711 4288884778
0.034131072 -0.016639106 0.028118107 4288819498
-0.0087322295 0.0013431683 0.013679075 4286465083
-0.0075973198 0.0073721185 0.0077487817 4287970349
-0.0060614273 0.010446526 0.0045969477 4289277989
-0.0040924624 0.010568358 0.0042173667 4289474595
-0.0020070449 0.0099526197 0.0045293709 4289735713
-0.00015402585 0.010812409 0.0034583621 4289866529
0.0019370466 0.010197237 0.0037694415 4290193438
0.0041579157 0.0088453814 0.0047694398 4289735203
0.00626266 0.0082313344 0.0050780056 4290781979
0.0083729103 0.0076177344 0.0053856065 4289669668
0.0099592581 0.0099512488 0.0029386645 4290062369
0.011799686 0.010810897 0.0018706284 4289539108
0.013497163 0.012406699 0.00011629937 4289604389
0.015464794 0.012529604 -0.00026216405 4289604643
0.017575599 0.01191663 4.5764726e-05 4289212198
0.020129118 0.0090965852 0.0024102209 4289604389
0.0228526 0.0055423453 0.0054559251 4289931298
0.025905207 0.00051889569 0.0098661734 4289277734
0.029303014 -0.0059727207 0.015637815 4288819498
0.033531532 -0.016136996 0.024819091 4288294963
0.036721088 -0.021151446 0.029203262 4287052094
-0.0072861686 0.0027913973 0.0093277944 4288364069
-0.0060712919 0.0080957562 0.0041075749 4289147683
-0.0043266267 0.0096978024 0.0023466414 4289736224
-0.002592504 0.011299275 0.00058785826 4289997343
-0.00075018406 0.012160547 -0.00047947513 4289866529
0.0012084022 0.012282066 -0.00085681351 4289015849
0.0034154132 0.010924928 0.00014260737 4288819498
0.0058869198 0.0080902129 0.002515669 4289211944
0.0079914965 0.0074740648 0.0028227037 4290062113
0.0095728189 0.0098138526 0.00038158847 4289473574
0.01127306 0.011414014 -0.0013700617 4289473574
0.013100222 0.012275115 -0.0024338183 4289473574
0.015342798 0.010920934 -0.0014407639 4289604389
0.0175962 0.0095675215 -0.00044965046 4289211944
0.020151578 0.0067388937 0.0019078469 4289538853
0.022876769 0.0031738058 0.0049450686 4289211944
0.025779791 -0.0011271015 0.0086603714 4288753453
0.02917593 -0.0076384619 0.014417582 4288491568
0.033245645 -0.017096125 0.022894241 4287902518
0.036431193 -0.022126086 0.027267713 4286398018
-0.0070841685 -0.0010640249 0.010204333 4288496159
-0.0060814247 0.0057409257 0.0036151437 4288364068
-0.0046736673 0.0095741302 -0.00020947726 4288820773
-0.0031766146 0.012663759 -0.0033405949 4289801249
-0.0013449639 0.013526492 -0.0044042021 4290127904
0.00060275942 0.01364731 -0.0047794692 4289866274
0.0030465275 0.010802038 -0.0024077673 4289146408
0.0053852126 0.008699581 -0.00072629424 4290585629
0.0076107979 0.0073394775 0.00026645046 4290127648
0.0091871135 0.0096854568 -0.002168816 4290127904
0.011151548 0.0098078847 -0.0025468697 4290062368
0.013116118 0.0099304467 -0.0029248525 4289604644
0.015360899 0.0085720345 -0.0019354974 4289211943
0.017901964 0.0057336316 0.00041814428 4288819498
0.020464577 0.0028966591 0.0027677296 4288688939
0.023048725 6.120652e-05 0.0051132794 4288099889
0.025955949 -0.0042525455 0.0088179326 4287641654
0.029202346 -0.010043614 0.01387863 4287641144
0.032960124 -0.018050469 0.020972803 4287510074
-0.0070986003 -0.0034427717 0.0096949665 4288889369
-0.005981423 0.0026374534 0.0038074283 4289019163
-0.004680723 0.0072263181 -0.000697379 4289017888
-0.0034120306 0.011813313 -0.0051959273 4289278243
-0.0017014891 0.013422161 -0.0069435984 4289539364
0.00011961162 0.014286518 -0.0080034658 4288427054
0.0025545433 0.011431932 -0.0056365659 4288753964
0.0050110519 0.0085788071 -0.0032737372 4289931554
0.0073599443 0.0064705834 -0.0015991228 4289604389
0.0093294829 0.0065931901 -0.0019782567 4289081129
0.011299148 0.006715931 -0.0023573237 4289146663
0.013406143 0.0060958564 -0.0020537386 4289277479
0.015658479 0.0047335327 -0.0010691294 4288427053
0.01820679 0.0018868595 0.0012765778 4288427053
0.020486109 0.00052646548 0.0022561764 4288231214
0.022924189 -0.001575388 0.0039143208 4287772468
0.025830261 -0.0059023127 0.0076093581 4287771958
0.029228456 -0.012452804 0.013336704 4287575608
0.032519005 -0.01825843 0.018375918 4287248444
-0.0058820173 -0.00047450513 0.0039935466 4288757788
-0.0046880618 0.004874438 -0.0011882642 4288168229
-0.0036470592 0.010967605 -0.0070478735 4288297769
-0.0019390061 0.012580596 -0.0087917596 4289408803
3.9488077e-07 0.012700848 -0.0091654547 4289081384
0.002310887 0.010583408 -0.0074884933 4288754219
0.0047639087 0.0077213868 -0.0051315846 4288819754
0.0071094818 0.0056063384 -0.0034612017 4288558124
0.0093395784 0.0042378604 -0.0024758289 4288492588
0.011580501 0.002870217 -0.0014924863 4288558123
0.01369521 0.0022484735 -0.0011920757 4288885544
0.016094841 0.00013729185 0.00046827458 4288034353
0.01822583 -0.0004831925 0.00076574273 4288034353
0.020507358 -0.0018478408 0.0017416831 4287838258
0.022799693 -0.0032116696 0.0027155969 4287838004
0.025704615 -0.0075517371 0.0064010378 4287707953
0.028948028 -0.013377897 0.011436113 4287577138
0.032234393 -0.019201212 0.016463023 4287248444
-0.0033044815 0.0063833967 -0.0054789977 4288298023
-0.0018217862 0.0094983429 -0.0085876668 4288296748
0.00024364889 0.0088705868 -0.0082799019 4288689194
0.0023145676 0.0082433373 -0.0079731466 4288754474
0.0047694668 0.0053726286 -0.0056231329 4288492588
0.0071170777 0.0032512173 -0.0039581032 4287904048
0.0094808899 0.0011308789 -0.0022960617 4287969583
0.011592485 0.00050661713 -0.0019967942 4288362029
0.01384645 -0.00086450577 -0.0010191104 4288623914
0.016250774 -0.0029818937 0.00063537993 4288100143
0.018529058 -0.0043512359 0.0016085785 4287969073
0.020818137 -0.0057197437 0.0025797468 4287838258
0.023118034 -0.0070874989 0.0035489779 4287641653
0.025879558 -0.010693803 0.0065464871 4287839024
0.02897387 -0.015790828 0.010891435 4287511349
0.031950146 -0.02013927 0.014553529 4287313469
-0.0031937361 0.0032835975 -0.0052864561 4288036904
-0.0015872121 0.0056569725 -0.0077083753 4288166699
0.00048594922 0.00502754 -0.0074037882 4288035374
0.0025645867 0.004398562 -0.0071001844 4287904304
0.0050267205 0.0015195683 -0.0047581205 4288296749
0.0072530583 0.00014200062 -0.0037786602 4288100399
0.0094902217 -0.0012347326 -0.0028012558 4287969328
0.011738226 -0.0026107207 -0.001825789 4288362028
0.013860345 -0.0032363907 -0.0015301015 4288492844
0.016406104 -0.006109558 0.00079632737 4287904049
0.018547174 -0.0067337975 0.0010885689 4287838004
0.021127962 -0.0096045211 0.0034084488 4287707698
0.023582824 -0.011724941 0.0050485739 4287642164
0.026504204 -0.016090192 0.0087112421 4287837494
0.029305011 -0.019704796 0.011693132 4287182143
-0.0029684901 -0.00057760626 -0.0044199019 4288429093
-0.0013535768 0.0018027499 -0.0068385131 4288035884
0.00060683489 0.0019242764 -0.0072162836 4288035119
0.0028136671 0.0005409196 -0.0062365807 4288100399
0.0050313771 -0.00084168464 -0.0052588447 4288100399
0.0072599091 -0.0022234693 -0.0042831469 4288034864
0.0094992667 -0.0036044344 -0.0033094306 4287838515
0.011883345 -0.0057364777 -0.0016610306 4287772979
0.014147043 -0.0071157217 -0.00069178082 4288557869
0.016700022 -0.009997122 0.0016266722 4287838515
0.019132625 -0.012125768 0.0032660039 4287707189
0.021725986 -0.015004449 0.005576917 4287575608
0.024488132 -0.018632613 0.0085578645 4286594368
-0.0033189431 -0.00067573041 -0.0069560087 4288429349
-0.0015914217 0.00095587224 -0.0086906562 4288298024
0.00048647076 0.00032228976 -0.008390246 4287969583
0.0025698543 -0.00031077117 -0.0080908407 4287904304
0.0049100518 -0.0024524629 -0.0064391885 4287904048
0.0070097744 -0.0030842721 -0.0061427373 4288100143
0.0092459768 -0.0044698045 -0.0051717106 4287969328
0.012027822 -0.0088707134 -0.0015024156 4287838515
0.014705546 -0.012515575 0.001486198 4288296238
0.017410167 -0.016158648 0.004469716 4288557614
0.019574713 -0.016785793 0.0047541605 4286987324
0.022322383 -0.020425923 0.0077295983 4285875268
-0.001828894 0.00011360645 -0.010539355 4288036649
0.00036615133 -0.0012793764 -0.0095639918 4287904303
0.0024492219 -0.0019146651 -0.0092661809 4287904303
0.0047887862 -0.0040629283 -0.0076193083 4287838768
0.0067600012 -0.0039404109 -0.0079989154 4287643183
0.009254761 -0.0068432763 -0.0056826491 4287512369
0.012171689 -0.012013353 -0.0013500289 4286923574
-0.0020660013 -0.00072396547 -0.012384621 4288036903
5.915761e-06 -0.0013622493 -0.012086386 4288296238
0.0020833164 -0.0020000711 -0.011789123 4287577139
-0.018333614 -0.007750608 0.018060602 4282934863
-0.016693383 -0.0046530664 0.01490125 4282478923
-0.014879994 -0.0030430928 0.013129815 4281959233
-0.01257775 -0.0051489472 0.014817457 4281765433
-0.021008223 -0.005050458 0.013088807 4281630793
-0.019739747 0.0010383204 0.0071714921 4280067388
-0.017947763 0.002651155 0.0054074032 4280330038
-0.016069263 0.0035180598 0.0043357192 4281503549
-0.013697393 0.00065856427 0.0067140115 4282288439
-0.011099145 -0.0036896244 0.010466727 4284509744
-0.024798669 -0.0099273846 0.015426693 4282021198
-0.023475923 -0.0038180873 0.0095118051 4281566278
-0.022106931 0.0015406162 0.0042955196 4280135219
-0.02050066 0.0046533942 0.00115564 4281046844
-0.01853884 0.0047739148 0.00077678543 4279677749
-0.016576827 0.004894577 0.00039798301 4280983094
-0.014316007 0.002773039 0.0020837625 4281700153
-0.011936702 -9.4585121e-05 0.0044541005 4282027573
-0.027254783 -0.0086937174 0.011847888 4282477649
-0.025920384 -0.0025663897 0.0059437472 4281045313
-0.024370573 0.0013071075 0.0021153903 4280720188
-0.022669956 0.0036785156 -0.00033044536 4281176129
-0.020985201 0.0060490817 -0.0027732002 4281372224
-0.018940195 0.0054189935 -0.0024623768 4281306943
-0.016986348 0.0055391118 -0.0028396184 4280591414
-0.014833547 0.0041601062 -0.0018436546 4281112379
-0.012669869 0.0027819201 -0.00084975129 4281830204
-0.010285825 -9.4093382e-05 0.001513226 4284057374
-0.027617238 -0.0080720186 0.0085819485 4282346068
-0.026456021 -0.00042208284 0.0013160389 4281175619
-0.024918906 0.0034614876 -0.0025017047 4280329018
-0.023142807 0.0050861314 -0.0042531276 4280198969
-0.021377198 0.0067102984 -0.0060024755 4280329528
-0.019340508 0.0060774535 -0.0056916559 4279547698
-0.017298289 0.0054450855 -0.0053818757 4280395830
-0.015151292 0.0040613934 -0.0043881061 4281046334
-0.013095327 0.0034300908 -0.004080818 4281241918
-0.010720119 0.0005447939 -0.0017226948 4282154818
-0.027737685 -0.0097023249 0.0073867347 4282608209
-0.026574969 -0.002030544 0.00013687322 4282218058
-0.025208533 0.0033735707 -0.0050447108 4281111104
-0.023437597 0.0050022751 -0.0067919279 4281110594
-0.021586113 0.0058759302 -0.0078520747 4281110338
-0.019646108 0.005995065 -0.0082267644 4281111103
-0.017802283 0.0068684667 -0.0092852758 4281111103
-0.015666462 0.0054796934 -0.0082926536 4281111613
-0.013723232 0.0055993274 -0.0086677307 4281177404
-0.011466593 0.0034580976 -0.0069957348 4281241409
-0.0090866312 0.00056447834 -0.0046449988 4281307963
-0.027697757 -0.012846969 0.0075624818 4282476883
-0.026528202 -0.0051530525 0.00032767467 4282152269
-0.025155425 0.00026670098 -0.004843758 4281175874
-0.023555301 0.0034137741 -0.0079564126 4281241665
-0.021794654 0.005046241 -0.0096982578 4281240898
-0.019857451 0.0051651672 -0.01007243 4281046078
-0.018016271 0.0060405731 -0.011128803 4281111613
-0.016081378 0.0061595812 -0.011502356 4280720953
-0.014044754 0.0055226907 -0.011194636 4280916793
-0.011898346 0.0041304007 -0.010207177 4280785213
-0.0096341223 0.0019832104 -0.0085414806 4282025023
-0.0073536932 -0.00016289949 -0.0068788431 4283920949
-0.027898423 -0.013721548 0.005680711 4282672979
-0.026482046 -0.0082839951 0.0005122032 4281761099
-0.02501753 -0.0036078393 -0.0039662477 4281434444
-0.023408875 -0.00045158714 -0.0070740334 4281568319
-0.021640025 0.001185745 -0.0088142017 4281373243
-0.019881681 0.0028225705 -0.010552299 4280981818
-0.018133856 0.0044588 -0.012288266 4280656439
-0.016495287 0.0068529099 -0.014702284 4279939378
-0.014568381 0.0069715306 -0.01507422 4280005168
-0.012537226 0.0063322186 -0.014767003 4279485223
-0.010287032 0.0041775927 -0.013103531 4281308729
-0.0080206171 0.0020240843 -0.011443095 4281439289
-0.028018892 -0.015353166 0.0044845203 4282607698
-0.02643647 -0.011423446 0.00069057662 4281760334
-0.024795398 -0.0082565919 -0.0024170191 4281759314
-0.023351252 -0.0035685077 -0.0068817083 4281761099
-0.021757938 -0.00040443242 -0.0099798944 4281504314
-0.020185843 0.0027584881 -0.013073931 4281048119
-0.018347286 0.0036380515 -0.014126563 4281242429
-0.016711026 0.0060385242 -0.016535245 4281502784
-0.014685698 0.0053965747 -0.016228627 4281502783
-0.012862675 0.0062754974 -0.017278016 4281112634
-0.010725066 0.0048740432 -0.016295332 4280918069
-0.0085765794 0.0034733415 -0.015314628 4281308983
-0.0063053071 0.0013137311 -0.013660016 4283398453
-0.028537706 -0.013165019 -0.00011429098 4282021199
-0.026720926 -0.01151637 -0.0018574991 4282216784
-0.024914622 -0.009868294 -0.0035985583 4281889363
-0.023381934 -0.0059305355 -0.0073745605 4281694034
-0.022056557 -0.00046779215 -0.012502382 4281633598
-0.02048929 0.0027035177 -0.015588966 4280852279
-0.018751793 0.0043478161 -0.017316397 4280525113
-0.01712323 0.0067543238 -0.019718718 4281437248
-0.015207298 0.0068722516 -0.02008855 4281045824
-0.013291195 0.0069902539 -0.020458352 4280525113
-0.011055641 0.0048216283 -0.018801887 4280851259
-0.008912988 0.0034162402 -0.017823376 4281048118
-0.0067594647 0.0020115972 -0.016846836 4281439289
-0.0044806451 -0.00015396625 -0.01519849 4281378344
0.0017181039 -0.0020764768 -0.014305396 4283330879
0.004170835 -0.0049996674 -0.011994271 4282218314
0.0065172687 -0.0071604699 -0.010358458 4281956428
0.0094020031 -0.012363158 -0.0060426951 4281826889
0.012457535 -0.01832398 -0.0010637855 4281957193
0.015284263 -0.022761159 0.0025674514 4282805069
-0.02889584 -0.012486853 -0.0033389539 4282082908
-0.027004682 -0.011600301 -0.0043989145 4281757529
-0.025118671 -0.01071395 -0.0054577985 4282085714
-0.023412898 -0.0082966164 -0.0078704599 4281889618
-0.022083849 -0.002818428 -0.012987556 4281761099
-0.020792052 0.0026575476 -0.018097334 4281045058
-0.019059733 0.0043058842 -0.019820571 4280133179
-0.017337903 0.0059536397 -0.021541651 4280394044
-0.015424795 0.0060713589 -0.021910965 4280393789
-0.013511509 0.0061891899 -0.022280227 4280198203
-0.011172988 0.0032493994 -0.019954242 4281045824
-0.0091397539 0.0026038811 -0.019652188 4281046588
-0.0069893748 0.0011946633 -0.018678311 4281372479
-0.0048281625 -0.0002137199 -0.0177065 4281763903
-0.0026560947 -0.0016213059 -0.016736673 4282482238
-0.00047316402 -0.003028132 -0.015768798 4282220864
0.0015982538 -0.0036707073 -0.015473669 4282022984
0.0038001612 -0.005076088 -0.014509318 4281761609
0.0061405897 -0.0072438195 -0.012877269 4281564748
0.0087579191 -0.010936283 -0.0099099558 4281760843
0.012067355 -0.018440835 -0.0036045306 4281760589
0.014751866 -0.022128873 -0.00064995838 4282804814
-0.025491767 -0.010019049 -0.0086663123 4282151249
-0.023531534 -0.0098990202 -0.0090451594 4281955153
-0.022111416 -0.0051731914 -0.013475696 4281890893
-0.020723231 -0.00044917315 -0.017900033 4281568064
-0.019176155 0.0027384013 -0.020969577 4280653633
-0.017552227 0.0051576272 -0.023361169 4281175363
-0.01564192 0.0052751601 -0.023729943 4281240899
-0.013628021 0.0046260133 -0.023425985 4281045569
-0.011184201 0.00091084838 -0.020434197 4281175874
-0.0091485903 0.00026326627 -0.020134252 4280915008
-0.0071074665 -0.00038387626 -0.019835232 4281045058
-0.0049467012 -0.0017966479 -0.018866593 4281175364
-0.0027751178 -0.0032086372 -0.017899955 4281762628
-0.00059267879 -0.0046198592 -0.016935268 4281631813
0.001356259 -0.0044990107 -0.017310804 4281435719
0.0036798567 -0.0066744015 -0.015680553 4281630794
0.0058921278 -0.0080834329 -0.014721351 4281434188
0.0086359978 -0.012552135 -0.011093962 4281433423
0.011544995 -0.017783724 -0.0068056202 4281628499
-0.02569478 -0.01085104 -0.010515546 4282281299
-0.02365011 -0.011501133 -0.010219654 4282086224
-0.022049382 -0.0083017871 -0.013293197 4281890638
-0.020747587 -0.0027947947 -0.018382071 4281629008
-0.019292563 0.0011711866 -0.022118393 4280717130
-0.017570361 0.0028276443 -0.023833029 4281175618
-0.015456326 0.001407057 -0.022859078 4281109829
-0.013434708 0.00075618178 -0.02255819 4281044038
-0.011089742 -0.0022006556 -0.020246541 4280913988
-0.0090490878 -0.0028501004 -0.019949215 4280718659
-0.0068916306 -0.004267551 -0.018983291 4281175363
-0.0048373044 -0.0049159229 -0.018688427 4281305414
-0.0026608109 -0.0063319951 -0.01772595 4281305414
-0.0004735142 -0.0077472404 -0.016765522 4281304649
0.0013586283 -0.0068582892 -0.017809568 4281434954
0.0035595894 -0.0082724467 -0.01685158 4281368398
0.0057713836 -0.0096858442 -0.015895555 4281302608
0.0081240162 -0.011865765 -0.014275575 4281432658
0.010890946 -0.01634597 -0.010662331 4281693779
-0.026066169 -0.010133713 -0.013707621 4282148444
-0.024029836 -0.010786504 -0.013411762 4282281043
-0.022257149 -0.009122923 -0.015133137 4282151504
-0.020772204 -0.0051444247 -0.018867141 4281758549
-0.019313835 -0.001167424 -0.022595905 4281564239
-0.017588779 0.00049360096 -0.024307873 4281108808
-0.015472546 -0.00093127042 -0.023337588 4280912968
-0.013345435 -0.002355285 -0.022369346 4280979269
-0.011101685 -0.0045495778 -0.020734103 4281044294
-0.0089502111 -0.0059718788 -0.019770397 4281044039
-0.0068990067 -0.0066227391 -0.019476658 4281109574
-0.0048423111 -0.0072731823 -0.019183842 4281305414
-0.0027801096 -0.0079231262 -0.018892033 4281435208
-0.00059327483 -0.0093427598 -0.017934779 4281369164
0.0013607219 -0.0092216209 -0.018311305 4281369164
0.0034393519 -0.0098701641 -0.01802239 4281368144
0.0055234581 -0.010518327 -0.017734405 4281432403
0.0080026537 -0.013474457 -0.01545434 4281432149
-0.024408549 -0.010058545 -0.016594039 4281822043
-0.022464566 -0.0099394247 -0.016969686 4281953623
-0.020889372 -0.0067241713 -0.020025177 4281823828
-0.019335404 -0.0035100952 -0.023076467 4281563729
-0.017412297 -0.0033919364 -0.023447838 4281042763
-0.015288502 -0.0048206374 -0.022482319 4281108043
-0.013153836 -0.0062486231 -0.021518791 4281043274
-0.011008322 -0.0076757744 -0.02055729 4281108043
-0.0090685412 -0.0075561032 -0.020931525 4281239113
-0.0069066659 -0.0089820474 -0.019972967 4281109829
-0.0049612448 -0.0088618025 -0.020348111 4281435973
-0.0028993636 -0.0095139518 -0.020057889 4281696839
-0.00083200634 -0.010165632 -0.019768624 4281629518
0.0012408271 -0.010816872 -0.019480325 4281497683
0.0033191517 -0.011467613 -0.019192986 4280841823
0.0052759126 -0.011346065 -0.01956987 4281363299
-0.022850417 -0.0091985315 -0.020140616 4282018648
-0.02100651 -0.0083036348 -0.021183016 4281889618
-0.019357271 -0.0058568567 -0.023560047 4281629264
-0.017529055 -0.0049626976 -0.024599232 4281109318
-0.015305623 -0.007171534 -0.022970052 4280978248
-0.013271526 -0.0078281537 -0.022676537 4281108809
-0.011231914 -0.0084843263 -0.022384008 4281173323
-0.0094030872 -0.0075896755 -0.023422975 4281108044
-0.0073578507 -0.008245267 -0.023131359 4281304649
-0.0053071231 -0.008900404 -0.022840699 4281370183
-0.0031347573 -0.010329828 -0.021887274 4281500489
-0.0010703653 -0.010983855 -0.021599058 4281759058
0.00087796897 -0.010863088 -0.021974508 4282149208
-0.021123603 -0.0098828301 -0.02234065 4281823064
-0.019379422 -0.0082077086 -0.024046615 4281562964
-0.017548524 -0.0073112175 -0.0250847 4281238604
-0.015422963 -0.0087485835 -0.024126027 4281238348
-0.013389178 -0.0094074085 -0.023834098 4281303884
-0.011455178 -0.0092882589 -0.02420732 4281108298
-0.0097369626 -0.0076141581 -0.025907848 4281108044
-0.0074761063 -0.0098267645 -0.024290446 4280972639
-0.0055389926 -0.0097070336 -0.024663992 4281624673
-0.02133242 -0.010681204 -0.024163246 4282018649
-0.01959075 -0.0090019107 -0.025865488 4281563473
-0.017665364 -0.0088836253 -0.026237302 4281434444
-0.015640073 -0.0095452666 -0.025945455 4281369164
-0.013609253 -0.010206513 -0.025654547 4281237839
-0.01167807 -0.010087527 -0.026027232 4281433424
-0.0098545551 -0.0091888234 -0.027061962 4282083673
-0.021540903 -0.011474907 -0.025982503 4282082909
-0.019801684 -0.0097914487 -0.027680945 4281366869
-0.017879143 -0.009673357 -0.028052222 4281368400
-0.015856817 -0.010337368 -0.027761444 4281367124
-0.0089678317 -0.018495522 -0.036807831 4282798438
-0.0094309077 -0.0037079528 0.007507572 4285758223
-0.0084305406 -0.0015877485 -5.2054878e-05 4284906014
-0.0057379976 -0.00012827665 -0.0097857472 4286672143
