# .PCD v0.7 - Point Cloud Data file format
VERSION 0.7
FIELDS x y z rgba
SIZE 4 4 4 4
TYPE F F F U
COUNT 1 1 1 1
WIDTH 292
HEIGHT 1
VIEWPOINT 0 0 0 1 0 0 0
POINTS 292
DATA ascii
-0.0025821552 -0.0070936456 0.033341266 4280847688
-0.00051734596 -0.0069484711 0.03288874 4280455243
0.0021000803 -0.009700045 0.035230383 4282477394
0.010404371 -0.0091145188 0.033411615 4281822809
0.014095131 -0.0066517442 0.03041744 4282150483
0.016634189 -0.0086740777 0.032048099 4282281553
-0.0078730285 -0.0032699406 0.027413825 4281632578
-0.006349802 -0.00021862239 0.024171164 4279352113
-0.0043172687 -7.583946e-05 0.023725616 4279415608
-0.0020140484 -0.0013861805 0.024675163 4279220023
0.00071378797 -0.0048748627 0.027713178 4280785723
0.0027654916 -0.004730396 0.02726368 4281633089
0.0049606115 -0.0053118393 0.027509982 4281241409
0.0068693832 -0.0044411048 0.02636482 4281175364
0.0083272383 -0.0013936013 0.023137068 4281435719
0.0096126497 0.0023779869 0.019220049 4279217729
0.011641137 0.0025213808 0.018776061 4280130883
0.014609229 -0.0016856864 0.022489181 4280523583
0.017768703 -0.0066153035 0.026887672 4281306944
0.021127537 -0.012266889 0.031969719 4281828163
0.024035402 -0.015741661 0.034969211 4282154309
-0.010182239 -0.0043693855 0.025938066 4281565514
-0.0094130859 0.0030672997 0.01851402 4281372734
-0.0079185367 0.0061253011 0.015284168 4281307199
-0.0057830364 0.0055370033 0.015541542 4281305923
-0.0033718795 0.0034915805 0.017189654 4280785979
-0.00080683827 0.00071878731 0.01952962 4281307198
0.0014988855 -0.0005954951 0.020475453 4281242174
0.0035292953 -0.00045245141 0.020030675 4280916284
0.0054141358 0.00041876733 0.018892379 4280916538
0.0067001954 0.0042011887 0.014983302 4280851004
0.0082618743 0.0065265149 0.012464926 4280456773
0.010115176 0.0073958486 0.011333793 4281306178
0.012901627 0.0039011538 0.014351368 4280654909
0.016032979 -0.0010457635 0.018744523 4281438014
0.01968696 -0.0081706494 0.025199791 4281176129
0.023065574 -0.013838187 0.030264484 4282348619
-0.011317857 -0.00019859523 0.019141147 4281369163
-0.010314502 0.005795382 0.013129914 4279742773
-0.0087057576 0.0081296638 0.010605451 4280719933
-0.0064516738 0.0068070143 0.011559051 4280850238
-0.0041867793 0.0054851919 0.012510393 4280329274
-0.0014983714 0.0019718409 0.015540635 4280069174
0.00065597147 0.0013829917 0.015792474 4281046588
0.0023871586 0.0029859096 0.013965506 4280981818
0.0039622933 0.0053185076 0.011448914 4280981818
0.005521588 0.0076500773 0.0089358706 4279613744
0.0072159097 0.0092507601 0.0071172416 4281110848
0.0093603358 0.0086617917 0.0073716789 4281371714
0.011978842 0.0058847964 0.0096939653 4280915264
0.014936537 0.0016508624 0.013389774 4280523583
0.018895574 -0.0069554374 0.021209581 4281175364
0.022426084 -0.013370261 0.02695174 4282478413
-0.012202375 0.0025397837 0.013760151 4281435464
-0.010960221 0.0070826635 0.0091541372 4280915264
-0.0092323273 0.00868918 0.007330684 4280590139
-0.007118769 0.0080948696 0.0075895898 4280590139
-0.004865028 0.0067679211 0.0085400548 4280525623
-0.0021883547 0.0032428056 0.011564659 4280850748
-4.5001507e-05 0.0026509613 0.011817241 4281046843
0.0018184558 0.0035248846 0.010686778 4281046843
0.0033860207 0.0058634579 0.0081767403 4281112379
0.0050857514 0.0074687377 0.0063600894 4279874354
0.0067749955 0.0090734214 0.0045458414 4280004150
0.0089137666 0.0084818155 0.004799854 4280003383
0.011213996 0.0071590543 0.0057408176 4280067898
0.014318451 0.0021796003 0.010116894 4280849729
0.018428434 -0.0071849227 0.018606139 4281109829
0.021951772 -0.013619915 0.024335118 4282217294
-0.012589134 0.0023602098 0.011172373 4281436228
-0.011224791 0.0061799288 0.0072699767 4280851259
-0.0094993412 0.0077906102 0.0054503176 4281110848
-0.007388778 0.0071939379 0.0057081841 4281241663
-0.0052727088 0.0065977052 0.0059649665 4281046078
-0.0027396157 0.0037964284 0.0082921851 4281242430
-0.00060456991 0.0032017678 0.0085449889 4281111614
0.0015359521 0.0026076287 0.0087966137 4281111613
0.0031012669 0.0049525797 0.0062919669 4281046588
0.0049464181 0.0058276057 0.0051673092 4281111359
0.0064853728 0.0081709325 0.0026686117 4281045313
0.0086211525 0.0075769052 0.0029216819 4281045313
0.011074036 0.005515635 0.0045464896 4280784958
0.014177039 0.00052076578 0.0089114048 4280981309
0.018123273 -0.008138828 0.016694637 4281176639
0.02147828 -0.013860509 0.021725157 4281956428
-0.012727737 0.00071309507 0.0099749099 4281370438
-0.011488967 0.0052819401 0.0053891893 4281178169
-0.0098949224 0.0076347291 0.0028826818 4280199224
-0.0079216808 0.0077732056 0.002450021 4279939634
-0.0056796074 0.0064366385 0.0033964533 4280981308
-0.0031527132 0.0036261156 0.0057184994 4281242174
-0.00088366121 0.0022916943 0.0066591911 4281111869
0.0012538731 0.0016951039 0.0069098771 4280981309
0.0029619262 0.0033095926 0.0050977953 4281046078
0.0045118257 0.005660072 0.0026015528 4281045823
0.0063464865 0.0065366775 0.0014808588 4280785213
0.0084819458 0.0059404075 0.0017323457 4280915008
0.010934122 0.0038725287 0.0033523887 4280915518
0.014352284 -0.0026095212 0.0090746861 4280981309
0.017818525 -0.0090880245 0.014786558 4281307199
0.021005578 -0.014091983 0.019121809 4281956174
-0.013113283 0.00054736435 0.0073970836 4281370184
-0.011878848 0.005128935 0.0028221719 4279742264
-0.010289721 0.0074879304 0.00032158196 4280003384
-0.0083219409 0.007626012 -0.00010989234 4279352624
-0.0058173984 0.0048050508 0.0022104122 4278636074
-0.0034281909 0.0027253181 0.0038387626 4281176893
-0.0011623353 0.001386255 0.0047768503 4281176638
0.00097221136 0.00078731775 0.0050264932 4281177149
0.0025330335 0.0031449646 0.0025326647 4280980798
0.0042254701 0.0047628134 0.00072734803 4279937593
0.0060575232 0.0056413487 -0.00039110705 4278960434
0.0083427764 0.0043042228 0.00054323301 4279025203
0.010949709 0.0014914572 0.0028417595 4278765104
0.014210567 -0.0042721182 0.007866459 4280915009
0.017514199 -0.01003252 0.012881903 4281109829
0.020533662 -0.014314309 0.016525032 4281759824
-0.014639199 -0.0049486607 0.010086363 4282150483
-0.013867944 0.0026188865 0.0027598776 4280980034
-0.012393914 0.0057275966 -0.00042637065 4281241918
-0.010812357 0.0080925375 -0.0029203631 4281436993
-0.0087213814 0.0074878782 -0.0026631616 4281176384
-0.0060890913 0.0039157644 0.00033827033 4280981309
-0.0037032515 0.0018291995 0.0019624196 4280785468
-0.0015798509 0.0012271479 0.0022127591 4281176893
0.00040707737 0.0013669878 0.0017774031 4280981053
0.0019603297 0.003730692 -0.00070990715 4280590139
0.0034977123 0.0060933679 -0.0031936727 4280849984
0.0054690987 0.0062324852 -0.0036253445 4281371714
0.0077458359 0.0048903599 -0.0026924349 4280719679
0.010499157 0.0013277009 0.00028318074 4280395574
0.013753049 -0.004453823 0.005296303 4280980544
0.017210297 -0.010972291 0.010980664 4280980033
0.020062543 -0.014527589 0.013934908 4282216783
-0.015621305 -0.001385659 0.0040711481 4281888853
-0.014620729 0.0047126636 -0.001861155 4280653888
-0.012907803 0.0063396841 -0.003665071 4280720443
-0.011076935 0.0072215945 -0.0047807619 4281241408
-0.0088578314 0.0058701038 -0.003839206 4281110848
-0.0066279322 0.0045195296 -0.0028999746 4280133943
-0.0043871999 0.0031697974 -0.0019629868 4280654653
-0.002553001 0.0040523708 -0.0030790688 4281111614
-0.00058218837 0.0041910857 -0.0035109036 4280981053
0.0010999069 0.0058167428 -0.0053074658 4280655163
0.0027715042 0.007441774 -0.0071016438 4280459833
0.0047321022 0.0075801164 -0.0075309724 4280980798
0.0069976412 0.0062328577 -0.0065989457 4281111104
0.009894304 0.0019157827 -0.0029488923 4280850494
0.013296306 -0.0046263784 0.0027327221 4280459323
0.016746394 -0.011165008 0.008403914 4281044804
0.019429147 -0.013989583 0.010673055 4281955409
-0.016360208 0.00071376562 -0.00054942165 4281889618
-0.015125714 0.0053344667 -0.0050950721 4280850239
-0.013169341 0.0054714605 -0.0055242628 4280328764
-0.011341065 0.0063552931 -0.0066377148 4280523583
-0.0092560798 0.0057457834 -0.0063825212 4280458304
-0.0071655959 0.0051367283 -0.0061283968 4280719423
-0.0050696284 0.0045282319 -0.0058754198 4281240898
-0.0032460243 0.0054121912 -0.0069875089 4280981053
-0.0014275983 0.0062959567 -0.0080984235 4280980544
0.00038567185 0.0071794391 -0.0092080608 4280719678
0.002046831 0.0088080838 -0.010996696 4279025968
0.0039966106 0.008945629 -0.01142367 4280394299
0.0062509812 0.0075932145 -0.010492478 4280394044
0.0091357231 0.0032622069 -0.0068496321 4280786234
0.012682799 -0.0040452257 -0.00050210673 4281045824
0.016283281 -0.01134868 0.0058338027 4280979014
0.018959813 -0.014182419 0.0080977622 4282085714
-0.016977116 0.0020859465 -0.0044693621 4281824083
-0.015384018 0.0044711083 -0.0069514145 4281305668
-0.013555869 0.0053569749 -0.0080633089 4281566534
-0.011732876 0.0062426105 -0.0091739818 4281631049
-0.0097842738 0.0063792542 -0.0096013099 4281435208
-0.0075687096 0.0050189123 -0.0086655095 4281305414
-0.0053423271 0.0036593825 -0.0077319634 4281240388
-0.0035213381 0.0045453757 -0.0088418908 4281045058
-0.0017055199 0.0054310784 -0.0099505633 4281175363
0.00010511279 0.0063165426 -0.011058003 4281045058
0.0017638355 0.007949397 -0.012842894 4281175874
0.0037108138 0.0080867261 -0.013269268 4281241409
0.0058099627 0.0074769109 -0.013018075 4281175363
0.0085333996 0.0038793832 -0.010060482 4281242428
0.011913095 -0.0027036592 -0.004403458 4280980798
0.015660919 -0.01077652 0.002594566 4280979268
0.018816665 -0.015859142 0.0068793315 4282020434
-0.017232753 0.0012208968 -0.0063276859 4281499469
-0.015519343 0.0028609261 -0.0081220791 4281434698
-0.013565905 0.0029976442 -0.0085506625 4281565004
-0.011740193 0.0038856342 -0.0096603073 4281564238
-0.0099196285 0.0047733709 -0.010768741 4281565003
-0.0077045858 0.0034085959 -0.0098361149 4281695819
-0.0057504848 0.0035458356 -0.010264501 4281435209
-0.0036576837 0.0029328167 -0.01001405 4281044039
-0.0019830316 0.0045708716 -0.011799313 4281109574
-3.1128526e-05 0.0047083199 -0.012226939 4281240645
0.0016278028 0.0063455403 -0.014008615 4281110084
0.0035746321 0.006482847 -0.014434967 4281305668
0.0056734532 0.0058708116 -0.01418535 4281174854
0.0082412809 0.0030115396 -0.011910986 4281436228
0.011302099 -0.0020932928 -0.0076171393 4281044293
0.015039727 -0.010190874 -0.00063488446 4281174089
0.018511038 -0.016786799 0.0049875658 4282085204
-0.017368257 -0.00039333105 -0.0075013386 4281302608
-0.015654601 0.0012510344 -0.0092925364 4281304394
-0.013576269 0.00063422322 -0.0090409974 4281303883
-0.011747852 0.0015245602 -0.010149617 4281303883
-0.0099245757 0.0024146587 -0.011257016 4281303883
-0.0079734474 0.0025515407 -0.011684862 4281108554
-0.0058864504 0.0019358099 -0.011434869 4281108554
-0.0039323419 0.0020731539 -0.011863177 4280782918
-0.0021190941 0.0029629916 -0.012968042 4280913988
-2.3677945e-05 0.0023482144 -0.012719636 4280913989
0.0019308627 0.0024859309 -0.013147772 4280848709
0.0038855225 0.0026237816 -0.013575853 4280914244
0.005840335 0.0027617738 -0.014003859 4281044549
0.0082582571 0.0006455034 -0.012410712 4281044293
0.011163272 -0.0037232488 -0.0088016773 4280979269
0.014579363 -0.010342851 -0.003181966 4281043019
-0.017384186 -0.0027633682 -0.0079951184 4281694035
-0.015545413 -0.0018703789 -0.0091045545 4281304393
-0.01371181 -0.00097757578 -0.010212817 4281304394
-0.011628278 -0.0015961379 -0.0099639343 4281239369
-0.0097996667 -0.00070349127 -0.011070945 4281369674
-0.0079761818 0.00018890202 -0.012176679 4281304393
-0.00615789 0.0010810345 -0.013281197 4281369929
-0.0042065829 0.001218155 -0.013708913 4281239369
-0.0022551268 0.0013554171 -0.014136557 4281109318
-0.00016003847 0.00073840469 -0.013889731 4281239879
0.0019405037 0.0001218915 -0.013644011 4281108808
0.0038976967 0.00025992095 -0.014072639 4281174088
0.0060065016 -0.00035579503 -0.013828487 4281174088
0.0081207417 -0.00097096711 -0.013585498 4281436484
0.011024483 -0.0053528994 -0.0099859964 4281305668
0.013960309 -0.009732455 -0.0063934345 4282346579
-0.017519757 -0.0043792129 -0.0091699567 4281824594
-0.015680961 -0.0034840554 -0.010277783 4281108298
-0.013847299 -0.0025890917 -0.011384425 4281173834
-0.0120188 -0.0016944334 -0.012489826 4281238858
-0.010065436 -0.0015575215 -0.012918257 4281173578
-0.008244589 -0.00066316873 -0.014021804 4281304649
-0.0060229301 -0.002040498 -0.013100394 4281369673
-0.0042044297 -0.0011460558 -0.014203236 4281174088
-0.0022504628 -0.0010086372 -0.014631451 4281304903
-0.00015303493 -0.0016276687 -0.014386767 4281434953
0.0019498467 -0.0022462606 -0.014143166 4281434699
0.0040581822 -0.0028642714 -0.013900698 4281304138
0.006323263 -0.0042378083 -0.012988255 4281434954
0.0082911924 -0.0040987954 -0.013419059 4281696838
0.010885745 -0.006982252 -0.011170099 4281500998
0.013661005 -0.010619536 -0.0082564037 4282477903
-0.017655298 -0.0059947595 -0.010344578 4281759059
-0.01581645 -0.0050974339 -0.011450795 4281173578
-0.01410725 -0.0034402162 -0.013231144 4281107789
-0.012154207 -0.0033034757 -0.013659616 4281042253
-0.010200985 -0.0031666011 -0.014088028 4281042509
-0.0081151277 -0.003789112 -0.013842815 4281304903
-0.0060237944 -0.0044111758 -0.013598678 4281304393
-0.0040647909 -0.0042735338 -0.014028092 4281369419
-0.0022461265 -0.0033767745 -0.015129318 4281956428
-0.00028949976 -0.003239058 -0.015558028 4282021708
0.0018130541 -0.0038598478 -0.015315984 4281825869
0.0039210469 -0.0044800863 -0.015075088 4281694798
0.0060344972 -0.0050998107 -0.01483528 4281695053
0.0081533864 -0.0057190433 -0.014596597 4281956429
0.010590594 -0.0078534409 -0.013022291 4281956173
0.013203006 -0.010744244 -0.010783693 4282607444
-0.017790794 -0.0076100156 -0.011518991 4281757783
-0.015951902 -0.0067105442 -0.012623606 4281434445
-0.014118165 -0.0058112293 -0.013727021 4281238349
-0.012289569 -0.0049122423 -0.014829201 4280845903
-0.010336496 -0.0047753826 -0.015257583 4280845649
-0.0082509741 -0.0054001138 -0.015013949 4281434444
-0.0061599612 -0.0060243905 -0.014771377 4281631049
-0.0042011067 -0.0058867782 -0.015200783 4281761863
-0.0023823977 -0.0049878359 -0.016300382 4281827143
-0.00056885928 -0.0040891618 -0.017398702 4281760333
0.001530692 -0.0047123209 -0.017157694 4281956174
0.0036356971 -0.0053350031 -0.016917737 4281890129
0.0058970638 -0.0067175254 -0.016011028 4282020434
0.0080156177 -0.0073389784 -0.015773902 4282085968
0.010764629 -0.011000037 -0.012870906 4282282318
-0.018163875 -0.0076952651 -0.014039857 4282148954
-0.016087316 -0.0083233267 -0.013796197 4282411349
-0.014253527 -0.0074218512 -0.014897997 4281953878
-0.012171298 -0.0080492944 -0.014655421 4281366104
-0.010601401 -0.0056197643 -0.0170979 4281235544
-0.0086509883 -0.0054830089 -0.017525641 4281628754
-0.0068351775 -0.0045823753 -0.018623108 4281695054
-0.0046122521 -0.005972594 -0.017711712 4281237583
-0.0025186315 -0.0065985993 -0.017471233 4281890129
-0.00056230277 -0.00646092 -0.017899888 4281563983
-0.036189169 -0.016202569 -0.029589245 4282994534
