# .PCD v0.7 - Point Cloud Data file format
VERSION 0.7
FIELDS x y z rgba
SIZE 4 4 4 4
TYPE F F F U
COUNT 1 1 1 1
WIDTH 697
HEIGHT 1
VIEWPOINT 0 0 0 1 0 0 0
POINTS 697
DATA ascii
0.028719526 -0.030118443 0.029846702 4288297513
0.024626374 -0.024954669 0.021993201 4287773744
0.029530533 -0.035379693 0.032129783 4288428073
-0.011983607 0.003400974 0.0148855 4281697094
-0.011306129 0.0097624511 0.0080071427 4280003383
-0.0088844821 0.0078064576 0.0097802281 4280524093
-0.0061425567 0.0044661164 0.012989502 4280656184
-0.0032189935 0.00043495744 0.016912717 4282811699
-0.00073538721 -0.0015168712 0.018673867 4284250408
-0.015515737 0.0085759759 0.0069046803 4281891659
-0.014552008 0.013566259 0.0014802683 4280850238
-0.013039667 0.015773263 -0.0010602977 4280198203
-0.010498937 0.013113603 0.0014324952 4280785469
-0.0076329112 0.0090655088 0.0053572357 4279549994
-0.004580047 0.0043247193 0.0099932887 4281505843
-0.0019612834 0.0016702116 0.012470994 4282223413
0.00051909313 -0.00028837472 0.014228027 4282484789
0.0025278255 -0.00016304106 0.013834126 4284380203
-0.017745756 0.0075172186 0.0054171532 4281827143
-0.017328981 0.015315261 -0.0028738454 4280264248
-0.015965395 0.018226121 -0.0061267503 4280981564
-0.014184121 0.019043252 -0.00722274 4281371714
-0.011811983 0.017070856 -0.0054495949 4281371968
-0.0092719495 0.014402371 -0.002963027 4280916284
-0.0064015873 0.010341354 0.00095130503 4280591158
-0.003813114 0.0076760948 0.0034285206 4281243449
-0.0015226044 0.0064056069 0.0044717826 4281308474
0.0006162487 0.0058324188 0.0047985837 4281439289
0.0021000542 0.0080450028 0.0022689551 4281570359
0.0044068359 0.0067758411 0.0033092555 4281376048
0.0072358437 0.0034195036 0.0064859279 4281635383
0.010438029 -0.0013266802 0.011081968 4282290224
0.01315026 -0.0039834529 0.01353547 4283465263
-0.018971954 0.011486888 -0.0014769007 4281174343
-0.018152479 0.017207846 -0.0075953044 4281046588
-0.016371276 0.018027104 -0.008689804 4279612724
-0.014741488 0.019545805 -0.010499131 4279742519
-0.012378011 0.017566171 -0.0087290686 4279677749
-0.0101499 0.016287081 -0.0076770484 4280004403
-0.00729407 0.012211859 -0.0037695114 4280851513
-0.0050336085 0.010934934 -0.0027236529 4281243194
-0.0030815192 0.011056617 -0.0031065326 4281178169
-0.0016161762 0.013274565 -0.0056278277 4281047609
0.00016305223 0.014094494 -0.0067212861 4279549994
0.0022722259 0.013517439 -0.0063901246 4280266798
0.0054087155 0.0087514967 -0.0017924774 4280266288
0.0089287795 0.0025919378 0.0042192899 4280010269
0.012145787 -0.002168715 0.0088012703 4281963823
0.014686935 -0.0041360706 0.010537356 4282745654
-0.020902161 0.0090497881 -0.0015189406 4281892168
-0.020057492 0.014789939 -0.0076295938 4281175874
-0.018552307 0.01701615 -0.010154506 4280915774
-0.01677642 0.017837215 -0.011246348 4280524603
-0.015005775 0.018658079 -0.01233706 4280524859
-0.012943011 0.018075161 -0.011998951 4280329018
-0.010420635 0.015387841 -0.0095217694 4280850749
-0.0080307908 0.013403401 -0.0077615529 4280916028
-0.005938258 0.012822658 -0.0074290447 4281046843
-0.0041591264 0.01364458 -0.0085210446 4280851259
-0.0030337237 0.017270088 -0.012456962 4280525623
-0.0014406964 0.018791657 -0.014255336 4281371713
0.00081151351 0.017510258 -0.013210809 4281372224
0.0037551075 0.013427831 -0.0093295928 4280915773
0.0069037303 0.0086473003 -0.0047455225 4281242173
0.010440968 0.0024689883 0.001248518 4281309238
0.014204688 -0.004406102 0.0079412609 4281635638
0.01711769 -0.007778883 0.011085745 4281895994
0.019690411 -0.0097506642 0.012811009 4283200318
-0.021778017 0.00096842647 0.0041608289 4281891148
-0.021967776 0.012367696 -0.0076657496 4281372988
-0.020727247 0.016010415 -0.011616901 4281178679
-0.018951431 0.016833566 -0.012707209 4280981564
-0.016894527 0.016247857 -0.012369704 4280980799
-0.014977999 0.016366754 -0.012746021 4281111104
-0.012764312 0.01507777 -0.011697693 4280850238
-0.010539792 0.013789505 -0.010651378 4280850749
-0.0084583685 0.013205737 -0.010318389 4280916028
-0.0068412088 0.014732912 -0.012118524 4280981308
-0.0052347146 0.016259551 -0.013916545 4280851514
-0.0038008057 0.018488765 -0.016422015 4279353389
-0.0020537004 0.019311137 -0.017506029 4279808308
0.00019001216 0.018024724 -0.016463012 4280588609
0.0027844608 0.01533379 -0.014005844 4280459323
0.0059183761 0.010536857 -0.0094301123 4280396848
0.0099665951 0.0022306815 -0.001326412 4280853043
0.014257226 -0.0067734942 0.0074712709 4281373753
0.017352641 -0.010859206 0.011313401 4282025278
-0.023751024 0.0092339069 -0.0069898274 4282022218
-0.023031045 0.015716985 -0.013790316 4279028264
-0.021395635 0.017248977 -0.015591438 4279548464
-0.019209523 0.015953481 -0.0145411 4278636839
-0.017012589 0.014658801 -0.013492856 4279353898
-0.014804818 0.013364904 -0.012446664 4281111614
-0.012734588 0.012777947 -0.012113205 4280915518
-0.010507859 0.011485443 -0.011070574 4280850748
-0.0088852271 0.013017252 -0.012868671 4280981308
-0.0072732493 0.014548525 -0.014664657 4280980798
-0.0058309995 0.01678478 -0.017167039 4281046589
-0.0042429976 0.018314794 -0.018958151 4280655164
-0.0026656538 0.019844227 -0.020747049 4279221044
-0.00043046474 0.018552888 -0.019705608 4279675709
0.00215514 0.015852552 -0.017253127 4280262719
0.005969692 0.0082206354 -0.0098627973 4280655929
0.010543983 -0.0022257417 0.00033799559 4281177913
0.015198734 -0.012666896 0.010523077 4281177404
0.018309088 -0.016764946 0.014352653 4281698369
-0.025156874 0.0039622337 -0.0041793417 4282152269
-0.024794523 0.012595832 -0.013110076 4280915264
-0.023552734 0.016260594 -0.017045557 4280784704
-0.021925181 0.01779649 -0.018841956 4281502019
-0.01974757 0.016496032 -0.017793162 4280002874
-0.017273441 0.013778791 -0.015326023 4280916539
-0.014923301 0.011771657 -0.013572752 4280656439
-0.012853365 0.011182457 -0.013240846 4280981819
-0.010928866 0.011302024 -0.013618601 4281047099
-0.0093114041 0.012837954 -0.015412536 4280981309
-0.0080170669 0.015789226 -0.018619442 4281242939
-0.0064262487 0.017323665 -0.020407954 4281177149
-0.0046844818 0.018149972 -0.021487758 4281176385
-0.0026194565 0.017561167 -0.021154458 4281045314
-0.00054900721 0.016972821 -0.020822132 4281046079
0.0023750812 0.012849376 -0.016966011 4280654143
0.0067100115 0.0030724853 -0.0074806828 4280719933
0.011995103 -0.010233499 0.005509574 4280785214
0.016315944 -0.019293249 0.014259622 4281176383
0.019083185 -0.02199062 0.016670436 4282086989
-0.027086068 0.012312874 -0.015278858 4281174853
-0.025703732 0.015277438 -0.018497365 4279675708
-0.024208043 0.017529309 -0.021001391 4280915264
-0.022453684 0.018357601 -0.022082793 4281175618
-0.020284582 0.017052211 -0.021035599 4280980289
-0.01767661 0.01361458 -0.01786451 4279612468
-0.015332446 0.011600368 -0.016114844 4280720699
-0.013268176 0.011008628 -0.015783485 4281046333
-0.011650592 0.012548834 -0.017574279 4281047099
-0.010197055 0.01479885 -0.020069482 4280916028
-0.0086034313 0.016337782 -0.021855416 4279092014
-0.007020466 0.0178762 -0.023639228 4279092014
-0.0048023909 0.016574673 -0.022600973 4278505004
-0.0027376674 0.015983634 -0.022269221 4280849729
-0.00033392012 0.013974018 -0.020530602 4280719424
0.0027638748 0.0091282427 -0.015981557 4280719424
0.0077930242 -0.0035159215 -0.0037083067 4280654144
0.013268393 -0.017571896 0.009950757 4280718913
0.017253336 -0.025241621 0.017272655 4281175363
0.019675426 -0.026529528 0.018271472 4282215763
-0.028860044 0.0091830939 -0.014602336 4281436483
-0.027848598 0.014299568 -0.019946896 4281045313
-0.026083734 0.01513049 -0.021028927 4280588863
-0.02472752 0.018102363 -0.02423583 4279610428
-0.022981163 0.018932376 -0.025314057 4279741754
-0.020820551 0.01762196 -0.024268378 4279482164
-0.018221572 0.014172696 -0.021103544 4280328764
-0.016031269 0.012864403 -0.02006357 4280785213
-0.013978027 0.01226975 -0.019731661 4280916284
-0.01222042 0.013100982 -0.020811716 4280851769
-0.010621317 0.014644556 -0.022595614 4280916539
-0.009188775 0.016900003 -0.025081813 4280004913
-0.0074550621 0.01773008 -0.02615694 4280525368
-0.0025279447 0.012982637 -0.021978067 4280589628
4.715845e-05 0.010254957 -0.019542858 4281177148
0.0034903176 0.0039709806 -0.013602697 4281046334
0.0090457126 -0.010846511 0.00074357912 4280849729
0.014539044 -0.024945587 0.014367081 4280849473
0.018188724 -0.031216286 0.020267025 4281044548
-0.029103402 0.008311823 -0.016433395 4281567809
-0.027835708 0.012011066 -0.020350134 4280979779
-0.026199769 0.013560489 -0.022138759 4281175363
-0.024708722 0.015825249 -0.024632249 4281175364
-0.022959661 0.01665765 -0.025709469 4281045059
-0.020936482 0.016058538 -0.025373463 4281045824
-0.018623162 0.014029048 -0.023627501 4280785213
-0.016583715 0.013431229 -0.023294568 4280850493
-0.014686506 0.013548944 -0.023667075 4281046333
-0.012939591 0.014381714 -0.024743436 4280590393
-0.01150408 0.016643804 -0.027225461 4280657459
-0.0097730905 0.017475858 -0.028298575 4281373755
-0.0077305287 0.016878728 -0.027965814 4281502529
-0.0051992349 0.014139291 -0.025528632 4281241918
-0.0024826378 0.010687105 -0.022394225 4280915518
0.00059373677 0.0058089122 -0.017863501 4280915519
0.0047225691 -0.0033495054 -0.0091385543 4280784704
0.010467585 -0.018925928 0.0058702938 4280849984
0.015109016 -0.02950073 0.015961736 4281044803
0.018590575 -0.035077505 0.021146815 4281761353
0.02103583 -0.036372788 0.022134695 4282672978
-0.028589737 0.0031333491 -0.014018568 4281371203
-0.027307961 0.0068444833 -0.01793009 4281175874
-0.025658432 0.0083991438 -0.019718194 4281110594
-0.024287771 0.011389568 -0.022915136 4281045824
-0.022391137 0.011506781 -0.023287874 4281110848
-0.02063388 0.012341954 -0.024364989 4281306179
-0.018455327 0.011023894 -0.023329182 4281242429
-0.016845401 0.012576655 -0.025109101 4281176894
-0.015246086 0.014128823 -0.026886817 4281046078
-0.013657406 0.015680484 -0.028662408 4280980798
-0.012079358 0.017231576 -0.030435769 4278831404
-0.010356367 0.018065277 -0.031505682 4280002873
-0.0083221532 0.017465442 -0.031172939 4279937593
-0.0057996958 0.014716566 -0.028740395 4279937338
-0.0026012547 0.0091038123 -0.023513068 4280132158
0.0013053082 0.00062923133 -0.015497309 4280588864
0.0062901378 -0.012137204 -0.0033019781 4280914754
0.011714812 -0.026329137 0.0102708 4280783428
0.015503336 -0.033357672 0.01684643 4281173834
0.018460387 -0.036805212 0.019926101 4282411858
-0.028329533 -0.00062529743 -0.013030262 4282153033
-0.027167667 0.0038181469 -0.017640539 4281305924
-0.025381286 0.004656978 -0.018722035 4281240899
-0.023600135 0.0054955855 -0.019802425 4281176129
-0.021687552 0.0056137741 -0.020178301 4281044549
-0.019914199 0.0064521208 -0.021257 4281110848
-0.018288102 0.0080101788 -0.023036979 4281110848
-0.016672619 0.0095676482 -0.02481476 4281111104
-0.01521514 0.011844158 -0.027291711 4281045313
-0.01362358 0.013400361 -0.029064629 4281112379
-0.012348134 0.016394485 -0.03223592 4280980799
-0.010938626 0.018668346 -0.034703217 4280719168
-0.0089127533 0.018065792 -0.034370434 4280653888
-0.0063991323 0.015307512 -0.031942569 4280783938
-0.0023929402 0.0060837194 -0.023235407 4280783428
0.0025136583 -0.0067275092 -0.011053665 4280914755
0.0078543983 -0.020969003 0.0025034379 4280914755
0.012444925 -0.031613432 0.012556698 4281044803
0.015374161 -0.035073943 0.015633758 4281630283
0.018153356 -0.03781487 0.018010043 4282281299
-0.028321844 -0.0029507354 -0.013459097 4281891403
-0.027156446 0.0015061721 -0.018060464 4281305668
-0.025105085 0.00090178847 -0.017735086 4281436484
-0.02331588 0.0017431304 -0.018815517 4281240644
-0.021395396 0.0018617958 -0.019192956 4281240898
-0.019613978 0.0027028322 -0.020271644 4281306689
-0.0178378 0.00354366 -0.021349236 4281046079
-0.016211409 0.0051062033 -0.023125958 4280980543
-0.014742855 0.0073900148 -0.025600294 4280719679
-0.013140395 0.008951351 -0.027372196 4280915008
-0.012006268 0.012676433 -0.03123798 4280914499
-0.010743603 0.015678659 -0.034400243 4281110083
-0.0090285353 0.016516432 -0.035465367 4280978503
-0.0061944984 0.012307353 -0.0316495 4280783173
-0.0016953908 0.00089275092 -0.020874009 4280783173
0.0035533905 -0.013398819 -0.0073310025 4280913733
0.0087407827 -0.026963159 0.0054956004 4281109318
0.012316763 -0.033318259 0.011352077 4282151504
0.015070999 -0.036069751 0.013726808 4282672724
0.017670022 -0.03809984 0.015403457 4282411858
-0.028565649 -0.0038296804 -0.015295607 4281563729
-0.027145501 -0.00080998987 -0.018483292 4281239879
-0.025091771 -0.001416415 -0.018160034 4281370438
-0.023166191 -0.0012975633 -0.018538564 4281370693
-0.021240495 -0.0011786073 -0.01891705 4281371203
-0.019453693 -0.00033505261 -0.019995216 4281306179
-0.017813835 0.0012326762 -0.02177152 4281306434
-0.015895847 0.0013515055 -0.022148225 4281175619
-0.014271848 0.0029184297 -0.023921207 4281044804
-0.01250875 0.0037609786 -0.024994384 4280848708
-0.011208147 0.0067743212 -0.028157823 4280913988
-0.0099288933 0.0097864494 -0.031316981 4280914243
-0.0081977099 0.010627382 -0.032383632 4281175109
-0.0053487457 0.0064060241 -0.028580347 4281305669
-0.00067322329 -0.0057661384 -0.017138029 4281370949
0.0047566369 -0.020823739 -0.0029355455 4281305413
0.0091197379 -0.030815631 0.006387163 4281240133
0.012017479 -0.034300275 0.0094542578 4282607953
-0.028558198 -0.0061589628 -0.015727172 4281629518
-0.027006712 -0.0038576052 -0.018208798 4281109574
-0.024817105 -0.0051931739 -0.017188352 4281500743
-0.023150612 -0.0036197677 -0.018966962 4281501254
-0.02122239 -0.0035006702 -0.019345947 4281305669
-0.019571725 -0.0019280314 -0.021121223 4281306179
-0.017648626 -0.0018090233 -0.021499041 4281371203
-0.015581228 -0.0024162456 -0.021179659 4281110339
-0.013802126 -0.0015706122 -0.02225446 4280979268
-0.012177859 8.8661909e-07 -0.024024269 4281044548
-0.010716446 0.0022976696 -0.026487404 4281109829
-0.0092710406 0.0045936331 -0.028947342 4281305924
-0.0073688477 0.0047120526 -0.029320544 4281567043
-0.0043446757 -0.0002470091 -0.024835831 4281305924
2.072379e-05 -0.011005342 -0.014810719 4281502019
0.005129084 -0.024658635 -0.0020295959 4281437504
0.0091611072 -0.033231325 0.0058847927 4281502529
0.011547564 -0.034552842 0.0068679266 4282738258
-0.028551016 -0.008492358 -0.016161658 4283004478
-0.026868518 -0.0069138408 -0.017940342 4281959233
-0.025196631 -0.0053358227 -0.019716907 4281762629
-0.023268659 -0.0052168518 -0.020095935 4281632578
-0.021340571 -0.0050977841 -0.020474914 4281697603
-0.019551046 -0.0042496547 -0.021550424 4281306179
-0.017766763 -0.0034017488 -0.022624832 4281436228
-0.015843701 -0.0032826215 -0.023002556 4281175109
-0.013920546 -0.003163375 -0.02338022 4280914499
-0.012296092 -0.0015874654 -0.02514687 4280979778
-0.010530192 -0.00074021518 -0.026217317 4281240133
-0.0087695606 0.00010682642 -0.027286641 4281566278
-0.0066993758 -0.00050184131 -0.02696899 4281435973
-0.0038232133 -0.0047480389 -0.023190258 4281762884
0.0005502589 -0.01553899 -0.013190734 4281762629
0.0053350851 -0.027779244 -0.0018242244 4281762629
0.0090340227 -0.034924075 0.0046886727 4281956938
-0.028418984 -0.011561856 -0.015901394 4284442168
-0.026858766 -0.0092468113 -0.018375129 4283920439
-0.025183994 -0.0076642036 -0.020149067 4283202103
-0.023253489 -0.0075451061 -0.020528615 4282026044
-0.021458715 -0.0066945925 -0.021603666 4281829183
-0.01966916 -0.0058442801 -0.022677595 4281501254
-0.017743662 -0.0057251304 -0.023055892 4281174854
-0.015818074 -0.0056058764 -0.023434136 4281305669
-0.013892379 -0.0054864734 -0.023812298 4281240899
-0.012265064 -0.0039059743 -0.02557631 4281110084
-0.010496464 -0.0030563697 -0.026645703 4281436228
-0.0088877268 -0.0014768317 -0.028405854 4281436228
-0.0066605844 -0.0028176904 -0.027398372 4281631813
-0.0037828721 -0.0070770979 -0.023629513 4281762119
0.0005906336 -0.017901115 -0.013654047 4281631303
0.0052098557 -0.029449463 -0.0030044671 4281631303
0.0089069754 -0.036616474 0.0034927893 4282021708
-0.019510534 -0.0089052841 -0.022417597 4284185383
-0.017720856 -0.0080526397 -0.023489876 4283400748
-0.015936434 -0.0072002113 -0.02456104 4282221119
-0.01415728 -0.0063479841 -0.025631081 4282024768
-0.012383394 -0.0054959208 -0.026700038 4281632833
-0.010614779 -0.0046441257 -0.02776785 4281567299
-0.008542601 -0.0052572116 -0.027453873 4281436228
-0.0064649843 -0.0058699027 -0.027140848 4281632069
-0.0034232922 -0.010874256 -0.022693183 4281435208
0.00046824291 -0.019535497 -0.01480901 4281631559
0.0050846525 -0.031119347 -0.0041844752 4281631559
0.0086121447 -0.037577033 0.0016094428 4282087499
-0.016054764 -0.0087942556 -0.025687743 4284051508
-0.014129367 -0.0086748973 -0.02606586 4283399219
-0.012352783 -0.0078205168 -0.027133722 4281960253
-0.010581478 -0.0069662929 -0.028200496 4281764159
-0.0086611882 -0.0068469048 -0.028577359 4281828674
-0.0065838881 -0.007461831 -0.028265879 4281632068
-0.0037031211 -0.011747479 -0.024516862 4281501509
0.00034588948 -0.021169588 -0.015963752 4281566533
0.0047945194 -0.032055005 -0.0060509089 4281631813
0.0083176754 -0.038532838 -0.00027053989 4281957449
-0.0070162937 -0.0075801313 -0.03076403 4283074093
-0.0039825775 -0.012615941 -0.026337165 4282157113
6.1437488e-05 -0.02206704 -0.017803874 4282155839
0.004504744 -0.032985918 -0.0079139862 4282612288
-0.0044209659 -0.012740955 -0.028838739 4284706094
-0.00022265315 -0.022959739 -0.019640699 4284313903
0.0043799654 -0.034650415 -0.0090901908 4284115004
-0.017009858 -0.027455606 -0.023881489 4284638774
0.0052252524 -0.038191319 -0.01689383 4284049213
0.0079025775 -0.041053705 -0.014580919 4282937159
0.0044351816 -0.036848336 -0.020763321 4283136314
0.007439293 -0.041218422 -0.017105263 4282674764
0.0016682297 -0.035610944 -0.024232289 4283661104
0.0041454248 -0.037741758 -0.02259923 4281698879
0.0071456991 -0.0421253 -0.018949993 4282280789
0.0017091148 -0.038000472 -0.024715586 4282808384
0.0041883327 -0.040137768 -0.023087718 4281825613
0.013499239 0.0076920986 0.053371951 4285295909
0.014894526 0.010455422 0.050004475 4285624349
0.017324455 0.0092697218 0.051075473 4285820188
0.021016059 0.0034802109 0.057314038 4285819933
0.011493577 0.013222888 0.044022284 4285689628
0.013206227 0.014672518 0.042142905 4285557793
0.015435722 0.014141016 0.042478047 4285557538
0.018384736 0.01096984 0.045759954 4285689118
0.021904275 0.0058208555 0.051245905 4285689118
0.025466783 0.00067465007 0.056723498 4285689373
0.028699091 -0.0031497031 0.060722001 4285493023
0.03101727 -0.0036752 0.061040096 4285427744
0.033148862 -0.0035411119 0.060622901 4285230628
0.0093062203 0.011383787 0.043217264 4285492768
0.011024421 0.012838118 0.041339956 4285886744
0.012731925 0.01429189 0.039464749 4285886489
0.014780104 0.014420219 0.039063506 4285755164
0.017363403 0.012561873 0.040868416 4285820699
0.020143883 0.010042541 0.043405063 4285755674
0.022945855 0.0075246468 0.04593756 4285558814
0.025769318 0.0050081834 0.048465908 4285558814
0.027479649 0.006462656 0.046590529 4285493533
0.029179251 0.0079165176 0.044717364 4285558814
0.031257033 0.0080473199 0.044310763 4285754399
0.035109177 0.0022285506 0.050489381 4285819933
0.040208634 -0.0075524896 0.061045557 4285754398
0.0080056228 0.014329862 0.036857754 4285558814
0.010045541 0.014457479 0.036457986 4285624348
0.011912692 0.015250016 0.035323448 4285821208
0.013950024 0.015377667 0.034924332 4285821464
0.016343776 0.014176454 0.035992816 4285690139
0.019110052 0.011647344 0.038525797 4285624349
0.021347132 0.011112124 0.038856409 4285624349
0.023775838 0.00991337 0.039918244 4285624348
0.025459569 0.011370577 0.038051337 4285755673
0.026940931 0.013490874 0.035455413 4285689374
0.028794782 0.014283273 0.034323987 4285558049
0.03202213 0.010432325 0.038304411 4285689374
0.036280014 0.0032678097 0.045926586 4285820699
0.041811027 -0.0078706667 0.057911597 4285689118
0.0058386736 0.012508191 0.036060438 4285361699
0.0077111423 0.013303094 0.034926344 4285624094
0.0099182408 0.012763329 0.035260893 4285624093
0.011785448 0.013558071 0.034127951 4285623839
0.013822675 0.013685703 0.033728842 4285558559
0.01621598 0.012480013 0.034794193 4285558558
0.018620051 0.01127509 0.035857499 4285558558
0.020668093 0.011403665 0.035456456 4285624349
0.02271615 0.011532329 0.035055488 4285624349
0.024386685 0.012993149 0.033194385 4285952789
0.026046481 0.014453378 0.03133544 4285886488
0.027889647 0.015247371 0.030207671 4285754909
0.030711513 0.012713425 0.032723736 4285754908
0.034552321 0.0068541169 0.038875706 4285820954
0.039452322 -0.0023280159 0.048655719 4285755674
0.0033485256 0.012026846 0.03379574 4285164838
0.0047249794 0.014833037 0.030463871 4285886489
0.0069156513 0.014289893 0.030800018 4285951768
0.0094513483 0.012408331 0.032599527 4285952534
0.011658233 0.011866368 0.032932617 4285755419
0.013870521 0.01132489 0.033264674 4285624093
0.01608821 0.010783829 0.033595745 4285624348
0.018672388 0.0089056417 0.035386063 4285559069
0.020356545 0.010371603 0.033525329 4285558558
0.021844085 0.012505375 0.030937754 4285558558
0.023504099 0.013970017 0.029081877 4285689628
0.025153387 0.015434023 0.02722821 4286018579
0.027373808 0.014893685 0.027559139 4285952533
0.03018952 0.012350477 0.030069977 4285820954
0.03402333 0.0064707771 0.036208853 4285821209
0.039521515 -0.0047451332 0.0481456 4285689883
0.0015057512 0.0088660493 0.034466453 4285230629
0.002737198 0.012354217 0.030405488 4285559069
0.0044346973 0.013824806 0.028544877 4285623839
0.0064554475 0.013951112 0.028148782 4285557794
0.0091548078 0.011390805 0.030675303 4285689628
0.011703374 0.0095034465 0.032467574 4285689628
0.013918065 0.0089598894 0.032797556 4285624094
0.01596047 0.0090879202 0.032397486 4285624349
0.018183274 0.008545056 0.032726005 4285624348
0.019679241 0.010685913 0.030141529 4285624093
0.02134485 0.012155242 0.028287705 4285624094
0.023188159 0.01295346 0.027163044 4285623583
0.025026098 0.013751436 0.026039504 4285623839
0.027440028 0.012538724 0.027094785 4285624349
0.030061163 0.010656759 0.028873451 4285624348
0.034689985 0.0020777211 0.037897632 4285558813
0.040397771 -0.0098450258 0.050529882 4285624349
-4.9643219e-05 0.013243914 0.026689332 4285361953
0.0016426332 0.014718499 0.024832878 4285821719
0.0034883656 0.015518244 0.023708738 4285755418
0.0056623705 0.014969636 0.024044871 4285689884
0.0083502121 0.012399726 0.026567217 4285755674
0.010715276 0.011178717 0.027628351 4285690139
0.013265938 0.0092849582 0.029415403 4285558558
0.015300177 0.0094124824 0.029016934 4285624349
0.017334446 0.009540081 0.028618518 4285690139
0.018637173 0.012360036 0.02531442 4285755418
0.020289594 0.013832938 0.023466438 4285886999
0.022684306 0.012614399 0.024522141 4285886998
0.025089758 0.011396579 0.025575839 4285755674
0.02769956 0.0095071569 0.027351841 4285623838
0.030521736 0.0069466755 0.029848523 4285624859
0.035554297 -0.0030049384 0.040297292 4285559068
-0.00065057352 0.013601348 0.02331828 4285493278
0.0011951439 0.014403213 0.022195678 4285624859
0.0030355565 0.015204828 0.021074176 4285887509
0.0052039139 0.014653631 0.021409798 4285756184
0.0077163018 0.012750581 0.023199428 4285690393
0.010072855 0.011524633 0.024258964 4285624604
0.012265511 0.010975234 0.024590027 4285558813
0.014108868 0.01177752 0.023468297 4285689883
0.01594688 0.012579553 0.022347685 4285755419
0.017596815 0.014056683 0.02050329 4285689629
0.019421443 0.014858063 0.019385431 4285623584
0.021993067 0.012959406 0.021163952 4285689374
0.024771556 0.010387078 0.023662664 4285755418
0.027958415 0.0064669922 0.027602751 4285558558
0.031569742 0.0012001097 0.032981113 4285558813
0.037013382 -0.010132395 0.044846512 4285493278
-0.0023148358 0.0097726211 0.024720185 4285690139
-0.0010920465 0.013293363 0.02068492 4285558813
0.00074834749 0.014097091 0.019564953 4285558814
0.0027472191 0.014221895 0.019173048 4285493023
0.0049126111 0.013668284 0.019507635 4285493278
0.0072525591 0.012436755 0.020567138 4285558814
0.0094314702 0.011884183 0.02089921 4285559068
0.01144129 0.01201006 0.020505443 4285558814
0.013273958 0.012813881 0.019387413 4285558813
0.015101289 0.013617467 0.018270489 4285886999
0.016740724 0.015098315 0.01643141 4285820953
0.018739905 0.015223913 0.016040005 4285557793
0.021302845 0.013318092 0.017815359 4285623584
0.024644312 0.0087053105 0.022474535 4285689884
0.028409909 0.002741307 0.028568778 4285690138
0.033007659 -0.0059261918 0.037536278 4285558559
0.038867101 -0.018648289 0.050811104 4285493024
-0.0018176325 0.0053745136 0.026446201 4285294634
-0.00074163079 0.0095883235 0.021690231 4285689119
0.00094593689 0.011075832 0.019844353 4285886233
0.0027864575 0.011881866 0.018726029 4285754654
0.005120527 0.010645427 0.019783385 4285492003
0.0071274526 0.010770917 0.019390035 4285493024
0.0089627765 0.011576913 0.018272936 4285427489
0.010792781 0.012382694 0.017156966 4285493278
0.012440421 0.013868324 0.015319292 4285559069
0.01425707 0.014673453 0.01420607 4285624604
0.015885986 0.016158074 0.012372259 4285953299
0.017874315 0.016282998 0.011982985 4285887508
0.02023815 0.015049208 0.013035081 4285756184
0.023945769 0.0090615079 0.019126147 4285690649
0.028667275 -0.00031836331 0.028805919 4285493534
0.034442902 -0.013087906 0.042066514 4285427744
-0.0016324855 0.0023262128 0.026709005 4285359913
-7.6033175e-05 0.0045032278 0.024136059 4285688864
0.0016251691 0.0059960112 0.022290725 4285885724
0.0034791455 0.0068050697 0.021171346 4285885979
0.0053278245 0.0076139197 0.020053089 4285885979
0.0073399916 0.0077397302 0.019658707 4285886233
0.0088377483 0.0099135861 0.017097633 4285952023
0.010493632 0.011404015 0.015261527 4285953043
0.011785112 0.01425853 0.011985194 4285624604
0.013593748 0.015065413 0.010875095 4285558813
0.015397049 0.015872017 0.0097661689 4285493023
0.017749701 0.014632959 0.010817219 4285493023
0.020113077 0.013394721 0.011866197 4285493279
0.024009326 0.00670553 0.018661693 4285427998
0.029502835 -0.0054305494 0.031191111 4285362463
0.035875455 -0.020284943 0.046571784 4285362463
-0.001447957 -0.0007307604 0.026965752 4285491494
0.0001142323 0.0014532357 0.024396483 4285819933
0.0019815937 0.0022652447 0.023276012 4285951003
0.0036803856 0.0037624314 0.021434367 4285951003
0.0057004243 0.0038886219 0.021038361 4285885214
0.0077205189 0.0040149093 0.020642411 4286016794
0.0090553947 0.0068807974 0.017363843 4285885723
0.010542855 0.0090607107 0.01480972 4286017304
0.011837559 0.011924274 0.011539161 4285951259
0.013648935 0.012733504 0.010430183 4285951514
0.015637014 0.012858286 0.010040872 4285623838
0.017809832 0.012299165 0.010369673 4285426978
0.020362861 0.010372758 0.012132563 4285361699
0.024452768 0.0029779524 0.019628298 4285296418
0.030529501 -0.011248231 0.034277234 4285230374
0.03671892 -0.025467254 0.048904248 4285230374
-0.0017292388 -0.0017319992 0.025049578 4285491493
0.00014612451 -0.00091741234 0.023929045 4285950493
0.0020162128 -0.00010302663 0.02280964 4286081308
0.0038810074 0.00071112812 0.021691341 4286016283
0.0057404935 0.0015250966 0.020574115 4286016284
0.0077631474 0.0016515329 0.020177655 4286016283
0.0094435532 0.0031522587 0.018343091 4286016284
0.011113267 0.0046524107 0.01651068 4286016283
0.012242738 0.0082123131 0.012526311 4285885213
0.014241401 0.0083376691 0.012134857 4285885468
0.01624009 0.0084631294 0.011743471 4285819934
0.018423345 0.0079024434 0.012068622 4285886488
0.021173723 0.0052839443 0.014540657 4285755163
0.025464997 -0.0028204247 0.0227319 4285755673
0.031554177 -0.017092384 0.037344739 4285689884
-0.0021650232 -0.0020382181 0.022416126 4285229608
2.0164996e-05 -0.0026020482 0.022738531 4286016284
0.0020505451 -0.002475448 0.022340328 4286146843
0.003918048 -0.0016589388 0.021223083 4286277658
0.0057802722 -0.00084262341 0.020106971 4286278169
0.0074688718 0.00066297501 0.018273875 4286212379
0.0093177836 0.0014786348 0.017160509 4286015773
0.011161372 0.0022940934 0.016048271 4286147099
0.012999631 0.0031093359 0.014937155 4286016284
0.015011583 0.0032355189 0.014543094 4286016284
0.017023556 0.0033618063 0.014149107 4285950748
0.019035537 0.0034882054 0.013755195 4285885468
0.021795839 0.00086150318 0.016218822 4285820699
0.025905944 -0.0065808073 0.02367533 4285820189
0.031999491 -0.020898961 0.038253553 4285754398
0.0016043149 -0.0027754083 0.019713927 4285427743
0.0036292672 -0.0026490614 0.019316848 4285884449
0.0051579289 -0.00044693798 0.016768806 4286015263
0.0070068277 0.00037083775 0.01565697 4286211868
0.00902123 0.00049685687 0.015262198 4286211868
0.011382669 -0.00075975806 0.016298335 4286211868
0.01340251 -0.00063318759 0.015902646 4286146589
0.015422378 -0.00050649792 0.015507039 4286146844
0.017260728 0.00031115115 0.014397651 4286015773
0.019277947 0.00043787062 0.014002711 4285950238
0.022042818 -0.002197437 0.016459078 4285819934
0.026345888 -0.010354199 0.024609484 4285754143
0.032251552 -0.024028428 0.038441464 4285557539
0.0042060576 0.0013505965 0.012009442 4285426724
0.0060415864 0.0021697581 0.010901831 4285949728
0.0085543878 0.00021362305 0.012652822 4285884193
0.011256658 -0.0024350211 0.01511462 4286015518
0.013628405 -0.0036953613 0.016145643 4286146333
0.015474807 -0.0028750449 0.015036166 4286212379
0.017497249 -0.0027481019 0.014640123 4286211868
0.019519702 -0.0026210397 0.014244165 4286146843
0.022475887 -0.0059577227 0.017404482 4285819168
0.02678485 -0.014140673 0.025534481 4285819679
0.032502938 -0.027166463 0.038623251 4285754144
0.015348397 -0.0045522675 0.013851136 4284903463
0.017370705 -0.004425332 0.013455115 4285884448
0.019393027 -0.0042982772 0.013059184 4286080798
0.022348236 -0.0076460913 0.016211659 4286081054
0.026655048 -0.015855752 0.024322838 4285949984
0.032753684 -0.030313127 0.038799025 4285753123
0.017063141 -0.0054047182 0.0115612 4284903464
0.019450106 -0.0066726357 0.012583062 4285753633
0.022407012 -0.010031357 0.01572714 4286080799
0.027092535 -0.019661635 0.025234118 4286015009
-0.028412517 -0.013905771 -0.016343243 4285163819
-0.026849274 -0.011583887 -0.018812841 4285361444
-0.025301974 -0.0092628598 -0.021279197 4285296164
-0.023371603 -0.0091437921 -0.02165873 4285296164
-0.021441128 -0.0090245977 -0.022038193 4285231139
-0.028406333 -0.016253784 -0.016788077 4285229098
-0.026712608 -0.014661342 -0.01855946 4285361189
-0.025159586 -0.012333401 -0.021022113 4285426979
-0.023224015 -0.012214027 -0.021402679 4285360933
-0.021423828 -0.011358783 -0.022475608 4285360933
-0.019628901 -0.010503717 -0.023547474 4285229864
-0.017839208 -0.0096488819 -0.024618166 4285098539
-0.028400447 -0.01860591 -0.017235812 4285294633
-0.026703846 -0.017008945 -0.019004542 4285360934
-0.025017831 -0.01541245 -0.020771129 4285426724
-0.023209717 -0.01455465 -0.021844123 4285360933
-0.021136142 -0.015172958 -0.02153426 4285360679
-0.01947118 -0.013577454 -0.023296405 4285361189
-0.017816823 -0.011982426 -0.025056422 4285361188
-0.016029686 -0.011125438 -0.026124937 4285427233
-0.014101762 -0.011005946 -0.026503569 4285492769
-0.012173738 -0.010886304 -0.026882123 4285361444
-0.010548461 -0.0092926547 -0.028636035 4285231394
-0.0087797418 -0.0084362701 -0.029700616 4284904483
-0.028643791 -0.019480526 -0.019069299 4285294634
-0.026949685 -0.017879277 -0.020834386 4285361189
-0.025266159 -0.016278572 -0.022597257 4285360934
-0.023195695 -0.016899407 -0.022288483 4285426469
-0.021119762 -0.017519787 -0.021980692 4285360678
-0.01931408 -0.016659707 -0.023051444 4285426468
-0.017654184 -0.015059985 -0.024809312 4285426978
-0.016148105 -0.012721069 -0.027252767 4285558304
-0.014074437 -0.013341114 -0.02694419 4285624094
-0.012292467 -0.01248201 -0.028009929 4285426978
-0.010515757 -0.011623099 -0.029074527 4285360934
-0.0090521909 -0.0092863441 -0.031509295 4285230374
-0.0072914138 -0.0084281713 -0.032570593 4285099558
-0.028389525 -0.02332256 -0.018140078 4285294888
-0.026687201 -0.021716446 -0.019903552 4285361444
-0.024995457 -0.020110853 -0.02166485 4285360933
-0.023049612 -0.019990891 -0.022047464 4285426469
-0.020968657 -0.020613164 -0.021742266 4285426468
-0.019157592 -0.019750543 -0.022812471 4285492259
-0.01749216 -0.018146031 -0.024568282 4285492514
-0.015980389 -0.01580023 -0.027008045 4285492513
-0.013901684 -0.01642216 -0.02670205 4285427234
-0.011965938 -0.016302079 -0.027082138 4285361188
-0.010181177 -0.015440464 -0.028146733 4285360934
-0.0088629946 -0.012355372 -0.031262405 4285360933
-0.0070968494 -0.011494614 -0.032323204 4285360933
-0.0042221844 -0.015820429 -0.02860174 4285229609
-0.00018278882 -0.025329173 -0.020109111 4284901933
0.0044196881 -0.03705512 -0.0095842015 4285228844
-0.024596218 -0.024700999 -0.020054447 4285163818
-0.023036342 -0.022346094 -0.022499222 4285294888
-0.021087866 -0.022225872 -0.022882279 4285360934
-0.019414332 -0.020616561 -0.024636574 4285426723
-0.017470982 -0.020496398 -0.025018435 4285427233
-0.015813302 -0.0188879 -0.026769411 4285558304
-0.013729557 -0.019511729 -0.026466016 4285361188
-0.011936847 -0.018647559 -0.027530674 4285361188
-0.01030032 -0.017039984 -0.029277209 4285360678
-0.0088280253 -0.014689483 -0.031704109 4285360934
-0.0069029145 -0.014569677 -0.032081839 4285360934
-0.0038651079 -0.019651517 -0.027689397 4285229609
1.8388033e-05 -0.028445646 -0.019899579 4285097773
0.004130505 -0.037978418 -0.011441903 4285097773
-0.022495296 -0.027693406 -0.020213364 4285229354
-0.02107235 -0.024585068 -0.023337474 4285229864
-0.019395959 -0.022971243 -0.025089102 4285230118
-0.017450083 -0.022850938 -0.025471473 4285492769
-0.015361395 -0.023476809 -0.025170742 4285493024
-0.013412658 -0.02335605 -0.025553485 4285361188
-0.011759978 -0.021743163 -0.027300147 4285426724
-0.010268673 -0.019385025 -0.029726028 4285361189
-0.0086399354 -0.017773367 -0.031467807 4285295399
-0.0067096241 -0.017653249 -0.031846561 4285360934
-0.00382654 -0.022005007 -0.028145934 4285360934
-0.0001039803 -0.030080356 -0.021054776 4285228844
-0.015195884 -0.026585989 -0.024947325 4285295399
-0.013241947 -0.026464932 -0.0253311 4285294889
-0.011731643 -0.024099141 -0.027756026 4285295399
-0.010086741 -0.022482201 -0.029497871 4285295399
-0.0086057298 -0.020117961 -0.031916849 4285361189
-0.0066728927 -0.019997701 -0.032296106 4285361953
-0.0037882924 -0.024362549 -0.028605415 4285426979
-0.00054891035 -0.030220032 -0.023565324 4285032493
-0.011260379 -0.028710447 -0.026178339 4285295399
-0.0094541758 -0.027838722 -0.027240766 4285164073
-0.0081125386 -0.024716899 -0.030335488 4285295398
-0.0061691515 -0.024595976 -0.03071682 4285360933
-0.0035918951 -0.027473986 -0.028391076 4285361189
-0.00067089498 -0.031849682 -0.024716957 4285032749
