# .PCD v0.7 - Point Cloud Data file format
VERSION 0.7
FIELDS x y z rgba
SIZE 4 4 4 4
TYPE F F F U
COUNT 1 1 1 1
WIDTH 971
HEIGHT 1
VIEWPOINT 0 0 0 1 0 0 0
POINTS 971
DATA ascii
0.0089281127 -0.030314825 -0.0044533527 4288819754
0.011231646 -0.03167402 -0.0034990339 4288689194
0.013894312 -0.034520857 -0.0012067668 4289932063
0.015340332 -0.032157756 -0.00360478 4289343779
0.0027579218 -0.031546034 -0.0051567433 4289474848
0.004715465 -0.031416982 -0.0055431044 4290259483
0.0063410923 -0.029793948 -0.0072692214 4290455069
0.0081247166 -0.028918274 -0.0083237616 4289408549
0.010245699 -0.029535949 -0.0080394251 4289212453
0.012720108 -0.031645976 -0.0064193341 4290586139
0.014680522 -0.031516142 -0.0068057994 4289343523
0.0024693757 -0.032384537 -0.0070171054 4288296493
0.0044240803 -0.032255679 -0.0074029113 4289277989
0.0062130466 -0.031377591 -0.0084569231 4288754218
0.008165177 -0.031248659 -0.0088420361 4288492588
0.0099461898 -0.030370854 -0.0098942965 4288754218
0.012069553 -0.030990422 -0.0096120052 4289735459
0.014198301 -0.031609513 -0.0093306787 4289867294
0.0021812059 -0.033218354 -0.0088739544 4287445049
0.004296042 -0.033841141 -0.0085920207 4288033843
0.0062506497 -0.033712186 -0.0089777261 4287903794
0.0080370046 -0.032831997 -0.010029476 4287641908
0.0096470602 -0.031201117 -0.01174569 4288100143
0.011593759 -0.031072311 -0.012129544 4287968819
0.014069499 -0.033195049 -0.010519657 4288099633
0.0023737177 -0.036308944 -0.0087290779 4287575864
0.0044935867 -0.036933608 -0.0084497556 4287838004
0.0064534098 -0.036804281 -0.008836478 4287903283
0.0082451254 -0.035921551 -0.009887673 4288099378
0.0098607354 -0.034285992 -0.01160166 4288099889
0.011639152 -0.03340394 -0.012650002 4288033843
0.013940727 -0.034780301 -0.011708423 4288033843
0.015895357 -0.034650706 -0.012093641 4287577138
0.018213047 -0.036025815 -0.011155009 4287644460
0.0025655739 -0.039407931 -0.0085904188 4287772468
0.0045278557 -0.039278589 -0.0089777373 4287642164
0.006490197 -0.039149128 -0.00936497 4287707189
0.0082846284 -0.038264103 -0.010415003 4287838004
0.010244377 -0.038134553 -0.010801531 4287838004
0.01203084 -0.037249744 -0.011849821 4287838004
0.01433995 -0.038629986 -0.010913022 4287838004
0.016302455 -0.038499869 -0.0112998 4287837494
0.018627662 -0.039878733 -0.010366008 4288033845
0.020595543 -0.039748035 -0.010753665 4288033845
0.022376727 -0.038863011 -0.011800408 4287902773
0.02434193 -0.038732216 -0.012187324 4287707190
0.026115067 -0.037847467 -0.013232287 4287577139
0.028467014 -0.039223947 -0.012303289 4287838768
0.030829661 -0.040599607 -0.011376243 4287774508
0.00094640628 -0.043403156 -0.0074062576 4287578668
0.0027567521 -0.042515256 -0.0084580965 4287576885
0.0047242381 -0.042385586 -0.0088464506 4287642164
0.0066917725 -0.042255767 -0.0092347004 4287576374
0.0086593591 -0.042125843 -0.0096228868 4287772468
0.010456525 -0.041238345 -0.01067169 4287641653
0.012248375 -0.04035107 -0.011719346 4287903284
0.014386512 -0.040978208 -0.011446539 4287837748
0.01635154 -0.04084792 -0.011833809 4287968563
0.018316582 -0.04071752 -0.012221001 4287968563
0.020465475 -0.041343547 -0.011950012 4288230449
0.022246681 -0.040456355 -0.01299509 4287837494
0.024590131 -0.041837998 -0.012067888 4287772215
0.026560519 -0.041706733 -0.012455739 4287707189
0.029309088 -0.044598669 -0.010219589 4287904048
0.032473527 -0.049000427 -0.0066765631 4287904304
0.036269773 -0.055666327 -0.0011749845 4287446323
0.00066084415 -0.044239871 -0.0092660561 4287971368
0.0027876981 -0.044870682 -0.0089932121 4287707699
0.0047577061 -0.044740833 -0.0093820617 4287838769
0.0068926886 -0.04537084 -0.0091106854 4287773233
0.0088654719 -0.045240559 -0.0094998814 4287577139
0.011008572 -0.04586976 -0.0092298947 4287445813
0.012811147 -0.044979639 -0.010278025 4287576628
0.014784031 -0.044848971 -0.010666952 4287838004
0.016400296 -0.043199994 -0.012370843 4287838004
0.018367857 -0.04306943 -0.012758531 4287837748
0.020151764 -0.042180039 -0.013802581 4287903284
0.022116657 -0.042049393 -0.014189541 4287772215
0.024459597 -0.043435358 -0.013265546 4287772215
0.026621524 -0.044062309 -0.012998503 4287903284
0.029566288 -0.047720782 -0.010114961 4287706679
0.033128954 -0.053650863 -0.0052750716 4287641143
0.0023401082 -0.044942647 -0.011510198 4287119923
0.0044666827 -0.045575462 -0.0112389 4287053878
0.00659867 -0.046207868 -0.010968556 4287446579
0.0087360442 -0.046839729 -0.010699199 4287577395
0.010708708 -0.046709329 -0.011088279 4287642418
0.012681402 -0.046578817 -0.011477281 4287641908
0.014654126 -0.046448179 -0.011866183 4287838004
0.016626872 -0.046317376 -0.012254973 4287772468
0.018418819 -0.045425422 -0.013299049 4287772469
0.020388909 -0.04529456 -0.013687135 4287706933
0.022358999 -0.045163564 -0.014075113 4287772215
0.02470677 -0.046553515 -0.013155443 4287575864
0.026873713 -0.047182247 -0.012891033 4287706679
0.029822785 -0.050851248 -0.010016658 4287772215
0.033389226 -0.056798317 -0.0051908027 4287575865
0.010409217 -0.047544278 -0.012943194 4287054134
0.012551684 -0.048177719 -0.012676318 4287969583
0.0150501 -0.050337799 -0.011100815 4288100144
0.01703071 -0.05020652 -0.01149118 4287641909
0.019011343 -0.050075091 -0.011881446 4287706933
0.02062536 -0.048417412 -0.013577999 4287903284
0.022600643 -0.048286088 -0.013967016 4287445049
0.024764588 -0.048917331 -0.013703779 4287706679
0.026933877 -0.049548075 -0.013441485 4287771959
0.02969056 -0.052465387 -0.011226811 4287641144
0.033255417 -0.05842983 -0.0064139422 4287444793
0.021593668 -0.054609559 -0.010868793 4286790973
0.023399044 -0.053712122 -0.011911979 4287052604
0.025387548 -0.053579777 -0.012303491 4287248698
0.027184878 -0.052682616 -0.013344892 4287183419
0.029946044 -0.055608273 -0.011137756 4287379513
0.033318143 -0.060825355 -0.0069878977 4287182908
0.030200828 -0.058759496 -0.011055013 4286725183
0.033380534 -0.063224912 -0.0075648748 4286855999
-0.028929643 0.021901201 0.0091332281 4281102943
-0.023789391 0.02506911 0.0051520066 4280517973
-0.021913305 0.025191892 0.0047810273 4280451164
-0.028565682 0.017557178 0.010842913 4281304649
-0.027041584 0.019787122 0.0083230594 4281370949
-0.025152497 0.019910548 0.0079493569 4281109064
-0.023522541 0.021437462 0.0061480748 4281108043
-0.021638513 0.021560743 0.0057755066 4281108554
-0.019889332 0.02238543 0.0046902457 4281043019
-0.01814539 0.023209855 0.0036060801 4280585804
-0.016406659 0.024034027 0.0025230134 4280320859
-0.028567322 0.015309066 0.010398516 4281173323
-0.027040124 0.017545704 0.0078829834 4281175873
-0.025148474 0.017669272 0.0075087445 4281175873
-0.02351559 0.019200653 0.0057102488 4281371204
-0.021364704 0.017916694 0.0067603746 4281306689
-0.01974225 0.019447561 0.0049640769 4281436738
-0.017992869 0.020274535 0.0038804496 4281174088
-0.016108543 0.020398043 0.0035079876 4281108299
-0.014224075 0.020521663 0.0031355722 4281041488
-0.012193941 0.019942529 0.0034722174 4280780113
-0.010306567 0.020066518 0.0030993642 4280713558
-0.0084191002 0.020190585 0.0027265521 4280450143
-0.0066851228 0.021017071 0.0016463706 4280845138
-0.0049564168 0.021843258 0.00056734309 4280714323
-0.0022792593 0.018457633 0.0037273997 4280584019
0.00074806437 0.013670336 0.008293842 4280649043
-0.028569259 0.013056882 0.0099509815 4280976973
-0.026915036 0.014593821 0.008151398 4281240133
-0.025018126 0.014717698 0.0077760974 4281240644
-0.023121074 0.014841668 0.007400834 4281371714
-0.021091871 0.014259841 0.0077356296 4281371204
-0.019326508 0.015089907 0.0066504134 4281371204
-0.017703667 0.016625203 0.0048574274 4281305414
-0.016091421 0.018159874 0.0030665928 4281174344
-0.014061701 0.017578483 0.0034015188 4280912203
-0.012171872 0.017702512 0.003028092 4281042763
-0.010281928 0.017826639 0.0026547117 4281107279
-0.0083918869 0.017950866 0.0022813836 4280911694
-0.0063483343 0.017370731 0.0026138453 4281042508
-0.0041432306 0.016086772 0.0036505209 4281172814
-0.00049830973 0.0084665865 0.01102743 4281303883
-0.028692558 0.011509325 0.008789883 4280976973
-0.026914321 0.012341987 0.0077035511 4281109318
-0.024888419 0.011757594 0.0080371173 4281240388
-0.023115225 0.012590103 0.0069519142 4281436738
-0.02108366 0.012006272 0.0072845081 4281305923
-0.019315526 0.012838624 0.0062004412 4281175109
-0.017689772 0.014378458 0.0044101542 4281174344
-0.016074616 0.015917636 0.002622067 4281043018
-0.014185015 0.01604154 0.0022485992 4280977738
-0.012150101 0.015458375 0.0025808727 4281043019
-0.010257594 0.015582658 0.0022069765 4280911948
-0.008214429 0.015000209 0.0025377544 4280911948
-0.006319046 0.015124865 0.0021634297 4281173324
-0.0039557964 0.013130207 0.0038999403 4281173323
0.00016823784 0.0033675246 0.013366961 4281173323
-0.028453059 0.0078292377 0.0097555155 4281499724
-0.026666738 0.0086646006 0.0086691817 4281305158
-0.024633065 0.0080784895 0.0089995721 4281240133
-0.022851795 0.0089136995 0.007914369 4281305158
-0.021075711 0.0097486153 0.0068303058 4281239879
-0.019304842 0.010583285 0.0057473509 4281174599
-0.017539185 0.011417694 0.0046654856 4281043528
-0.015918456 0.012961596 0.002879574 4281108809
-0.014165938 0.013795331 0.0018004542 4281108809
-0.01212864 0.01321014 0.0021305764 4281108299
-0.010381266 0.014043733 0.001052618 4280912203
-0.0081880167 0.012750097 0.0020847814 4281174089
-0.0064431205 0.01358372 0.001007461 4281239369
-0.0039247759 0.01087385 0.0034410143 4281434954
0.00019935891 0.0010807998 0.012884627 4281434954
-0.028093822 0.0034232847 0.011418677 4282608719
-0.02629672 0.0042614453 0.010331902 4281892423
-0.024504811 0.0050993524 0.0092462162 4281828674
-0.022846878 0.0066495761 0.0074560205 4281369928
-0.02119951 0.0081992634 0.0056679519 4281304903
-0.019428581 0.0090360641 0.0045866231 4281304649
-0.01752606 0.0091605857 0.0042104246 4281108809
-0.01562342 0.0092852041 0.0038342727 4281239879
-0.01386283 0.010121621 0.002755207 4281044039
-0.011817768 0.0095347427 0.0030821068 4281239368
-0.010062307 0.010371007 0.0020041997 4281174089
-0.0081618913 0.010495856 0.0016287761 4281109064
-0.0065671615 0.012042835 -0.00014831591 4281239368
-0.0042052008 0.010035049 0.0015784102 4281566024
-8.6326152e-05 0.00021129474 0.010999682 4281566023
0.0066825934 -0.020974949 0.031594351 4281566023
-0.019016445 0.0046314746 0.0062377835 4282872133
-0.017239958 0.0054708868 0.0051570917 4282741319
-0.015190091 0.0048819482 0.0054812031 4282024513
-0.013418712 0.0057212114 0.0044016587 4281828674
-0.011652589 0.0065602735 0.0033231834 4281631558
-0.010039061 0.0081125647 0.0015455978 4281696584
-0.0082861185 0.0089509115 0.00046992023 4281827909
-0.0063857175 0.0090758353 9.4557181e-05 4281697094
-0.0038636588 0.0063488409 0.0025140056 4281370439
0.00010260195 -0.0027920529 0.011212635 4281305669
0.0065499693 -0.02261804 0.030361995 4281305669
-0.014897261 0.001177799 0.0064149937 4283853374
-0.01311779 0.0020197444 0.0053355051 4283133253
-0.011199065 0.0021455623 0.0049562855 4282872133
-0.0095745847 0.0037028864 0.0031798566 4282349639
-0.0078108609 0.0045441017 0.0021037133 4282285888
-0.0058998689 0.0046696998 0.0017262446 4281958978
-0.0035231337 0.0026498884 0.0034399601 4281894209
0.00029087067 -0.0058038607 0.011419301 4281698113
0.0062568076 -0.02354604 0.028433859 4281698113
-0.027893193 -0.016370364 0.0089898175 4283134019
-0.025946878 -0.016243689 0.0086044138 4283265343
-0.028495461 -0.015021071 0.005033101 4282219078
-0.02668184 -0.014162622 0.0039578537 4282023749
-0.024499819 -0.015501432 0.0049580121 4282284869
-0.022561342 -0.0153751 0.0045742905 4282348873
-0.020492852 -0.015980639 0.0048810011 4283002184
-0.028620295 -0.016593635 0.003853132 4281566024
-0.026928291 -0.014998294 0.0020891512 4281696329
-0.024873786 -0.015607193 0.0023968136 4281565514
-0.022813767 -0.016215585 0.0027034367 4281434444
-0.021007672 -0.015355177 0.0016315645 4281761354
-0.01907441 -0.015228987 0.0012490135 4281956683
-0.017276078 -0.014368825 0.0001788009 4282218058
-0.015345231 -0.014242575 -0.00020309538 4282414663
-0.013273835 -0.01484973 0.00010172464 4282610504
-0.011196978 -0.015456378 0.00040550902 4282283338
-0.0094061978 -0.014596306 -0.000662826 4282936648
-0.0074722283 -0.014469437 -0.0010450203 4283002184
-0.0053870231 -0.015075199 -0.00074262731 4283590723
-0.028507397 -0.019639961 0.004051852 4281696838
-0.026931338 -0.017303146 0.0016014026 4281435463
-0.025122821 -0.0164406 0.00053050183 4281500234
-0.023065783 -0.017051414 0.00083606504 4281565003
-0.02113279 -0.016925372 0.00045348145 4281761354
-0.019199662 -0.016799219 7.0942566e-05 4281761098
-0.017401293 -0.015936911 -0.00099762902 4281761354
-0.015470579 -0.015810691 -0.0013795178 4281826634
-0.013539746 -0.015684366 -0.0017613526 4281892168
-0.011608802 -0.015557922 -0.0021431204 4282022474
-0.0098233484 -0.014696054 -0.0032087546 4282087244
-0.0080431551 -0.013834439 -0.0042732712 4282283083
-0.005966302 -0.014442921 -0.003970908 4282348363
-0.0034230761 -0.017255291 -0.0016224552 4282480198
-0.00023305416 -0.023004517 0.0034491559 4282742083
0.0033179 -0.030219637 0.009874952 4283198023
-0.028632447 -0.021216266 0.0028690482 4281566789
-0.026813336 -0.020351045 0.0017976472 4281304138
-0.02499944 -0.019486055 0.00072736107 4281434954
-0.022937343 -0.020098679 0.0010302067 4281565003
-0.021128505 -0.019233815 -3.891997e-05 4281630028
-0.019324869 -0.018369175 -0.0011069272 4281760844
-0.01725702 -0.018981084 -0.00080496259 4282021453
-0.015321083 -0.018854551 -0.0011879075 4282673744
-0.013385035 -0.018727899 -0.001570778 4282217294
-0.011591613 -0.017863475 -0.0026364196 4281825868
-0.009803459 -0.016999252 -0.0037009865 4281826634
-0.00802055 -0.016135305 -0.0047643874 4281826378
-0.00609212 -0.016008712 -0.0051454175 4281695819
-0.0035497323 -0.018829778 -0.0028034598 4281630539
-0.00020510703 -0.025333188 0.0029353062 4281696329
0.0033466294 -0.032569908 0.0093442732 4282152778
0.0056599937 -0.033911631 0.010309675 4284056098
-0.028520472 -0.024275117 0.0030584307 4281696838
-0.026695974 -0.023407348 0.0019875849 4281500488
-0.024876684 -0.022539876 0.00091786589 4281500999
-0.023062579 -0.021672629 -0.00015072897 4281500233
-0.021124512 -0.021546304 -0.00053436495 4281695563
-0.019186288 -0.02141986 -0.00091793388 4281891403
-0.017113395 -0.022033624 -0.00061865337 4282086989
-0.015309464 -0.0211666 -0.0016849022 4282673744
-0.013370875 -0.021039799 -0.0020682886 4282412624
-0.011717319 -0.019433238 -0.0038140211 4281825613
-0.0099291354 -0.018566869 -0.0048769433 4281760844
-0.0079982542 -0.018440232 -0.0052585471 4281695819
-0.0063685104 -0.016834892 -0.0069993082 4281761353
-0.0036763549 -0.020403989 -0.003984252 4281695818
-0.00017748028 -0.027665935 0.0024184035 4281630028
0.003216397 -0.034185447 0.0081325425 4282348364
0.0056905933 -0.036270134 0.0097722048 4284447013
-0.029897302 -0.030443974 0.006367485 4283131469
-0.028645761 -0.025855161 0.0018728068 4281892934
-0.026700236 -0.025728703 0.001487433 4281762119
-0.024878241 -0.024858855 0.00041879807 4281500743
-0.023061424 -0.023989297 -0.00064869132 4281435208
-0.021120809 -0.023862831 -0.0010328433 4281500489
-0.019311741 -0.022993542 -0.002098619 4281695818
-0.017373543 -0.022867024 -0.0024821302 4281826124
-0.015435208 -0.022740349 -0.0028655631 4282217804
-0.013636477 -0.02187141 -0.0039290413 4282021709
-0.011842988 -0.021002702 -0.0049913991 4281890893
-0.010054767 -0.020134173 -0.0060526673 4281695308
-0.00797626 -0.020749241 -0.005755702 4281630028
-0.006193202 -0.019880816 -0.0068157674 4281630283
-0.0036498159 -0.022719167 -0.004487359 4281630283
-0.00046174228 -0.028520457 0.00054463837 4281826888
0.0027692541 -0.034318812 0.0055682482 4282872898
-0.024880074 -0.027181953 -8.3289109e-05 4283464753
-0.022934385 -0.027055278 -0.00046854373 4283268659
-0.021117412 -0.026183419 -0.0015343716 4282220353
-0.019174121 -0.026056677 -0.0019189818 4282023493
-0.017364882 -0.025185123 -0.0029830551 4281893188
-0.015424013 -0.025058322 -0.0033670114 4281762884
-0.013622578 -0.024187066 -0.0044293767 4281631813
-0.011684153 -0.024060182 -0.0048126718 4281761609
-0.009890534 -0.023189195 -0.0058733029 4281761098
-0.0078070015 -0.023806065 -0.0055790534 4281760333
-0.0060185418 -0.022935197 -0.0066384939 4281761098
-0.0037765354 -0.024294943 -0.0056693396 4281696074
-0.00090125203 -0.028627031 -0.0020009903 4282088010
0.0020062551 -0.032956921 0.0016611228 4283394883
-0.017356534 -0.027507283 -0.0034870235 4283199554
-0.015276421 -0.028127067 -0.0031940928 4282808129
-0.013608985 -0.026506729 -0.0049327305 4282482494
-0.011668026 -0.026379719 -0.0053165508 4282024004
-0.0098716952 -0.025506414 -0.0063760681 4281892423
-0.007933218 -0.025379315 -0.0067592086 4281761354
-0.0061447248 -0.024506286 -0.007817002 4281695819
-0.0039032102 -0.025870383 -0.0068510743 4281696073
-0.0011845678 -0.029470079 -0.0038661519 4282218823
0.0014028065 -0.032322608 -0.0015595881 4284054059
-0.0079121552 -0.027700417 -0.0072655203 4284642343
-0.0059710555 -0.027573057 -0.0076491022 4284447268
-0.0037246644 -0.028941207 -0.0066874316 4283332664
-0.0014674924 -0.030308492 -0.005727849 4283658809
-0.015337013 -0.046101995 -0.0080166087 4282673489
-0.013925217 -0.042918131 -0.011060365 4282609994
-0.010162149 -0.041899018 -0.012495637 4283590979
-0.0080654547 -0.04253456 -0.012219027 4283722813
-0.0061120167 -0.04240647 -0.012605108 4284181303
-0.0041584969 -0.042278193 -0.012991074 4284311354
-0.015058585 -0.049992852 -0.0072229365 4282476884
-0.013913877 -0.045267664 -0.011586168 4282608209
-0.0060905814 -0.044755377 -0.013132923 4282740553
-0.0042857379 -0.043861799 -0.014178951 4282937413
-0.0021784157 -0.044498436 -0.01390582 4283133764
-0.015051108 -0.052359603 -0.0077610253 4282280788
-0.013902828 -0.047621273 -0.01211495 4281758293
-0.0062178001 -0.046340786 -0.014322204 4282738769
-0.0044129342 -0.045445062 -0.015366578 4282739023
-0.0024596378 -0.045316711 -0.015752424 4282217038
-0.00066265836 -0.044421263 -0.016795062 4282282063
0.0011290386 -0.043526031 -0.017836545 4282542929
0.0032388903 -0.044164285 -0.017565295 4282607953
0.0053541362 -0.044802062 -0.017295003 4283131469
0.009600848 -0.046076186 -0.016757276 4283131469
-0.015448328 -0.052418686 -0.010280509 4282085714
-0.014029577 -0.049208514 -0.013305739 4282216274
-0.0061968043 -0.048695646 -0.014854413 4282673744
-0.0043892562 -0.047797546 -0.015897702 4282673998
-0.0025869682 -0.046899699 -0.016939808 4282608463
-0.00078996271 -0.04600209 -0.01798078 4282412623
0.0011606179 -0.045873694 -0.01836592 4282216274
0.0031112656 -0.045745142 -0.018750954 4282346833
0.004897736 -0.044847846 -0.019789558 4282739279
0.0068458021 -0.044719212 -0.020173885 4282674254
0.0089634806 -0.045358732 -0.019905556 4282609483
0.012292337 -0.051374547 -0.015073673 4282611013
0.015664037 -0.057387374 -0.010250142 4282870859
-0.017280046 -0.055688508 -0.0097713564 4282477139
-0.015710209 -0.053241484 -0.012135478 4281498450
-0.014018979 -0.051567979 -0.013839 4281106768
-0.012198389 -0.050667442 -0.014883571 4281630028
-0.010097753 -0.0513115 -0.014614505 4281825359
-0.0082823113 -0.050411023 -0.015657844 4282283084
-0.0063241348 -0.050282635 -0.016044876 4282021454
-0.0045165718 -0.049382374 -0.01708651 4281956174
-0.0027142689 -0.048482403 -0.018126976 4282086733
-0.00076122582 -0.04835397 -0.018512692 4282217294
0.0011918843 -0.04822538 -0.018898316 4282347343
0.0031450465 -0.048096672 -0.019283853 4282412368
0.0049342066 -0.047197059 -0.020321343 4282217293
0.0067180656 -0.046297632 -0.021357652 4282217293
0.009004809 -0.047709778 -0.020439949 4282413388
0.0121627 -0.052972496 -0.01627201 4282152268
0.015358064 -0.058232568 -0.012111405 4282412623
-0.01597169 -0.054059692 -0.013986924 4281431893
-0.014282964 -0.052382059 -0.015686655 4281236818
-0.01246503 -0.051479489 -0.016729085 4281302608
-0.010224905 -0.052900337 -0.015806431 4281565004
-0.0084094554 -0.051997714 -0.016848115 4281303884
-0.0063036121 -0.052643351 -0.01658156 4281434444
-0.00464385 -0.050966926 -0.018275104 4281369164
-0.0026883557 -0.05083847 -0.01866141 4281630284
-0.0007327944 -0.050709859 -0.019047629 4281629773
0.00138136 -0.051354505 -0.018782273 4281825613
0.0031785071 -0.050452262 -0.019819796 4281890893
0.0049703568 -0.049550302 -0.020856149 4282021964
0.0065903589 -0.047875777 -0.022541206 4282087244
0.009045817 -0.050064862 -0.020977378 4282151758
0.01203309 -0.054570161 -0.017470123 4282152524
0.015052486 -0.059073158 -0.013969148 4282477138
-0.012731269 -0.052286953 -0.018571077 4281495643
-0.01063665 -0.052935734 -0.018304149 4281368400
-0.0086815506 -0.052807681 -0.01869067 4281041999
-0.0067263618 -0.052679501 -0.01907712 4281172304
-0.0049214289 -0.051775165 -0.020114882 4280844884
-0.0029687658 -0.051646896 -0.020500632 4281302863
-0.0010160431 -0.051518477 -0.020886287 4281369164
0.0010950938 -0.052165404 -0.020622032 4281499469
0.0030506179 -0.052036561 -0.021008054 4281695819
0.0048424825 -0.051132441 -0.022042736 4281303883
0.0067954287 -0.051003508 -0.022428043 4281564748
0.0092555583 -0.053198807 -0.02087008 4281629774
0.012075238 -0.056942113 -0.018020822 4281695053
0.014747284 -0.059909098 -0.0158234 4282738514
-0.0032487959 -0.052450679 -0.022336375 4281952093
-0.0012989119 -0.05232247 -0.022721488 4281168478
0.00080922246 -0.05297175 -0.0224583 4281432403
0.0027619079 -0.052843079 -0.022843745 4281302099
0.0048781633 -0.053491592 -0.022581976 4280845648
0.0066674203 -0.052585378 -0.023614399 4281302608
0.008957997 -0.054010235 -0.022707358 4281367888
0.011602398 -0.056987815 -0.020511238 4281824593
0.004423473 -0.053516388 -0.025060799 4282345303
0.0065394416 -0.05416695 -0.024800524 4281888853
0.0088294968 -0.05559618 -0.023896726 4281432404
0.011301659 -0.05780343 -0.022351028 4281692249
-0.035245635 0.045876838 0.038166836 4278865574
-0.037928745 0.048168428 0.032879528 4280242318
-0.036596946 0.051600263 0.028760284 4278341038
-0.035291739 0.055030402 0.024646338 4278930344
-0.033545636 0.055813875 0.023530025 4279455644
-0.031685114 0.05593596 0.023162372 4279193249
-0.029090956 0.052092694 0.02727697 4278930088
-0.026589379 0.04891235 0.030638669 4278274484
-0.024188384 0.046394378 0.03324911 4278603434
-0.021896072 0.044538271 0.03510984 4278669479
-0.019853413 0.044003621 0.035477627 4278669478
-0.018619157 0.047429547 0.03137796 4278931618
-0.017273225 0.050193857 0.028027538 4278534839
-0.015102513 0.0489989 0.029141285 4278336448
-0.038921468 0.051939297 0.02573926 4278735524
-0.027461685 0.051348619 0.025013436 4278471853
-0.025459848 0.050809 0.025387451 4278734248
-0.023452483 0.05026979 0.025760412 4278668713
-0.021705151 0.051055752 0.024645783 4278602923
-0.020369485 0.053828038 0.021303974 4278929833
-0.018778801 0.055274941 0.019450825 4278930599
-0.016776167 0.054735608 0.019824937 4278602668
-0.011438571 0.047704794 0.027235597 4278864553
-0.0086508803 0.043861739 0.031302258 4278668713
-0.0059824362 0.04068201 0.034623027 4278800293
-0.0021341071 0.040935934 0.033863649 4278800803
-0.0011675432 0.045026645 0.029056124 4278996133
0.0005784519 0.045813128 0.027942237 4278535859
0.0041340515 0.039336517 0.03493556 4278272443
-0.040805206 0.049627557 0.025712803 4279718804
-0.039585859 0.053746849 0.020864565 4278735779
-0.037953787 0.055200201 0.019006189 4278669478
-0.036218368 0.055987176 0.017895225 4278472109
-0.034255058 0.055442557 0.018275026 4278602414
-0.032286189 0.054898396 0.018653721 4278340274
-0.030067995 0.053024124 0.020518854 4278602668
-0.027958103 0.051816031 0.021637648 4278865318
-0.026091814 0.051938552 0.0212689 4278537898
-0.024355277 0.052725881 0.020158008 4278537898
-0.022623956 0.053512961 0.019048139 4278406319
-0.0194529 0.056414586 0.015350574 4278404533
-0.017461244 0.055872358 0.015725106 4278471344
-0.01056106 0.050267112 0.021273237 4278603433
-0.0085313544 0.049727615 0.021640427 4278472873
-0.0064961798 0.049188539 0.022006586 4278276014
-0.00508257 0.051301748 0.019424267 4278341039
-0.003525544 0.052751202 0.017581433 4278273463
-0.0016548932 0.052874755 0.017212398 4278862768
-0.041560978 0.052113447 0.020096868 4278997408
-0.040140107 0.054908089 0.016751133 4278799783
-0.038407467 0.055696908 0.015642356 4278536879
-0.036338978 0.054481525 0.016765732 4278536624
-0.034375899 0.053934671 0.017143864 4278668969
-0.032288261 0.052720644 0.018263537 4278538409
-0.030189686 0.051507395 0.019381095 4278538409
-0.028329 0.051629458 0.019013382 4278538409
-0.026722305 0.05308577 0.017163586 4278538409
-0.024996385 0.053874537 0.016056437 4278341548
-0.023275688 0.054663014 0.014950355 4278472618
-0.013291918 0.05194246 0.016809512 4278471853
-0.011278674 0.051399626 0.017178215 4278603434
-0.0092599578 0.050857205 0.017545883 4278865574
-0.007697463 0.052311193 0.015705261 4278602669
-0.0046043992 0.055217277 0.012030409 4279322788
-0.0025879741 0.054674946 0.012398713 4279586458
-0.00040147826 0.053468402 0.013499619 4279126948
0.0024651252 0.049604796 0.017530944 4278733483
0.0053639933 0.04574341 0.021555908 4278340529
0.0081224293 0.042548317 0.024842516 4278800294
0.010381646 0.041346788 0.025929313 4278473129
0.011761338 0.043464784 0.023359016 4278407850
0.012221251 0.048899591 0.017139602 4278865319
0.016548408 0.047159873 0.018585108 4278599609
-0.0419982 0.052613687 0.016731668 4278800548
-0.032290593 0.0505387 0.017870191 4278472363
-0.030432843 0.050660469 0.017502982 4278538154
-0.028574921 0.050782304 0.017135784 4278472874
-0.027097531 0.052912049 0.01455037 4278538409
-0.025506459 0.054371744 0.012706975 4278472874
-0.023793697 0.05516183 0.011604107 4278668968
-0.022086143 0.055951636 0.010502313 4278799783
-0.019970924 0.054735437 0.011613467 4278734503
-0.017844833 0.053519968 0.01272256 4278734759
-0.015850876 0.052973535 0.013093284 4278472874
-0.013851415 0.052427523 0.013462962 4278800038
-0.011846479 0.051881932 0.013831609 4278734503
-0.009987101 0.052004453 0.013464578 4278668968
-0.008281339 0.052794561 0.012363457 4278603178
0.0040500909 0.048865214 0.015281872 4278930343
0.0064437501 0.046990514 0.017103132 4278669224
0.0081527829 0.047781333 0.016001754 4278734758
0.0093228482 0.050569657 0.012713385 4278275249
0.010471467 0.053356633 0.0094292974 4278733739
0.012331635 0.053479943 0.0090626767 4278996644
0.014563695 0.052272517 0.01015167 4279192994
0.018126816 0.046409376 0.016329259 4278734504
-0.043964162 0.050987966 0.015967611 4278997154
-0.042434283 0.053127158 0.013376449 4278472108
-0.040704332 0.053919993 0.012271431 4278472109
-0.039090186 0.055385102 0.010426478 4279455643
-0.034965388 0.052935965 0.01266219 4278930089
-0.032649249 0.050368544 0.01525561 4278602669
-0.03055422 0.049146276 0.0163671 4278668969
-0.028696358 0.049268071 0.015999883 4278800038
-0.027345248 0.052075822 0.01268155 4278603434
-0.017966211 0.052012034 0.011591499 4278472363
-0.01611533 0.05213378 0.011225977 4278734759
-0.014118809 0.051585369 0.011594542 4278669479
-0.012264982 0.051707443 0.011228542 4278735014
-0.010260183 0.051159706 0.011595567 4278538409
-0.00748403 0.055421732 0.0064709401 4278734504
-0.0058021359 0.056212533 0.0053762803 4278667949
-0.0036407262 0.054995548 0.0064753676 4278406574
0.00088149309 0.051895052 0.0093971612 4278472363
0.0032476597 0.050011892 0.011218806 4278800039
0.005285304 0.04946683 0.011579742 4278800038
0.006803304 0.050927076 0.0097549045 4278603944
0.009446457 0.055181447 0.0046573849 4278337979
0.013325557 0.054758783 0.0046556378 4278406319
-0.044493966 0.052183986 0.011874971 4278996389
-0.03943038 0.055242553 0.0078285737 4278995880
-0.03300716 0.050207354 0.012647671 4278471599
-0.031039096 0.049654275 0.013019775 4278668713
-0.029189363 0.049775485 0.012654127 4278668713
-0.027592562 0.051244114 0.010816186 4278537389
-0.024826363 0.05619932 0.0049415389 4278601393
-0.018367469 0.051849853 0.0089935521 4278667948
-0.01623673 0.050625995 0.010095035 4278472363
-0.01438579 0.050747782 0.0097295316 4278734503
-0.01253473 0.050869647 0.0093640583 4278472874
-0.010984939 0.052335743 0.0075358348 4278538409
-0.0060818829 0.055387069 0.0035236971 4278274229
-0.0039235801 0.054165475 0.0046200817 4278734503
-0.0017544776 0.052944686 0.0057143355 4278472874
0.0005922243 0.051053647 0.0075347414 4278538409
0.0026161373 0.050505426 0.0078966515 4278603944
0.0043011643 0.051298916 0.0068032881 4278538409
0.0058060214 0.052762631 0.0049843816 4278735014
0.0073001906 0.054225665 0.0031676767 4278669224
0.0087836534 0.055688053 0.0013531372 4278273209
0.010622192 0.055809923 0.00099077262 4278600374
-0.046547495 0.051245954 0.010375845 4281225853
-0.045022301 0.053397711 0.0077955192 4278538153
-0.043408021 0.054871302 0.0059570661 4278404789
-0.035668142 0.052640751 0.0074640634 4278275504
-0.033482611 0.050731409 0.0093103712 4278668969
-0.03164386 0.050851796 0.0089468127 4278668969
-0.029928617 0.051648274 0.0078482488 4278799783
-0.02690091 0.055267435 0.0034523616 4278930344
-0.025341041 0.05673803 0.0016251812 4279193249
-0.02338849 0.056182072 0.0019988408 4279061414
-0.021293327 0.05495137 0.0031038793 4278471088
-0.016785476 0.051142775 0.0067702467 4278537643
-0.014797524 0.050589394 0.0071371039 4278865318
-0.012951914 0.050710868 0.006772683 4278406574
-0.011407211 0.052180916 0.0049488423 4278799528
-0.0083497167 0.055119134 0.0013075583 4278337468
-0.0018761382 0.051441237 0.0045867944 4278603688
0.00030333921 0.050216809 0.0056757452 4278472874
0.002493605 0.048993196 0.0067625688 4278735014
0.0040067472 0.050461687 0.0049453611 4278472874
0.00533453 0.052602235 0.002405311 4278538409
0.0068236031 0.054069273 0.00059296004 4278472873
0.0084819943 0.054863404 -0.0004933821 4278669224
0.010683205 0.053640816 0.00059159193 4278865828
0.01326596 0.051075116 0.0031201812 4278800548
0.01643444 0.04649562 0.0078115305 4278472874
0.021738946 0.034531128 0.020435311 4278472874
-0.046467662 0.048392836 0.010731625 4280112013
-0.044936657 0.050551478 0.0081550824 4278801059
-0.043316752 0.052029688 0.0063188644 4278736289
-0.0415999 0.052828066 0.0052212933 4278473893
-0.039888211 0.053626124 0.0041248249 4278538918
-0.037956066 0.053066123 0.0045004366 4278865829
-0.035902888 0.051827781 0.0056100143 4278800039
-0.034075104 0.051947348 0.0052485438 4278668968
-0.032368012 0.052745353 0.0041531781 4278668968
-0.030666083 0.053543128 0.0030588424 4278800039
-0.019586511 0.053583682 0.0016271723 4278471854
-0.017333139 0.051672846 0.0034554182 4278799783
-0.015643425 0.052470297 0.002363936 4278734248
-0.013368338 0.050560988 0.0041880505 4278406319
-0.011979081 0.052711498 0.0016404176 4278340529
-0.010299776 0.053508453 0.00055113714 4279126438
-0.0087814331 0.054981258 -0.0012641139 4279521179
-0.0066401884 0.05374974 -0.00017113704 4278602669
-0.0044881366 0.052519038 0.00091971178 4278733994
-0.0019977577 0.049937986 0.0034593968 4278406574
1.4834106e-05 0.049384572 0.0038201185 4278538408
0.0022019893 0.048156351 0.004904245 4278603943
0.0037127063 0.049629062 0.003090811 4278407083
0.0050382614 0.051775932 0.00055625848 4278734248
0.013884183 0.046870876 0.004874411 4278602924
0.017437886 0.040928848 0.010993588 4278669734
-0.046289198 0.044849273 0.011817452 4279587479
-0.043121509 0.048497975 0.0074096574 4278407849
-0.041396528 0.049298964 0.0063121514 4278538409
-0.039786637 0.050780933 0.0044813165 4278931618
-0.037849382 0.050219044 0.0048542088 4279128224
-0.036021896 0.050338484 0.0044927122 4278931619
-0.034076221 0.049777269 0.0048640305 4278866083
-0.032487005 0.051258136 0.0030374778 4278866083
-0.030784987 0.052058056 0.0019447701 4278800549
-0.029340208 0.05421805 -0.00060926005 4278865829
-0.027525224 0.054336995 -0.00096802972 4278275249
-0.024297029 0.056614161 -0.0038744388 4278734248
-0.022216134 0.055373766 -0.0027733194 4278734504
-0.019984953 0.053454868 -0.0009457767 4278669224
-0.017879665 0.052216198 0.00015061162 4278734503
-0.016197924 0.053015307 -0.0009376863 4278668968
-0.014373939 0.053135306 -0.00129788 4278668713
-0.0093679279 0.055530544 -0.00455443 4278733994
-0.0022829212 0.049112663 0.0016083447 4278537898
-0.0004395321 0.049234428 0.0012446959 4278931109
0.0012349859 0.050033644 0.00015834719 4278800039
0.0027325489 0.051509816 -0.0016491571 4278406319
0.0042194389 0.052985314 -0.0034544542 4278274994
0.0055186339 0.055137061 -0.0059787836 4278340019
0.018439222 0.035336029 0.01415618 4278341039
-0.045715474 0.038556181 0.015833184 4279652504
-0.044156805 0.040729556 0.013261124 4278932128
-0.042613976 0.042901918 0.01069229 4278473384
-0.039136842 0.044510018 0.0084951734 4278276269
-0.032003492 0.046357408 0.0055751549 4278669479
-0.030411139 0.04784289 0.0037513049 4278735014
-0.028829344 0.049327716 0.0019296398 4279062688
-0.027129591 0.050129697 0.00083915517 4279193759
-0.025697462 0.052295521 -0.0017073229 4279259038
-0.024013475 0.053096607 -0.0027945805 4279062433
-0.022061564 0.052534055 -0.002425842 4278997154
-0.019825622 0.050608873 -0.00060424022 4278931618
-0.017999284 0.050728865 -0.00096502341 4278604199
-0.016606692 0.052892432 -0.0035034288 4278800548
-0.014788155 0.053012043 -0.0038625654 4278865829
-0.0028945021 0.049651798 -0.0016836431 4278734759
-0.0012253299 0.050452739 -0.0027673356 4278668969
0.00026977807 0.051932979 -0.0045710225 4278603434
0.0050446056 0.055011854 -0.008530126 4278800549
0.0070408061 0.054453339 -0.0081692655 4278800804
0.0095889457 0.051859193 -0.0056539951 4278931108
0.013267774 0.045195527 0.0011647148 4278734503
0.018875778 0.031752229 0.015146983 4278603689
-0.045539625 0.034978062 0.01689313 4279848853
-0.04376936 0.035786152 0.015789781 4278801058
-0.042108476 0.037279915 0.013955369 4278473128
-0.040351167 0.038087249 0.012854732 4278407594
-0.038708597 0.039579995 0.011024007 4278407338
-0.036852002 0.039701171 0.010656632 4278735014
-0.035225108 0.041192971 0.0088291457 4278342059
-0.033255838 0.040628865 0.0091923838 4278342058
-0.023062311 0.046145901 0.0019073738 4278407339
-0.021362014 0.04695031 0.00081855338 4278604199
-0.019388758 0.04638698 0.0011814749 4278801058
-0.017977089 0.04855822 -0.0013557561 4278932128
-0.016292479 0.049361773 -0.0024412703 4278931873
-0.014907368 0.051531404 -0.004973148 4278931874
-0.013088819 0.051651068 -0.0053322474 4278997154
-0.011727639 0.053819273 -0.0078592878 4279062433
-0.0099169388 0.05393856 -0.0082167313 4279062178
-0.0077904239 0.05269298 -0.0071309288 4278800804
-0.0054925643 0.050765932 -0.0053262031 4278866083
-0.0036682039 0.05088634 -0.0056861751 4278735013
-0.0021755844 0.052370667 -0.0074860961 4278669478
-0.0006936267 0.053854365 -0.0092838556 4278604198
0.0043946616 0.055576846 -0.011792682 4278405299
0.006203223 0.055696636 -0.012149207 4278470834
-0.04536473 0.031387091 0.017943334 4281684343
-0.043890521 0.034262821 0.014646803 4278865828
-0.04191716 0.033696391 0.015007314 4278538408
-0.04015173 0.034506418 0.013906655 4278669734
-0.038391456 0.035316139 0.012807115 4278669989
-0.036524229 0.035437964 0.0124376 4278538918
-0.034886345 0.036934793 0.010611261 4278538918
-0.033141546 0.037743755 0.0095148971 4278669734
-0.03140191 0.038552403 0.0084196562 4278735269
-0.029544637 0.03867387 0.0080523333 4278669734
-0.027812704 0.039482161 0.006958724 4278473128
-0.025957786 0.039603606 0.0065919673 4278538663
-0.024233557 0.040411532 0.0054999916 4278473128
-0.022514552 0.04121919 0.0044091037 4278407849
-0.020800754 0.04202662 0.0033192551 4278473384
-0.01909218 0.042833745 0.0022305464 4278342314
-0.012310274 0.046059556 -0.002113441 4278473384
-0.010780253 0.047550309 -0.0039176932 4278735268
-0.0092608556 0.049040478 -0.005719834 4279062688
-0.0072790496 0.048476025 -0.0053598974 4279128478
-0.0054521747 0.048596509 -0.0057204366 4279062943
-0.0039513186 0.050085679 -0.0075187478 4279063198
-0.0026268438 0.05225829 -0.010033211 4278931874
-0.00098159537 0.053062089 -0.011108844 4278669988
0.00082944334 0.05318182 -0.01146603 4278669988
0.0028143153 0.052618008 -0.011106359 4278669733
0.0042751916 0.054104917 -0.012896494 4278603689
0.0060836673 0.0542247 -0.013253002 4278537899
0.0084376484 0.052295398 -0.011463866 4278668969
0.013021875 0.042172782 -0.0011019278 4278734504
-0.045387879 0.02916462 0.017523944 4281422203
-0.043809146 0.031358629 0.014962873 4278472873
-0.041934609 0.031480681 0.014591719 4278735014
-0.040272988 0.032983176 0.012763775 4278735269
-0.03851261 0.033795036 0.011665857 4278473128
-0.036421612 0.032537147 0.012750995 4278669989
-0.034548908 0.032659367 0.012380422 4278538663
-0.032910593 0.034160621 0.010557308 4278538663
-0.031402774 0.036350545 0.00801061 4278669734
-0.029297628 0.035093874 0.0090931719 4278669989
-0.027557559 0.035904825 0.0079995943 4278538918
-0.025694683 0.03602675 0.0076312376 4278669734
-0.023962334 0.036837392 0.0065392619 4278407849
-0.022235192 0.037647732 0.0054484149 4278866594
-0.020513274 0.038457796 0.0043586576 4278800804
-0.018796571 0.039267581 0.0032699825 4278866594
-0.016943704 0.039389223 0.0029038852 4278407849
-0.015234787 0.040198654 0.0018168679 4278407849
-0.013384342 0.0403203 0.001451375 4278407849
-0.011533793 0.04044202 0.0010859156 4278277034
-0.0022496134 0.048723388 -0.0089900307 4278276779
-0.00059622154 0.049529858 -0.010065554 4278735523
0.001393687 0.048964158 -0.0097086634 4278605219
0.0028682128 0.050456181 -0.011498167 4279129499
0.0043320321 0.051947623 -0.013285542 4278736289
0.0061430968 0.052067574 -0.013642565 4279325594
0.0088624321 0.048761431 -0.010431769 4278735778
0.013820624 0.037236445 0.0013301112 4278735779
-0.045116201 0.024859346 0.019286443 4281094529
-0.043728419 0.028445972 0.015272508 4278800804
-0.041952319 0.02926084 0.014173004 4278604198
-0.040394157 0.031460159 0.011621046 4278932129
-0.038415544 0.03088977 0.011977202 4278604709
-0.036431387 0.030319849 0.012332269 4278538918
-0.034441665 0.029750373 0.0126863 4278538918
-0.032797724 0.031256251 0.010865425 4278669989
-0.031164333 0.032761555 0.0090466505 4278342059
-0.029296525 0.032883629 0.0086771799 4278538663
-0.027678847 0.034388013 0.0068616783 4278735269
-0.025816068 0.034509897 0.0064933067 4278800804
-0.024083652 0.035322681 0.0054029627 4278800804
-0.022223234 0.035444558 0.0050351759 4278735269
-0.020498551 0.036256947 0.0039465232 4278473128
-0.018640533 0.036378823 0.0035793325 4278735269
-0.016641155 0.035810724 0.0039320225 4278538918
-0.01492412 0.036622837 0.0028450554 4278801059
-0.013065726 0.036744975 0.002477969 4278473128
-0.011356506 0.037556723 0.0013926616 4278669734
-0.0095005818 0.037678853 0.0010261834 4278735014
-0.0077992044 0.038490243 -5.7457946e-05 4278669479
-0.0062604398 0.039990418 -0.0018567033 4278342059
-0.0045723021 0.040801093 -0.0029376084 4278538663
-0.0030521415 0.04230015 -0.0047330186 4278407849
-0.0015426539 0.043798625 -0.0065263072 4278407848
0.0037888996 0.044850461 -0.0083255731 4278277034
0.0050929748 0.047035076 -0.010825803 4278277034
0.0067385659 0.04784349 -0.011897894 4278473894
0.0092861801 0.045214549 -0.0094092842 4278932383
0.014801767 0.031591274 0.0044573275 4278931873
-0.042942211 0.020660635 0.020658962 4278866338
-0.039984129 0.02646471 0.014104019 4278932384
-0.038210206 0.027281689 0.013006686 4278998429
-0.036329858 0.027404247 0.012634472 4278801314
-0.034449302 0.02752688 0.012262273 4278538918
-0.032802433 0.029037248 0.010444128 4278932129
-0.031166099 0.030547056 0.0086280918 4278735524
-0.02929572 0.030669246 0.0082580755 4278538663
-0.027675115 0.032178134 0.0064453101 4278407594
-0.025809743 0.032300159 0.0060764058 4278735269
-0.024335228 0.034501158 0.0035464996 4278669734
-0.022477597 0.034622818 0.00317924 4278342059
-0.020484135 0.03405197 0.0035312818 4278473128
-0.018623531 0.034173988 0.0031635603 4278669734
-0.016621724 0.03360381 0.0035141213 4278538918
-0.014901951 0.034418285 0.0024282178 4278538663
-0.013040967 0.034540564 0.0020605987 4278735524
-0.011328988 0.035354644 0.00097640324 4278735269
-0.0094704777 0.03547693 0.00060940254 4278866339
-0.0077663437 0.036290653 -0.00047312584 4278669734
-0.0060674846 0.037104115 -0.0015545459 4278866594
-0.0043739006 0.037917297 -0.0026348708 4278866339
-0.0025230944 0.03803939 -0.0030001076 4278866339
-0.00083742291 0.03885226 -0.0040787887 4278538663
0.0010108277 0.038974352 -0.0044433903 4278669734
0.0026885793 0.039786816 -0.005520341 4278342314
0.004534252 0.039908886 -0.0058843195 4278538918
0.0060281046 0.041410938 -0.0076708985 4278473383
0.010071475 0.040275607 -0.0069759148 4278538918
0.01578081 0.025920104 0.0075651212 4278538918
-0.035783313 0.021694675 0.015819941 4282077043
-0.034229048 0.023906853 0.013278929 4279849618
-0.032573894 0.0254221 0.011462406 4278866083
-0.030929267 0.026936714 0.0096480912 4278931874
-0.029417321 0.029146396 0.0071155811 4278800803
-0.027796447 0.030659597 0.0053060716 4278997408
-0.026058659 0.031476885 0.0042179404 4278800803
-0.024326093 0.032293953 0.003130856 4278407338
-0.022333018 0.031720757 0.0034812661 4278800549
-0.02033446 0.031148048 0.0038306108 4278866594
-0.018606804 0.03196498 0.0027447185 4278538918
-0.016602609 0.031392798 0.0030930704 4278735524
-0.014880054 0.03220956 0.0020083142 4278735524
-0.012870252 0.031637911 0.0023556845 4278669989
-0.011152837 0.032454498 0.0012720674 4278669989
-0.0092890635 0.032577097 0.00090400223 4278604708
-0.0078880824 0.034780473 -0.0016058283 4278539173
-0.0060321726 0.034902714 -0.0019722171 4278866594
-0.0043358319 0.035718247 -0.0030514179 4278866594
-0.0024824515 0.035840489 -0.0034171753 4278866594
-0.00062899292 0.03596282 -0.0037828889 4278669989
0.0010568239 0.036777906 -0.0048598209 4278670244
0.002907712 0.036900222 -0.005224905 4278735524
0.0047586486 0.037022643 -0.005589921 4278669989
0.0062581189 0.038529444 -0.0073743104 4278473383
0.0079253279 0.039343622 -0.0084473249 4278735779
0.010492783 0.036698617 -0.0059760092 4278604453
0.016573938 0.02091461 0.0099452985 4278538918
-0.030812673 0.024011571 0.0099392096 4281751408
-0.029294938 0.026228059 0.0074105831 4279720078
-0.027543843 0.027048273 0.0063213995 4279327124
-0.025797941 0.027868265 0.0052332608 4279523473
-0.024057239 0.02868796 0.0041462583 4279260313
-0.022189088 0.02881025 0.0037768697 4278932638
-0.020185441 0.02823567 0.0041235117 4278801059
-0.018314324 0.028358316 0.0037536649 4278735524
-0.016583778 0.029177675 0.00266892 4278867359
-0.014715083 0.029300319 0.0022996729 4278801824
-0.0127002 0.028726812 0.0026443517 4278670754
-0.010828596 0.028849823 0.0022746613 4278932384
-0.0091083162 0.029668828 0.0011921963 4278735524
-0.0073933043 0.030487569 0.00011083391 4278669989
-0.005840376 0.032001644 -0.0016812189 4278932384
-0.0041386001 0.032819692 -0.002759832 4278604709
-0.0022799596 0.032942262 -0.0031266436 4278932384
-0.0004212372 0.033064932 -0.0034934031 4278735779
0.0012700148 0.033882529 -0.0045697484 4278604709
0.003126163 0.034005195 -0.0049358699 4278670244
0.0048094727 0.034822442 -0.0060105165 4278735524
0.0066630244 0.034945093 -0.0063760029 4278801059
0.0083383545 0.035761982 -0.0074489457 4278669989
0.011455871 0.031026894 -0.0028647566 4278538918
0.017181687 0.016581319 0.011602829 4278538918
-0.016565256 0.026958415 0.0022416646 4279458449
-0.01455076 0.026382556 0.0025847061 4279065239
-0.012384892 0.025108747 0.0036389278 4278868123
-0.010653928 0.025930524 0.0025559431 4278932893
-0.0087769628 0.026053946 0.0021852432 4278801314
-0.007361725 0.02827123 -0.00031741522 4278605219
-0.0058058538 0.029789785 -0.0021066712 4278801314
-0.0041013397 0.030610196 -0.0031842208 4278932638
-0.0022401176 0.030732939 -0.0035515418 4278932638
-0.00054349005 0.031552963 -0.0046273544 4279063453
0.0011478327 0.032372728 -0.0057020513 4278735779
0.0030038767 0.032495376 -0.0060681598 4278735779
0.0046872534 0.033314779 -0.0071411622 4278538918
0.0067160986 0.032740932 -0.0068002092 4278801059
0.0083941855 0.033560164 -0.0078720264 4278932129
0.011513025 0.028809976 -0.0032997997 4278670244
-0.010479927 0.023002774 0.0028308118 4279787143
-0.0087487847 0.023826793 0.001749509 4279392914
-0.0070229135 0.024650555 0.00066931918 4279326868
-0.0054587685 0.026174009 -0.0011182968 4279195288
-0.0034278631 0.025597557 -0.00077978149 4279130263
-0.00139153 0.025021598 -0.00044231303 4278998938
0.00065024197 0.024446074 -0.00010585599 4279128988
0.0020287298 0.026667869 -0.0025959201 4278932128
0.0037309043 0.027490593 -0.0036710314 4278538918
0.0054277629 0.028313057 -0.0047450215 4278669989
0.0074697323 0.027737904 -0.0044083307 4278670244
0.008983396 0.029258691 -0.0061853966 4278735524
0.011931039 0.025192253 -0.002330441 4278801058
0.0064923726 0.01404959 0.0071605081 4282339693
0.0082348846 0.014877222 0.0060791718 4280243083
0.0097970255 0.016405523 0.0042957822 4279062688
0.010993019 0.019334536 0.001109316 4279652759
0.013610862 0.016658142 0.003543959 4278997408
0.031719044 -0.01895719 0.020504199 4284901423
0.033529013 -0.018111072 0.019420359 4285491494
0.037140742 -0.023674674 0.024530269 4285622819
0.028037112 -0.015003659 0.014171957 4285163564
0.029437874 -0.012727298 0.01171839 4285688863
0.03102047 -0.011166446 0.0099550663 4285689374
0.03379599 -0.013892218 0.012312482 4285754398
0.037609413 -0.020187296 0.018095337 4286017049
0.041471045 -0.026479073 0.023868792 4286083094
0.050681755 -0.029501535 0.025687285 4285098793
0.053661402 -0.025662653 0.021472592 4285097519
0.026943328 -0.013032421 0.0095298635 4286017559
0.028136015 -0.010033548 0.0063980138 4285885979
0.029504985 -0.0077526942 0.0039557843 4285557284
0.031860031 -0.0090553984 0.0049408181 4285623074
0.035241358 -0.013939045 0.0093452251 4285689374
0.038248565 -0.017387718 0.01237483 4285755419
0.041491002 -0.021550484 0.016082458 4285493278
0.043709759 -0.022132017 0.016370453 4285558814
0.045292273 -0.020566151 0.014610938 4285558813
0.045997925 -0.016139157 0.010127106 4285492768
0.047328927 -0.013859987 0.0076930085 4285820443
0.049975041 -0.015872352 0.0093456944 4285885468
0.053310815 -0.020028211 0.013035475 4286016539
0.02483955 -0.014766552 0.0087165283 4284966959
0.026043555 -0.011758365 0.0055890372 4285689884
0.0272261 -0.0087515041 0.0024658618 4286018323
0.028979916 -0.0079025999 0.0013980949 4285952278
0.031128855 -0.0084913373 0.0016977852 4285821209
0.033891939 -0.01123517 0.004044448 4285821463
0.036676422 -0.01397749 0.0063869776 4285624348
0.039273988 -0.01600007 0.0080437725 4285558558
0.041254643 -0.015867546 0.0076543456 4285558558
0.042594258 -0.013581544 0.0052234428 4285755163
0.043701369 -0.010578863 0.0021157591 4285820443
0.045224994 -0.0090123862 0.00037132856 4285491748
0.047846328 -0.011032879 0.0020239027 4285623584
0.051156774 -0.015203424 0.0057086693 4285820954
0.056088697 -0.024390049 0.014132536 4285689883
0.023761993 -0.012761138 0.0040966393 4285230119
0.024953185 -0.0097451881 0.00097839441 4285493533
0.026317626 -0.0074517354 -0.0014530076 4285623838
0.028455563 -0.008043468 -0.0011528963 4285623838
0.030598829 -0.0086347386 -0.00085374806 4285624094
0.033558466 -0.012108326 0.0021684738 4285558558
0.035723109 -0.012697995 0.0024636267 4285624349
0.038101166 -0.014007486 0.0034377212 4285624350
0.039857488 -0.013155706 0.0023715468 4285623838
0.041608389 -0.012304194 0.0013065189 4285689628
0.042705365 -0.009293519 -0.0017924896 4286215183
0.044437356 -0.0084430501 -0.0028536422 4285820698
0.047049969 -0.010470569 -0.0012043873 4285689373
0.050575383 -0.015373997 0.003149041 4285689629
0.055272587 -0.023870163 0.010876481 4285690138
0.022497065 -0.010009952 -0.0011886591 4285624349
0.023672741 -0.0069863126 -0.0042972183 4285689628
0.025799681 -0.0075810924 -0.0039966451 4285689374
0.028326388 -0.009621799 -0.0023362348 4285689629
0.030669257 -0.010938339 -0.0013587596 4285623838
0.033427961 -0.013699733 0.00097539462 4285624350
0.035387013 -0.013568848 0.00059007294 4285558813
0.037553973 -0.014160417 0.00088318996 4285558813
0.038883731 -0.011862114 -0.0015358776 4285624349
0.040623959 -0.011009142 -0.0025971299 4285558558
0.041926783 -0.0087124258 -0.0050107287 4285755674
0.043869443 -0.0085821077 -0.0053924182 4285755673
0.04647604 -0.010616533 -0.0037469203 4285755673
