# .PCD v0.7 - Point Cloud Data file format
VERSION 0.7
FIELDS x y z rgba
SIZE 4 4 4 4
TYPE F F F U
COUNT 1 1 1 1
WIDTH 302
HEIGHT 1
VIEWPOINT 0 0 0 1 0 0 0
POINTS 302
DATA ascii
0.0094885826 -0.0051605701 0.031099763 4282348874
0.012055259 -0.0079584718 0.033473488 4282153034
0.01514823 -0.01368165 0.038610648 4282283338
0.01763998 -0.015744492 0.040282968 4282478159
0.0029182434 -0.0057642087 0.029645648 4282478159
0.0041780397 -0.00049379468 0.024404883 4282414409
0.0055184439 0.0040400922 0.01986305 4280786999
0.0077919438 0.0026984587 0.020857498 4280720954
0.010692924 -0.0023124665 0.025303636 4280851769
0.014135603 -0.010256425 0.032503627 4280786489
0.016993999 -0.014528036 0.0362438 4282085458
-0.0059824809 -0.0042707548 0.026506957 4282346068
-0.0037212148 -0.0056181401 0.027499858 4282543184
-0.0017702505 -0.0047531128 0.026414227 4281694288
6.5796077e-05 -0.0031512603 0.024637993 4281433934
0.0014415458 0.0013975352 0.020099193 4281241409
0.0030155331 0.0044710636 0.01694788 4281046844
0.0044504628 0.0082799196 0.013110577 4280981308
0.0064611062 0.0084053427 0.012726604 4280785469
0.0093339607 0.0033774376 0.017166488 4280721974
0.012873687 -0.005328238 0.025042336 4281568829
0.016092356 -0.011822104 0.03084169 4281568064
0.018834628 -0.015370026 0.033881523 4282803794
-0.01404345 -0.0086694211 0.028914053 4282280789
-0.012451418 -0.00484097 0.025054242 4281435974
-0.010885984 -0.0010140911 0.021199565 4280199224
-0.0092482641 0.0020713955 0.018042181 4279805503
-0.0072255731 0.0021967739 0.017655298 4279283774
-0.0049942508 0.00084318221 0.018650606 4280588353
-0.0028589219 0.0002297461 0.018953342 4281241153
-0.0010468215 0.0018344074 0.017184969 4281241665
0.00053020567 0.0049166679 0.014039594 4280849984
0.002200909 0.0072588325 0.011587392 4280393789
0.0039733201 0.008861348 0.0098268529 4281176129
0.0059757754 0.0089862496 0.0094444333 4281110848
0.0084703192 0.0061576962 0.011812038 4280458813
0.011614822 -0.00036048889 0.017610524 4280393789
0.015064411 -0.0083516091 0.024772786 4281045313
0.018049013 -0.013387412 0.029180054 4281696073
-0.016404614 -0.0089865774 0.026674382 4282345558
-0.015166774 -0.0021766275 0.020053029 4281632579
-0.01351019 0.00091844052 0.01689845 4281241664
-0.012066863 0.0054967478 0.012366052 4280915264
-0.010260664 0.0071049333 0.010601784 4281044804
-0.0081608444 0.0064868778 0.010909465 4280784194
-0.0056392327 0.0029023439 0.013974006 4280784194
-0.0036243424 0.0030274242 0.013588752 4281110594
-0.0018281266 0.0046354085 0.011826712 4280980544
-0.00015455484 0.0069841295 0.0093788235 4280915264
0.0016178861 0.0085908547 0.007621496 4279612724
0.0033797622 0.010197088 0.0058662323 4280133179
0.0056116357 0.0088397712 0.0068586385 4280329274
0.0079771951 0.0067427605 0.0085348887 4279481144
0.010986507 0.00094480813 0.013634956 4281045313
0.014167033 -0.0055905506 0.019411728 4281240898
0.017395958 -0.012122765 0.025179371 4282347598
-0.015833907 0.00064060092 0.014679921 4281567044
-0.014286049 0.0044879168 0.010845049 4280263994
-0.012573048 0.006844908 0.0083940635 4280523583
-0.010678828 0.0077125132 0.0073239366 4280914753
-0.0084861219 0.0063476339 0.0083199209 4279806524
-0.0060747191 0.0034957826 0.010689504 4279871548
-0.0039614365 0.00287655 0.010993148 4280914243
-0.0020611212 0.0037449896 0.009922131 4280914754
-0.00038986653 0.006099999 0.0074796779 4281045569
0.0013800785 0.0077109337 0.0057260832 4280980544
0.003374055 0.0078351498 0.0053451573 4281176129
0.0056081489 0.0064736232 0.0063338233 4281306944
0.0078530833 0.0051129237 0.0073204553 4281176639
0.010359582 0.0022678524 0.0096725998 4281243194
0.013271704 -0.0028029978 0.014070404 4281438524
0.016482893 -0.0093558207 0.019826461 4281567809
0.019742455 -0.015905529 0.025573432 4281891659
-0.016137652 0.0004965961 0.012081604 4281435463
-0.014687479 0.0051012486 0.0075675985 4280849474
-0.013077863 0.008210808 0.0044352887 4280523583
-0.011095934 0.0083334744 0.0040560504 4280458304
-0.0090127885 0.0077099502 0.0043636328 4280327999
-0.006509155 0.0041025653 0.0074150143 4280849218
-0.0044042021 0.0034806728 0.0077185435 4280849984
-0.0024028271 0.0036049634 0.0073359152 4281045568
-0.00073658675 0.0059661865 0.0048993146 4281046334
0.0013715625 0.0053447857 0.0052025346 4281045823
0.0033680722 0.0054691136 0.0048210984 4281176639
0.0054845512 0.0048484951 0.0051228506 4281111613
0.0073615536 0.0057181716 0.0040584123 4280590138
0.0096088462 0.0043533742 0.0050413599 4280721718
0.012250561 0.00075560808 0.008067145 4280786999
0.015702393 -0.0073068812 0.015174397 4281371968
0.019080132 -0.014621332 0.021589946 4281695308
-0.016170152 -0.0018856525 0.011551422 4282281809
-0.01480931 0.0034810901 0.0063600009 4280848964
-0.013103619 0.0058505386 0.0039203456 4280783174
-0.011119165 0.0059733242 0.0035406007 4280979778
-0.0091345161 0.0060962439 0.0031609153 4280784448
-0.0069425628 0.0047227517 0.0041504269 4281111104
-0.0047396943 0.0033500046 0.0051379865 4281110848
-0.0025259554 0.0019780844 0.0061234972 4281111358
-0.00052454323 0.0021024793 0.0057409396 4281177149
0.0013627559 0.0029745921 0.0046759043 4281242430
0.0033618137 0.0030990764 0.0042939726 4281112379
0.0050020814 0.0054654926 0.001867543 4280981564
0.0067487359 0.0070839077 0.00012528058 4279027754
0.008609809 0.007954888 -0.00093443412 4280199479
0.01123178 0.0043449998 0.0020868881 4279873843
0.014662884 -0.0037426651 0.0091798799 4279157294
0.018153064 -0.0118265 0.016261689 4281241409
0.021159448 -0.016921476 0.020618599 4281957194
-0.016202919 -0.0042719692 0.011018191 4282542929
-0.014931083 0.0018612593 0.0051526269 4281110339
-0.013225026 0.0042372048 0.0027178517 4280980799
-0.011240713 0.0043599457 0.0023381179 4280850238
-0.0094576627 0.0059840679 0.00059145968 4280198459
-0.0074783266 0.0061067343 0.00021284353 4278831148
-0.0052866414 0.0047289431 0.0011992222 4279092779
-0.0029753223 0.0026018769 0.0028654728 4280395319
-0.00087064505 0.0019757524 0.00316591 4281177148
0.0010113046 0.0028497279 0.0021035019 4281372989
0.0028880611 0.0037234426 0.0010422049 4281046588
0.0045206472 0.0060958788 -0.0013777958 4280460599
0.0061372891 0.0084673911 -0.0037946375 4281371969
0.0081125125 0.0085907057 -0.0041717635 4281436993
0.010597948 0.0057183653 -0.0018353993 4281046078
0.013886131 -0.0016451702 0.0045639705 4280980289
0.017360941 -0.0097538233 0.01163051 4281110083
0.020352587 -0.014864892 0.015978634 4282021199
-0.016235955 -0.0066623241 0.010481951 4282542419
-0.014960252 -0.00051160902 0.0046288949 4281240898
-0.013251178 0.0018710494 0.0021984372 4280916028
-0.011460088 0.0034998581 0.00045344047 4280981309
-0.0097800791 0.0058808774 -0.0019712495 4279547954
-0.0080127195 0.0075084567 -0.0037115263 4279678003
-0.0058322251 0.0061256066 -0.0027263546 4279352368
-0.0033150539 0.0024867132 0.00029775314 4278376484
-0.0012160465 0.0018581003 0.00059756823 4281046588
0.00066056848 0.0027338415 -0.00046214648 4281176893
0.0022987127 0.0051129907 -0.0028783544 4281111613
0.0040402561 0.006739594 -0.0046131322 4279677748
0.0056492016 0.0091171414 -0.0070235962 4280394554
0.0077409148 0.0084886625 -0.0067219334 4280915008
0.010092821 0.0063583702 -0.0050677517 4280393789
0.01298108 0.0012253672 -0.00071168132 4280002363
0.016039662 -0.0046558827 0.004312953 4281045823
0.019276656 -0.011284977 0.010004715 4281567809
0.022147786 -0.015659541 0.013663267 4282347599
-0.01662802 -0.0060342848 0.0072135786 4282411349
-0.015174456 -0.0013775378 0.0027385261 4281891149
-0.013467699 0.0010114014 0.00031349622 4281109063
-0.011874527 0.00415463 -0.0027892003 4280720954
-0.010402985 0.0080516189 -0.0065679485 4281241663
-0.0086488351 0.0096826851 -0.0083024139 4281306944
-0.0063764378 0.0075399876 -0.0066387253 4281046334
-0.0037625208 0.0031350404 -0.0029419898 4280980799
-0.0016718581 0.0025037378 -0.0026422385 4280980798
8.2962215e-05 0.004135251 -0.0043764389 4281111358
0.0017107427 0.0065202266 -0.0067857327 4281176639
0.0036800429 0.0066429079 -0.0071619311 4280720189
0.0054058135 0.0082729757 -0.0088903168 4280394044
0.0076190457 0.0068886504 -0.0079141455 4280915264
0.0097159334 0.0062583834 -0.0076150158 4280915264
0.01233777 0.0026160777 -0.0046184747 4281110595
0.015119065 -0.0017773658 -0.00095290504 4281176384
0.018473558 -0.0091798753 0.0054009082 4281306178
0.021605946 -0.015073642 0.010398467 4281630794
-0.016750477 -0.00766626 0.0059971148 4282476629
-0.015388273 -0.0022388548 0.00085166283 4281954134
-0.013873585 0.0016714036 -0.0029272637 4281107789
-0.012483038 0.0063373968 -0.0073801437 4280329528
-0.010923974 0.0094872639 -0.010469628 4280459834
-0.0090774372 0.01036498 -0.011520659 4280915518
-0.006813705 0.0082152933 -0.0098603154 4280524603
-0.0043172166 0.0045533925 -0.0068488247 4280068664
-0.0022375733 0.0039191544 -0.0065486073 4281045824
-0.00049328804 0.0055543855 -0.0082775401 4280980799
0.0012404397 0.0071890205 -0.010004328 4281111358
0.0033205375 0.0065552145 -0.0097039612 4281241409
0.0052844733 0.0066776574 -0.010079068 4281305923
0.0073728636 0.0060446113 -0.0097801099 4281305668
0.0094667561 0.0054120049 -0.009482109 4281305669
0.011825535 0.0032692254 -0.0078390893 4281110084
0.014332891 0.00037245452 -0.0055266116 4281110595
0.017672155 -0.0070526749 0.00081356335 4281370694
0.020927396 -0.013719514 0.0064721564 4281108043
-0.015509665 -0.0038553253 -0.00035322271 4282345303
-0.014183715 0.0015850514 -0.005480045 4281174089
-0.012895092 0.00702326 -0.010599692 4280718913
-0.011243485 0.0094219968 -0.013004162 4280656183
-0.0091967508 0.0087832063 -0.01269956 4280654653
-0.0071445107 0.0081449151 -0.012395971 4280719679
-0.0046543404 0.0044717789 -0.0093915584 4281045313
-0.0025803596 0.0038350523 -0.0090919603 4281306688
-0.00061433762 0.0039572641 -0.0094677452 4281307709
0.0012357235 0.0048379004 -0.010517378 4281307708
0.003437005 0.003443934 -0.009545723 4281241153
0.0054061487 0.0035666823 -0.0099218395 4281240389
0.0076237842 0.0021739081 -0.0089531001 4281174345
0.0095985383 0.0022972524 -0.0093301069 4281305158
0.011702951 0.0016632676 -0.0090356823 4281175363
0.01407728 -0.00048492849 -0.0074004959 4281175363
0.017277155 -0.0071748644 -0.0017463258 4281434444
-0.015814766 -0.0039475411 -0.0029116813 4282410839
-0.01439862 0.00074592978 -0.0073497798 4281696074
-0.013111643 0.0061991364 -0.012457506 4280979524
-0.011362456 0.0078427196 -0.014181235 4281242429
-0.0093160421 0.0072017163 -0.01387825 4281241154
-0.0071588382 0.0058000758 -0.012901937 4281240899
-0.0048828274 0.0036381707 -0.011253769 4281305669
-0.0028118268 0.0029990822 -0.010955257 4281305924
-0.00073532015 0.0023604631 -0.010657715 4281175364
0.0013466999 0.0017222911 -0.010361141 4280848708
0.0033155605 0.0018448979 -0.010737294 4281044039
0.005405888 0.0012074262 -0.010442095 4280913478
0.0075016916 0.0005704686 -0.010147883 4281108809
0.0096029975 -6.6012144e-05 -0.0098546166 4281370694
0.011580404 5.762279e-05 -0.010232033 4281370949
0.013689972 -0.00057812035 -0.0099401642 4281175363
0.016748119 -0.0065286756 -0.0049682432 4281302608
-0.014424361 -0.001616627 -0.0078664664 4282019668
-0.013036638 0.0030881763 -0.012289139 4281498959
-0.011281893 0.0047363788 -0.014010588 4281370183
-0.0092304349 0.0040935427 -0.013710281 4280978504
-0.0071734414 0.0034511685 -0.013410935 4280978759
-0.0048953816 0.0012829006 -0.011768119 4281174854
-0.002932474 0.0014047623 -0.012143424 4281174344
-0.00074314326 1.1101365e-06 -0.011176309 4281173833
0.0013412461 -0.00063914061 -0.010881813 4281304394
0.0033126324 -0.00051639974 -0.011258462 4281303884
0.0055264905 -0.0019181669 -0.010295765 4281303883
0.0076273531 -0.0025569797 -0.010004176 4281369164
0.0097336881 -0.0031953305 -0.0097135399 4281631049
0.011587091 -0.0023095608 -0.010760071 4281632578
0.013699021 -0.0029473156 -0.010470307 4281563984
0.01675836 -0.0089151412 -0.0055118487 4281627478
-0.014544606 -0.0032170117 -0.0090593603 4282018649
-0.013059154 0.00073479861 -0.012799663 4281498194
-0.011201955 0.0016216487 -0.013846261 4281304139
-0.0092476979 0.0017426312 -0.014220184 4281043018
-0.0070833936 0.00033267587 -0.013251828 4281239369
-0.0050158501 -0.00031110644 -0.012956077 4281239624
-0.0030530691 -0.00018925965 -0.013331367 4281239114
-0.0008642152 -0.0015972853 -0.012367478 4281434188
0.0012198612 -0.0022397339 -0.01207458 4281369164
0.0031910986 -0.0021169931 -0.012451215 4281434444
0.0052834675 -0.0027586445 -0.012159755 4281434188
0.0073813275 -0.003399834 -0.011869261 4281630284
0.0094846785 -0.0040405542 -0.011579717 4281826379
0.011464454 -0.0039167851 -0.011957599 4281827143
0.013707791 -0.0053206235 -0.011003425 4282413134
0.01663392 -0.010541975 -0.0067239208 4282281043
-0.01475887 -0.00404872 -0.010923585 4282149464
-0.013081931 -0.0016226843 -0.013313184 4281693778
-0.011222042 -0.00073345751 -0.01435869 4281303374
-0.0091631562 -0.001380235 -0.014063084 4281173069
-0.0072035119 -0.0012588277 -0.01443796 4281304138
-0.0051362664 -0.0019048005 -0.014143812 4281435209
-0.0031736344 -0.0017829686 -0.014519079 4281304393
-0.0010980666 -0.0024281964 -0.014226349 4281499723
0.0009830147 -0.0030729622 -0.013934588 4281499724
0.003069602 -0.0037173033 -0.013643732 4281825103
0.0050408244 -0.003594473 -0.014020281 4281955153
0.0071356893 -0.0042380169 -0.013730874 4281955153
0.0092360452 -0.004881084 -0.01344241 4282021453
0.011470724 -0.006289877 -0.01249004 4282021453
0.013847802 -0.0084639117 -0.010875243 4282282574
0.016643744 -0.012934342 -0.0072719222 4282541654
-0.014878877 -0.0056463629 -0.012114434 4282149719
-0.013105005 -0.0039841682 -0.013829773 4281759568
-0.011341669 -0.0023224503 -0.015543031 4281303118
-0.0092830807 -0.0029714182 -0.015249031 4281238349
-0.0072189718 -0.0036198795 -0.014956033 4281303884
-0.0051493645 -0.0042678788 -0.014664004 4281434698
-0.0032941625 -0.0033763945 -0.015706586 4281435464
-0.0012188926 -0.0040238202 -0.015415469 4281500489
0.00086186826 -0.0046707839 -0.015125295 4281630539
0.0029481351 -0.0053173155 -0.014836041 4281824594
0.004798539 -0.0044256076 -0.015877387 4281954898
0.0067670569 -0.0043028221 -0.016253332 4282020434
0.0089877695 -0.0057169944 -0.015301658 4281890384
0.011347998 -0.007898666 -0.013688749 4281889619
0.013855807 -0.01084742 -0.011416054 4282084949
-0.015092574 -0.0064710304 -0.013973353 4282084183
-0.013321191 -0.0048046708 -0.015684912 4281432914
-0.01146125 -0.0039111376 -0.016727148 4281237584
-0.0094029605 -0.0045623109 -0.016434757 4281302608
-0.0074436143 -0.0044409409 -0.016809585 4281368653
-0.0053769797 -0.0050913244 -0.016518658 4281500490
-0.0034146458 -0.0049695373 -0.016893877 4281631815
-0.0014521554 -0.004847616 -0.01726904 4281434444
0.00051046163 -0.0047255754 -0.017644154 4281564239
0.0027088821 -0.0061457828 -0.016691839 4281823318
-0.015305899 -0.0072910488 -0.015828816 4282082908
-0.013344511 -0.0071699321 -0.016204318 4281366613
-0.011382945 -0.0070486516 -0.016579753 4281106004
-0.0094212219 -0.0069272667 -0.016955135 4281040468
-0.0074593276 -0.0068057775 -0.017330481 4281237074
-0.0054972842 -0.0066841394 -0.017705752 4281168478
-0.0035350919 -0.0065623671 -0.018080955 4281625693
-0.013560288 -0.0079855099 -0.018055798 4281104728
-0.011601552 -0.007864438 -0.018430712 4281626714
-0.0095411986 -0.0085197538 -0.018142061 4281951838
0.025281675 -0.018156543 0.032777261 4282732903
-0.032763042 -0.014619514 -0.030062076 4282929254
