# .PCD v0.7 - Point Cloud Data file format
VERSION 0.7
FIELDS x y z rgba
SIZE 4 4 4 4
TYPE F F F U
COUNT 1 1 1 1
WIDTH 937
HEIGHT 1
VIEWPOINT 0 0 0 1 0 0 0
POINTS 937
DATA ascii
-0.011724938 0.022857051 0.019584807 4289275439
-0.0096041113 0.022310268 0.019864855 4289798698
-0.0061170124 0.016261145 0.02588875 4289733673
-0.01446626 0.023856834 0.015984675 4289798953
-0.013675824 0.02883029 0.010524264 4289865254
-0.011584613 0.028279137 0.010809308 4289931298
-0.0084684938 0.023588102 0.015392391 4289342249
-0.0037617758 0.012690984 0.026410604 4289931044
0.00015413761 0.0052485839 0.03383299 4290585119
0.0049119107 0.0027840286 0.035783932 4287968818
-0.01638902 0.021411043 0.015979363 4289146664
-0.015414447 0.02570856 0.011242 4290192928
-0.014307331 0.029311195 0.0072279777 4290454303
-0.012391474 0.029449683 0.006797703 4289800483
-0.0096269101 0.026126884 0.0099421795 4289604389
-0.0058012865 0.018653646 0.017366795 4289604389
-0.0029672161 0.015336066 0.020495797 4290454814
-0.00028409436 0.012712225 0.02290575 4289669668
0.0018793195 0.012164526 0.023173342 4289148194
0.0036820434 0.012999989 0.022015804 4290458383
-0.022362098 0.019376177 0.016130017 4286921279
-0.02087836 0.021603111 0.013542155 4288752689
-0.01925426 0.023133602 0.011674216 4289277224
-0.017481819 0.023968142 0.010524495 4289538853
-0.016199142 0.026887607 0.0072305351 4289997089
-0.014773443 0.029110782 0.0046559572 4290847003
-0.01286304 0.029248837 0.0042268764 4290650909
-0.010274399 0.026609052 0.0066512711 4290585374
-0.0068033785 0.020499442 0.012634711 4290650908
-0.0045082681 0.019252095 0.013622334 4290128159
-0.0027349666 0.020087417 0.012472881 4289801759
-0.0011470839 0.02161612 0.010613767 4289997854
0.0011616275 0.020370092 0.011598511 4289540129
0.0042231455 0.016351596 0.015420048 4290064154
0.0071285404 0.013028704 0.018525256 4288036648
-0.025481492 0.022509869 0.010391025 4287967799
-0.024158821 0.025440603 0.0070943087 4289864489
-0.021937199 0.024182804 0.0080945399 4290585373
-0.019860767 0.023623489 0.0083777104 4290781979
-0.01777887 0.023064699 0.0086596757 4290193948
-0.01665955 0.026690058 0.0046591349 4289997088
-0.015238736 0.028919447 0.0020905267 4290258464
-0.013333771 0.029057093 0.0016626567 4289734948
-0.010751341 0.026408043 0.0040819012 4289734948
-0.007631503 0.021671142 0.0086298753 4290062114
-0.0053475536 0.020418577 0.0096167345 4289931808
-0.0039395019 0.02264753 0.0070513487 4290062878
-0.0029073171 0.026267264 0.0030708797 4290062368
-0.00098841637 0.026406512 0.0026403219 4290651418
0.0022278316 0.021677062 0.0071670823 4290651929
0.0062334016 0.014169067 0.014515797 4290651929
-0.027834646 0.022174507 0.0082438886 4289145134
-0.026949659 0.027215626 0.0028074272 4289931299
-0.025198817 0.028052662 0.0016655773 4289931554
-0.022840507 0.026089195 0.0033799838 4289997089
-0.020466052 0.024126947 0.0050908774 4290913304
-0.018392473 0.023565341 0.0053730607 4290193438
-0.01663569 0.024403192 0.004230164 4290062623
-0.015047953 0.025940079 0.0023770928 4290062624
-0.013304248 0.026777174 0.0012372714 4289866019
-0.010889191 0.024818335 0.0029393993 4289931554
-0.0082862303 0.022162061 0.005347563 4290062368
-0.0061852634 0.021603022 0.0056240335 4289997088
-0.0049645379 0.024536129 0.0023574494 4290324254
-0.0043044463 0.029562198 -0.0030276142 4290193439
-0.0024043173 0.029700063 -0.0034539718 4290324763
0.00060666353 0.025651544 0.00035924837 4289997853
0.0051520653 0.01602497 0.0098132771 4290390809
0.0080580078 0.012680218 0.012902102 4290652948
0.010411277 0.011429027 0.01387061 4289475613
0.012775272 0.010178685 0.014836835 4288823069
-0.02989129 0.020443115 0.0075301025 4289079598
-0.02884163 0.024798069 0.0028145127 4289866018
-0.02752848 0.027745537 -0.0004671216 4289669668
-0.025935858 0.029286623 -0.002318358 4289015593
-0.023741841 0.028017983 -0.0013184939 4288950568
-0.021225788 0.02534603 0.0011022091 4289604644
-0.018846564 0.023377609 0.0028071869 4290716698
-0.016773131 0.022813864 0.0030878279 4289997088
-0.015021503 0.023653608 0.0019477643 4289801249
-0.013441354 0.025194418 9.9726021e-05 4289997088
-0.0113649 0.024631187 0.00037990324 4289996833
-0.0091113858 0.023367494 0.0013669617 4290127904
-0.0071956553 0.023506179 0.00093686767 4289735459
-0.0056337342 0.025046077 -0.00090678409 4289800995
-0.0046212003 0.028686322 -0.0048665479 4290586138
-0.0027238652 0.028823964 -0.0052922945 4289997343
-0.00027163327 0.026861817 -0.0036029704 4289081638
0.0035098717 0.020002585 0.003013622 4289147429
0.0063934065 0.016645208 0.0060993023 4289475103
0.0094965883 0.01259046 0.0098823141 4289867804
0.012631793 0.0085381866 0.013658175 4289671710
0.014609434 0.0086822957 0.013214881 4290262544
-0.032086909 0.019417625 0.0061029587 4287966524
-0.030738845 0.022376154 0.002819825 4289277734
-0.029556692 0.026038326 -0.0011708587 4289538853
-0.02825354 0.028993815 -0.0044437516 4290062113
-0.026521191 0.029833857 -0.0055782255 4289604389
-0.024182901 0.027855676 -0.0038691033 4289866018
-0.021828488 0.025878787 -0.0021635853 4290650908
-0.01929985 0.023199026 0.00024781749 4290193183
-0.017071284 0.021928709 0.001236897 4289800994
-0.015485682 0.023474194 -0.000609193 4289735458
-0.014076691 0.025722481 -0.0031603947 4289800994
-0.012177285 0.025859762 -0.0035869889 4289408293
-0.0099349469 0.024590891 -0.0026007444 4289604388
-0.0080300085 0.024728768 -0.0030284338 4289997089
-0.0066552311 0.026975028 -0.005571695 4289931553
-0.0052963458 0.029220194 -0.0081112757 4290651419
-0.0032250509 0.028654881 -0.0078312065 4290258719
-0.00077884644 0.0266857 -0.0061454307 4290586138
0.0026204474 0.021207929 -0.00094916299 4290389533
0.005682312 0.017136887 0.0028332435 4290128159
0.0091616772 0.011665143 0.0080117099 4289474083
0.012683742 0.0061965883 0.013180735 4289604899
0.015258137 0.0042372495 0.014838146 4289539620
0.016644146 0.0064852759 0.012293072 4288755749
-0.032084182 0.017119318 0.0056713633 4287247934
-0.03073281 0.020086844 0.0023939963 4288688173
-0.029691763 0.024467461 -0.0023001358 4289996578
-0.028387971 0.027431764 -0.0055666622 4289735204
-0.026805468 0.028980844 -0.0074091395 4289866018
-0.024623126 0.027702533 -0.0064132148 4289800483
-0.022429973 0.026425056 -0.0054195989 4290323744
-0.019752294 0.023029543 -0.0023049563 4289997088
-0.017690156 0.022460554 -0.0020250753 4289931809
-0.016438756 0.025421664 -0.0052793901 4289800994
-0.015208546 0.028381348 -0.0085288715 4290716953
-0.013156682 0.027811915 -0.0082464581 4290847514
-0.010585707 0.025126908 -0.0058507398 4290651163
-0.0085149854 0.024558987 -0.0055723712 4289997089
-0.006968528 0.026106529 -0.0074060438 4289931553
-0.0052534081 0.026948579 -0.0085342247 4290127904
-0.0033616498 0.027085796 -0.0089587411 4289211943
-0.0011007115 0.02581438 -0.0079795597 4289408293
0.0019198321 0.021727033 -0.0041977707 4289800483
0.0053521618 0.016234197 0.00097811595 4289669925
0.0092122965 0.0093369037 0.0075446274 4289669925
0.012735341 0.0038508773 0.012700329 4289146663
0.015311692 0.0018850937 0.014352413 4289016103
0.016901363 0.0034366846 0.012509802 4288232489
-0.031664498 0.012687281 0.0073680263 4286986049
-0.030443609 0.016374014 0.0033848099 4288164404
-0.029537961 0.021477893 -0.0020107832 4289342759
-0.028228194 0.024451375 -0.00527215 4289538598
-0.026789851 0.026714347 -0.0078206891 4290062114
-0.024910137 0.02684956 -0.0082433401 4289800484
-0.022720173 0.025567472 -0.0072523402 4290127393
-0.020203941 0.0228692 -0.0048512369 4289996578
-0.018468209 0.023714222 -0.0059829541 4289997088
-0.017389879 0.027391501 -0.0099335173 4289931553
-0.016006622 0.029651113 -0.012469222 4290978328
-0.013965726 0.02907861 -0.01218596 4290782234
-0.011064216 0.024968885 -0.0083877444 4290847514
-0.0088254511 0.023691025 -0.0074071819 4290389533
-0.0074577555 0.025949873 -0.0099390475 4289669923
-0.0057479069 0.02679377 -0.011064473 4289800738
-0.0034982078 0.025516979 -0.01008608 4289735204
-0.00086905807 0.022827923 -0.0077095572 4289669923
0.0023425408 0.018021338 -0.003238881 4289604133
0.0059708916 0.011805147 0.0026216041 4289277223
0.01003198 0.0041805059 0.0098682996 4288165168
0.013176635 8.9377165e-05 0.013612667 4287511349
0.015760269 -0.0018824637 0.015258228 4287118648
-0.031246282 0.0082378611 0.0090521798 4287705148
-0.030155465 0.01264824 0.0043663047 4287969329
-0.029096425 0.017056473 -0.00031239539 4288295983
-0.027775377 0.020039465 -0.0035697632 4288557868
-0.026475474 0.023021087 -0.006822343 4289473574
-0.024892315 0.024579078 -0.0086584641 4290062114
-0.023319632 0.026136383 -0.010492093 4289865763
-0.021127358 0.024850145 -0.0095048184 4289996578
-0.019084491 0.024275318 -0.00922391 4290324254
-0.018013317 0.027963042 -0.013164729 4289866274
-0.016472083 0.029518478 -0.014991 4289539364
-0.014436848 0.028943412 -0.014708146 4289473828
-0.011541925 0.024820015 -0.010918252 4290062369
-0.0089619718 0.022118162 -0.0085375421 4289997088
-0.0074176528 0.023674235 -0.010364197 4290127904
-0.0055262335 0.023811288 -0.010788742 4290127648
-0.0030902103 0.021821469 -0.0091154557 4289866019
-0.00026980415 0.018415324 -0.0060484335 4289800738
0.0031378046 0.012885444 -0.00089318305 4289015593
0.0067776069 0.0066503137 0.0049500428 4287707443
0.010465436 0.00041878968 0.010782579 4287315254
0.013421964 -0.002977021 0.013819406 4287053623
0.015812725 -0.0042472854 0.014763387 4286725694
0.017413538 -0.0026860833 0.01292474 4286857784
-0.031106919 0.0051996559 0.0093093459 4287771194
-0.029727027 0.00819543 0.0060450993 4287771959
-0.028512299 0.011903703 0.0020795949 4288230449
-0.02703061 0.014182806 -0.00046901777 4288230958
-0.025863461 0.017887861 -0.0044236705 4288427053
-0.024570763 0.020877816 -0.0076680556 4289211944
-0.02329921 0.023866352 -0.01090761 4289473318
-0.021734126 0.025427572 -0.012736223 4289931810
-0.019859567 0.02556267 -0.013157522 4290062368
-0.01847288 0.027835548 -0.015684331 4290520348
-0.016936723 0.029394984 -0.017506218 4289931809
-0.014907122 0.028817292 -0.01722374 4289604644
-0.012189467 0.025392197 -0.014142199 4289604644
-0.0096183978 0.022680905 -0.011766027 4290258719
-0.0072019137 0.020682901 -0.01009347 4289931553
-0.0049479902 0.019397512 -0.0091226427 4289931553
-0.0021394081 0.015979394 -0.0060612131 4289997089
0.00087986141 0.011852361 -0.0023086295 4288884779
0.0044910982 0.0055952817 0.0035262443 4287707444
0.0077717528 0.00076304376 0.0079587288 4287184184
0.010897778 -0.0033559129 0.011687608 4287053368
0.013471942 -0.0053417459 0.013325406 4286857274
0.015667532 -0.0059061944 0.013571529 4286660669
0.017268598 -0.004340589 0.011736086 4286661688
-0.03138382 0.004302308 0.0074434523 4288098358
-0.029864773 0.0065903962 0.004891187 4287771959
-0.028217696 0.0081613958 0.0030469373 4287838004
-0.026581094 0.0097317174 0.0012051836 4288034353
-0.025551625 0.014164299 -0.0034471992 4287838258
-0.024402134 0.017879147 -0.0073896591 4288230958
-0.023279108 0.021592192 -0.011326094 4288688939
-0.021711104 0.023157999 -0.013152116 4289081128
-0.020153642 0.024723176 -0.014975745 4289996835
-0.01876916 0.027002402 -0.017497145 4290454814
-0.017235421 0.028566089 -0.01931528 4290847513
-0.015208799 0.027985923 -0.019033737 4290455068
-0.012494888 0.024549562 -0.01595952 4290520603
-0.0094080009 0.019687273 -0.011495518 4290324254
-0.0064595118 0.015541598 -0.0077370834 4289669923
-0.003657423 0.012111887 -0.0046823844 4289538853
-0.0010097474 0.0093977377 -0.0023297314 4288557869
0.0020268969 0.0052587166 0.0014091954 4287642164
0.0049091205 0.0018352121 0.0044461247 4287249719
0.007818047 -0.0015862435 0.0074771401 4286857019
0.010753673 -0.0050056428 0.010502258 4286791483
0.013327118 -0.0069981217 0.012135329 4286791483
0.015522372 -0.007564798 0.012379879 4286725949
0.017323468 -0.0067068711 0.011239564 4287185714
-0.031383611 0.0019723326 0.0069890302 4288294708
-0.029861465 0.0042671859 0.0044409335 4287968054
-0.028067812 0.0051244199 0.0033021718 4287969073
-0.026425637 0.0066995472 0.0014623553 4287968819
-0.025091894 0.0097098351 -0.0017783456 4288034098
-0.023779295 0.012718722 -0.0050142054 4288034609
-0.022487819 0.015726149 -0.0082451887 4288099889
-0.02121754 0.018732209 -0.011471378 4288296238
-0.020128027 0.022453997 -0.015391996 4289080873
-0.018902734 0.025457021 -0.018607914 4290062114
-0.017368741 0.027025085 -0.020422865 4290062624
-0.015007224 0.025009543 -0.018747963 4289800994
-0.012289073 0.021562498 -0.015682856 4290193439
-0.00902538 0.015968882 -0.01053483 4290389789
-0.0060701855 0.011810519 -0.0067876838 4289211944
-0.0029046722 0.0069387183 -0.0023525432 4288230704
-0.00024458766 0.0042166635 -9.2182308e-06 4287445814
0.0024368986 0.0014962405 0.0023294408 4287249209
0.0051397607 -0.0012225285 0.0046633817 4286791484
0.0074861646 -0.0025095791 0.005607238 4286725949
0.010226443 -0.0052253902 0.0079329647 4286791484
0.01259958 -0.0065102056 0.0088709667 4286595388
0.014786512 -0.0070796758 0.0091157574 4286529598
0.016779236 -0.0069344044 0.0086691398 4287708464
-0.028205574 0.0035199374 0.0021486674 4287903539
-0.026417017 0.0043791309 0.0010127053 4287969329
-0.024931192 0.0066782385 -0.0015221275 4287772469
-0.023461193 0.0089763775 -0.0040533561 4287903284
-0.022007011 0.011273474 -0.0065809526 4288099378
-0.020568669 0.013569504 -0.0091048582 4288034098
-0.019783892 0.01874201 -0.01441591 4288165168
-0.018549986 0.021754418 -0.01762726 4288296238
-0.017337251 0.02476535 -0.020833731 4289342759
-0.014638931 0.021305785 -0.017772414 4289734948
-0.011913881 0.017848264 -0.014717011 4289604134
-0.0082983822 0.010800749 -0.0081940852 4289211944
-0.0055065639 0.0073482692 -0.0051535182 4288099889
-0.0025099553 0.0031798258 -0.0014253836 4287380279
-0.00020423532 0.0018851012 -0.00047591142 4287053114
0.0021121986 0.00059129298 0.00047119521 4286856763
0.0044393726 -0.00070163608 0.0014160331 4286791483
0.0067772493 -0.0019936636 0.0023584962 4286790973
0.0095086209 -0.0047189146 0.0046796836 4286857274
0.018627189 -0.0084403679 0.0070362315 4289345564
0.020415112 -0.0075787827 0.0059022978 4288953373
0.040520601 -0.033156112 0.028535152 4286465083
-0.02834326 0.0019157752 0.0009953808 4287054388
-0.026700579 0.0034996495 -0.00083807111 4287642929
-0.024919793 0.004360497 -0.0019705631 4287576118
-0.023446687 0.0066654086 -0.0044976249 4287772468
-0.021835491 0.008247301 -0.006323711 4287837748
-0.020234816 0.0098285824 -0.0081474083 4288164913
-0.019122362 0.013573915 -0.012056915 4288099633
-0.018036414 0.017317452 -0.015960386 4288295983
-0.016647838 0.019616771 -0.018468006 4288623404
-0.01410453 0.016868137 -0.016111925 4288426799
-0.011200018 0.012679487 -0.01237309 4288295729
-0.0079183504 0.007052049 -0.0072551919 4287772213
-0.0051196404 0.0035890862 -0.0042243283 4287314488
-0.0026499815 0.0015686601 -0.0025832243 4286987578
-0.0001642406 -0.00045052916 -0.00094559416 4286791228
0.0019711256 -0.0010287389 -0.00069293566 4286660924
0.0042977743 -0.002326116 0.00024874695 4286857274
0.0064465925 -0.0029031336 0.00049854629 4286792248
0.015892405 -0.0080807954 0.004235195 4288300064
0.018280569 -0.0093729571 0.0051635522 4289540383
0.0202704 -0.0092276484 0.0047177672 4289933339
0.022881776 -0.011236534 0.0063280854 4289671453
0.036754601 -0.030018725 0.022978758 4286334014
0.040588304 -0.035603806 0.027974511 4286202434
-0.02505713 0.002763167 -0.0031188671 4287511094
-0.023432508 0.0043502897 -0.0049448162 4287838769
-0.021664694 0.0052126274 -0.0060726721 4287968819
-0.01958926 0.0046267062 -0.0058089942 4287903283
-0.01830364 0.0076602399 -0.0090190349 4288099888
-0.017200891 0.011415914 -0.012918161 4287903283
-0.01596028 0.014446415 -0.016117932 4287903283
-0.01357159 0.012413099 -0.01446387 4287968564
-0.01082743 0.0089349821 -0.011429084 4287576118
-0.0077118054 0.0040132552 -0.0070171515 4287118139
-0.0049088672 0.00053961575 -0.0039953981 4287052603
-0.0026122779 -0.00076463073 -0.0030505303 4286922299
-0.00066564232 -0.00062353909 -0.0034874361 4286594878
0.0014640726 -0.0012044013 -0.0032351073 4286595898
0.017531052 -0.0088594109 0.0019243527 4289800993
0.020330027 -0.011596687 0.0042177979 4290062369
0.023357308 -0.015052587 0.0071902983 4290061858
0.02641123 -0.018506408 0.010156924 4288819498
0.029704109 -0.022678107 0.013800276 4286923064
0.032813963 -0.026127592 0.016754555 4286660923
0.036603346 -0.03173355 0.021747058 4286333503
0.040215038 -0.036616974 0.0260494 4286333249
-0.021494582 0.0021693856 -0.0058277231 4287838769
-0.019257963 0.00085549057 -0.0048733298 4287772469
-0.017804861 0.0031723678 -0.0073858639 4287903283
-0.016690657 0.0069398656 -0.011279465 4287707189
-0.015438769 0.0099798813 -0.014475232 4287838004
-0.013206992 0.0086660832 -0.013519424 4287706933
-0.010286424 0.0044522807 -0.0098038213 4287445048
-0.0073337965 0.00024088472 -0.0060952771 4287183419
-0.0046987981 -0.0025183558 -0.0037725922 4286921788
-0.0027524084 -0.0023774132 -0.0042095426 4286921789
-0.00080592185 -0.0022363439 -0.0046464186 4286660414
0.015008003 -0.0091994256 -0.00017888658 4288037158
0.017387114 -0.010501027 0.00074498542 4289211943
0.020389296 -0.013969831 0.0037148818 4289604389
0.02383171 -0.018881604 0.0080432668 4289081129
0.027101958 -0.023068205 0.011681767 4288492589
0.030192053 -0.026530206 0.014632253 4287118648
0.033093996 -0.029268235 0.016896492 4286333759
0.036234669 -0.032726303 0.01983582 4286202433
0.039622083 -0.036903858 0.023448518 4286202434
0.043041408 -0.041078888 0.027054122 4286136899
-0.019395791 -0.00074352324 -0.0060227551 4287511858
-0.017942257 0.0015799254 -0.0085305208 4287838004
-0.016827241 0.0053584352 -0.012416172 4287838258
-0.015410729 0.007679455 -0.014915443 4287772468
-0.013176806 0.0063614026 -0.013963393 4287837748
-0.010424178 0.0028619468 -0.010946811 4287510328
-0.0074728355 -0.0013627112 -0.0072477628 4286921788
-0.0051880367 -0.0026767328 -0.0063068736 4286922043
-0.0030697994 -0.0032630265 -0.0060554557 4286921788
0.015063234 -0.01156158 -0.00067251362 4288690213
0.017645761 -0.013592534 0.0009294413 4288296238
0.020856082 -0.017796919 0.0045714136 4287445813
0.024511576 -0.023448259 0.0095675346 4287118649
0.027791161 -0.027647302 0.013194179 4287707188
0.030890785 -0.031119592 0.016134376 4286922043
0.033802453 -0.03386566 0.018389923 4286595134
0.036735412 -0.036610045 0.020640811 4286333249
0.03968966 -0.03935276 0.022887019 4286137154
-0.01855503 0.0021790192 -0.011744228 4287185204
-0.017124906 0.0045075044 -0.014241819 4287445558
-0.015383016 0.005374901 -0.015358622 4287707443
-0.012980483 0.0033227578 -0.01372232 4287838515
-0.010223623 -0.0001873523 -0.010714838 4287445303
-0.0076118298 -0.0029659942 -0.0084000286 4286791993
-0.0055020042 -0.0035552159 -0.0081484467 4286596153
0.01571336 -0.016110361 0.00087329559 4287643183
0.018707961 -0.01960177 0.0038285181 4287380533
0.021525472 -0.022363991 0.0060982741 4286856763
0.024983505 -0.02730529 0.010400308 4286856763
0.028060703 -0.030790284 0.013337305 4287510838
0.031376269 -0.034999773 0.016946262 4286922299
0.034294993 -0.037754089 0.019193733 4286464063
0.037017941 -0.039780542 0.020759875 4286137154
-0.015355654 0.0030662566 -0.015804753 4287380279
-0.012951162 0.0010076463 -0.014173793 4287707699
-0.010530606 -0.0010496676 -0.012546346 4287446324
-0.0080939941 -0.0031056702 -0.010922465 4286661689
0.016560193 -0.021406166 0.0030858591 4286857784
0.019366108 -0.024178132 0.005351603 4286725948
0.022193342 -0.026948415 0.0076126717 4286660924
0.025248107 -0.030446135 0.010546459 4286856763
0.028120633 -0.033212863 0.012797555 4287445048
0.031649068 -0.038164064 0.017072642 4287510584
0.03457218 -0.040926829 0.019312603 4286006340
0.019420657 -0.026576638 0.0048311614 4286464574
0.022249635 -0.029355556 0.0070853308 4286529853
0.025305934 -0.032864124 0.010010628 4286725693
0.028388869 -0.036370613 0.012930064 4287183674
0.031709768 -0.040605947 0.016518263 4287706678
0.019073866 -0.027511403 0.0029569156 4286530364
0.021899249 -0.030299358 0.0052053705 4286464573
0.025157586 -0.034552664 0.0087976344 4286464319
0.028447876 -0.038803518 0.01238283 4286071618
0.016124662 -0.026379101 -0.00048692152 4286661179
0.018527182 -0.027705282 0.00041218102 4286399294
0.015782099 -0.027297586 -0.0023502558 4286399293
-0.031660005 0.0010799915 0.0051267128 4284114493
-0.031798005 -0.00053071976 0.0039686486 4282741573
-0.03027764 0.0017771125 0.0014306791 4282939199
-0.032486998 0.00076009333 1.3580546e-05 4282088264
-0.030695982 0.0016235411 -0.0011198372 4281892679
0.008649569 -0.0058296993 0.00026438199 4282870349
0.011198819 -0.0078502819 0.0018832982 4282412879
0.013175093 -0.0077063143 0.001440281 4283197003
-0.032899253 0.00061380863 -0.0025331434 4281761609
-0.03111352 0.0014790297 -0.003663769 4281696329
-0.029190049 0.0016168579 -0.004096657 4281761609
-0.027120851 0.0010278895 -0.0038335752 4282153033
0.0061628446 -0.006155625 -0.001838496 4282609229
0.0086979941 -0.0081838816 -0.00022142939 4282347854
0.010862239 -0.0087639615 2.1876767e-05 4282412623
0.0128357 -0.0086202174 -0.00042052194 4283329093
-0.033035941 -0.00098277628 -0.0036810786 4281566788
-0.031110108 -0.00084489584 -0.0041145813 4281566789
-0.029469505 0.00075174868 -0.0059378985 4281762374
-0.02740331 0.00016033649 -0.0056757983 4281958469
-0.025627665 0.0010273308 -0.0068023009 4282808129
-0.02355583 0.00043653697 -0.0065413089 4283461694
0.0011828952 -0.0044341236 -0.0055559445 4283395394
0.0035026222 -0.0057451576 -0.0046225544 4282087244
0.0058330745 -0.0070553124 -0.0036914293 4281890893
0.0083648302 -0.0090904236 -0.0020785034 4281955919
0.010719351 -0.010398597 -0.0011525918 4282412623
-0.032623798 -0.0055067837 -0.0020506363 4281370693
-0.030967176 -0.0039046854 -0.0038744379 4281436739
-0.029606029 -0.00084020197 -0.0070824344 4281828419
-0.027830504 2.887845e-05 -0.0082074255 4281697348
-0.0259123 0.00016650558 -0.0086389957 4282024259
-0.023843452 -0.00042673945 -0.0083789192 4282088773
-0.021922298 -0.0002886951 -0.0088109989 4282547264
-0.020156838 0.00058011711 -0.0099333907 4283659063
-0.00090656802 -0.0061898828 -0.0062786955 4283067973
0.0014072321 -0.007505849 -0.0053473208 4282219078
0.0037317686 -0.008820951 -0.0044182148 4281958214
0.0056914762 -0.0086785704 -0.0048578102 4281956683
0.0082225166 -0.010720298 -0.0032495987 4281955918
0.010576501 -0.012032911 -0.002326848 4282608974
-0.032487117 -0.0085798129 -0.0018185899 4281500999
-0.030964583 -0.0062390789 -0.0043327212 4281110594
-0.029600173 -0.0031655878 -0.0075350069 4281502529
-0.027966909 -0.0015605837 -0.0093501471 4281828419
-0.026344143 4.3720007e-05 -0.011162815 4281827909
-0.02428095 -0.00055211037 -0.010903161 4281827398
-0.022518218 0.00031851232 -0.012023366 4281957703
-0.02060505 0.00045609474 -0.012453568 4282350148
-0.0010469183 -0.0078039467 -0.0074385982 4282414408
0.0014485978 -0.0098551959 -0.0058275778 4282153544
0.0035903566 -0.010443866 -0.0055843983 4281631304
0.0057374872 -0.011032 -0.0053423885 4281891914
0.0078900009 -0.011619598 -0.005101474 4282021709
0.010819472 -0.015127085 -0.0021400768 4282348109
-0.032487959 -0.010925062 -0.0022840612 4283267638
-0.030962333 -0.0085775554 -0.0047940165 4282092344
-0.029594637 -0.0054950863 -0.0079905447 4281175618
-0.027958483 -0.0038855672 -0.0098030698 4281435463
-0.026185341 -0.0030122101 -0.010924214 4281696838
-0.024417393 -0.0021391436 -0.012044068 4281696838
-0.022654608 -0.0012663528 -0.013162682 4281892168
-0.020897031 -0.00039380789 -0.014280036 4281891913
-0.018986523 -0.00025630742 -0.014709551 4282219080
-0.017397441 0.0013505518 -0.016511016 4282349383
-0.0084039271 -0.0039700717 -0.012754705 4283524678
-0.0057805516 -0.0067653358 -0.010455461 4282543438
-0.0034892559 -0.008091934 -0.0095257275 4282216784
-0.0011872239 -0.0094176978 -0.0085982736 4281956429
0.0011255145 -0.01074253 -0.0076731918 4282087243
0.0034489855 -0.012066491 -0.0067503704 4281891913
0.0059705265 -0.014122188 -0.0051498916 4281696329
0.0081280246 -0.014711618 -0.0049117375 4282676293
0.010869004 -0.017497472 -0.0026382357 4284049468
-0.032762364 -0.011797346 -0.0041320361 4284705583
-0.031099685 -0.0101818 -0.0059474502 4284380459
-0.029731378 -0.0070905462 -0.0091376305 4281960253
-0.028094985 -0.0054766536 -0.010946965 4281632323
-0.026469067 -0.003863357 -0.012753902 4281762629
-0.024553783 -0.0037258714 -0.013184762 4281827399
-0.022485793 -0.004325673 -0.012929397 4281957959
-0.020722836 -0.0034505576 -0.014046336 4281892168
-0.019122973 -0.0018387213 -0.015847025 4281957193
-0.017694224 0.00050932169 -0.018329699 4282021964
-0.015791606 0.00064647198 -0.018757287 4282348620
-0.013557106 -0.0006891191 -0.017818416 4283394373
-0.010974761 -0.003496334 -0.015516641 4283132488
-0.0085422248 -0.005565837 -0.013901576 4282544204
-0.0060936324 -0.0076340511 -0.012290029 4282217294
-0.0036290027 -0.009700954 -0.010682048 4282021199
-0.0013274997 -0.011031151 -0.0097577451 4281956429
0.00080284849 -0.011625119 -0.0095153963 4282021964
0.0031231083 -0.012953669 -0.0085951677 4282152778
0.0056412742 -0.015016243 -0.0069987876 4282742593
0.0081754737 -0.017077506 -0.0054058991 4284115004
-0.028231427 -0.0070674419 -0.012090659 4284380204
-0.026311114 -0.0069297254 -0.012522746 4282351423
-0.02439066 -0.0067919046 -0.012954796 4282024769
-0.022470064 -0.0066539571 -0.013386793 4281958723
-0.020859465 -0.0050370395 -0.015186781 4281827398
-0.019417092 -0.0026815683 -0.017667726 4281826888
-0.018150929 0.00041185319 -0.020827796 4281761353
-0.016090766 -0.00019025058 -0.020571962 4281631049
-0.013693742 -0.0022690892 -0.018954027 4281761098
-0.010943927 -0.0058236122 -0.0159775 4281826889
-0.0085094608 -0.0078995079 -0.0143678 4282219080
-0.0060589276 -0.0099741742 -0.01276158 4282218058
-0.0035923496 -0.012047522 -0.011158924 4282217804
-0.0014677271 -0.012644261 -0.010916968 4282217803
0.00066227838 -0.013240471 -0.010676189 4282414409
0.0029820055 -0.01457344 -0.0097590936 4283330369
-0.026447661 -0.0085202381 -0.013666214 4283398198
-0.024527341 -0.0083824396 -0.014098242 4282483259
-0.022454694 -0.0089863017 -0.013847187 4281893698
-0.020686299 -0.0081064701 -0.014962131 4281762119
-0.019395716 -0.0050026178 -0.018121326 4281827398
-0.018126294 -0.0019001737 -0.021275675 4281827398
-0.016063791 -0.002504319 -0.021022003 4281566788
-0.013499308 -0.0053304732 -0.018729324 4281957959
-0.010745279 -0.0088955909 -0.015761914 4281762374
-0.0081353635 -0.011718236 -0.013479265 4281762628
-0.0060245655 -0.012318395 -0.013236082 4282219078
-0.0035560392 -0.014398217 -0.011638693 4282284104
-0.001429107 -0.014996968 -0.011398955 4282611268
0.0007032156 -0.015595198 -0.011160324 4283592508
0.0028409287 -0.016192928 -0.010922811 4284508213
-0.024514616 -0.010716841 -0.01455942 4284118318
-0.02259165 -0.010578759 -0.014991978 4281958723
-0.020977914 -0.0089529008 -0.01678619 4281892680
-0.019532025 -0.0065841153 -0.019258155 4281892168
-0.017941989 -0.0049597174 -0.021046862 4281892934
-0.015711822 -0.0063089654 -0.020116858 4281697604
-0.013140276 -0.0091433898 -0.017832285 4281762373
-0.010547355 -0.011976086 -0.015552454 4282022728
-0.0081036724 -0.014064521 -0.01395456 4281826888
-0.0061638467 -0.013924256 -0.014390181 4281763138
-0.003872022 -0.015268393 -0.013473618 4282416448
-0.0013908371 -0.017353743 -0.011883865 4284640049
0.021458324 -0.035323322 0.0015961826 4282477903
0.024712697 -0.039616317 0.0051600616 4282477649
-0.022728577 -0.012170911 -0.016136557 4284705839
-0.02126909 -0.0097946748 -0.01860684 4283792174
-0.019668289 -0.0081653148 -0.020394782 4282023749
-0.017918207 -0.0072821528 -0.021502236 4281892934
-0.015685912 -0.0086356401 -0.020575965 4281763649
-0.013112608 -0.011478692 -0.018298291 4281893188
-0.01068572 -0.013574988 -0.016701642 4282153288
-0.0082427673 -0.015670061 -0.015108476 4282218313
-0.0063030981 -0.015529804 -0.015544063 4282547009
-0.0041875765 -0.016133904 -0.015305108 4283985719
0.012715984 -0.027779393 -0.0069605522 4284573239
0.01509821 -0.029120311 -0.0060667582 4283001674
0.017890571 -0.031945854 -0.0038370341 4282412623
0.020906625 -0.035512201 -0.00094345585 4282346833
-0.019961476 -0.0089981407 -0.02220829 4283135804
-0.01821401 -0.008113049 -0.023313509 4282481729
-0.015984893 -0.0094711334 -0.022389779 4281763139
-0.01358011 -0.011575714 -0.020793131 4281892679
-0.010991652 -0.014426336 -0.018525293 4282218313
-0.0085520819 -0.016528212 -0.016936235 4283069503
-0.0064423047 -0.017135039 -0.016697723 4284247349
0.010009523 -0.027332589 -0.00970475 4283788604
0.012572084 -0.029424392 -0.0081424378 4282088263
0.014953766 -0.030769765 -0.0072518028 4281890894
0.017346136 -0.032114238 -0.0063633928 4282150993
0.019951353 -0.034202501 -0.0048103891 4282541653
-0.01628346 -0.010301888 -0.024200259 4283204399
-0.013882048 -0.012413353 -0.022607712 4282613053
-0.011129763 -0.016022429 -0.019672465 4283265853
-0.0085208453 -0.018880181 -0.017415628 4284311353
0.0076979659 -0.028366789 -0.011106107 4283656258
0.0098663867 -0.028970659 -0.010881711 4282741063
0.012234196 -0.030321591 -0.0099912547 4282153289
0.014612675 -0.031671554 -0.0091031343 4282021199
0.017001837 -0.033020645 -0.0082172686 4282347089
0.019805657 -0.035862654 -0.0060030334 4282083928
-0.016419716 -0.011880025 -0.02533461 4284706094
-0.014019012 -0.013998106 -0.023746779 4284575533
-0.011100613 -0.018369861 -0.020147905 4284705839
0.0052066706 -0.028645426 -0.013172593 4283658809
0.0077437125 -0.030752465 -0.011614565 4282480199
0.0097232834 -0.030608431 -0.012058455 4282282828
0.012090553 -0.031963766 -0.011171126 4282086733
0.014468484 -0.033318162 -0.010286142 4282282063
0.016657945 -0.033922285 -0.010067781 4282412368
0.019054566 -0.035275072 -0.0091867419 4281952093
0.00040056929 -0.027550817 -0.016127691 4284507959
0.0027271733 -0.02891396 -0.015234925 4283332153
0.0050644912 -0.030276239 -0.014344424 4282153798
0.0072241835 -0.030885257 -0.014121421 4282021708
0.0095802173 -0.03224586 -0.013234959 4282020943
0.011559665 -0.032101735 -0.013678734 4282020178
0.013931744 -0.033460952 -0.012795632 4281823319
0.016115531 -0.034067683 -0.012577635 4281755744
0.00025950372 -0.02917248 -0.017293036 4283135038
0.002402775 -0.029785141 -0.017068177 4282546243
0.004922349 -0.031906739 -0.015516028 4282216783
0.0070816837 -0.032517985 -0.015294582 4282151249
0.0090556219 -0.032374367 -0.015737209 4282216529
0.011029594 -0.032230645 -0.016179767 4281693013
-0.0043258443 -0.028804794 -0.019573152 4284445483
-0.0023736395 -0.028663427 -0.020011403 4282087244
-6.146729e-05 -0.030036554 -0.019121956 4282020689
0.0022613965 -0.031408697 -0.018234842 4282020434
0.0047802366 -0.033536918 -0.016687408 4282150484
0.0067512989 -0.033393681 -0.017129514 4282215509
0.0089129955 -0.034006797 -0.016910113 4281823064
-0.0065896921 -0.029800363 -0.020959083 4284446760
-0.0046403892 -0.029659338 -0.021396782 4282811444
-0.002690997 -0.029518187 -0.021834411 4281825103
-0.0003820397 -0.030895874 -0.020947535 4282020434
0.0021200478 -0.033031985 -0.019401316 4282019923
0.0040829219 -0.03288947 -0.019841667 4282215509
0.0062335804 -0.033505723 -0.019621525 4282083928
-0.0069010034 -0.030650005 -0.022779968 4282680373
-0.0049545132 -0.030509189 -0.023217048 4281568319
-0.0028310418 -0.03113012 -0.022992812 4282152014
-0.00052262098 -0.032512218 -0.022109061 4282150994
0.0016142912 -0.03313195 -0.021887604 4282215764
-0.010932945 -0.03254059 -0.023062319 4283854138
-0.0088180341 -0.033164732 -0.02283809 4282548539
-0.0068691187 -0.033023879 -0.023275811 4281633598
-0.0050941743 -0.032118618 -0.024373688 4281567299
-0.0029710457 -0.032741748 -0.024150997 4282216783
-0.0010219142 -0.032600507 -0.024588488 4282281553
0.00092728809 -0.032459103 -0.025025871 4282018138
-0.009294644 -0.033242278 -0.025315922 4282673744
-0.0075224042 -0.032335147 -0.026411664 4281893698
-0.0054076761 -0.032961234 -0.026188828 4281696839
-0.0034640804 -0.032820515 -0.02662516 4281889363
-0.0057207569 -0.033799186 -0.028000534 4281363809
0.019309554 -0.039590679 -0.018845441 4282143343
0.031434163 0.0061285794 0.050033808 4285360678
0.025253896 0.017065726 0.035626203 4285820444
0.027906153 0.015191652 0.037325293 4285820189
0.031643055 0.0099505112 0.042603381 4285820188
0.021474622 0.013741009 0.036761105 4285427488
0.022471184 0.017271191 0.032723956 4285755418
0.023857523 0.019446887 0.030125132 4285558048
0.026282204 0.018241119 0.03110751 4285557794
0.029358173 0.015008524 0.034232333 4285623329
0.033541821 0.0083995014 0.04092288 4285689118
0.037778813 0.0017944351 0.047601588 4285689629
0.018703181 0.013949946 0.033858292 4285164074
0.019908596 0.01681257 0.03054362 4285624349
0.021298032 0.018995043 0.027948888 4285820698
0.02267151 0.021176402 0.025357855 4285952279
0.025293026 0.019286927 0.027053976 4285820954
0.028143903 0.016720586 0.029459955 4285820954
0.031664141 0.012122132 0.033999428 4285820953
0.034784347 0.0088819712 0.03710632 4285558559
0.0379312 0.005643867 0.040207326 4285558813
0.041328706 0.0017304868 0.044013366 4285427744
0.045438204 -0.0042118654 0.049943365 4285033004
0.013357859 0.016072489 0.029264031 4285557283
0.01535777 0.016218178 0.028815718 4285819934
0.017357729 0.016363971 0.028367462 4285820188
0.01915523 0.017190993 0.027205111 4285689629
0.020742297 0.018698573 0.025330534 4285623838
0.022526532 0.019524768 0.024171339 4285689884
0.025147352 0.017628647 0.025862714 4285689883
0.027784191 0.015733749 0.027550625 4285689883
0.030868648 0.012479886 0.030657286 4285624349
0.033542812 0.010587901 0.032336973 4285558558
0.035790648 0.010056689 0.032593243 4285624348
0.037372366 0.011564545 0.030720355 4285690138
0.040302247 0.0089956969 0.033102416 4285885978
0.045086607 0.00099528581 0.041145101 4285885469
0.011212964 0.014266767 0.028519588 4285032239
0.012435555 0.017147928 0.025213903 4285754653
0.014424693 0.017292827 0.024767997 4285820188
0.016813099 0.01607082 0.025748407 4285952024
0.019009925 0.015533008 0.026013965 4285689629
0.020802218 0.016361892 0.024854524 4285624093
0.022796806 0.016507573 0.024407683 4285624349
0.025211994 0.015287869 0.025382424 4285558558
0.027424891 0.014751613 0.025644669 4285624349
0.030289976 0.012168817 0.028034465 4285624349
0.032739803 0.010951966 0.029001614 4285689884
0.034316488 0.012463778 0.027133072 4285755674
0.03543523 0.015338413 0.023851434 4285689628
0.037664033 0.01480379 0.024110472 4285754653
0.04127185 0.010181472 0.02860784 4285885724
0.046769876 0.00011269003 0.038744681 4285885723
0.0086908676 0.013834469 0.02634746 4285558814
0.010493681 0.01466582 0.025186924 4285886233
0.011903025 0.016869143 0.022602146 4285492259
0.013886705 0.017013632 0.022157455 4285492004
0.016468715 0.01510106 0.023847492 4285623328
0.01886465 0.013875283 0.024823004 4285755163
0.021271296 0.012650371 0.025796255 4285689628
0.023066346 0.013481744 0.024637895 4285624349
0.025066167 0.013627909 0.024189958 4285624603
0.027065996 0.013774164 0.023742085 4285624603
0.029496662 0.012551434 0.024710195 4285624349
0.031719901 0.012013935 0.024968641 4285624093
0.033065431 0.014213525 0.022398924 4285952789
0.034394931 0.016412094 0.019832836 4285886489
0.036160581 0.017242 0.018681569 4285623584
0.039293393 0.013970189 0.021761442 4285623839
0.04337851 0.0079669058 0.027652973 4285624093
0.047979731 0.00060088933 0.03494139 4285689884
0.0059946664 0.014101088 0.023466634 4285426978
0.0076035745 0.015622877 0.02159646 4285558559
0.0095843673 0.015766956 0.021152271 4286083349
0.011371311 0.016599461 0.019997003 4286148883
0.013546105 0.01605542 0.020264072 4286018069
0.016124744 0.014135972 0.021949938 4285952789
0.018921312 0.011530079 0.024341645 4285821209
0.021330103 0.010300957 0.025311099 4285624349
0.022713427 0.012509473 0.022737416 4285624349
0.024290673 0.014029719 0.020874983 4285689884
0.025857262 0.015549287 0.019015009 4285624093
0.028274089 0.014321148 0.019982951 4285624094
0.030265786 0.014467023 0.019537056 4285623838
0.031595774 0.016672127 0.016975688 4285755419
0.033132982 0.018189926 0.015122583 4285952789
0.035111267 0.018335108 0.014679907 4285952534
0.038232323 0.015051454 0.017754251 4285821719
0.04161121 0.011084244 0.021525493 4285755928
0.04595761 0.0043779239 0.028098481 4285689629
0.051066939 -0.0043800026 0.036764428 4285492768
0.0056652315 0.013144031 0.021570919 4286081054
0.0074601285 0.013979092 0.020415341 4285491748
0.0096318349 0.013432428 0.020681309 4285557538
0.01142152 0.014267296 0.01952705 4285820444
0.013598662 0.013721235 0.019791955 4285820443
0.016179267 0.011795335 0.021472489 4285755163
0.018977601 0.0091807768 0.023857268 4285624349
0.021184184 0.0086371526 0.024115803 4285624349
0.022153895 0.012231395 0.020133773 4285624348
0.023306668 0.015134424 0.016863758 4285886999
0.025075223 0.015968472 0.015714755 4285952278
0.027483542 0.014735319 0.016681345 4285952533
0.029902529 0.013503008 0.017645666 4285755164
0.031230316 0.015714541 0.015089689 4285623838
0.032765128 0.01723659 0.013240395 4285558558
0.034740634 0.017381564 0.012798345 4285624604
0.03785792 0.014086656 0.015865384 4285559069
0.041463882 0.0094182044 0.020328922 4285493533
0.045574501 0.0033773407 0.026185436 4285427744
0.050914861 -0.0060969368 0.035531379 4285296163
0.013258513 0.012768 0.017902145 4285558558
0.016034592 0.0101429 0.020285288 4285558813
0.018429 0.0089038312 0.021251353 4285624603
0.020425752 0.0090495646 0.020803945 4285624348
0.021388322 0.01265426 0.016831676 4285689883
0.022533746 0.015565544 0.013569837 4285886743
0.024506548 0.01570984 0.013128029 4285689374
0.026909035 0.014471821 0.014092708 4285952278
0.029322162 0.013234735 0.015055032 4285820953
0.031085432 0.014070883 0.013909066 4285689884
0.033066183 0.014216162 0.013465779 4285624349
0.035272397 0.013671145 0.013723368 4285559068
0.038624771 0.0096755028 0.017480945 4285493533
0.042470731 0.0043023303 0.022630619 4285493533
0.046592794 -0.0017574281 0.028469907 4285361443
0.05170745 -0.010572068 0.037092246 4285228843
0.013310757 0.010429949 0.017427253 4285558048
0.015492648 0.0098798871 0.017687941 4285624349
0.017679904 0.0093303546 0.017947463 4285559068
0.019260559 0.01086387 0.016093859 4285624604
0.020623945 0.013090648 0.013539368 4285952533
0.021762028 0.016010188 0.010285707 4285623329
0.023938682 0.015460297 0.010547908 4285623584
0.026335314 0.014217496 0.011510583 4285623583
0.028959919 0.012282342 0.013171995 4285755164
0.03094057 0.012427524 0.012728663 4285689884
0.033366486 0.011187151 0.013685064 4285624348
0.036253631 0.008562468 0.016037533 4285559069
0.040073976 0.003169708 0.021179864 4285427743
0.043936919 -0.0022198036 0.026312748 4285360934
0.016529743 0.011163622 0.013247276 4285623584
0.018097337 0.01270058 0.011399871 4285624093
0.019447848 0.014933005 0.0088531543 4286149138
0.020991486 0.016468413 0.0070112646 4286083604
0.022948045 0.016611516 0.0065730922 4285886489
0.025547955 0.014667869 0.0082350578 4285886744
0.02838097 0.01203008 0.010592939 4285886744
0.0310155 0.010089219 0.012247266 4285624348
0.033888452 0.007454589 0.014596371 4285558813
0.037458047 0.00273709 0.01903368 4285493024
0.041292682 -0.0026721433 0.024159724 4285295143
0.044709042 -0.0066893026 0.027883494 4285097519
0.016185259 0.010224134 0.011368806 4286671888
0.01713967 0.01386109 0.007422775 4285557539
0.018892489 0.014702559 0.0062836669 4285558303
0.020431068 0.01624196 0.0044462197 4285820444
0.02238217 0.016384669 0.0040092729 4285820698
0.02497603 0.014434032 0.0056676622 4285689628
0.028453574 0.0096940994 0.010113915 4285623838
0.03152924 0.0063519031 0.013157414 4285624350
0.03507603 0.0016173199 0.017588297 4285493023
0.03843521 -0.0024174377 0.021314921 4285360679
0.041826315 -0.0064497069 0.02503443 4285163053
0.018956136 0.012379371 0.0058166441 4285688099
0.020497639 0.013923384 0.0039818045 4285623328
0.022451278 0.014066279 0.0035442896 4285558558
0.025689278 0.010009065 0.0072878823 4285558814
0.029392719 0.0045546144 0.012416901 4285427488
0.033358175 -0.0015962422 0.018232113 4285426979
0.036483351 -0.004945673 0.021256456 4285295143
0.039635148 -0.0082930401 0.024274932 4285228844
0.019637037 0.0079435706 0.007437814 4286474773
0.020980924 0.010195382 0.0049073435 4286016539
0.023153629 0.009636417 0.0051639061 4285493024
0.026187133 0.0062689707 0.0082003772 4285493024
0.030546466 -0.0013087094 0.015398888 4285361189
0.034306832 -0.0067764372 0.020502215 4285294633
0.037222363 -0.0094343051 0.022822218 4285163053
0.021879755 0.0050447509 0.0072132703 4286146333
0.024276458 0.0037798956 0.0081595443 4285950493
0.027538516 -0.00030188262 0.011878187 4285425704
0.031265229 -0.0057897568 0.016975911 4285294379
0.044555228 -0.021377511 0.031056101 4284900914
0.022360362 0.0012864396 0.0081169624 4286211869
0.024975359 -0.0006891489 0.0097510088 4285818913
0.028033301 -0.0040767565 0.012765707 4285294124
0.025251489 -0.0037573725 0.0099478234 4286015263
0.028313646 -0.0071556568 0.012953417 4285359659
0.031834342 -0.011969239 0.017332951 4285228588
0.034736492 -0.014654517 0.01963632 4285097519
0.022487145 -0.0034231842 0.0071361475 4286342684
0.025316454 -0.0061229244 0.0094490368 4286016283
0.02859325 -0.010243133 0.013135036 4285228843
0.032117769 -0.01507175 0.017502276 4285097518
0.025170818 -0.0077790469 0.0082593691 4286081053
0.028872089 -0.013339072 0.013310501 4285294379
-0.032627031 -0.014887169 -0.003912013 4285098538
-0.031236999 -0.011785731 -0.0071006725 4285033769
-0.029868074 -0.0086856931 -0.010284496 4285033004
0.0054994449 -0.01664263 -0.0081674298 4284901168
0.0084122121 -0.020184338 -0.0052268021 4285228843
0.010967024 -0.022250563 -0.0036433339 4285228844
-0.032628648 -0.017242536 -0.0043847766 4284966448
-0.031096429 -0.014874861 -0.0068816664 4285294634
-0.029721573 -0.011765674 -0.010060341 4285295398
-0.028079376 -0.010142639 -0.011864495 4285295654
0.0080798343 -0.021082357 -0.0070777601 4285294379
0.011015493 -0.024633221 -0.0041503087 4285294634
-0.0326306 -0.019601978 -0.0048604812 4284966448
-0.031095289 -0.017227538 -0.0073532024 4285294889
-0.029575787 -0.014854178 -0.0098422533 4285360678
-0.028072067 -0.012481779 -0.012327702 4285295144
-0.026290745 -0.011599183 -0.013444184 4284902188
0.005402483 -0.020636007 -0.0098303994 4284900913
-0.032632865 -0.021965533 -0.0053391419 4285097773
-0.030955948 -0.020331524 -0.0071448134 4285360678
-0.029430702 -0.017951161 -0.0096303346 4285294889
-0.027777374 -0.016318597 -0.01143051 4285229353
-0.026281066 -0.013940081 -0.013909348 4285229353
-0.02435305 -0.013801754 -0.014343125 4285229354
-0.0017097779 -0.01822608 -0.013719494 4284967724
0.00078406185 -0.020316951 -0.012137356 4284901424
0.0031101629 -0.021662608 -0.011231467 4284901169
0.0052605532 -0.022263668 -0.010999963 4284900913
0.0077944882 -0.024351254 -0.0094265565 4285031984
-0.032635458 -0.024333231 -0.0058207233 4285163053
-0.031094 -0.021945283 -0.0083051175 4285229098
-0.02942732 -0.020307474 -0.010105195 4285229353
-0.02791477 -0.017921388 -0.012582858 4285229353
-0.026125386 -0.017033868 -0.013697936 4285294888
-0.024490178 -0.015397981 -0.015490678 4285294888
-0.022865459 -0.01376278 -0.017280925 4285229098
-0.021559849 -0.010631755 -0.020424115 4284967214
-0.0043271258 -0.017741337 -0.016460314 4284901679
-0.0018500537 -0.019840159 -0.014879417 4285229864
0.00046214089 -0.021191329 -0.013973746 4285098283
0.0031521805 -0.02403383 -0.011728145 4285032238
-0.030817516 -0.025813393 -0.0074261148 4284901169
-0.029142641 -0.024170667 -0.0092248116 4284967469
-0.027621701 -0.021777391 -0.011699542 4285229864
-0.025970429 -0.020136148 -0.013492703 4285360934
-0.024329662 -0.018495552 -0.015283412 4285295144
-0.022850849 -0.016104937 -0.017748393 4285425958
-0.02138786 -0.013715327 -0.020209726 4285360424
-0.019783922 -0.012077019 -0.021991882 4285229609
-0.018190533 -0.010439292 -0.023771623 4285165093
-0.006408751 -0.01948905 -0.017179269 4284966704
-0.0041158535 -0.020846292 -0.01627266 4285032238
-0.0018122457 -0.022202604 -0.015368417 4285163308
0.00050207973 -0.02355805 -0.014466438 4285229098
0.0030104816 -0.025660858 -0.012897301 4285163563
-0.027616277 -0.024139598 -0.01217927 4285098538
-0.025962122 -0.022493735 -0.013969876 4285295143
-0.02461566 -0.019342534 -0.017109446 4285360934
-0.022836566 -0.018451184 -0.018218819 4285294888
-0.021524414 -0.015302204 -0.021350482 4285360679
-0.01992026 -0.013659522 -0.023129454 4285360679
-0.018326625 -0.012017399 -0.024905996 4285229353
-0.0086598285 -0.02048479 -0.018568885 4284901168
-0.0063755363 -0.021847151 -0.017663751 4284966448
-0.0040805191 -0.023208633 -0.016760889 4285032239
-0.0017747879 -0.024569169 -0.015860371 4285032238
0.00036114454 -0.025178142 -0.015630651 4285097773
0.0028688088 -0.027287573 -0.014066227 4285163564
-0.024456024 -0.022450499 -0.016909659 4285229354
-0.022973694 -0.020046532 -0.019365709 4285229098
-0.021507211 -0.017643638 -0.021818068 4285294889
-0.019900165 -0.015996315 -0.023594476 4285295399
-0.018303625 -0.014349677 -0.025368387 4285360679
-0.016394205 -0.014212132 -0.025797576 4285229354
-0.013827205 -0.017090686 -0.023544524 4285098028
-0.01107179 -0.020721428 -0.020626236 4285098028
-0.0086290836 -0.02284275 -0.019052576 4285032493
-0.0065150186 -0.023455858 -0.018819917 4285031984
-0.0019153431 -0.026186705 -0.017022792 4284966448
-0.024445303 -0.02480951 -0.017388567 4285032238
-0.02295991 -0.022398792 -0.019840449 4285228844
-0.021643877 -0.019232102 -0.022959974 4285295144
-0.020036601 -0.017580412 -0.024733201 4285295144
-0.018439844 -0.015929386 -0.026503921 4285229609
-0.016369049 -0.016548306 -0.026263535 4285163818
-0.013800297 -0.019435495 -0.024017379 4285229099
-0.011210177 -0.022321016 -0.021775927 4285229353
-0.0085986927 -0.025204815 -0.019539226 4285294379
-0.0064823031 -0.025819987 -0.019308664 4285031983
-0.02147381 -0.022338688 -0.022762138 4285163819
-0.020016998 -0.019923232 -0.02520255 4285164074
-0.018417351 -0.018267632 -0.026970673 4285229354
-0.016344242 -0.018888585 -0.026732441 4285163308
-0.01393773 -0.021025963 -0.025160559 4285163053
-0.011348512 -0.023920283 -0.022925396 4285228589
-0.0066218972 -0.027430296 -0.020465981 4284901423
-0.019841909 -0.023031406 -0.025007222 4285097518
-0.018236723 -0.021371007 -0.026773404 4285097774
-0.016480915 -0.020472132 -0.027870696 4285228844
-0.014075119 -0.022616103 -0.026303515 4285163053
-0.016456608 -0.022818409 -0.028343927 4285163054
-0.013885263 -0.025731653 -0.026117843 4285097518
-0.011126295 -0.029405877 -0.023232855 4285097519
-0.0088474229 -0.030790672 -0.02234282 4285098284
