# .PCD v0.7 - Point Cloud Data file format
VERSION 0.7
FIELDS x y z rgba
SIZE 4 4 4 4
TYPE F F F U
COUNT 1 1 1 1
WIDTH 807
HEIGHT 1
VIEWPOINT 0 0 0 1 0 0 0
POINTS 807
DATA ascii
0.005677823 -0.014353342 0.03787189 4287574589
0.010601699 -0.017607585 0.040618088 4286201668
0.0020427555 -0.0091523007 0.029929213 4289344544
0.0039573163 -0.0083191395 0.028816361 4289277223
0.0061613694 -0.0088964477 0.029126268 4290714914
0.008671023 -0.010883234 0.030855861 4289930024
0.011655085 -0.014983274 0.034711737 4290257954
0.014516003 -0.018376596 0.037852198 4290257698
0.016771384 -0.018950231 0.038152453 4288557869
0.01854983 -0.017410539 0.036327023 4288558124
-0.00083909184 -0.0074423999 0.025562137 4289149213
0.00078094751 -0.0051925033 0.023032311 4290128924
0.0026740879 -0.0043584779 0.021925244 4289931808
0.0048563927 -0.004939355 0.022237767 4289997089
0.0071940571 -0.0062269494 0.023258034 4289146664
0.0098477006 -0.0089277998 0.025692735 4290324254
0.012212351 -0.010213472 0.026707917 4289278243
0.014271945 -0.010085024 0.026306752 4289343778
0.015849747 -0.0078369603 0.023785751 4288168229
-0.0016600974 -0.0055822656 0.020809542 4289475614
8.8587403e-05 -0.0040364638 0.018995807 4290063134
0.0018266514 -0.0024911612 0.017184172 4290913304
0.0038482025 -0.0023655593 0.016790073 4289800993
0.0061693154 -0.0036586449 0.017810378 4289081639
0.0085012354 -0.0049509034 0.018828623 4289474594
0.010843977 -0.0062424317 0.019844864 4290063643
0.012566417 -0.0046975166 0.018036705 4289541404
-0.0022017285 -0.0051242337 0.017488319 4289540639
-0.00046089292 -0.003574498 0.015679274 4289670433
0.0011251308 -0.0013134032 0.01316582 4290586139
0.0031358115 -0.0011885017 0.012773827 4290258974
0.0055952854 -0.003198266 0.014498599 4289604899
0.0079187006 -0.0044955239 0.015515294 4290128414
0.010097995 -0.0050806701 0.015825424 4289736733
0.011652295 -0.0028209463 0.013318516 4290066193
-0.0026036352 -0.0053670555 0.014882833 4289802268
-0.00086796656 -0.0038132817 0.013078053 4289670690
0.0011451431 -0.0036883652 0.012685493 4289604643
0.0030116551 -0.0028493255 0.01158848 4289474084
0.0053210929 -0.0041519403 0.01260455 4288951079
0.0074892715 -0.004740119 0.01291512 4289539363
0.0093533732 -0.003900893 0.011818837 4289736989
0.01073987 -0.00092189014 0.0086163692 4287841319
-0.0048817694 -0.0064422637 0.013381612 4290063644
-0.003143359 -0.0048840642 0.01157942 4289670433
-0.001415547 -0.003326349 0.0097793452 4290258973
0.00073325634 -0.0039182901 0.010091826 4290520604
0.0030340962 -0.0052260384 0.011106279 4290520859
0.0050472729 -0.005100891 0.010713864 4289278244
0.0069086365 -0.0042597502 0.0096196234 4289474849
0.0084555335 -0.0019873977 0.0071237497 4290785039
-0.0055482723 -0.0052304566 0.0093796887 4290063389
-0.0039587244 -0.0029496104 0.0068798438 4290259228
-0.0021031089 -0.0021070763 0.0057879463 4290716953
3.4682453e-05 -0.0027019605 0.0061009936 4290586138
0.002617076 -0.0054515973 0.0085170493 4291110164
0.0047738291 -0.0060450733 0.008826565 4290586904
0.0067842789 -0.0059200004 0.0084347501 4289802268
0.0080226772 -0.0022052079 0.0045440774 4290065683
-0.0060778931 -0.0047219768 0.0060925037 4289867038
-0.0046342313 -0.0017138422 0.0028976109 4290324253
-0.0027893111 -0.00086978078 0.0018093996 4289277223
-0.0009496361 -2.5957823e-05 0.00072234869 4289277734
0.0019083396 -0.0042267889 0.0045348648 4289735969
0.0042029433 -0.005543597 0.0055441055 4289408803
0.0063567944 -0.0061393082 0.0058526173 4289410333
-0.0085945725 -0.0043228045 0.0032029711 4289474848
-0.0067418292 -0.0034763515 0.0021147039 4289997089
-0.0053083636 -0.00046005845 -0.0010717772 4290716953
-0.0036148354 0.001108706 -0.0028555207 4289277223
-0.0017885305 0.0019538552 -0.0039383844 4289343270
0.000908833 -0.0015382245 -0.00083093718 4290258464
0.0034843683 -0.0043058544 0.0015736744 4290062623
0.0056271777 -0.0049044788 0.0018827058 4289672473
-0.0092464611 -0.003060706 -0.00076567754 4289409059
-0.0075395666 -0.0014870018 -0.0025489517 4289735204
-0.0058432929 8.6195767e-05 -0.0043301135 4290193184
-0.0040170737 0.00093342364 -0.0054114424 4289866019
-0.0021961182 0.0017804429 -0.0064916499 4288819498
0.00034903735 -0.00099800527 -0.0040876456 4290062113
0.0026185736 -0.0023251921 -0.0030799769 4289605409
0.0045964271 -0.002202183 -0.0034654662 4289738009
-0.024402969 -0.010772392 0.0060710311 4287052603
-0.022749059 -0.0084622204 0.0035770964 4287576883
-0.020994797 -0.0068819746 0.0017871484 4287315509
-0.019370005 -0.0045734122 -0.00070089474 4286791484
-0.017396294 -0.0044519454 -0.0010865219 4286267968
-0.015298136 -0.0050589442 -0.0007728748 4285940804
-0.009632308 -0.003236793 -0.0033261217 4288034864
-0.0080656148 -0.00093106925 -0.0058023557 4288884779
-0.0062394962 -8.1785023e-05 -0.006882146 4289081128
-0.0041378848 -0.0006878674 -0.0065686665 4289015593
-0.002316907 0.00016134977 -0.0076472741 4288492333
-6.4011663e-05 -0.001171425 -0.0066396836 4289539109
0.0020512864 -0.0017763078 -0.0063286163 4289866274
-0.024413392 -0.013151206 0.0055951942 4286856509
-0.022756472 -0.010834262 0.0031054877 4287052858
-0.02088324 -0.0099808127 0.0020174105 4286922553
-0.019133978 -0.0083963871 0.00023172237 4286725949
-0.017152369 -0.0082744658 -0.00015546754 4286137154
-0.0096209832 -0.0055946335 -0.0037918519 4286660159
-0.0079164132 -0.0040122718 -0.0055683032 4287380279
-0.0060849078 -0.0031604543 -0.0066475384 4287969073
-0.0041184612 -0.0030386522 -0.0070311725 4287576628
-0.0021519028 -0.0029167235 -0.0074147377 4288100144
-0.00018524006 -0.0027946532 -0.0077982266 4288492333
0.0017815158 -0.0026724786 -0.0081816521 4288427053
-0.024313539 -0.016267963 0.005815085 4286921789
-0.022764154 -0.013210431 0.0026309174 4286987069
-0.020772286 -0.013088137 0.0022415426 4286856764
-0.018898875 -0.012232378 0.0011551138 4286594879
-0.017030656 -0.011376828 6.9780275e-05 4286332994
-0.0077678226 -0.0071020424 -0.0053403154 4286398274
-0.0056562424 -0.0077120811 -0.0050321221 4287379514
-0.0036792085 -0.0075896233 -0.0054178201 4287380023
-0.0018447898 -0.0067352057 -0.0064958483 4287707953
-1.5635043e-05 -0.0058809891 -0.0075727664 4287904048
0.0016601756 -0.0042954385 -0.0093399705 4287839023
-0.024435095 -0.01792118 0.0046346802 4286790973
-0.022885196 -0.014854841 0.0014568381 4287052604
-0.020777702 -0.015468329 0.0017635599 4286922299
-0.018901609 -0.014610186 0.00067815743 4286725694
-0.017030679 -0.013752282 -0.00040610135 4286725183
-0.0055032149 -0.010812245 -0.0048128739 4287117884
-0.0035209805 -0.010689482 -0.0051995907 4287445048
-0.0018237382 -0.0090985 -0.006967904 4287642163
8.1174076e-06 -0.0082419068 -0.0080437362 4287773489
0.0015388839 -0.0059180558 -0.010498052 4287643695
-0.024556607 -0.019574098 0.0034544859 4286790463
-0.022780336 -0.017975152 0.0016729999 4286987324
-0.020783395 -0.017852582 0.0012826044 4286856253
-0.018904597 -0.016992152 0.00019830093 4287052604
-0.017030992 -0.016131841 -0.0008849185 4286987068
-0.01528623 -0.014534369 -0.0026599076 4286332738
-0.0057618991 -0.01171115 -0.0066705756 4287052604
-0.003782481 -0.011588573 -0.0070567634 4287641399
-0.0019453615 -0.010729596 -0.0081321113 4287642164
-0.00011349097 -0.0098708421 -0.0092063555 4287707443
0.0014176257 -0.007540375 -0.01165592 4288102694
-0.022563316 -0.021844238 0.0025764424 4286071364
-0.020558491 -0.021721214 0.002184486 4286660159
-0.018789761 -0.020118125 0.00040784664 4286921788
-0.017031573 -0.018515572 -0.001366647 4286790973
-0.015160479 -0.017653115 -0.0024476945 4286529343
-0.013294592 -0.016790926 -0.0035276096 4286201923
-0.0095785037 -0.015067145 -0.0056840982 4286201923
-0.0075941086 -0.014944524 -0.0060714483 4286529344
-0.0058833361 -0.013344124 -0.0078361947 4287248698
-0.0039040819 -0.013221592 -0.0082223658 4287903284
-0.0022091679 -0.011621945 -0.0099837864 4287642164
-9.0166926e-05 -0.01223778 -0.0096816206 4287707443
0.0012963936 -0.0091623887 -0.012813569 4287906599
-0.014665402 -0.023005962 -0.00017228909 4286333249
-0.013164088 -0.01991573 -0.0033209044 4286267713
-0.011426717 -0.018309653 -0.0050878879 4286071619
-0.0098312944 -0.01596278 -0.0075409133 4286202434
-0.0079837441 -0.015099168 -0.0086153727 4286464063
-0.006141454 -0.01423575 -0.0096887173 4287249464
-0.0041650236 -0.014113411 -0.010074352 4287773234
-0.0021884888 -0.013990909 -0.010459905 4287446069
-0.00021186471 -0.013868295 -0.010845383 4287838769
-0.0024518929 -0.014878191 -0.01230797 4286858293
-0.00062266365 -0.014013052 -0.013376904 4287054899
-0.0011771806 -0.013403639 -0.016584342 4283459654
0.00063875318 -0.012537003 -0.017648982 4284376633
-0.011919506 -0.02248393 -0.0092858467 4282476373
-0.010979988 -0.016377494 -0.015141381 4282149973
-0.0091484748 -0.015508324 -0.016207924 4282150483
-0.0071859919 -0.015386984 -0.016590936 4282804049
-0.0052234121 -0.015265509 -0.016973885 4282804304
-0.0034022853 -0.014396593 -0.018038115 4282281553
-0.0015864335 -0.01352784 -0.019101279 4282085713
0.00022416189 -0.012659356 -0.020163281 4282021709
0.0023286752 -0.013284653 -0.019864561 4282087754
0.004590895 -0.014656186 -0.018887499 4282351169
0.0065539889 -0.014533937 -0.019269997 4282482239
0.0083595216 -0.013665229 -0.020330628 4282939709
0.0099994354 -0.012050539 -0.022067888 4283330878
0.012117654 -0.012674361 -0.021771384 4284245819
0.014406949 -0.01404357 -0.020799128 4284442424
0.016706984 -0.015411943 -0.01982891 4284704819
-0.012168817 -0.023371562 -0.011137558 4282608718
-0.010969438 -0.01874803 -0.015616206 4282020178
-0.0092686005 -0.017126471 -0.017363014 4282346833
-0.007170219 -0.017754987 -0.017065169 4282607953
-0.0053438358 -0.016883701 -0.018128933 4282607953
-0.0033813082 -0.016762137 -0.018511796 4282477649
-0.0015627518 -0.01589106 -0.019573824 4282217039
0.00025051832 -0.015020162 -0.020634791 4281890638
0.0022079535 -0.014898509 -0.021016372 4281891659
0.0043175891 -0.015525639 -0.020720137 4281957705
0.0062778518 -0.015403539 -0.021102069 4282022983
0.008238174 -0.015281349 -0.021483937 4281957449
0.010038406 -0.014410585 -0.022541875 4282022728
0.01215899 -0.015036523 -0.022247406 4282349894
0.014781464 -0.017906033 -0.019928617 4282612034
0.017593585 -0.021521911 -0.016939348 4283265854
0.0200908 -0.023640588 -0.015303334 4284314414
0.02225706 -0.024263114 -0.015017347 4284704308
-0.012545615 -0.023501873 -0.013666762 4282085204
-0.011089697 -0.020370245 -0.016774243 4281825103
-0.00925548 -0.01949653 -0.017838111 4282151248
-0.0072906278 -0.019375063 -0.0182216 4282608209
-0.0053256787 -0.019253477 -0.018605025 4282607953
-0.0033606179 -0.019131735 -0.018988373 4282150994
-0.0013954751 -0.019009888 -0.019371653 4281954898
0.0002765879 -0.01738511 -0.021109188 4281825358
0.0020872727 -0.016512036 -0.022167938 4281825358
0.0040446334 -0.016390264 -0.022549411 4281630793
0.0060020573 -0.016268373 -0.02293081 4281695819
0.0079595484 -0.016146362 -0.023312127 4281826634
0.0097571239 -0.015273631 -0.024367908 4281957194
0.011712041 -0.015151516 -0.024748532 4282023493
0.014659006 -0.019530691 -0.021087909 4282154309
0.01780615 -0.024657726 -0.016760496 4282546243
0.020820133 -0.029032409 -0.013112768 4283198533
-0.01266633 -0.025132596 -0.014830916 4281953623
-0.010949202 -0.023501419 -0.016574593 4281628754
-0.0092426687 -0.021870703 -0.018316144 4281955153
-0.0074109994 -0.020994827 -0.019377815 4282477648
-0.0034813024 -0.020751551 -0.020144543 4282216274
-0.0013725758 -0.021383487 -0.01985169 4281954899
0.0004487671 -0.020507723 -0.020910965 4281955664
0.0021157265 -0.018878743 -0.022644194 4281695053
0.0042273849 -0.01951009 -0.022351617 4281565004
0.0060355514 -0.018634781 -0.023408053 4281760589
0.0079955682 -0.018512607 -0.023789866 4281826124
0.009795811 -0.017637461 -0.024844604 4281891659
0.011915743 -0.018267855 -0.024553223 4281956938
0.014866903 -0.022659898 -0.020903101 4282154564
0.018018089 -0.027802125 -0.016587701 4282675784
-0.0013499446 -0.02376119 -0.020334592 4282215508
0.00062033162 -0.023638912 -0.020718792 4282282063
0.0024417415 -0.022760794 -0.021776436 4282086989
0.004409492 -0.022638403 -0.022159951 4281891148
0.0060687363 -0.021005258 -0.023888277 4281825613
0.0078743026 -0.020127758 -0.024942493 4281890893
0.0096745603 -0.019250438 -0.025995636 4281956683
0.011956487 -0.020637855 -0.025034929 4281890893
0.01474417 -0.024288341 -0.022065101 4281955409
0.01789403 -0.029446021 -0.017760683 4282282574
0.00035296753 -0.024504483 -0.022550104 4282541909
0.002469264 -0.025140129 -0.022261707 4282477648
0.0042880811 -0.024259858 -0.023317153 4282085714
0.0061016269 -0.023379833 -0.024371432 4281955408
0.0079098716 -0.022500008 -0.025424579 4281825104
0.010031778 -0.023134708 -0.025136927 4282283339
0.012159079 -0.023768984 -0.02485024 4282414153
0.014786296 -0.026673347 -0.022558099 4282086223
0.017434962 -0.029576227 -0.020270031 4282805324
0.012037057 -0.025390178 -0.026007103 4281952349
-0.028505087 0.012141816 0.041493949 4285229353
-0.02700191 0.015695028 0.037421312 4285558048
-0.024763629 0.014448546 0.038495626 4285885469
-0.02195695 0.009776473 0.043237779 4285885468
-0.029868864 0.018713795 0.031483948 4285426723
-0.028185181 0.020900391 0.028892439 4285754908
-0.026082776 0.020335421 0.029235881 4285688864
-0.023640826 0.017708451 0.031775456 4285820189
-0.020949192 0.013708189 0.035774712 4285754909
-0.018691979 0.012458704 0.036842208 4285558303
-0.01666259 0.012583971 0.036445979 4285427489
-0.014755078 0.013396159 0.03531947 4285230118
-0.012727998 0.01352147 0.034923833 4285164073
-0.0045213588 0.0029193163 0.04538868 4285097519
-0.032394148 0.019695319 0.027760401 4285295909
-0.030712985 0.021888249 0.025174126 4285820953
-0.029047683 0.024080262 0.022591069 4285689119
-0.027072795 0.024201758 0.022205189 4285623583
-0.02476421 0.022254266 0.024011787 4285755164
-0.021983959 0.017549612 0.028736535 4285821209
-0.019632094 0.015604906 0.030534852 4285689628
-0.017740801 0.016418226 0.029413 4285558814
-0.016220324 0.019298397 0.026106093 4285690394
-0.014472008 0.020799637 0.024259765 4285624093
-0.012479745 0.020922855 0.023870964 4285755673
-0.010097519 0.018980488 0.025663696 4285820443
-0.0070360079 0.013597324 0.031086482 4285885978
-0.0035255402 0.0061522126 0.038679358 4285755163
0.00059597939 -0.0040413365 0.049163084 4285689118
-0.032916695 0.020817846 0.023658536 4285427489
-0.03124585 0.023016684 0.021079145 4285689629
-0.029590882 0.025214694 0.018502884 4285821464
-0.027518518 0.024643395 0.018848844 4285886998
-0.025218569 0.02268865 0.02065229 4285886999
-0.022447623 0.017967962 0.025367472 4285689884
-0.020220764 0.016707659 0.026434425 4285624348
-0.018459179 0.018213905 0.024588574 4285624348
-0.016829848 0.020410828 0.022017758 4285755419
-0.01521644 0.022606887 0.019450061 4285755418
-0.013491876 0.0241111 0.01761169 4285623583
-0.011258803 0.022851683 0.018677723 4285623839
-0.0084850751 0.018830605 0.022641931 4285689373
-0.0051384866 0.012049861 0.029498056 4285689629
-0.00091127306 0.001130864 0.040687833 4285689883
-0.035309084 0.021142609 0.020684756 4285361954
-0.033638082 0.023348004 0.018110041 4285493533
-0.031777352 0.024163179 0.016996972 4285623838
-0.029921778 0.024978168 0.015884921 4285623839
-0.027855016 0.024404243 0.016230389 4285689374
-0.025671877 0.02313666 0.017302446 4285624094
-0.023023747 0.019093879 0.02128097 4285624093
-0.02104044 0.01921609 0.020893589 4285624349
-0.019056976 0.019338407 0.020506244 4285624348
-0.017437994 0.021541283 0.017942268 4285624348
-0.015710697 0.023049995 0.016106464 4285953043
-0.014120869 0.025251243 0.013548315 4285886998
-0.012028582 0.024679676 0.013889287 4285821209
-0.0092693567 0.020644426 0.017846614 4285821719
-0.0058029927 0.01314792 0.025412489 4285755928
-0.0014516264 0.0015002936 0.03730141 4285689629
-0.035720922 0.021602497 0.017333616 4285493023
-0.03395763 0.023116969 0.015493371 4285820954
-0.031999558 0.023237139 0.015110556 4285821209
-0.029830657 0.021963984 0.016182039 4285820953
-0.027650833 0.020691648 0.017251413 4285689884
-0.025681436 0.02081278 0.016866583 4285624093
-0.023598485 0.020237774 0.017207369 4285624604
-0.021626033 0.020359293 0.016822089 4285559069
-0.019772105 0.021176808 0.015712284 4285624349
-0.01792337 0.021994069 0.014603622 4285558558
-0.016079821 0.022811107 0.013496038 4285558558
-0.014241472 0.0236279 0.012389533 4285689628
-0.012149461 0.023054086 0.01272893 4285689628
-0.00939136 0.019005477 0.016676757 4285624349
-0.0057921372 0.010789685 0.024946589 4285558813
-0.0010285676 -0.0029796585 0.038970631 4285558814
-0.036228821 0.02277533 0.01326504 4285624349
-0.034376226 0.02359426 0.012156673 4285886489
-0.032221369 0.022315733 0.013227522 4285952534
-0.029845282 0.019640133 0.01574742 4286083859
-0.027663209 0.018363431 0.01681314 4285755418
-0.02580177 0.0191833 0.015703257 4285689628
-0.023945481 0.020002909 0.014594492 4285624348
-0.022094361 0.020822302 0.01348681 4285624348
-0.020366982 0.022339582 0.011657257 4285689629
-0.018528931 0.023158327 0.010552254 4285689629
-0.016448237 0.022581391 0.010892082 4285689628
-0.014362015 0.022004828 0.011230942 4285689629
-0.012141034 0.02073133 0.012289573 4285623838
-0.0093813464 0.016669571 0.016227391 4285624349
-0.0055122823 0.0070331246 0.025917266 4285559068
-0.00046947598 -0.0081739873 0.041346628 4285559069
-0.038111046 0.019636601 0.01394536 4285493279
-0.036541432 0.022562921 0.010660414 4285558558
-0.034694143 0.023383714 0.0095546097 4285557793
-0.032647394 0.022801638 0.0098989122 4285623329
-0.030175112 0.019415498 0.013137985 4285755163
-0.027891189 0.017433077 0.01492497 4285755163
-0.025922023 0.017554119 0.014540132 4285689628
-0.024065688 0.018375903 0.013432942 4285624349
-0.022445954 0.020598426 0.010883082 4285690139
-0.02096048 0.023520313 0.0076151192 4285820953
-0.019133091 0.024340644 0.0065137632 4285952534
-0.016815923 0.022360794 0.0082946979 4285952788
-0.014356084 0.019682243 0.010792308 4285952788
-0.012261964 0.019104078 0.01112802 4285624348
-0.0093716085 0.014329456 0.015775099 4285558813
-0.0052333623 0.0032635033 0.026878677 4285559324
0.0002251789 -0.014089376 0.044424716 4285559324
-0.03879457 0.02224084 0.0084419735 4285493279
-0.0371437 0.024471149 0.0058904141 4285755673
-0.035210274 0.024589594 0.0055122674 4285755163
-0.033072367 0.023301139 0.0065799244 4285754909
-0.030713886 0.020606726 0.0090902932 4285821464
-0.028548785 0.019320115 0.010152768 4285886998
-0.026482955 0.018737294 0.010491859 4285624093
-0.024411559 0.018154852 0.010829985 4285624349
-0.022912331 0.02108632 0.0075656436 4285755418
-0.021197952 0.022611566 0.0057450328 4285820699
-0.019494101 0.024136201 0.0039265882 4285820699
-0.017059319 0.021447167 0.0064225476 4285754909
-0.014729202 0.019461602 0.0081961192 4285886999
-0.012253918 0.01677525 0.010684311 4285689374
-0.0092305243 0.011283562 0.016036928 4285624094
-0.0048210733 -0.001220651 0.028547414 4285493279
9.598583e-05 -0.01582285 0.043187428 4285493023
-0.040853262 0.020515993 0.0076748654 4284901423
-0.039288163 0.023459539 0.0044035241 4285559069
-0.037551008 0.02498975 0.0025811549 4285821974
-0.035725057 0.02581352 0.001482727 4285887254
-0.033598289 0.024519935 0.0025493167 4285821718
-0.031146623 0.021110408 0.0057762265 4285755928
-0.02888266 0.019113407 0.0075574107 4285624349
-0.026932478 0.019233197 0.0071762279 4285624349
-0.024982117 0.019353114 0.0067950804 4285624349
-0.023377702 0.021587864 0.0042578559 4285821464
-0.021671131 0.023116961 0.0024420209 4285755419
-0.019733645 0.023236364 0.0020636003 4285558049
-0.017425738 0.021242693 0.0038365871 4285558049
-0.015101597 0.019250087 0.0056065172 4285689629
-0.012503669 0.01585044 0.0088055022 4285755418
-0.0090900362 0.0082290769 0.016292691 4285624349
-0.0046783388 -0.0043146834 0.028773621 4285493023
-0.00058042631 -0.014741682 0.039092291 4285493023
-0.041153096 0.020327315 0.0050845239 4285427744
-0.039405242 0.021862492 0.0032631438 4285493789
-0.037667878 0.023397081 0.0014439262 4285492769
-0.035841867 0.024223045 0.00034708716 4285492769
-0.033715539 0.022924975 0.0014104974 4285558303
-0.031473801 0.020919852 0.0031910874 4285558558
-0.029322989 0.019623466 0.0042498428 4285558814
-0.027600676 0.021157615 0.0024339221 4285558813
-0.02566383 0.021276653 0.0020553824 4285558813
-0.023957238 0.022810072 0.00024263002 4285624604
-0.022143289 0.023635946 -0.00085136853 4285887509
-0.020213954 0.023754835 -0.0012282077 4285887254
-0.018037952 0.02246055 -0.00017389283 4285887254
-0.015599221 0.019754201 0.0023083668 4285887254
-0.012624457 0.014224038 0.0076445304 4285689884
-0.0089501776 0.0051660314 0.016542267 4285493023
-0.0046701692 -0.006711401 0.028280284 4285492768
-0.0016654283 -0.011525095 0.032871205 4285556773
-0.041088417 0.017304555 0.0053816512 4285228843
-0.039241381 0.018133767 0.0042821355 4285624349
-0.037399463 0.018962771 0.0031837076 4285624349
-0.035562702 0.019791529 0.0020863339 4285624349
-0.033629425 0.019909933 0.0017081946 4285558559
-0.031487279 0.018608488 0.0027653277 4285558814
-0.02954825 0.018727437 0.002386203 4285493278
-0.027828418 0.020265788 0.00057395548 4285559069
-0.026119113 0.021803655 -0.0012362003 4285559069
-0.024420328 0.023340933 -0.0030441731 4285559069
-0.022614397 0.024168544 -0.0041350517 4285493278
-0.020572819 0.023577854 -0.0037958045 4285624858
-0.018279552 0.021569982 -0.002029689 4285558813
-0.015844271 0.018854499 0.00044680759 4285558813
-0.012873612 0.013306454 0.0057708621 4285559068
-0.0089420415 0.0028027743 0.016073346 4285558814
-0.0047960915 -0.0084040314 0.027072091 4285492003
0.017084911 -0.0041770861 0.019855663 4285426214
0.01845929 -0.0012249202 0.016636476 4285492513
0.020655612 -0.0018039942 0.016946938 4285819933
0.023542741 -0.0052059814 0.020074688 4285885213
0.027152861 -0.01142887 0.026013434 4285819424
0.030457854 -0.016237617 0.030535869 4285228844
-0.040751971 0.012134142 0.0078286752 4285228843
-0.038891494 0.012966335 0.0067281164 4285689629
-0.036940016 0.013085634 0.0063462518 4285689629
-0.035087138 0.01391755 0.0052473191 4285558049
-0.033239409 0.014749259 0.0041494668 4285557793
-0.031292662 0.014868543 0.0037687328 4285623583
-0.02945257 0.015700027 0.0026724767 4285624348
-0.027727187 0.017243102 0.00086233951 4285624348
-0.026012294 0.018785641 -0.0009456519 4285558813
-0.024193101 0.019616149 -0.0020375978 4285559068
-0.022379071 0.020446368 -0.0031284392 4285558813
-0.020449981 0.020565182 -0.0035052765 4285559068
-0.018274896 0.019261956 -0.0024572797 4285493278
-0.015837729 0.0165378 1.2332574e-05 4285558813
-0.01273755 0.010261439 0.0060345456 4285493534
-0.0089341849 0.00043538958 0.015601467 4285558559
-0.0051892549 -0.0086755231 0.024443511 4285688609
0.015163653 0.0019333586 0.010904174 4285623329
0.016840708 0.0034757257 0.0091051422 4285755163
0.018844087 0.003601104 0.0087152496 4285688863
0.021361057 0.0016024262 0.010434385 4285820188
0.024241876 -0.0018108785 0.013555363 4285754909
0.027149549 -0.0052223727 0.016671211 4285493023
0.029725594 -0.0072169602 0.01837907 4285493278
0.032135844 -0.0085030869 0.019383039 4285493023
0.033818446 -0.0069594979 0.017583482 4285493279
0.035490334 -0.0054165423 0.01578613 4285427488
0.0379113 -0.0067015886 0.016788241 4285886234
0.041306183 -0.01151941 0.02128242 4285819933
0.045129232 -0.017747782 0.027165961 4285754398
-0.040507697 0.0076571032 0.0095429979 4285228843
-0.038729742 0.0092071965 0.0077253692 4285492514
-0.036770359 0.0093269274 0.0073419213 4285558049
-0.034810752 0.00944677 0.0069585014 4285558048
-0.032952286 0.010281339 0.0058600847 4285492259
-0.031202964 0.011830062 0.0040483344 4285492259
-0.029357478 0.012664005 0.0029526576 4285492259
-0.027517155 0.01349771 0.0018580537 4285492258
-0.02568201 0.014331266 0.00076449849 4285426468
-0.023737319 0.014450788 0.00038443506 4285426724
-0.021909863 0.015284017 -0.00070743449 4285492514
-0.019967504 0.015403621 -0.0010868795 4285426723
-0.018025003 0.015523329 -0.0014662892 4285360678
-0.015706018 0.013503827 0.00028521195 4285229353
-0.012473971 0.0064949021 0.0070019029 4285163819
-0.0089265816 -0.0019361675 0.015126683 4285228844
0.012870006 0.00085977465 0.0094078816 4285425958
0.014223929 0.003828153 0.0062054731 4286149138
0.015887771 0.0053740889 0.0044122338 4285623583
0.017877597 0.0054986328 0.0040249843 4285557794
0.020209491 0.0042027384 0.0050405711 4285623584
0.022725854 0.0021975264 0.0067550689 4285689628
0.025611088 -0.0012264028 0.0098672137 4285689884
0.028165042 -0.003229022 0.01157457 4285559068
0.030371618 -0.0038112998 0.011880241 4285559323
0.031661429 -0.00084599853 0.0086909942 4285558813
0.033116888 0.0014088154 0.0062042587 4285690394
0.035125621 0.0015354604 0.0058140103 4285820188
0.038289171 -0.0025913119 0.009607248 4285820189
0.042070322 -0.0088421851 0.015484396 4285885979
0.046295386 -0.016507015 0.022744644 4285623328
-0.040355086 0.003880091 0.010529373 4285228843
-0.038568944 0.0054350868 0.0087132864 4285492004
-0.03669744 0.0062723905 0.0076138116 4285492514
-0.034831099 0.0071094632 0.0065154135 4285492513
-0.032868735 0.0072295368 0.0061314981 4285492258
-0.031010009 0.0080663562 0.0050347466 4285492259
-0.029156461 0.0089029968 0.0039390251 4285492259
-0.027417257 0.010455675 0.0021326039 4285492259
-0.02546484 0.010575548 0.0017509311 4285492259
-0.023397677 0.0099795759 0.0020800922 4285492259
-0.021442242 0.010099843 0.0016979855 4285492258
-0.019606523 0.010935865 0.00060617924 4285426724
-0.017898627 0.012487143 -0.0011937451 4285295143
-0.015449628 0.00974603 0.0012606159 4285229353
-0.012339279 0.0034305602 0.0072517768 4285031983
0.011944868 0.0027690381 0.0047162585 4285492513
0.013448715 0.0050324425 0.002224179 4285754908
0.015267503 0.0058693066 0.0011370629 4286083604
0.017249145 0.0059933215 0.0007513985 4285952279
0.019572526 0.0046924651 0.001765471 4285886998
0.021906665 0.0033924282 0.0027774833 4285886998
0.024603982 0.00066887587 0.0051850677 4285624348
0.027143881 -0.0013412386 0.0068903137 4285558813
0.029155158 -0.0012147874 0.0064993128 4285624604
0.030429414 0.0017583668 0.0033195503 4285886999
0.031682208 0.0047302544 0.00014403276 4285689374
0.033672027 0.0048557073 -0.0002425462 4285558048
0.036623336 0.0014256239 0.0028492063 4285689373
0.040186398 -0.0041355789 0.0080212243 4285754908
0.044385321 -0.011826292 0.015268814 4285623838
0.049043901 -0.02093444 0.023893222 4285493024
-0.040383995 0.0015294328 0.010078583 4285228843
-0.038687944 0.0038084686 0.0075517334 4285360678
-0.036912061 0.0053672567 0.0057409555 4285492514
-0.034950025 0.0054871887 0.0053570103 4285492513
-0.032886781 0.0048882142 0.0056849215 4285558048
-0.031025343 0.0057273731 0.0045892242 4285558049
-0.029062711 0.0058476254 0.0042053796 4285492258
-0.027317971 0.0074050725 0.0024010316 4285492258
-0.025472023 0.0082435757 0.0013085958 4285426723
-0.02340249 0.0076455101 0.0016356427 4285426468
-0.021444492 0.0077659041 0.0012530126 4285360678
-0.019486323 0.0078864247 0.00087043643 4285295398
-0.017772868 0.0094424263 -0.00092737004 4285294889
-0.015444398 0.0074102357 0.00081256777 4285360679
-0.012332983 0.0010749772 0.0067889877 4285294633
0.0099864155 0.00028406829 0.0046310686 4285491238
0.011341333 0.0032700226 0.0014412832 4285624349
0.013162773 0.0041091293 0.00035517104 4285623838
0.014978904 0.00494802 -0.00072982907 4285689374
0.017125718 0.0043569952 -0.00041619502 4285689628
0.019277938 0.0037664324 -0.00010353513 4285689629
0.021435566 0.003176257 0.00020819902 4285624093
0.023950659 0.0011578947 0.0019133091 4285624349
0.026303144 -0.00014519691 0.0029187482 4285558814
0.028484959 -0.00073343515 0.0032260008 4285624349
0.029567607 0.0029618889 -0.00064147823 4285821718
0.030810207 0.0059419721 -0.003808558 4285886998
0.03259971 0.0067802519 -0.0048876088 4285820954
0.035536628 0.0033382475 -0.0018011145 4285755419
0.039279599 -0.0029546767 0.0040544495 4285820953
0.043663286 -0.011383429 0.011979792 4285755419
0.04851165 -0.021233715 0.021277759 4285558049
-0.038342804 -0.0014264211 0.0099494904 4285229354
-0.036553338 0.00013758242 0.0081392713 4285360678
-0.034774385 0.0017010346 0.0063311681 4285426469
-0.032804228 0.001821503 0.0059456751 4285426978
-0.030937411 0.00266321 0.0048504714 4285558304
-0.028969549 0.002783753 0.0044655818 4285492513
-0.027219258 0.0043458641 0.0026633907 4285558304
-0.025367923 0.0051868856 0.0015714858 4285492258
-0.023407549 0.005307287 0.0011882912 4285426469
-0.021447003 0.0054278076 0.00080514327 4285295399
-0.019605897 0.0062685758 -0.00028457306 4285294888
-0.01776997 0.0071090609 -0.001373155 4285294634
-0.015439458 0.005070366 0.00036152266 4285360679
-0.012454592 -0.00056511164 0.0056182034 4285294888
-0.0095570274 -0.0054783598 0.010162044 4285294124
0.0092343315 0.001508072 0.00065863691 4285491749
0.010898627 0.0030670017 -0.0011252053 4285624348
0.012714729 0.0039079636 -0.0022086836 4285689628
0.015020974 0.0025970191 -0.0011979453 4285689373
0.017170161 0.0020039305 -0.00088639185 4285689629
0.019495275 0.00069434941 0.00012087822 4285624094
0.021311559 0.001535818 -0.00096226856 4285624349
0.023298375 0.0016604811 -0.0013486985 4285558813
0.025285218 0.0017852783 -0.0017350409 4285559069
0.027090823 0.0026264638 -0.0028159097 4285558558
0.028523251 0.0048995316 -0.0052836761 4285624348
0.029939577 0.0071717203 -0.0077482872 4285755929
0.03228623 0.0058643222 -0.0067445915 4285821464
0.035219479 0.0024110675 -0.0036654528 4285690139
0.03895811 -0.0039019585 0.0021764468 4285689629
0.043336943 -0.012357458 0.010083385 4285623839
0.048380114 -0.022953935 0.020050731 4285558304
-0.035719536 -0.0087327659 0.014070556 4284900913
-0.03410963 -0.0057160631 0.010841962 4285228843
-0.032319561 -0.0041474551 0.0090349652 4285163818
-0.030539997 -0.0025793463 0.0072300546 4285295399
-0.028664909 -0.0017349049 0.006134944 4285360933
-0.026903711 -0.00016776472 0.004333809 4285426978
-0.025264435 0.002121672 0.0018282142 4285426469
-0.023526952 0.0036875904 3.1901523e-05 4285360678
-0.021683306 0.004530564 -0.0010568127 4285229098
-0.019605972 0.0039286911 -0.00073433295 4285229099
-0.017767355 0.0047715753 -0.0018218979 4285229098
-0.015559562 0.0034483224 -0.00079641864 4285294633
-0.012958549 -3.9502978e-05 0.0023372993 4285360169
-0.010200445 -0.0042471737 0.0061687436 4285425194
0.0087974966 0.001310125 -0.0019055475 4285623839
0.010296993 0.0035929605 -0.0043823645 4285886489
0.012105078 0.0044356287 -0.0054626614 4285952024
0.014567796 0.0024002343 -0.0037573539 4285952534
0.017046638 0.00036601722 -0.0020551272 4285952789
0.019200921 -0.00022889674 -0.0017460622 4285689883
0.021014532 0.0006146431 -0.0028271321 4285558813
0.022998529 0.0007391423 -0.0032130051 4285558813
0.02480416 0.0015823692 -0.0042923018 4285558813
0.026423369 0.0031438321 -0.0060634613 4285624093
0.027848098 0.0054230466 -0.0085249469 4285623839
0.029816043 0.0055470169 -0.0089073535 4285623839
0.032162219 0.0042351857 -0.0079067908 4285623839
0.034902677 0.0014886558 -0.0055264626 4285559068
0.03863696 -0.0048444569 0.00030178763 4285559069
0.043602426 -0.015479058 0.01025999 4285559069
0.049047947 -0.027542919 0.021581326 4285493024
0.0080478117 0.0025657192 -0.0058554374 4285820698
0.0095369369 0.0048545152 -0.0083254091 4285689118
0.011496451 0.0049768612 -0.0087069664 4285557794
0.013950486 0.0029343218 -0.0070047937 4285623329
0.016253151 0.0016143918 -0.0059996955 4285820953
0.018736746 -0.00042601675 -0.0043031424 4285689883
0.020717889 -0.00030182302 -0.0046885572 4285558813
0.022874592 -0.00089849532 -0.0043814424 4285624604
0.024323806 0.0013885945 -0.006842982 4285755674
0.025756929 0.0036748201 -0.0093013551 4285755418
0.027357569 0.0052396208 -0.011065597 4285952533
0.029692534 0.0039226189 -0.0100662 4285952789
0.032416113 0.001166068 -0.0076890737 4285821208
0.035544377 -0.0030289888 -0.0039373897 4285624348
0.03928772 -0.009381339 0.0018746015 4285559069
0.04445821 -0.020768106 0.01249535 4285493534
0.0059586391 0.00081918389 -0.0066310912 4285491748
0.0072994828 0.0038393438 -0.009792462 4285821209
0.0087782443 0.0061340407 -0.012255544 4285952279
0.010564923 0.0069798082 -0.013328503 4285689374
0.013004899 0.0049297437 -0.011628456 4285689629
0.01546102 0.0028808564 -0.0099314339 4285886998
0.017933242 0.00083310902 -0.0082375184 4285690138
0.019903518 0.0009566173 -0.0086208191 4285624349
0.021698441 0.0018034577 -0.0096949022 4285624348
0.023488026 0.0026500821 -0.010767868 4285755419
0.025272263 0.0034964904 -0.01183969 4285820954
0.026867721 0.0050654411 -0.013599731 4285689374
0.029382948 0.0030210763 -0.011913609 4285820954
0.032291804 -0.00046686828 -0.0088539757 4285952788
0.035610374 -0.0053974167 -0.0044239275 4285624093
0.039743003 -0.013213575 0.0027478058 4285493278
0.044918671 -0.024635181 0.013341747 4285427744
0.0052218772 0.0021026433 -0.010563698 4285623583
0.0063960776 0.0058575571 -0.014409592 4285755419
0.0078618005 0.0081580281 -0.016865309 4286018324
0.0099586993 0.0075525939 -0.016550222 4285952534
0.012389995 0.0054954514 -0.014853343 4285887254
0.015004579 0.0027134567 -0.012468632 4285755929
0.017300963 0.001384452 -0.011468658 4285624348
0.019263044 0.0015074387 -0.011850374 4285624349
0.020874735 0.003081426 -0.013610624 4285624349
0.022475734 0.0046548396 -0.015368655 4285952789
0.024246585 0.0055026039 -0.016436277 4285689119
0.026195332 0.005625248 -0.016815042 4285557794
0.028515929 0.0042985231 -0.015819296 4285557793
0.031601679 7.4267387e-05 -0.012078755 4285623838
0.035102174 -0.005596675 -0.0069719963 4285624093
0.039809346 -0.01561027 0.0022404213 4285624349
0.045181502 -0.027791232 0.013493787 4285493024
0.0049472824 0.0012171641 -0.012407757 4285492768
0.0062757581 0.0042541474 -0.015553854 4285558814
0.0075828619 0.0072899088 -0.018695697 4285624604
0.0096767843 0.0066820383 -0.018381603 4285558558
0.011940431 0.0053463653 -0.017378721 4285558304
0.014715843 0.0018270612 -0.014309959 4285558304
0.016669698 0.0019494072 -0.014690164 4285558814
0.018451236 0.0027996898 -0.015758511 4285624349
0.019702315 0.0058326796 -0.018888921 4285558558
0.021465136 0.0066820234 -0.019953454 4285886998
0.02322261 0.0075311512 -0.02101686 4285887253
0.025340883 0.0069258139 -0.020706836 4285887254
0.02746452 0.0063209608 -0.020397756 4285821973
0.030535709 0.0020825714 -0.016664058 4285821463
0.034212422 -0.0043335557 -0.01088271 4285624349
0.039487772 -0.01655817 0.00036199205 4285558559
0.045247182 -0.030229434 0.012956191 4285427490
0.0048264787 -0.00039476901 -0.013558142 4285295654
0.0061554685 0.0026510358 -0.016697902 4285229353
0.007780686 0.0042338967 -0.018454842 4285295399
0.0098796412 0.003624171 -0.018143386 4285295399
0.01198402 0.0030149221 -0.017832883 4285229863
0.014427472 0.00094538182 -0.016147925 4285229863
0.0163785 0.001067549 -0.016527578 4285427743
0.017985173 0.0026499182 -0.018280495 4285493534
0.019406289 0.0049615204 -0.020717353 4285493278
0.021166451 0.0058129132 -0.021779746 4285558814
0.022921253 0.0066641122 -0.022841066 4285690138
0.024853621 0.0067857206 -0.023216646 4285755674
0.02697159 0.0061782449 -0.022908043 4285690394
0.030036267 0.0019262508 -0.019182734 4285690394
0.034087852 -0.005967766 -0.012048476 4285493278
0.039553814 -0.018958628 -0.0001480747 4285493278
0.0047057047 -0.0020063892 -0.014708301 4285295143
0.0065030605 -0.0011514649 -0.015777051 4285295398
0.008136481 0.00043632835 -0.017532427 4285360678
0.010243181 -0.0001751557 -0.017224049 4285360678
0.012027301 0.00067935884 -0.018289994 4285360679
0.014139459 6.8455935e-05 -0.017982498 4285360679
0.015918307 0.00092288107 -0.019047245 4285295144
0.017691836 0.001777038 -0.020110827 4285295143
0.019285329 0.0033630505 -0.021857835 4285361698
0.021222891 0.0034847483 -0.0222346 4285427234
0.022980399 0.0043382943 -0.023294788 4285493023
0.024732549 0.0051916465 -0.024353895 4285493023
0.026664767 0.0053133667 -0.024729356 4285427999
0.029537501 0.0017791465 -0.021694906 4285559069
0.0339633 -0.0076016635 -0.013214027 4285427999
0.040006466 -0.022824988 0.0007007923 4285427998
0.0047380738 -0.0043532997 -0.015171085 4285229863
0.0065381229 -0.0034960061 -0.016238753 4285295143
0.0083328746 -0.0026389509 -0.017305315 4285360934
0.010444604 -0.0032522902 -0.016999576 4285360934
0.012397923 -0.0031302273 -0.017379861 4285294888
0.014184799 -0.0022732764 -0.018444613 4285295143
0.016135529 -0.0021511316 -0.018824216 4285229098
0.018086292 -0.0020288602 -0.019203737 4285229354
0.019862544 -0.0011721849 -0.020266138 4285426469
0.021633448 -0.000315696 -0.021327458 4285360679
0.02357891 -0.00019337237 -0.021705661 4285295143
0.025159229 0.0013965666 -0.023446631 4285295143
0.027099341 0.0015187934 -0.023823619 4285295654
0.029979123 -0.0020259842 -0.02079859 4285230629
0.03460123 -0.012168273 -0.011659884 4285165094
0.040264826 -0.02597113 0.00086107291 4285164584
0.004617203 -0.0059664994 -0.016322378 4285229864
0.0067284927 -0.0065823346 -0.016018353 4285360933
0.0085286163 -0.0057227314 -0.017084356 4285360934
0.010645393 -0.0063379556 -0.016781203 4285360934
0.012440272 -0.0054784268 -0.017845988 4285229354
0.014396165 -0.0053560883 -0.018226698 4285294889
0.016183093 -0.0044968054 -0.019289754 4285229099
0.01813639 -0.0043743849 -0.019669775 4285294888
0.020264063 -0.0049883053 -0.019368287 4285295398
0.022220083 -0.0048654377 -0.019748632 4285360934
0.023816656 -0.0032701939 -0.021489624 4285426469
0.025402511 -0.0016754568 -0.023228478 4285361188
0.027347827 -0.0015528947 -0.023606479 4285295398
0.030044213 -0.0043727607 -0.021269143 4285295399
0.034476046 -0.013810396 -0.01283129 4285295143
0.040136278 -0.027655244 -0.00034025125 4285229354
0.0049546883 -0.0097994953 -0.015421414 4285295144
0.0067628026 -0.0089373291 -0.016487449 4285229608
0.0085656121 -0.0080753267 -0.017552413 4285295399
0.010684744 -0.0086926818 -0.017251309 4285229863
0.012645803 -0.0085701197 -0.017633099 4285229609
0.014440734 -0.0077082515 -0.018696256 4285229353
0.016399197 -0.0075856149 -0.019077361 4285229353
0.01835769 -0.0074628592 -0.019458383 4285294888
0.02031621 -0.0073399842 -0.01983932 4285294888
0.022274751 -0.0072169751 -0.020220168 4285295143
0.024053745 -0.0063554794 -0.021279696 4285360934
0.025645152 -0.0047560483 -0.023016382 4285295143
0.027780594 -0.0053711608 -0.022717644 4285360934
0.030484192 -0.0081993788 -0.020388145 4285295399
0.03473144 -0.01692754 -0.012649002 4285294889
0.039621841 -0.027864017 -0.0028937068 4285097773
0.0048333891 -0.01141873 -0.016577005 4285163818
0.0067967996 -0.011296421 -0.016959541 4285295399
0.0086023062 -0.010432109 -0.018023383 4285360934
0.010563157 -0.010309726 -0.01840524 4285294888
0.012524061 -0.010187194 -0.018787008 4285229354
0.014318995 -0.0093231201 -0.019848563 4285163818
0.015939951 -0.0077180415 -0.021588221 4285229354
0.017892934 -0.0075956434 -0.021968178 4285229354
0.01984594 -0.0074731186 -0.02234805 4285229353
0.021975689 -0.0080911666 -0.022050083 4285294888
0.023752017 -0.0072276518 -0.023107499 4285294888
0.025887135 -0.0078451186 -0.022810403 4285295144
0.027842861 -0.0077219009 -0.023190416 4285360934
0.030548312 -0.010558799 -0.020867718 4285295144
0.034605954 -0.018573418 -0.013823101 4285229098
0.0048645698 -0.013782054 -0.017051512 4284967213
0.0068304986 -0.013659596 -0.017434543 4285032749
0.0086386949 -0.01279293 -0.018497309 4285229864
0.010281112 -0.011182457 -0.020238267 4285164073
0.012565494 -0.012547716 -0.019261932 4284967468
0.01452896 -0.012424916 -0.019644117 4284967213
0.016492471 -0.012301967 -0.020026201 4285098794
0.018113632 -0.010692343 -0.021762656 4285098538
0.020071838 -0.010569468 -0.02214353 4285163819
0.021853521 -0.0097035617 -0.023200473 4285097518
0.02380909 -0.0095805973 -0.023580642 4285097519
0.025946565 -0.010200128 -0.023285622 4285294889
0.027904816 -0.010076746 -0.023666127 4285294889
0.030799385 -0.013664596 -0.020676082 4285294889
0.034860369 -0.021703161 -0.013649857 4285228844
0.01867573 -0.015288554 -0.020211929 4284901169
0.020818207 -0.015910394 -0.019919729 4284901424
0.024582084 -0.014917597 -0.021360451 4284900914
0.026369162 -0.014048889 -0.022416646 4285097518
0.028519705 -0.014669634 -0.022125663 4285098284
0.031423986 -0.018267825 -0.019145602 4285229098
0.035114132 -0.024841413 -0.013482695 4285097773
