# .PCD v0.7 - Point Cloud Data file format
VERSION 0.7
FIELDS x y z rgba
SIZE 4 4 4 4
TYPE F F F U
COUNT 1 1 1 1
WIDTH 965
HEIGHT 1
VIEWPOINT 0 0 0 1 0 0 0
POINTS 965
DATA ascii
0.035667527 -0.050246 0.0069283303 4288230704
0.039017551 -0.054504417 0.010475004 4288361264
0.042849377 -0.060229786 0.015348408 4288426288
0.01149971 -0.038632505 -0.0031377012 4288035119
0.013853434 -0.039964609 -0.0022411915 4288165678
0.016614178 -0.042773746 -4.1369349e-06 4288296493
0.018793758 -0.043364882 0.00021570735 4288885544
0.02097868 -0.043955438 0.00043438561 4288165168
0.023375079 -0.045283861 0.0013215374 4288099889
0.02619976 -0.048087686 0.0035444219 4288165168
0.028411316 -0.048675902 0.0037573036 4288099379
0.03084233 -0.050001375 0.0046369042 4287903028
0.033500753 -0.052063435 0.0061813351 4287903284
0.036614031 -0.055598952 0.0090554263 4287903284
0.039975993 -0.059869565 0.012589566 4288491568
0.0092020072 -0.039658532 -0.0045358883 4288102694
0.011739809 -0.041737296 -0.0029697316 4287904303
0.014098313 -0.04307346 -0.002077559 4288230958
0.01666547 -0.04514984 -0.00051787682 4288230958
0.01864671 -0.045002006 -0.00096947886 4288558123
0.020831274 -0.045594774 -0.00075235404 4288034609
0.02363904 -0.048408747 0.0014677364 4287969073
0.026468076 -0.051220961 0.003683025 4288034353
0.029318415 -0.054031484 0.0058936123 4288099633
0.031762175 -0.055360362 0.0067670476 4287968309
0.034649741 -0.058167852 0.0089693312 4287902773
0.037558563 -0.06097357 0.011166841 4286660158
0.0094367824 -0.04276558 -0.0043681087 4288626463
0.01178671 -0.044106863 -0.0034773294 4288100398
0.013952196 -0.044703633 -0.0032577906 4287969328
0.016320823 -0.046043225 -0.0023711342 4288427564
0.018299254 -0.045895569 -0.0028220806 4288689703
0.02109009 -0.048719682 -0.00060478784 4288035119
0.024107972 -0.052284829 0.0022741761 4287642674
0.027360888 -0.05659043 0.0058130529 4287380788
0.0092915967 -0.044388816 -0.0055434089 4287971624
0.011448707 -0.04498852 -0.0053236876 4288100653
0.013806116 -0.046333499 -0.0044378098 4287969583
0.015779037 -0.046186402 -0.0048876051 4288166443
0.01795223 -0.046784498 -0.0046712514 4288689448
0.020942353 -0.050362773 -0.001794247 4287119924
0.0089570433 -0.045263387 -0.0073853638 4287775528
0.018252663 -0.015313968 0.035488158 4280842333
0.021065757 -0.017926686 0.037857562 4281694799
0.0028015897 0.016560361 0.00096856803 4280648278
0.0071761422 0.0076847151 0.00973453 4280713558
0.012591656 -0.0046522692 0.022018421 4280910418
0.017118141 -0.013516419 0.03074988 4281369929
0.019118372 -0.013367265 0.030293871 4282547008
-0.0054026172 0.016531512 -0.00056864601 4280779094
-0.0033473484 0.015974101 -0.00028831977 4281041743
-0.00091971084 0.014024556 0.0014059469 4281108808
0.0011517219 0.013468489 0.0016827676 4281240133
0.0036061443 0.011521138 0.0033710748 4281370184
0.0077998713 0.0033135004 0.011407522 4281239624
0.012445826 -0.006280303 0.020839702 4281370693
0.01618243 -0.012391813 0.026732307 4281894464
0.017772973 -0.010853238 0.024870921 4283267383
-0.012523171 0.02015841 -0.0060812533 4280514403
-0.010325175 0.018896982 -0.0050875843 4281042254
-0.0079411268 0.016937286 -0.0033884728 4281042763
-0.0053630285 0.014279976 -0.00098578632 4281173579
-0.0031247921 0.013021812 -1.0877848e-06 4281304393
-0.00087580457 0.011764508 0.00098127685 4281371203
0.0010120086 0.011904769 0.00055051595 4281436484
0.0036543496 0.0092526153 0.0029388331 4281567299
0.0078482255 0.0010187216 0.010955481 4281436738
0.012687903 -0.0093035027 0.021068256 4281501763
0.016034734 -0.014039434 0.025539443 4281894209
-0.020705339 0.02088622 -0.0083392095 4280648534
-0.018702079 0.020319879 -0.0080508124 4280977484
-0.016364444 0.018349789 -0.0063463207 4281108043
-0.014177851 0.017082922 -0.0053534843 4281239623
-0.011980463 0.015816912 -0.0043629985 4281240134
-0.0099447705 0.015253335 -0.0040817354 4281305668
-0.0075534359 0.013287593 -0.002389228 4281370948
-0.0051460303 0.011323188 -0.00070035178 4281435973
-0.0030834079 0.010761902 -0.00042502023 4281370693
-0.0010153539 0.010201074 -0.00015080627 4281436484
0.00087234005 0.010341309 -0.00058155321 4281501508
0.0037021823 0.0069799945 0.0025035478 4281501763
0.0080873221 -0.0019803494 0.01120303 4281501763
0.013316702 -0.013735138 0.022694521 4281632834
0.017065478 -0.019885212 0.028554779 4281698369
0.017677216 -0.014838934 0.023192555 4283266874
-0.022681657 0.019224998 -0.0090231914 4281105749
-0.020681512 0.018656112 -0.0087358188 4281239368
-0.018352706 0.016678676 -0.0070343241 4281109829
-0.016007785 0.014702529 -0.0053364374 4281306179
-0.013980623 0.01413592 -0.0050550252 4281306179
-0.012117606 0.014273725 -0.0054805866 4281502019
-0.00990998 0.013004214 -0.0044957092 4281501254
-0.007691592 0.011735551 -0.0035131695 4281566789
-0.0051073357 0.0090611801 -0.0011250926 4281435973
-0.0032225922 0.0092009827 -0.0015553217 4281435973
-0.00097196922 0.0079350024 -0.0005799206 4281500998
0.0011038184 0.0073726773 -0.00030910224 4281501508
0.003937874 0.0040007047 0.0027668104 4281436228
0.0087074041 -0.0063925758 0.012846244 4281501508
0.014137503 -0.018886261 0.025008563 4281501508
0.018290091 -0.026459105 0.032250948 4281632834
0.018921716 -0.021395996 0.026895624 4283397689
-0.022969928 0.0097838938 -0.0019204477 4281495133
-0.022192266 0.014871456 -0.0072988207 4281565259
-0.020181794 0.014301114 -0.0070154732 4281696839
-0.018165845 0.013731264 -0.0067333058 4281436228
-0.015980382 0.012455374 -0.0057468386 4281501508
-0.013784155 0.011180423 -0.0047627976 4281370948
-0.011746541 0.010612477 -0.0044853585 4281435973
-0.0095314272 0.0093390718 -0.0035054442 4281370693
-0.0073055848 0.0080666021 -0.0025279447 4281305669
-0.005068969 0.0067949891 -0.0015527941 4281501254
-0.0030016601 0.0062296316 -0.0012818417 4281435973
-0.00056353956 0.0042544901 0.00039033964 4281632068
0.0017052703 0.0029856004 0.0013583209 4281697348
0.004736878 -0.001101356 0.0051238034 4281762373
0.0095166452 -0.011526786 0.015176313 4281892423
0.014956366 -0.024059132 0.027306858 4281892423
0.019315971 -0.032359391 0.0352268 4282414918
0.019964827 -0.02727972 0.029879075 4284573239
-0.022567723 -0.0032581054 0.0086952057 4282347344
-0.022800367 0.0068158209 -0.0016299291 4282282319
-0.022172038 0.012628511 -0.0077040298 4281695563
-0.020317744 0.012765244 -0.0081279203 4281631558
-0.018140908 0.011484209 -0.0071428576 4281500998
-0.015953306 0.010204114 -0.0061602267 4281240133
-0.013588395 0.0082163513 -0.0044767195 4281370949
-0.011545774 0.0076465532 -0.0042020818 4281305668
-0.0093258694 0.0063691512 -0.0032266006 4281109828
-0.0070952065 0.0050925985 -0.0022534588 4281240389
-0.0048538037 0.0038169771 -0.0012827413 4281370183
-0.0026016422 0.0025422275 -0.0003143521 4281698113
-0.00015626475 0.00056107715 0.001351187 4281893953
0.0024903454 -0.0021259598 0.0037121493 4282416959
0.0055339523 -0.0062251687 0.007465044 4282612798
0.0099429749 -0.015269168 0.01609505 4282482749
0.015193865 -0.02713412 0.027497966 4283070269
-0.022707555 -0.0048420727 0.0075478088 4282674509
-0.022784572 0.0045509525 -0.0020503132 4282217293
-0.021996457 0.0096698776 -0.0074081514 4281630283
-0.020136971 0.0098069534 -0.0078332555 4281500233
-0.018116329 0.0092330277 -0.0075554745 4281304904
-0.015926573 0.0079486966 -0.0065766256 4281370184
-0.01355971 0.0059544891 -0.0048985016 4281370694
-0.011514746 0.0053826831 -0.0046260431 4280913224
-0.0092927031 0.0041010231 -0.003654358 4281044039
-0.0070598908 0.0028202385 -0.0026849965 4281304903
-0.0044623837 0.00012046844 -0.00031963829 4281697348
-0.0022027679 -0.001158081 0.00064370967 4282025024
-0.022921938 0.0029958561 -0.0031767664 4282086734
-0.021977086 0.0074164495 -0.0078209685 4281173323
-0.019956905 0.0068401992 -0.0075448053 4281043019
-0.017931271 0.0062644333 -0.0072698249 4281174088
-0.015409734 0.0035497658 -0.0048940657 4281631049
-0.013032947 0.0015497059 -0.0032231463 4281631048
-0.010977678 0.00097642839 -0.0029547112 4281501508
-0.0090884119 0.0011162013 -0.0033862535 4282219334
-0.0066766702 -0.00088095665 -0.001723079 4283199043
-0.022753973 8.8438392e-06 -0.0029000668 4282348108
-0.021492142 0.0030111447 -0.006134131 4281958214
-0.019461636 0.0024334267 -0.0058619929 4281500234
-0.017265078 0.0011406913 -0.0048913741 4281565769
-0.014731154 -0.0015818253 -0.0025250213 4281826633
-0.012507696 -0.0028724149 -0.001560349 4282742083
-0.0104421 -0.0034471303 -0.0012959242 4283788603
-0.021163817 -0.00069334358 -0.0051591732 4283721538
-0.022906374 -0.034737639 0.023644246 4282673233
-0.024194892 -0.040886119 0.027091146 4282411859
-0.022907522 -0.037111349 0.023147181 4282411858
-0.024481941 -0.041819222 0.025191762 4282412114
-0.023196381 -0.038033687 0.021256391 4282412114
0.00034724548 -0.018577255 -0.0016012518 4284114493
0.0020925067 -0.017709352 -0.0027277032 4282872389
0.0047637559 -0.020464547 -0.00042482 4282415429
0.00783417 -0.024666749 0.0032432787 4282284358
0.010553442 -0.027418129 0.0055353902 4283132743
-0.02649321 -0.044354908 0.025143892 4283000908
-0.024768528 -0.042747654 0.023295831 4282412623
-0.023484807 -0.03895136 0.019369036 4282347344
-0.022958275 -0.031508334 0.011982707 4282346578
-0.0024358369 -0.017406017 -0.0050594723 4283198789
-0.00051786005 -0.017263792 -0.0054973243 4281761098
0.0015836023 -0.017848462 -0.0052504605 4281631049
0.0040625408 -0.019886062 -0.0036367504 4281565769
0.0073123723 -0.02482868 0.00070708431 4281695308
0.0098340139 -0.026862882 0.0023112223 4282871368
-0.026776958 -0.045282759 0.023247521 4283590724
-0.025054667 -0.043671377 0.021403298 4282477903
-0.023629453 -0.040596403 0.018177241 4282346833
-0.023101132 -0.033131428 0.010806851 4282412368
-0.0072752424 -0.015626349 -0.008759479 4282806853
-0.0050204434 -0.016944915 -0.007824677 4282415174
-0.0027549304 -0.018262528 -0.006892276 4281434698
-0.00065921992 -0.018849872 -0.0066458592 4281239114
0.0014419071 -0.019436747 -0.0064005582 4281369929
0.004105974 -0.02220992 -0.0041091852 4281696073
0.0071684308 -0.026439004 -0.00045889989 4282152778
-0.025059458 -0.046059392 0.020896472 4283001418
-0.023630951 -0.042975478 0.017676182 4282412623
-0.023098167 -0.035488322 0.01032114 4282281553
-0.023212101 -0.025069304 0.00022093579 4282412368
-0.015516151 -0.015564822 -0.010218541 4282938689
-0.013620336 -0.015424959 -0.010651871 4281761609
-0.011390328 -0.016750045 -0.0097149862 4281631049
-0.0093192793 -0.017341875 -0.0094649373 4281696329
-0.0072428025 -0.01793319 -0.009216045 4281500999
-0.0051608942 -0.018524043 -0.0089682685 4281631559
-0.0027182288 -0.020577818 -0.007356382 4281435719
-0.0006201826 -0.021167234 -0.0071121072 4281500743
0.0014832504 -0.021756083 -0.0068690144 4281566024
0.0039633885 -0.023806736 -0.0052654259 4281631558
0.0064595677 -0.025856115 -0.0036653597 4282218568
-0.023775678 -0.044622093 0.016483225 4282936394
-0.023241114 -0.037113018 0.0091441125 4282477648
-0.02335247 -0.026663236 -0.00093376823 4282412878
-0.022934515 -0.019162498 -0.0082460288 4282937159
-0.019602079 -0.016676292 -0.011173236 4283526208
-0.017550435 -0.017272249 -0.010920699 4282088773
-0.015654881 -0.017132536 -0.011354066 4281826889
-0.013430834 -0.018462546 -0.010419187 4281369929
-0.011362884 -0.019056924 -0.010170162 4281435208
-0.0094590075 -0.018916257 -0.010605179 4281370184
-0.0073828585 -0.019509785 -0.010357851 4281566279
-0.0051264688 -0.020837002 -0.0094299763 4281631559
-0.0026818626 -0.022897243 -0.0078234114 4281566279
-0.00040137768 -0.024222389 -0.0069009066 4281697094
0.001707036 -0.024813063 -0.0066605955 4281566279
0.0041917749 -0.026869975 -0.0050629228 4281369673
0.0066925213 -0.028925538 -0.0034688655 4282218569
-0.023920354 -0.046268426 0.015290467 4284049724
-0.023383994 -0.038737394 0.0079672989 4282740809
-0.023492802 -0.028256886 -0.0020882804 4282153543
-0.022922341 -0.021472298 -0.0086990576 4282088519
-0.021479417 -0.019118652 -0.011189176 4281957958
-0.019584265 -0.018979214 -0.011622638 4281631303
-0.017530303 -0.01957716 -0.011372318 4281304903
-0.015632223 -0.019437261 -0.011806263 4281370184
-0.01357004 -0.02003438 -0.011557663 4281304649
-0.011335786 -0.021367915 -0.01062832 4281304649
-0.0092600659 -0.021963842 -0.010382591 4281304649
-0.0070069768 -0.023295753 -0.0094573777 4281370184
-0.0049177818 -0.023890398 -0.0092145875 4281435974
-0.002468586 -0.025956877 -0.007613996 4281827908
-0.00036325678 -0.026550099 -0.0073747206 4281762628
0.0019300878 -0.02787859 -0.0064582974 4281763138
0.004048869 -0.028470583 -0.0062219128 4281893953
0.0065488853 -0.030532755 -0.0046325997 4283003713
-0.023526821 -0.040361464 0.0067907013 4282742083
-0.023633059 -0.029850237 -0.0032425784 4282218824
-0.022910502 -0.023786195 -0.0091550592 4282153544
-0.021464471 -0.021425784 -0.01164099 4281762373
-0.019410972 -0.022026084 -0.01139231 4281697348
-0.017510507 -0.021886148 -0.011826903 4281435463
-0.015609924 -0.021746092 -0.012261445 4281370438
-0.01354542 -0.022345237 -0.012015017 4281370184
-0.011142559 -0.024422169 -0.010409106 4281369929
-0.0088927634 -0.02575881 -0.009486502 4281369928
-0.0069757737 -0.025617078 -0.0099244416 4281369928
-0.00470981 -0.026952326 -0.00900531 4281631559
-0.0024331361 -0.028286643 -0.0080885924 4281762374
-0.00032548979 -0.028881893 -0.0078514982 4282024769
0.0016051494 -0.02873867 -0.0082921907 4282222393
0.0039060116 -0.030070849 -0.0073806625 4283005753
-0.023814615 -0.041242339 0.0049307439 4284641069
-0.024068583 -0.029957883 -0.0057625845 4282609739
-0.023049291 -0.025361679 -0.010296389 4281957449
-0.021449868 -0.023737006 -0.012095775 4281697094
-0.019394051 -0.024339341 -0.011849269 4281697348
-0.017649356 -0.023457311 -0.012964983 4281697603
-0.015587959 -0.024059013 -0.012719586 4281697603
-0.013521131 -0.024660178 -0.012475329 4281566789
-0.011282608 -0.026002213 -0.011553496 4281762884
-0.0090333335 -0.027343281 -0.010634061 4281632324
-0.006944906 -0.027942538 -0.010394432 4281632324
-0.0046768337 -0.029281966 -0.0094791111 4282548284
-0.0025749318 -0.029879957 -0.0092424341 4283529013
-0.024060901 -0.032291114 -0.0062319012 4283067973
-0.023188051 -0.026936866 -0.011437507 4281891659
-0.021588374 -0.025307842 -0.013233697 4281762884
-0.019377459 -0.026656695 -0.012309212 4281632323
-0.017313857 -0.027260587 -0.01206601 4281763138
-0.015566338 -0.026376031 -0.013180701 4281893444
-0.013497181 -0.026979268 -0.012938583 4281893444
-0.011588663 -0.026838422 -0.013374785 4281959489
-0.0093425922 -0.028184108 -0.012457903 4282548283
-0.0070857741 -0.029528908 -0.011543332 4283789113
-0.024053562 -0.034628443 -0.0067041898 4283723578
-0.023326766 -0.028511755 -0.012578409 4281956938
-0.02172685 -0.026878349 -0.014371403 4281567554
-0.019516457 -0.028231643 -0.013450086 4281894209
-0.01761109 -0.028091393 -0.013885828 4282024514
-0.015545052 -0.028697178 -0.013644742 4282154818
-0.013473578 -0.029302388 -0.013404846 4282417469
-0.01139668 -0.0299071 -0.013166104 4283856179
-0.023315687 -0.030835502 -0.013041496 4282678079
-0.021865252 -0.028448589 -0.015508901 4282484533
-0.019965488 -0.028308891 -0.015943471 4283400494
-0.017750185 -0.029666059 -0.015026467 4284379693
-0.023304958 -0.033163257 -0.013507577 4284247603
0.015435457 -0.047068186 -0.0067323986 4282806854
0.017605629 -0.047668748 -0.0065170284 4282021964
0.020997342 -0.052752882 -0.0023196023 4281892424
0.024426322 -0.057834156 0.0018694606 4282153798
0.0086229183 -0.046133265 -0.0092239138 4284705329
0.010774009 -0.046737798 -0.0090061072 4283461949
0.012930471 -0.047341786 -0.0087894183 4282153288
0.0148951 -0.047195323 -0.0092373248 4281761098
0.017259456 -0.048548259 -0.0083593782 4281761863
0.020849474 -0.054397523 -0.0035101911 4281696839
0.024276905 -0.059494175 0.00066779181 4281957450
0.0036417767 -0.044276699 -0.012826061 4284445483
0.0059601478 -0.045638025 -0.011941427 4283333173
0.0082892254 -0.046998449 -0.011059074 4282286144
0.010437299 -0.047605388 -0.010842217 4281958723
0.012396421 -0.047459461 -0.011288969 4281761098
0.01455256 -0.048065536 -0.011073748 4281369673
0.01711335 -0.050175019 -0.009537058 4281435464
0.020297028 -0.054538362 -0.0060218861 4281696838
0.023512626 -0.058899216 -0.0025138995 4282673488
-0.0053201579 -0.041923307 -0.016207436 4284639793
-0.0032153539 -0.042536452 -0.015982868 4283855669
-0.0011051521 -0.043149017 -0.01575947 4282614328
0.0011912771 -0.044516586 -0.014873279 4281829184
0.0034984164 -0.045883283 -0.013989402 4281567554
0.0056300797 -0.04649388 -0.013770627 4281436484
0.0079559386 -0.047858886 -0.01289087 4281369164
0.0099095292 -0.047713496 -0.013336463 4281434699
0.012057319 -0.048322551 -0.013121029 4281434699
0.014210451 -0.048931025 -0.012906747 4281500743
0.016967278 -0.051801436 -0.010714496 4281239879
0.019947505 -0.055424042 -0.007867909 4281890893
-0.0073907338 -0.043659009 -0.016920486 4284120614
-0.0052890182 -0.044274718 -0.01669695 4281827653
-0.0031819008 -0.044889815 -0.01647458 4281304904
-0.00089141354 -0.046262316 -0.015590405 4281632069
0.0012291409 -0.046876177 -0.015370915 4281370949
0.0033550896 -0.047489561 -0.015152527 4281174853
0.0056723654 -0.048859701 -0.014274182 4281304903
0.0080003403 -0.050228946 -0.013398131 4281238604
0.010147709 -0.050840303 -0.013184382 4281238348
0.012106512 -0.050694399 -0.013631059 4281434189
0.014261939 -0.051304899 -0.013418956 4281499723
0.016621972 -0.052671187 -0.01254986 4281434443
0.01959841 -0.056305021 -0.0097105382 4281824594
-0.012508865 -0.049485318 -0.013426619 4283920183
-0.010731507 -0.048581012 -0.014534904 4282876468
-0.0089593641 -0.047676973 -0.015641907 4282024259
-0.0073622465 -0.046012476 -0.017410787 4281762884
-0.0052582324 -0.046630137 -0.017189445 4281435974
-0.0031488128 -0.047247261 -0.016969251 4281369929
-0.00067840889 -0.049384125 -0.015427431 4281500488
0.0014471076 -0.049999826 -0.015210724 4281369674
0.003394898 -0.049855255 -0.015655288 4281173579
0.0053427555 -0.049710549 -0.01609976 4281238604
0.0076675117 -0.051084362 -0.015226291 4281303884
0.0098118819 -0.051698186 -0.015013462 4281302864
0.011961598 -0.052311406 -0.014801772 4281302099
0.013920281 -0.052165389 -0.015248334 4281302099
0.016078047 -0.05277776 -0.015038291 4281040213
-0.016377453 -0.052138589 -0.013035385 4284048958
-0.014274288 -0.052759118 -0.012815962 4283399218
-0.012165707 -0.053379118 -0.012597678 4282744124
-0.010380339 -0.052472048 -0.013706164 4281959744
-0.008934129 -0.050039046 -0.016137814 4282284868
-0.0075037554 -0.047607116 -0.018565705 4281762119
-0.0055723712 -0.047464274 -0.019006899 4281435208
-0.0032910146 -0.048846312 -0.018127276 4281369929
-0.00082135201 -0.050989769 -0.016590184 4281434699
0.0014840662 -0.052369766 -0.015715862 4281304394
0.0032514371 -0.051463135 -0.016819568 4281368908
0.0051991381 -0.051318459 -0.017264022 4281172559
0.0073351227 -0.051935151 -0.017051028 4281106258
0.0094764642 -0.052551322 -0.016839182 4281106003
0.011429634 -0.052405857 -0.017284585 4281431638
0.013775248 -0.053782105 -0.01641879 4282213979
-0.014575124 -0.053600676 -0.014642736 4282871623
-0.012469549 -0.054223083 -0.014425407 4282415684
-0.010686792 -0.053314038 -0.015531668 4281828418
-0.0089092515 -0.052405201 -0.016636679 4282022728
-0.0073063634 -0.050731584 -0.018400373 4281761353
-0.0055419058 -0.0498235 -0.019502165 4281631304
-0.0036079362 -0.049680375 -0.019943872 4281434699
-0.00096426904 -0.052595109 -0.01775272 4281565258
0.0011605434 -0.053215213 -0.017539116 4281368654
0.0031080209 -0.053070687 -0.017983617 4281237073
0.0046847984 -0.05139818 -0.019740796 4281690463
-0.012934241 -0.054294452 -0.016910018 4282478159
-0.010992821 -0.054151282 -0.017353809 4281825614
-0.0092178993 -0.0532405 -0.018456554 4281694543
-0.0076174214 -0.051562734 -0.020216445 4281630794
-0.0056836978 -0.051419742 -0.020658197 4281565003
-0.0037498809 -0.051276632 -0.021099875 4281761354
-0.0016387813 -0.051900059 -0.020884873 4281760843
0.00047770888 -0.05252295 -0.020671001 4281168733
0.0022345297 -0.051612772 -0.021769049 4281689954
-0.011298444 -0.054983921 -0.019172547 4282217039
-0.0093597285 -0.054840811 -0.019615626 4281759568
-0.0075899847 -0.053928114 -0.020715462 4281434445
-0.0058254525 -0.053015701 -0.021814028 4281303374
-0.0038917959 -0.052872606 -0.022255668 4281365338
0.0022051297 0.046222627 0.025930945 4279849109
0.0027630255 0.050911531 0.020316105 4279192739
0.0036696121 0.05429865 0.016189717 4278537134
0.0061146356 0.052489202 0.017984122 4278470834
-0.01115853 0.050997432 0.019206271 4281027974
-0.0096467808 0.052441858 0.01729669 4279387558
-0.007438492 0.051273886 0.018357482 4279846558
-0.0050399974 0.049454004 0.02015727 4279651739
-0.0029896013 0.048940472 0.020471863 4279194014
-0.0013033077 0.049732048 0.019304946 4278669734
-0.00037197396 0.053131856 0.015181046 4278536113
0.00072288141 0.055877812 0.011802185 4278536369
0.0019892454 0.057970513 0.0091665462 4279389854
0.0046076924 0.05550129 0.01169874 4279127714
0.0074456297 0.052382387 0.014963217 4278930344
-0.014517963 0.047209676 0.021165714 4282471274
-0.013998985 0.052594174 0.014801746 4279389088
-0.0064332969 0.052488036 0.013856079 4278272444
-0.0042199232 0.051316097 0.014912531 4278472873
-0.0027340762 0.052763253 0.013012271 4278472363
-0.0014460124 0.054863982 0.010376565 4278602923
0.0099700689 0.048363686 0.016360857 4278537134
-0.023991514 0.044967733 0.022174686 4282077808
-0.022434901 0.046423778 0.020261075 4281618554
-0.020257849 0.045244202 0.021322042 4281421438
-0.018711548 0.046699613 0.019410882 4279062689
-0.017501865 0.04947101 0.016018495 4278800293
-0.016644772 0.053557202 0.011148512 4278472109
-0.015314352 0.055667218 0.0085077398 4279126693
-0.013999794 0.057776146 0.0058705844 4279390364
-0.012006249 0.057253756 0.0061946753 4278866083
-0.0096544959 0.055417106 0.0079951677 4278733483
-0.0071076155 0.052924562 0.0105302 4278471088
-0.0050844215 0.052404556 0.010847664 4278602668
-0.0034245327 0.053198528 0.0096900351 4278537898
-0.001956936 0.054648757 0.0077972636 4278341548
-0.0003102012 0.055441871 0.006642729 4278602923
0.0013312772 0.056234658 0.0054894388 4278341295
0.0035525933 0.055059254 0.0065409653 4278405808
0.0059823282 0.053228907 0.0083240438 4278603434
0.0086284764 0.050744269 0.010836825 4278472363
0.011092972 0.048916653 0.012612082 4278538409
0.015630443 0.040538657 0.021704681 4278538408
-0.026564527 0.053999376 0.0091698021 4278534584
-0.024430726 0.052812103 0.010237277 4278534839
-0.022128586 0.050964713 0.0120438 4278864298
-0.019970488 0.049779359 0.013105813 4278996643
-0.018615875 0.05189763 0.010464288 4278538153
-0.0057657845 0.052851748 0.0075316988 4278930343
-0.0041137747 0.053647298 0.006377494 4278800038
-0.002280172 0.053783771 0.0059592836 4278800038
-0.00044648722 0.05392031 0.0055410974 4278603434
0.0013872795 0.054056916 0.005122941 4278734504
0.0036107861 0.052877225 0.006170705 4278865318
0.0058450103 0.051698435 0.0072160307 4278472363
0.0074894577 0.052493818 0.006063845 4278471854
-0.032438245 0.044638369 0.017918069 4279521689
-0.031593863 0.049424209 0.012294553 4278472364
-0.030639861 0.053543378 0.007421853 4279061923
-0.027611103 0.056466486 0.0036267973 4278930344
-0.022893582 0.052091971 0.0079797618 4278471089
-0.02106661 0.05222727 0.0075625572 4278799528
-0.019564811 0.053688195 0.0056680907 4278734503
-0.017908197 0.054485805 0.0045141224 4278407083
-0.0082739107 0.053176463 0.0046425685 4278537898
-0.0064459108 0.053312361 0.0042255186 4278472873
-0.0046178065 0.053448319 0.0038084853 4278407594
-0.0027896166 0.053584371 0.003391495 4278473129
-0.00077203661 0.053059712 0.0037070625 4278473129
0.0010589845 0.053196099 0.0032895226 4278538408
0.0032793358 0.052011803 0.0043346565 4278669224
0.0051158145 0.052148737 0.0039159767 4278865319
0.0065524206 0.053605698 0.002037121 4278340528
-0.042600874 0.046422772 0.014451178 4282667113
-0.041548561 0.050561994 0.0095655266 4280633999
-0.039595682 0.05002892 0.0098932274 4280568463
-0.037637267 0.049496353 0.010219665 4279455643
-0.035673324 0.048964251 0.010544881 4278866338
-0.033986192 0.049765706 0.0093851294 4278472873
-0.031506199 0.055364631 0.0026252102 4278471344
-0.03044704 0.058827799 -0.0014874935 4279390108
-0.028503444 0.058294512 -0.00115739 4278931618
-0.026245411 0.056430537 0.0006492231 4278865065
-0.021680918 0.052706406 0.0042514987 4278602923
-0.020024326 0.053506114 0.00309911 4278930854
-0.018372912 0.054305501 0.0019479506 4278603689
-0.016894493 0.055769183 6.2182546e-05 4278668968
-0.015085682 0.05590336 -0.00035070907 4279061924
-0.012930505 0.054709222 0.000705624 4279127459
-0.010764554 0.053516001 0.0017595123 4278603943
-0.0089447312 0.053651199 0.001344258 4278472873
-0.0073059238 0.054450043 0.00019626692 4278406318
-0.0058561191 0.055912003 -0.0016826643 4278406318
-0.0034846701 0.054057237 9.8660588e-05 4278472109
-0.0010971501 0.052203741 0.0018763728 4278407594
0.00092288852 0.051677115 0.0021897722 4278342058
0.002559457 0.052476138 0.0010425523 4278603688
0.0054172352 0.055397652 -0.0027051643 4278668714
0.0072350726 0.055533323 -0.0031195004 4279127969
0.0096682571 0.053683639 -0.0013518939 4278931108
0.013156269 0.048527244 0.00404552 4278734248
0.018159973 0.038744256 0.014515856 4278865064
-0.04594573 0.052132625 0.005583318 4281029248
-0.043115679 0.056415759 0.00030096434 4278600374
-0.03885654 0.053333834 0.0031897295 4279126438
-0.036775853 0.052128956 0.0042590834 4278735014
-0.035107221 0.052931193 0.0031051673 4278538664
-0.03373098 0.055070221 0.00047313236 4278537644
-0.022453573 0.05386639 0.00021416508 4278930853
-0.020645265 0.054000288 -0.0001987936 4278734503
-0.018836807 0.054134283 -0.00061172247 4278603689
-0.017028201 0.054268356 -0.0010246364 4278341548
-0.01521948 0.054402489 -0.0014375374 4278669224
-0.013064776 0.053203903 -0.00038440339 4278603433
-0.010899313 0.052006215 0.00066627376 4278602669
-0.0067248419 0.057071149 -0.0056932801 4278731189
-0.00017103925 0.053483371 -0.0025535077 4278603944
0.0012580678 0.054948434 -0.0044242386 4278865574
0.0064929575 0.056018174 -0.0063899932 4278404023
0.019906307 0.03732007 0.012952801 4278472364
-0.049449984 0.049022246 0.006810043 4279063199
-0.048127931 0.051844686 0.0034240093 4278669224
-0.046826925 0.054665636 4.2833388e-05 4278734249
-0.045164544 0.055469241 -0.0011082804 4278930853
-0.043767538 0.057616066 -0.003740442 4278799019
-0.039530803 0.054521423 -0.00085484982 4278930090
-0.037323114 0.052640088 0.00095304847 4278472365
-0.035521585 0.052772932 0.00054122135 4278800039
-0.034150165 0.054918189 -0.0020848513 4278538409
-0.027127478 0.05611828 -0.0044604037 4278341293
-0.025022041 0.054911245 -0.0033996925 4278538408
-0.023065198 0.054374628 -0.0030757701 4278538408
-0.021264952 0.0545079 -0.003486908 4278473129
-0.019135106 0.053302884 -0.0024316106 4278473129
-0.017329257 0.053436711 -0.0028439239 4278407594
-0.015353225 0.052901827 -0.0025242269 4278538409
-0.013544455 0.053036015 -0.0029371008 4278603433
-0.011560187 0.052501883 -0.0026191762 4278274739
-0.010460727 0.055309229 -0.0059532579 4278733484
-0.0090210661 0.056779105 -0.0078233778 4279257764
-0.0074085742 0.057580423 -0.0089620445 4278602413
-0.0025009289 0.053175379 -0.0046859998 4278734248
-0.00049744174 0.052643064 -0.0043720938 4278734248
0.0005412288 0.055446345 -0.0076920427 4278734759
0.0021487661 0.056247648 -0.0088293152 4278996643
0.0035516433 0.057715286 -0.010690672 4278406318
0.005752068 0.056516457 -0.0096506933 4278340784
0.0079631805 0.055318546 -0.0086131431 4278275504
0.01080709 0.052123412 -0.0054074945 4278407084
0.013677683 0.048930343 -0.0022078697 4278603943
0.017638426 0.042411208 0.0045970995 4278407848
-0.049821075 0.048867825 0.0042366143 4278932129
-0.045804616 0.056681644 -0.0051439665 4278667948
-0.044027936 0.056812353 -0.0055503398 4278603435
-0.037869129 0.053164724 -0.0023432933 4278668969
-0.03607567 0.053296924 -0.0027533136 4278472363
-0.034425247 0.054102179 -0.0038997959 4278668968
-0.032925863 0.055579931 -0.0057809642 4278538409
-0.031139825 0.055711795 -0.0061891293 4278865574
-0.029202398 0.055171296 -0.0058626039 4278865574
-0.027259465 0.054631319 -0.0055373237 4278406828
-0.025624145 0.055435792 -0.006680104 4278341548
-0.01746266 0.051938504 -0.0039288728 4278341294
-0.015826631 0.05274339 -0.0050715469 4278472874
-0.014195807 0.053547949 -0.0062129851 4278865319
-0.0096956827 0.057300255 -0.01108583 4279585439
-0.0075415224 0.056093071 -0.010038985 4279127713
-0.0050049238 0.053547133 -0.0075410502 4278341039
-0.0010146014 0.052476835 -0.0069129057 4278865574
0.00021329522 0.054619294 -0.0095002614 4278603943
0.0020147823 0.054753561 -0.0099110063 4278603943
0.0038163215 0.054887917 -0.010321703 4278800549
0.0060215779 0.053685095 -0.009286169 4278931873
0.0086465441 0.051146246 -0.0068080043 4279062943
0.011292864 0.04860907 -0.0043346481 4279062943
0.014380202 0.044737518 -0.00042355154 4279062943
0.017499533 0.040868424 0.0034803059 4278801313
-0.049238455 0.043306783 0.0075926054 4279325338
-0.048878472 0.051561605 -0.0017010896 4278735013
-0.040199105 0.05357134 -0.0052216919 4278603178
-0.038276184 0.053027201 -0.004893776 4278865318
-0.036488127 0.053158958 -0.0053025903 4278931109
-0.034699876 0.053290803 -0.0057113962 4278669224
-0.033202846 0.054772731 -0.0075887684 4278538154
-0.031271186 0.054229543 -0.0072626928 4278800294
-0.029485065 0.05436144 -0.0076708579 4278603434
-0.027545076 0.053818971 -0.0073465342 4278537134
-0.022662316 0.056237403 -0.010764611 4278271679
-0.020223375 0.053674839 -0.0082514146 4278271169
-0.018097017 0.05246079 -0.007201897 4278601904
-0.016299214 0.052594032 -0.007612369 4278668713
-0.014845937 0.054073393 -0.0094791697 4278865574
-0.013578199 0.056224905 -0.012071123 4278668458
-0.0013399422 0.051648002 -0.0087231938 4278735013
0.00066036731 0.051111151 -0.0084118601 4278735268
0.002862379 0.049903486 -0.0073789563 4278801059
0.0046771504 0.050038815 -0.0077926805 4278670243
0.0070968755 0.048161715 -0.0060418751 4278538918
0.0097369514 0.045615215 -0.0035737334 4278342314
0.012398377 0.043070387 -0.0011104019 4278342314
0.015500411 0.039186753 0.0027874652 4278342569
0.018422155 0.035975628 0.0059590396 4278539429
-0.048523042 0.047359832 0.00017504394 4278473639
-0.047841061 0.053600948 -0.006874688 4278472874
-0.04631852 0.055088636 -0.0087549854 4278799783
-0.044288237 0.053862058 -0.0076875146 4278996388
-0.042379301 0.053314559 -0.0073582185 4278735014
-0.040464837 0.052767534 -0.0070301425 4278735014
-0.038819898 0.053576551 -0.0081722476 4278407338
-0.03703991 0.053707663 -0.0085792579 4278472874
-0.033333849 0.05329296 -0.0086605772 4278472874
-0.03155065 0.053424522 -0.0090681612 4278472874
-0.029918101 0.05423297 -0.010207176 4278406828
-0.026980814 0.05720178 -0.013942014 4278799018
-0.02521028 0.057332695 -0.014346492 4279390363
-0.023116622 0.056111623 -0.013292881 4279389343
-0.02084804 0.054215632 -0.011513323 4278798764
-0.018563341 0.052320879 -0.0097373454 4278602669
-0.016940419 0.053129118 -0.010873785 4278865319
-0.015322704 0.053937081 -0.01200903 4278668969
-0.014059782 0.056094754 -0.014594921 4278865574
-0.012457829 0.056901664 -0.015726406 4278930853
-0.01086111 0.057708286 -0.016856693 4278799783
-0.0083556585 0.055142365 -0.014364894 4278865573
-0.0060142651 0.053252336 -0.012601468 4278931363
-0.0034686886 0.050689541 -0.010118715 4279062944
-0.0010925122 0.048802294 -0.0083631519 4278931618
0.0012997352 0.046916276 -0.0066111507 4278735523
0.0037080236 0.04503154 -0.0048627462 4278735268
0.011029117 0.039384998 0.00036082603 4278473639
0.013501529 0.037505396 0.0020947997 4278932383
0.016199395 0.034954585 0.0045433026 4278867103
0.019130707 0.031733193 0.0077044666 4278998173
-0.047319453 0.038372427 0.0071943309 4280767108
-0.04747479 0.049402319 -0.0049992763 4278473128
-0.046448085 0.053618263 -0.0098201595 4278735014
-0.044418264 0.052387219 -0.0087559018 4278669224
-0.042509604 0.051837463 -0.0084282234 4278276013
-0.035533037 0.053041171 -0.010787975 4278534074
-0.033755425 0.053172208 -0.011194367 4278733229
-0.031977635 0.053303327 -0.011600746 4278538154
-0.030350301 0.054113545 -0.012736952 4278538154
-0.025499303 0.056542378 -0.01613822 4278339764
-0.023570087 0.055994909 -0.015814662 4278667949
-0.017411117 0.053000081 -0.013399912 4278668969
-0.015626695 0.053132355 -0.013807312 4278735014
-0.013667539 0.052587479 -0.013490308 4278800804
-0.011880223 0.052720118 -0.013898253 4278866594
-0.0099128708 0.052175961 -0.01358296 4278866593
-0.0075749308 0.050279036 -0.011823798 4278932128
-0.0052209012 0.048383355 -0.010068195 4279062943
-0.0026628897 0.045812681 -0.0075948751 4278669989
-8.3483756e-05 0.043243691 -0.0051263673 4278473638
0.0023240447 0.041352253 -0.0033828449 4278473638
0.0047476366 0.039462067 -0.0016428679 4278538918
0.0069886781 0.038248636 -0.00062544085 4278735523
0.009240441 0.037036046 0.00038964674 4278604453
0.011502888 0.035824381 0.0014023166 4279194268
0.013776045 0.03461355 0.0024126526 4279063199
0.016269105 0.032728985 0.0041370485 4278932384
0.019413898 0.028822241 0.008005539 4279063454
0.026452867 0.012781214 0.024741605 4279063454
-0.046614651 0.042453542 -0.00019919127 4279783829
-0.046198081 0.050099142 -0.0086839739 4278604199
-0.04454821 0.050912607 -0.0098241456 4278537898
-0.043035287 0.052408397 -0.01169564 4278472108
-0.041532796 0.053903446 -0.013564656 4278406319
-0.040040735 0.05539779 -0.015431234 4278667949
-0.033740785 0.051015675 -0.011533229 4278601904
-0.032255981 0.052509781 -0.013397928 4278472363
-0.03078166 0.054003216 -0.015260228 4278799784
-0.029317815 0.055495918 -0.017120032 4278799784
-0.019659873 0.052748296 -0.015513237 4278538153
-0.017542828 0.051520381 -0.014471468 4278931364
-0.015243277 0.049613655 -0.012708677 4278866339
-0.012927614 0.047708202 -0.010949505 4278735524
-0.010772943 0.046483308 -0.0099161491 4278866594
-0.0086075217 0.045259297 -0.0088851918 4278538919
-0.0062489361 0.043357261 -0.0071356399 4278276779
-0.0012958497 0.038878564 -0.0029276181 4278277034
0.00092320144 0.037658855 -0.0019086553 4278604964
0.0033460297 0.035761923 -0.00017351843 4278669988
0.0055891871 0.034544177 0.00084007531 4278735778
0.0078430735 0.033327267 0.001851324 4279128733
0.0099066086 0.032788739 0.0021434519 4278932129
0.011975508 0.032250695 0.0024344232 4278932129
0.013843406 0.032390196 0.0020087473 4278997664
0.016338453 0.030499162 0.0037278067 4279063454
0.019484598 0.026579391 0.0075860731 4279194523
0.026950099 0.0091325678 0.025710542 4279194523
-0.045570243 0.044511437 -0.0053608706 4278669989
-0.04480705 0.050123207 -0.011623758 4278865319
-0.042064916 0.054491624 -0.016817322 4278996389
-0.040443603 0.055305343 -0.017949199 4279062433
-0.038687821 0.055434547 -0.018350765 4279192738
-0.036505055 0.053511757 -0.01656686 4279192483
-0.03253388 0.051720917 -0.015191806 4278930854
-0.030911673 0.052535057 -0.01632362 4278668968
-0.029447529 0.054032128 -0.018180231 4278603433
-0.027838286 0.054845478 -0.019308954 4278735014
-0.025759567 0.053610004 -0.018261977 4278931619
-0.023830932 0.053058043 -0.01794162 4279193504
-0.021569703 0.051141646 -0.016175196 4278997409
-0.019458603 0.049908794 -0.015135439 4279062688
-0.016998965 0.047312677 -0.012653265 4278735268
-0.014689442 0.045400087 -0.010897701 4278669734
-0.012189612 0.042807117 -0.0084245726 4278408104
-0.0098452531 0.04089731 -0.00667689 4278604709
-0.0073052607 0.038307477 -0.0042128125 4278342824
-0.0051082596 0.037081435 -0.0031922599 4278342314
-0.0030853823 0.036537178 -0.0028928835 4278670498
-0.00086957216 0.035312742 -0.0018765423 4278932383
0.0015471764 0.033408683 -0.00014501903 4278801569
0.0037871078 0.032186206 0.00086594187 4278997919
0.0060377717 0.030964578 0.0018745698 4279063199
0.008100953 0.030423731 0.0021650605 4279063199
0.0099686757 0.030563051 0.0017392989 4278866594
0.011836432 0.030702457 0.0013135914 4278932129
0.013910402 0.030162679 0.0016018245 4278997664
0.016407413 0.028265199 0.0033154935 4278932384
0.020400945 0.021616828 0.010014303 4278735524
0.027660312 0.0047922805 0.027382091 4278997663
-0.044440228 0.036147811 0.00086537749 4280636549
-0.044679124 0.047276851 -0.011230281 4278669989
-0.039234642 0.056037121 -0.021588469 4278275248
-0.032811318 0.050936643 -0.016982295 4278669223
-0.031041618 0.051067129 -0.017386852 4278669479
-0.029271763 0.051197704 -0.017791389 4278800549
-0.027346369 0.050643127 -0.017472073 4278866339
-0.025415484 0.050088987 -0.017153908 4279062943
-0.023157764 0.048165679 -0.015391747 4278669734
-0.020720575 0.045558944 -0.01291116 4278342059
-0.018261943 0.04295389 -0.010435401 4278276524
-0.013794437 0.039800975 -0.0076589826 4278277034
-0.011453524 0.037884194 -0.0059154704 4278604709
-0.0090965405 0.035968717 -0.0041756146 4278407848
-0.0069027916 0.034737937 -0.0031576883 4278539173
-0.0048803054 0.034191355 -0.0028599426 4278670243
-0.0030370578 0.034328327 -0.0032805149 4278997918
-0.00081907958 0.033099655 -0.002267966 4278801569
0.0015996248 0.03118914 -0.00054183789 4278866849
0.0038417354 0.029962385 0.0004653763 4279063454
0.0060945526 0.02873656 0.0014701691 4279128989
0.0081600994 0.028193694 0.0017584804 4278997919
0.010231026 0.027651323 0.0020456295 4278801314
0.012307327 0.027109385 0.0023316536 4278997919
0.015006907 0.024523538 0.0047533382 4278997919
0.018353764 0.019895434 0.0093053374 4278932639
0.02279447 0.011864766 0.017404303 4278670498
0.03050866 -0.006374374 0.036145791 4278670498
-0.044294748 0.043043043 -0.0093863681 4279718804
-0.044211183 0.052134283 -0.019256242 4278734249
-0.034999613 0.050715089 -0.019090127 4278734759
-0.032941114 0.049468979 -0.018045373 4278866084
-0.030871797 0.048223704 -0.017002994 4278800293
-0.029096711 0.048354633 -0.017408749 4278931873
-0.026855934 0.046423301 -0.015647789 4278538918
-0.019873735 0.039950009 -0.0096661337 4278473384
-0.017731663 0.038710572 -0.0086400267 4278473383
-0.015410323 0.036785576 -0.0068971161 4278735523
-0.013244037 0.035548143 -0.0058764555 4278604708
-0.011066996 0.0343116 -0.0048581855 4278670243
-0.0088791698 0.033075899 -0.0038422663 4278801568
-0.0066806041 0.031841114 -0.0028287852 4278473893
-0.0048348941 0.03197816 -0.0032500047 4278801569
-0.002989091 0.032115314 -0.0036711665 4278998429
-0.00076893717 0.030882349 -0.0026623765 4278867359
0.0014619306 0.029650319 -0.0016560033 4279129499
0.0037035421 0.028419128 -0.00065197237 4279129499
0.0061509721 0.026504382 0.0010627564 4279129499
0.008812245 0.023906589 0.0034864359 4278867359
0.011695322 0.020626385 0.0066172164 4279129243
0.014808189 0.016664382 0.010453276 4279063708
0.018364623 0.01133744 0.015703525 4279260313
0.022797486 0.0032797642 0.023784477 4279456663
0.027716521 -0.0061396211 0.033269867 4279784848
0.033992782 -0.019651912 0.046991572 4280701829
-0.043013196 0.033950493 -0.0024680104 4280505733
-0.043815222 0.047912452 -0.017406642 4279195033
-0.043119039 0.053571969 -0.023614798 4278342058
-0.041510712 0.054391187 -0.024738867 4278931618
-0.039351445 0.052446742 -0.02296452 4279128479
-0.037034374 0.04981292 -0.020470133 4278997409
-0.034551505 0.046490327 -0.017257527 4279062688
-0.032776836 0.046621025 -0.017663334 4278931873
-0.030403379 0.04399164 -0.015181704 4278604454
-0.026057046 0.040806718 -0.012394811 4278277034
-0.024100151 0.040250089 -0.01208597 4278407848
-0.021656875 0.037626136 -0.0096200146 4278342314
-0.019355122 0.035692945 -0.0078777559 4278669733
-0.017037276 0.033760983 -0.0061390717 4278866338
-0.015039902 0.033207692 -0.0058392258 4278801059
-0.013037074 0.032654881 -0.0055405628 4278801059
-0.01085519 0.031414241 -0.0045266617 4278932383
-0.0086625591 0.030174531 -0.0035151904 4278604708
-0.006638106 0.029623579 -0.0032212762 4278736034
-0.004789833 0.029760804 -0.0036430852 4278670753
-0.0027571954 0.029210599 -0.0033508614 4278998429
-0.00053223222 0.027973635 -0.0023465073 4278933149
0.0015138686 0.027424652 -0.0020572646 4279260568
0.0043344125 0.024128556 0.0010793488 4279326104
0.0073765926 0.0201478 0.0049214996 4279129499
0.011241127 0.013423543 0.011600059 4279195034
0.015158992 0.0067033619 0.018266525 4279456663
0.019130174 -1.2751669e-05 0.024920907 4279326104
0.022743519 -0.0053529888 0.030145038 4279915919
0.027024239 -0.012747049 0.037484955 4281226873
0.031152694 -0.019451119 0.044103723 4282078064
0.034053005 -0.022039279 0.046466768 4282405738
-0.04109491 0.021340478 0.0080410317 4280832899
-0.042635668 0.03951145 -0.011222543 4279849873
-0.04244544 0.047964215 -0.020319635 4278801059
-0.040821064 0.048786804 -0.021445807 4278538919
-0.038507704 0.046143834 -0.018957226 4278538664
-0.036172893 0.04350251 -0.0164735 4278407594
-0.033816602 0.040862858 -0.013994615 4278276779
-0.032026079 0.040994693 -0.014404073 4278473384
-0.030085918 0.040434368 -0.014093255 4278408104
-0.027988162 0.039182417 -0.013063951 4278604453
-0.025724802 0.037239537 -0.011318055 4278801059
-0.023602765 0.035989564 -0.01029416 4278866593
-0.021469954 0.034740493 -0.0092727225 4278866339
-0.019163575 0.032801006 -0.0075364225 4278800804
-0.01684108 0.030862832 -0.0058037853 4278866339
-0.014838677 0.030307643 -0.005506712 4278800804
-0.012830842 0.029752996 -0.0052108541 4278866849
-0.010817558 0.029198829 -0.004916179 4278866848
-0.0087988414 0.02864516 -0.0046226736 4278866848
-0.0065959431 0.027401837 -0.0036167437 4278932639
-0.0045637079 0.026849352 -0.0033261916 4278932894
-0.0027101338 0.026987031 -0.0037491648 4278998429
-0.00048300251 0.025745839 -0.0027485993 4279064218
0.0017548651 0.024505481 -0.0017503742 4278999449
0.0051558129 0.019131437 0.0035086349 4279196054
0.0097678192 0.0096271224 0.013017606 4279655818
0.015441407 -0.0033150129 0.026056204 4279655818
0.019815879 -0.011429936 0.034110747 4280574839
-0.041329276 0.030370697 -0.0043472899 4280898689
-0.041240882 0.039547712 -0.014154256 4280177549
-0.040133689 0.043156154 -0.018171718 4278931874
-0.037943874 0.041200764 -0.01641432 4278735523
-0.035596628 0.038551558 -0.01394003 4278407848
-0.033371877 0.036598861 -0.012190459 4278604708
-0.031570803 0.036731429 -0.012602359 4278801059
-0.029620301 0.036169644 -0.012295576 4278997664
-0.027512383 0.034914076 -0.011271941 4279128989
-0.025393661 0.033659354 -0.010250662 4278866594
-0.023264136 0.032405552 -0.0092318356 4278801059
-0.020963926 0.030458912 -0.0074991463 4278932129
-0.018810172 0.029207068 -0.0064857304 4278997664
-0.016645622 0.027956076 -0.0054746652 4278997664
-0.014806103 0.028092165 -0.0058948435 4279063199
-0.012625344 0.026842587 -0.0048873974 4279063454
-0.010607041 0.026286576 -0.0045955274 4278932384
-0.0085832961 0.025731023 -0.0043047862 4278932894
-0.0065541305 0.025176004 -0.0040152594 4279129753
-0.0043383315 0.023929372 -0.0030155489 4279260824
-0.0021117851 0.022683591 -0.002018177 4279064473
-6.1050057e-05 0.022130437 -0.0017333729 4279459469
0.0023735054 0.020194754 -3.0606985e-05 4279263628
-0.040418442 0.023275852 0.00032893382 4281029503
-0.040572595 0.033878718 -0.010903556 4280439178
-0.039448563 0.037499323 -0.014916682 4279128989
-0.037520345 0.036933333 -0.014606722 4278997664
-0.03544553 0.035670541 -0.01357903 4278342568
-0.03321613 0.033711616 -0.011835519 4278539173
-0.031263437 0.033147674 -0.011530971 4278866594
-0.029454332 0.033280887 -0.011944671 4278801059
-0.027645048 0.033414207 -0.01235834 4278866849
-0.025526818 0.032155015 -0.011340272 4278801314
-0.023083691 0.029504571 -0.008894125 4278801314
-0.021098275 0.028943479 -0.0085967313 4278932384
-0.01894502 0.027687185 -0.0075865099 4278866849
-0.016780969 0.026431751 -0.0065786336 4278998429
-0.014773864 0.025872514 -0.0062860027 4279129499
-0.01276131 0.02531378 -0.0059945453 4279063454
-0.010570284 0.0240606 -0.0049926378 4279063964
-0.0083685033 0.022808351 -0.0039931554 4279391639
-0.006155964 0.021556936 -0.0029960321 4279392149
-0.0039326809 0.020306472 -0.0020013191 4279720589
-0.040292215 0.020347413 0.00066145509 4281029759
-0.040305313 0.030283637 -0.0098291989 4280243339
-0.039443616 0.035315529 -0.015273224 4279325593
-0.037513029 0.034747493 -0.014965467 4279194524
-0.035576936 0.034179907 -0.014658866 4278866849
-0.033061121 0.030815747 -0.011486759 4278801314
-0.031249609 0.030949019 -0.011901096 4278866849
-0.029140193 0.029684648 -0.010884482 4278997919
-0.027474571 0.030517187 -0.012014832 4278801569
-0.025351521 0.029253999 -0.011001203 4278997919
-0.023060817 0.027293365 -0.0092763007 4279128989
-0.02091353 0.026032139 -0.0082680816 4278932384
-0.018917624 0.025469642 -0.0079746414 4278867359
-0.016751427 0.02420998 -0.0069706161 4279129753
-0.01474198 0.023648717 -0.0066801766 4279457684
-0.012727067 0.023087934 -0.0063909199 4279524238
-0.040296759 0.01811289 0.00026958808 4281291643
-0.040437315 0.028782377 -0.010916831 4280308873
-0.039303582 0.032425512 -0.014915826 4279260059
-0.037367966 0.031855617 -0.014610892 4278997918
-0.035286162 0.030584542 -0.013591466 4279128989
-0.033193525 0.029314306 -0.01257441 4278998429
-0.031090092 0.028044999 -0.0115598 4278801824
-0.029124524 0.027477637 -0.011261468 4279129499
-0.027304817 0.02761166 -0.01167757 4278932894
-0.025330957 0.027045052 -0.011380955 4278932894
-0.02319495 0.025778484 -0.010373533 4278998429
-0.021207478 0.025213104 -0.010079936 4279326359
-0.018890578 0.02324798 -0.0083658379 4279457939
-0.016722221 0.021984085 -0.0073655965 4279524238
-0.040431473 0.016578861 -0.00084183086 4282077299
-0.04056925 0.027281353 -0.012004303 4280374153
-0.039299462 0.030231213 -0.015280006 4279194523
-0.03708579 0.028251141 -0.013547881 4279194524
-0.034996491 0.026976153 -0.012533437 4278801314
-0.032753203 0.024998389 -0.010807916 4278997663
-0.030493792 0.023021936 -0.0090860613 4279391129
-0.028069768 0.020343442 -0.0066555161 4279195034
-0.026380043 0.021182057 -0.0077881515 4279392148
-0.024541665 0.021317512 -0.0082084797 4279525003
-0.040171746 0.022953946 -0.010234265 4280177039
-0.038755652 0.025206883 -0.012792317 4279259803
-0.036391716 0.022514828 -0.010354877 4278932384
-0.033866014 0.019118365 -0.0072097881 4278998429
-0.031599503 0.017135739 -0.0054945741 4278932894
-0.028734293 0.01233159 -0.00093778782 4278998428
-0.02627657 0.0096467808 0.0014784597 4279457938
-0.039379288 0.016482584 -0.0063386541 4282012019
-0.037404899 0.015908763 -0.0060476754 4279783828
-0.03432529 0.0096676052 -6.5738335e-05 4279849364
-0.03147788 0.0048466176 0.0044834763 4279391129
-0.02859306 2.8498471e-05 0.0090241525 4279587478
-0.025525387 -0.0054946914 0.014266059 4279981454
-0.023303602 -0.0067684501 0.015243741 4280572800
0.04403631 -0.018199906 0.043947317 4285688609
0.037121162 -0.011991113 0.035185367 4285163563
0.03824361 -0.0091015846 0.031906269 4285754909
0.040479191 -0.0096351504 0.032153357 4285950748
0.04409739 -0.014272831 0.036621075 4285951259
0.029525129 -0.016332313 0.037932634 4285360424
0.03133902 -0.015493117 0.036765195 4285295143
0.032499474 -0.012592278 0.033483788 4285493279
0.033857308 -0.01038003 0.030911773 4285558813
0.035641886 -0.0095427334 0.029751223 4286017559
0.036973055 -0.0073323101 0.027185418 4285754653
0.039195001 -0.0078690797 0.027433977 4285623074
0.042339653 -0.011150591 0.030489516 4285557794
0.046671011 -0.017860584 0.03704625 4285558303
0.022241978 -0.0079599917 0.027052138 4285492004
0.024229126 -0.0078115091 0.026599344 4285951004
0.026847817 -0.0097326636 0.028260663 4286147609
0.029269341 -0.010962844 0.029214371 4286279444
0.031269848 -0.010813072 0.028758753 4285558814
0.033051856 -0.0099738836 0.027600348 4285624604
0.034607347 -0.0084458292 0.025740948 4285689628
0.03615218 -0.0069185197 0.023884095 4286018324
0.038365804 -0.0074580684 0.024132855 4285952534
0.041043043 -0.0093741789 0.025781401 4285821208
0.04489531 -0.014730573 0.030925535 4285755673
0.048790164 -0.020083711 0.036060091 4285558558
0.019702399 -0.0083689094 0.024903528 4285557794
0.021069124 -0.0061433837 0.02233902 4285491238
0.022835171 -0.0053035542 0.021185562 4285557283
0.025647482 -0.0079246983 0.023548856 4285820189
0.028055174 -0.0091603175 0.02450243 4285754909
