# .PCD v0.7 - Point Cloud Data file format
VERSION 0.7
FIELDS x y z rgba
SIZE 4 4 4 4
TYPE F F F U
COUNT 1 1 1 1
WIDTH 553
HEIGHT 1
VIEWPOINT 0 0 0 1 0 0 0
POINTS 553
DATA ascii
-0.012935854 0.0075293928 0.013018917 4287639613
-0.011834286 0.012709647 0.0076804664 4289473828
-0.0097221136 0.012123957 0.0079651922 4289932829
-0.01421053 0.00068843365 0.017149813 4287379004
-0.013697937 0.0095014572 0.0083074998 4289145133
-0.012224212 0.012527674 0.0050856806 4289146664
-0.0099868774 0.011216745 0.0060702767 4289604644
-0.0072048157 0.0070168898 0.009851614 4290455324
-0.0049351007 0.0057083666 0.010829553 4289475360
-0.0032097846 0.0072890893 0.0090107545 4289541914
-0.016484097 -0.00038082898 0.015658718 4289079344
-0.015204653 0.004108116 0.011031773 4288948783
-0.013831772 0.007869795 0.0071114823 4290127394
-0.012357444 0.010904759 0.0038961042 4288885034
-0.01038184 0.011039078 0.0034800656 4288818988
-0.0080062002 0.0089995638 0.0051585007 4289277224
-0.0053424463 0.0055123568 0.0082287397 4289998110
-0.0032063648 0.0049242079 0.0085053463 4289605918
-0.0013473779 0.0057847202 0.0073879976 4290917129
-0.019219808 0.0014668778 0.011370335 4287640379
-0.017338149 0.0023302808 0.01024914 4289275948
-0.015584052 0.0039209351 0.0084303804 4289145644
-0.01396554 0.0062384233 0.0059156641 4290454814
-0.012490615 0.0092821196 0.0027067177 4290323999
-0.010384716 0.0086893439 0.0029878113 4289408038
-0.0082732812 0.0080971047 0.0032677874 4290586139
-0.0056132451 0.0045987144 0.0063305646 4289670690
-0.003618598 0.0047346205 0.0059107356 4289670945
-0.0020471439 0.0070495456 0.003406411 4289867294
-0.00034777448 0.0086373538 0.0015998408 4289540383
0.0014874972 0.009498626 0.000489261 4289018399
-0.021926537 0.0033387989 0.0070926417 4288557614
-0.020055689 0.0042035207 0.0059752688 4288949803
-0.01795081 0.003608048 0.0062546022 4289408038
-0.016207166 0.0052023679 0.004441265 4289473318
-0.014349073 0.0060665011 0.0033268668 4289669923
-0.012751326 0.0083891749 0.00082151219 4289866274
-0.010648392 0.0077940375 0.0011015274 4289211943
-0.0085399523 0.0071993396 0.0013805069 4289669923
-0.0057480261 0.0029609278 0.0051301718 4289735969
-0.0038917735 0.0038254708 0.0040165652 4289736224
-0.0027454123 0.0083322227 -0.00056207925 4289670943
-0.0013437085 0.011380225 -0.0037485268 4290979348
0.00076814368 0.010786369 -0.0034698844 4290325528
0.0031833574 0.0087371245 -0.0018092338 4290457109
-0.024158686 0.0023043156 0.0056168474 4289995303
-0.022402048 0.0039034933 0.0038038492 4290061093
-0.020305678 0.003305167 0.0040831808 4290585628
-0.018323183 0.0034394488 0.0036653113 4290586139
-0.016462564 0.0043057799 0.002551917 4289408294
-0.014482372 0.004440099 0.0021346845 4289800738
-0.012756795 0.0060377643 0.00032859668 4289604388
-0.010651506 0.0054405332 0.0006064903 4289277479
-0.0084079653 0.0041126236 0.0015765801 4289735458
-0.0058827549 0.0013234466 0.0039299931 4289801248
-0.0041645318 0.0029210001 0.002125835 4290063389
-0.0033014119 0.0089020133 -0.0038258601 4289867038
-0.0020505786 0.012688756 -0.0076952698 4290128414
0.00019637495 0.011361644 -0.0067254798 4289212454
0.0030492023 0.0071148276 -0.0029981006 4290259229
0.0054798871 0.0050601512 -0.0013455208 4289343779
0.0070020556 0.007385321 -0.0038292073 4289671963
-0.028154388 -0.00032922626 0.0059561282 4288359988
-0.026601695 0.0027450621 0.0027498901 4289406764
-0.024736494 0.0036134869 0.0016367976 4289538854
-0.022876412 0.0044816136 0.00052489713 4289146408
-0.020788349 0.0038805306 0.0008043237 4289343270
-0.01881399 0.0040142238 0.00038814358 4290324253
-0.016839445 0.0041480437 -2.7995557e-05 4289931809
-0.014740147 0.0035479888 0.00024933554 4289866274
-0.012889802 0.0044160187 -0.00086015277 4289408549
-0.010914728 0.0045502037 -0.0012761522 4289408293
-0.0089394823 0.0046845153 -0.0016921051 4289801248
-0.0065583736 0.002619192 -3.4568831e-05 4289539619
-0.0047127157 0.0034873337 -0.0011426825 4289801248
-0.0035751238 0.0080195516 -0.0056997472 4290520859
-0.0024694502 0.012549758 -0.010250048 4289670178
-0.00037425011 0.011950351 -0.0099712284 4288885289
0.0023207627 0.0084220916 -0.0069400715 4289081383
0.0054963529 0.0026994348 -0.0018512066 4289604643
0.0073294491 0.0035673901 -0.002956165 4289671454
0.0091573186 0.0044351071 -0.004059935 4289279009
-0.030788936 0.0015927181 0.0016971901 4288883759
-0.029132836 0.0039380193 -0.00080630742 4289079854
-0.027275778 0.0048078746 -0.0019161049 4290061603
-0.025312804 0.0049404651 -0.002330143 4289538853
-0.023463346 0.0058100596 -0.003438225 4288950313
-0.021502644 0.0059427097 -0.003851613 4288950569
-0.019303657 0.0046024173 -0.0028791241 4290258974
-0.017215535 0.0039993376 -0.0026012212 4289669923
-0.014997512 0.00266058 -0.0016326364 4289473573
-0.013149798 0.0035305619 -0.0027398914 4289539108
-0.011307232 0.0044003054 -0.0038459841 4289800738
-0.0092050806 0.003798604 -0.003570715 4289343268
-0.007097438 0.0031973943 -0.0032965187 4289801248
-0.0051220208 0.0033318996 -0.0037123635 4289735969
-0.0039888322 0.007876873 -0.0082586566 4290847769
-0.0028875321 0.012419797 -0.012798137 4290716953
-0.00079801679 0.011817791 -0.012519796 4289408549
0.0018905997 0.0082782358 -0.009495561 4290258974
0.0052103549 0.0018032864 -0.0037321951 4289866528
0.0075020604 0.00047075748 -0.0027781297 4289539618
0.0096481331 -0.00012689829 -0.0025113132 4289409313
0.012436006 -0.0036592036 0.00049239211 4289082914
-0.031434968 0.0036708489 -0.0029645953 4287902264
-0.02979178 0.006021753 -0.0054604737 4288885034
-0.028056212 0.0076323301 -0.0072594332 4289800483
-0.026220225 0.0085030347 -0.0083630821 4289931554
-0.024162315 0.0078953803 -0.0080807069 4289604389
-0.022098884 0.0072882175 -0.007799427 4288819499
-0.01967334 0.0044653937 -0.0054452978 4289931809
-0.017469332 0.0031211674 -0.0044770967 4289669923
-0.015378676 0.0025161579 -0.0042013135 4289866274
-0.013789982 0.004864268 -0.0066851098 4289604644
-0.011958055 0.005735442 -0.0077873273 4289931553
-0.0097346827 0.0043929666 -0.0068228729 4289604644
-0.0075004846 0.0030513853 -0.0058606509 4289866274
-0.0055305436 0.0031855032 -0.006275354 4289670179
-0.0042615458 0.0070059747 -0.010124073 4290062624
-0.0030191019 0.010824777 -0.013967105 4289277733
-0.0010754317 0.010957442 -0.014376023 4288819754
0.0016094595 0.0074067116 -0.011359246 4289473574
0.0050756484 0.00017532706 -0.0049252007 4289473574
0.0076739825 -0.0026342645 -0.0026063304 4288885289
0.010293778 -0.0054422468 -0.00029188581 4288362284
0.01261723 -0.0067766905 0.00065235607 4288297514
-0.031360351 0.00057733059 -0.0027585514 4287510329
-0.029711433 0.0029351935 -0.0052507687 4288296495
-0.028186321 0.0060336739 -0.0084315268 4289211944
-0.026460975 0.0076479465 -0.010224939 4289538853
-0.024519391 0.0077791214 -0.01063444 4289277224
-0.022345588 0.0064283162 -0.0096633723 4288819243
-0.020042256 0.0043374002 -0.0080047809 4289669923
-0.017844066 0.0029884279 -0.0070387013 4289669923
-0.015883081 0.0031213686 -0.0074519552 4289997089
-0.014048606 0.0039947554 -0.0085531808 4289996834
-0.012348674 0.005608052 -0.010340671 4290847258
-0.0099991038 0.0035208762 -0.0086914469 4290650908
-0.0077680647 0.0021746606 -0.0077318233 4290847258
-0.0056635812 0.0015689358 -0.0074601974 4289735458
-0.0042537823 0.0046609193 -0.010615667 4289670178
-0.0025797859 0.0062730163 -0.012397273 4289473829
-0.00048021972 0.0056673139 -0.012124347 4289015849
0.0020689406 0.0028454065 -0.0098019037 4289211944
0.0052424408 -0.002929762 -0.0047520269 4288950314
0.0078452155 -0.005747743 -0.0024407376 4287380534
0.01015738 -0.007087484 -0.0014974717 4287184438
0.012480311 -0.0084263235 -0.00055642612 4288362283
-0.031081371 -0.0040129423 -0.0011757966 4287575865
-0.029631726 -0.00015991926 -0.0050472561 4287706933
-0.028208539 0.0036915094 -0.0089130811 4287969328
-0.026369803 0.0045666844 -0.010014078 4288427053
-0.024309836 0.0039547607 -0.0097354632 4289146408
-0.022360206 0.0040865615 -0.010146599 4289538598
-0.020291872 0.0034753829 -0.0098695513 4289735204
-0.018339194 0.0036076084 -0.01028116 4289604643
-0.016262501 0.0029972494 -0.010005759 4290324254
-0.014812864 0.0061000586 -0.013163501 4289538853
-0.012996867 0.0069744587 -0.014259109 4289539109
-0.010790512 0.0056221187 -0.013297724 4289669924
-0.00803525 0.0013025999 -0.0095995758 4289996833
-0.0059337392 0.00069448352 -0.0093289744 4289604899
-0.0041064695 0.0015701056 -0.010426627 4289670179
-0.0022844076 0.0024455264 -0.011523141 4289473573
0.00011324137 0.00035560131 -0.0098885018 4289342759
0.0026748814 -0.0024741888 -0.0075752717 4288427054
0.0054085292 -0.0060432851 -0.0045851199 4287249718
0.0080157928 -0.0088697225 -0.0022812951 4286725694
0.010176901 -0.0094729215 -0.0020226035 4286856509
0.012343451 -0.010075651 -0.0017649736 4287839023
-0.030906081 -0.0078740567 -0.00029557385 4286594369
-0.029237695 -0.0055019259 -0.0027820431 4287576118
-0.02769275 -0.002384752 -0.0059538893 4287772979
-0.025948286 -0.00076048821 -0.0077448543 4287838258
-0.023988307 -0.0006281063 -0.0081582647 4288427053
-0.022259451 0.00099526346 -0.009945726 4289211688
-0.020541087 0.0026180819 -0.011730948 4289734948
-0.018833205 0.0042402521 -0.013513835 4289604389
-0.016888499 0.0043720379 -0.013923692 4290127648
-0.015322603 0.0067381412 -0.016387934 4290062113
-0.01364357 0.0083586872 -0.018164495 4289146408
-0.011448391 0.0070011988 -0.017204056 4288884779
-0.0088393614 0.0034120083 -0.014196428 4289800739
-0.0064775199 0.0013127476 -0.01255946 4289996834
-0.0043788701 0.00070235878 -0.012289831 4289539108
-0.0019900501 -0.0013948381 -0.010658363 4289604389
0.00055992976 -0.0042342693 -0.0083493572 4287903793
0.003131371 -0.0070721209 -0.0060447706 4287184439
0.0055739358 -0.0091652498 -0.0044243922 4286726459
0.0080326535 -0.011257187 -0.002807267 4286791738
0.0098847188 -0.010377005 -0.0039079664 4286791484
0.012048263 -0.010982111 -0.0036513433 4287381299
-0.030833952 -0.010999516 -0.00011298433 4286594368
-0.029159829 -0.0086204559 -0.0025957953 4287380023
-0.027501486 -0.0062423572 -0.0050752079 4287576628
-0.025748804 -0.0046132654 -0.0068646092 4287511349
-0.023780957 -0.0044803843 -0.0072796959 4287249464
-0.02215936 -0.0021044537 -0.0097511094 4287903538
-0.02067174 0.0010179728 -0.012903994 4289080874
-0.019084461 0.0033917651 -0.015367972 4289342759
-0.017389514 0.0050175488 -0.017144816 4289669668
-0.016209692 0.0096303746 -0.021652129 4290520093
-0.014288798 0.0097607374 -0.022056814 4289342759
-0.012104779 0.0083980635 -0.021097293 4289277734
-0.0091050044 0.0025580823 -0.016050899 4290127903
-0.0067464933 0.00045204163 -0.014418172 4289866020
-0.0043718442 -0.0016527921 -0.012788756 4289407783
-0.0019810647 -0.0037563443 -0.011162689 4288426798
0.00071553141 -0.0073500127 -0.0081813736 4286725948
0.0032914504 -0.010196283 -0.0058843112 4286660668
0.0057386644 -0.012295678 -0.0042698113 4286530109
0.0080491826 -0.013648726 -0.0033362173 4286399549
-0.030762486 -0.014133394 6.3356012e-05 4286397508
-0.029082604 -0.011747479 -0.0024157204 4287314234
-0.027418546 -0.0093625039 -0.0048914468 4287380534
-0.025660314 -0.0077286661 -0.0066787815 4287248954
-0.023799896 -0.0068454593 -0.0077793887 4287183418
-0.022059932 -0.0052126646 -0.0095626693 4287575864
-0.020566389 -0.0020811409 -0.012710227 4287838004
-0.019094013 0.0010490268 -0.015853269 4288295729
-0.017642796 0.0041778982 -0.018991755 4289081129
-0.01608678 0.0065563023 -0.021444058 4289735204
-0.014289334 0.0074359477 -0.02253093 4288623149
-0.011971839 0.0053203404 -0.020894686 4288753963
-0.0093702376 0.0017088428 -0.017901948 4289866019
-0.0066051483 -0.0026490912 -0.014235435 4289407783
-0.0042258576 -0.0047601461 -0.012611927 4288753709
-0.0015464425 -0.0083660111 -0.0096353171 4288164913
0.00087049231 -0.010474265 -0.0080195544 4287118649
0.0035981871 -0.014076576 -0.005052912 4286726204
0.0057527386 -0.014687076 -0.0047980016 4286464829
0.0079127401 -0.015297048 -0.0045441231 4286334013
-0.029006079 -0.014882937 -0.0022419021 4286855488
-0.02733627 -0.012491055 -0.0047139181 4287248444
-0.025682263 -0.010100178 -0.0071824742 4287313978
-0.023819149 -0.0092146024 -0.0082820719 4287313978
-0.022076294 -0.0075772777 -0.010062686 4287444793
-0.020461723 -0.0051886961 -0.012522718 4287510328
-0.018862963 -0.0028011203 -0.014979301 4287706933
-0.017526284 0.0010884851 -0.018793589 4288034353
-0.015964545 0.0034738332 -0.021242233 4288884779
-0.014161728 0.0043559596 -0.022328565 4289211944
-0.011839584 0.0022341609 -0.020698281 4288753964
-0.0090998709 -0.002138719 -0.017036328 4289015594
-0.0063280091 -0.0065092742 -0.013381103 4288426799
-0.0036631301 -0.010127142 -0.010409742 4287314488
-0.0012550168 -0.01224266 -0.0087971529 4287641654
0.0010247454 -0.013606906 -0.007863964 4287380024
0.0033153184 -0.014970332 -0.0069329171 4286595388
0.0056166761 -0.01633285 -0.0060040914 4286530364
-0.025594912 -0.013230294 -0.0070074564 4287117119
-0.023726404 -0.012342229 -0.0081065213 4287248444
-0.021863051 -0.011454411 -0.0092044128 4287052604
-0.020357698 -0.0083047301 -0.012341379 4287117883
-0.018753223 -0.0059102103 -0.014794288 4287314233
-0.017287515 -0.0027630031 -0.017922735 4287380279
-0.015466139 -0.0018775612 -0.019011432 4287641653
-0.013649948 -0.00099237263 -0.020098949 4288165425
-0.01131513 -0.0031198561 -0.018476272 4288295984
-0.0088305473 -0.0059990883 -0.016180167 4287380279
-0.0060518906 -0.010382287 -0.01253619 4286856763
-0.0036579669 -0.01250539 -0.010925691 4286725949
-0.0012478791 -0.014627323 -0.0093184626 4286987578
0.00074547157 -0.014491379 -0.0097379191 4287838259
0.0028858855 -0.015107334 -0.0094834222 4286595389
-0.02385854 -0.013965145 -0.0092963828 4286921279
-0.022109933 -0.012318753 -0.011071733 4287183419
-0.020254359 -0.011429176 -0.012166268 4287248698
-0.018644147 -0.0090278238 -0.014615445 4287445305
-0.01704976 -0.006627351 -0.017061228 4287314233
-0.01547122 -0.0042278618 -0.019503599 4287445303
-0.013396107 -0.0048512667 -0.019237628 4287510839
-0.011053979 -0.0069848374 -0.017621385 4287576118
-0.0085622445 -0.0098723099 -0.015333365 4287052859
-0.0060490444 -0.012758195 -0.013049773 4286856763
-0.0036531165 -0.01488775 -0.011444586 4286791484
-0.0015239529 -0.015506923 -0.011189568 4286725948
0.00046658143 -0.015371174 -0.011608436 4287053114
-0.021898024 -0.016212784 -0.010225859 4286398273
-0.020268939 -0.013803691 -0.012674227 4287117883
-0.01865565 -0.011395603 -0.015119134 4287248698
-0.016935632 -0.0097464696 -0.016884938 4287183418
-0.015226088 -0.0080979466 -0.018648366 4287641654
-0.013271227 -0.007965371 -0.019060293 4287837748
-0.010924436 -0.010105163 -0.017449956 4287772469
-0.0085615069 -0.012243703 -0.015842985 4287445303
-0.0061824173 -0.014381081 -0.014239285 4286791484
-0.0037871897 -0.016517222 -0.012638882 4286529343
-0.018547736 -0.014527872 -0.014951129 4287052604
-0.016944565 -0.012113854 -0.017388918 4287248954
-0.015357234 -0.0097007304 -0.019823303 4287576118
-0.013530262 -0.0088083372 -0.02090822 4287968818
-0.011186823 -0.010954849 -0.01930216 4287772468
-0.008694157 -0.013859674 -0.017027479 4287380279
-0.0063157603 -0.016003609 -0.015428554 4287904049
-0.0041980594 -0.016628057 -0.015174512 4286529853
-0.016953826 -0.014485255 -0.017895922 4286202433
-0.015238531 -0.01282765 -0.019654088 4287903539
-0.013661318 -0.010408632 -0.022081308 4288230959
-0.011318564 -0.012561738 -0.020480037 4287249974
-0.0089596584 -0.014713675 -0.01888204 4286857784
-0.0065846071 -0.016864367 -0.017287333 4287119413
-0.015245222 -0.015198663 -0.020161394 4286660923
-0.013537571 -0.013537116 -0.021914586 4287445558
-0.011450283 -0.014168359 -0.021657716 4286857784
-0.0089593381 -0.017090708 -0.01939581 4286530618
-0.011322193 -0.017307132 -0.021499835 4286334013
0.026493583 -0.02469188 0.012936495 4284574768
0.019708477 -0.015579879 0.0023916252 4284507958
0.022925436 -0.020617396 0.0067068264 4283331134
0.026007965 -0.024912834 0.010337446 4282935628
0.016882762 -0.01441741 -0.0011104234 4284443188
0.019569729 -0.01724647 0.0011705346 4283396159
0.022785254 -0.02229932 0.0054745376 4282544969
0.025523104 -0.025124654 0.0077450015 4283066189
0.013919465 -0.012490883 -0.0052797338 4283068483
0.016581427 -0.015330531 -0.003000211 4282610248
0.019431029 -0.018912718 -5.029887e-05 4282413388
0.022307403 -0.022492945 0.00289407 4282282318
0.013943411 -0.014883809 -0.0058116755 4282349129
0.01644383 -0.016985483 -0.004212819 4282152013
0.019292358 -0.020578653 -0.00127092 4282282319
0.021998983 -0.023423687 0.00099284947 4282347344
0.0096311681 -0.016058162 -0.0068481751 4282870348
0.011638571 -0.015920624 -0.0072701043 4282217549
0.013806544 -0.016531877 -0.0070192814 4281826380
0.01630627 -0.018640131 -0.0054252073 4282020943
0.018987909 -0.021495715 -0.0031628571 4282085713
0.0070308 -0.015586071 -0.0096503524 4282804813
0.0093398727 -0.016952217 -0.008726202 4282347343
0.011659712 -0.018317483 -0.0078042746 4281825613
0.013669718 -0.01817964 -0.0082266666 4281891148
0.016168743 -0.020294458 -0.0066373646 4282282064
0.018518202 -0.021657318 -0.0057213716 4282084949
0.0065909885 -0.015716992 -0.012193475 4282412624
0.0088941976 -0.017087862 -0.011271428 4282086223
0.011365641 -0.019211382 -0.009681467 4281956429
0.013532929 -0.019827053 -0.0094337985 4282022728
0.016031254 -0.021948487 -0.0078492872 4282477649
0.0018827245 -0.014597781 -0.015235148 4282741319
0.0040146038 -0.015218541 -0.014982056 4282414408
0.0064557977 -0.017350934 -0.013390854 4282085714
0.0087584779 -0.0187262 -0.012471993 4281954643
0.011071954 -0.020100638 -0.011555251 4281954899
0.013076309 -0.01996322 -0.011976477 4282150484
-0.00023373961 -0.016357891 -0.016008865 4282674508
0.0017485991 -0.016222619 -0.016425941 4282282318
0.0038801432 -0.016845584 -0.016174417 4282086988
0.0063206367 -0.018984556 -0.01458801 4282020433
0.0083139651 -0.018848151 -0.015007123 4282019669
0.010621578 -0.020227298 -0.014092468 4282476374
-0.0024906397 -0.017356381 -0.017450936 4282479944
-0.000654798 -0.016460486 -0.018535536 4282283848
0.0014682971 -0.017086357 -0.018283978 4282217548
0.0038946308 -0.019232944 -0.016699605 4282216783
0.0063370913 -0.021378264 -0.015118584 4282477394
-0.0050174817 -0.016822621 -0.020225845 4282741319
-0.002905637 -0.017451689 -0.019973762 4281826124
-0.00078832731 -0.018080302 -0.019722693 4282088008
0.0014804751 -0.019471347 -0.018806849 4282348364
0.0037600733 -0.020861566 -0.017893136 4282412623
-0.0051503107 -0.018437713 -0.021409631 4282217038
-0.0030388013 -0.019069001 -0.021159127 4282022474
-0.00092181936 -0.019699842 -0.020909648 4282152778
0.0013464689 -0.021095246 -0.019996975 4282086223
-0.0052831098 -0.020052552 -0.022593223 4282411859
-0.0033122897 -0.019918337 -0.023008082 4282021199
-0.0011983216 -0.020551503 -0.022759646 4282347344
-0.0035853833 -0.020762995 -0.024853606 4282738259
0.0172402 0.0023071393 0.040849365 4285425958
0.020621739 -0.003138952 0.046093039 4285426213
0.011543106 0.0066196099 0.034077026 4284966958
0.01282179 0.010267131 0.030095279 4285689884
0.015028752 0.0097066537 0.030374207 4285755164
0.018212132 0.0049414262 0.03490372 4285820954
0.022420026 -0.0040251687 0.043673694 4285952023
0.0088888928 0.0068958327 0.031141162 4285229864
0.01032722 0.0098509118 0.027875014 4285755418
0.011744272 0.01280468 0.024613366 4285623584
0.013775926 0.012944095 0.024186499 4285623583
0.016454257 0.010271393 0.026587691 4285623584
0.019975647 0.0040858611 0.032516606 4285689118
0.023044296 1.1868775e-05 0.036317851 4285689118
0.025805801 -0.0026548132 0.038701799 4285426723
0.0037716329 0.009165965 0.026515428 4284901424
0.0056599118 0.010011442 0.025379058 4285493278
0.0075429641 0.010856666 0.024243869 4285558814
0.0092673674 0.012407489 0.022402745 4285755674
0.010668978 0.015368916 0.019150913 4285952789
0.012684472 0.015507206 0.018727437 4285886998
0.015345909 0.01282458 0.021125566 4285887253
0.018521227 0.0080282763 0.025633749 4285821718
0.021233648 0.0053493679 0.028021332 4285558813
0.023628592 0.0040814653 0.028997038 4285493278
0.025862165 0.0035189465 0.029267453 4285493535
0.029150113 -0.0012691766 0.0337523 4285295909
0.03318556 -0.0088711753 0.041037414 4285032239
0.0011694431 0.0094794556 0.023594137 4284966704
0.0026165508 0.012452304 0.020339005 4285689628
0.0049299002 0.011173584 0.021327924 4285689884
0.0071034804 0.010603882 0.021608628 4285624349
0.0088227876 0.012158655 0.019771896 4285624094
0.010375582 0.014420658 0.017232534 4285624093
0.012388274 0.01455874 0.016809627 4285689629
0.014884908 0.012574561 0.018498123 4285624094
0.017561615 0.0098843277 0.020886522 4285558814
0.020093188 0.007902801 0.022567794 4285624349
0.021963708 0.0087500662 0.021437425 4285624603
0.024172895 0.0081836432 0.021711279 4285689883
0.026562158 0.0069111586 0.022685096 4285820443
0.030203396 0.00069506466 0.028559577 4285885468
0.034612771 -0.0083422437 0.037223428 4285884958
3.5058707e-05 0.012789413 0.017430037 4285755419
0.0018992461 0.013637453 0.016301908 4285886233
0.0043491349 0.011643022 0.01799484 4285952534
0.0066648088 0.010360129 0.018980075 4285690139
0.0086851381 0.010498509 0.018555388 4285624349
0.010394104 0.012057059 0.016724147 4285624349
0.012567755 0.011485435 0.017003458 4285624348
0.014746863 0.010914318 0.017281648 4285624348
0.017095178 0.009634234 0.018260378 4285624349
0.019121408 0.0097735524 0.017834857 4285624348
0.020978615 0.010622069 0.016708918 4285755419
0.022830553 0.011470333 0.015584167 4285689374
0.02520059 0.010192171 0.016558662 4285623584
0.028289929 0.0060806423 0.020326246 4285754909
0.031950824 -0.00015365332 0.026181836 4285755163
0.035477404 -0.005676277 0.031329703 4285427233
0.039231971 -0.01190386 0.037165832 4285164583
-0.0035715997 0.0080103278 0.019887924 4285164329
-0.0021102354 0.011001348 0.016642783 4285624349
-0.00067010522 0.013991013 0.013402175 4285558049
0.0014731884 0.013414621 0.013685755 4285623584
0.0039170794 0.011413157 0.015375026 4285820699
0.0065273382 0.0087003186 0.017763767 4285755419
0.0087004304 0.0081262663 0.01804132 4285624349
0.010723434 0.0082649142 0.017616138 4285558814
0.01274655 0.0084036738 0.017191008 4285559068
0.014608864 0.0092543885 0.016065389 4285559068
0.016465943 0.01010485 0.014940955 4285624349
0.018650275 0.0095321164 0.015216552 4285624349
0.020333245 0.011093765 0.013394453 4285952788
0.022005621 0.012654766 0.011574714 4285755418
0.024015915 0.012793288 0.011152769 4285557793
0.027087964 0.0086674839 0.014914028 4285623584
0.030192168 0.0045439601 0.018668681 4285689883
0.033328492 0.00042283535 0.022416633 4285624349
0.036866888 -0.0051163957 0.027548965 4285427233
0.041386291 -0.014202513 0.036147106 4285361699
-0.0065316111 0.010508575 0.014869347 4285098029
-0.0049384832 0.01279217 0.012335718 4285623839
-0.0030825213 0.013643757 0.01121242 4286280718
-0.0013737679 0.01521045 0.0093873739 4285886489
0.00090323016 0.013915911 0.010373957 4285754908
0.0034857877 0.011192337 0.01276185 4285820954
0.0062398873 0.0077555627 0.01584648 4285821719
0.0084099956 0.0071791187 0.016123004 4285624349
0.010430191 0.0073175356 0.015698384 4285624349
0.012292456 0.0081703067 0.014574334 4285624604
0.01398873 0.0097368881 0.01275247 4285624604
0.016001239 0.0098751187 0.012329724 4285624349
0.018013831 0.010013461 0.011907034 4285624094
0.020026512 0.010151923 0.011484411 4285624093
0.021525029 0.0124304 0.0089717731 4285821463
0.023703936 0.011855423 0.0092471018 4285886998
0.026418548 0.0091421008 0.011608144 4285821463
0.029513478 0.0050048828 0.015354805 4285690394
0.032276321 0.0022951216 0.01770591 4285493278
0.035799742 -0.0032625869 0.02282821 4285361699
0.040303245 -0.012378193 0.031408269 4285427234
-0.0052100495 0.011870749 0.010431871 4285557028
-0.0034958869 0.013442039 0.0086088777 4285689373
-0.0019340888 0.015730195 0.006086966 4286083349
0.00033439696 0.014430732 0.0070719868 4285820698
0.003055267 0.010980643 0.010155272 4285820954
0.00595285 0.0068155378 0.013932582 4285624349
0.0079674274 0.0069534481 0.013509043 4285558558
0.0093613528 0.0099578649 0.010291735 4285624348
0.011049747 0.011528164 0.0084747467 4285755674
0.013048656 0.011665329 0.0080547538 4285821208
0.015537318 0.0096544176 0.0097251739 4285820954
0.017710321 0.0090765134 0.0099998359 4285624093
0.019720197 0.0092147812 0.0095778015 4285624094
0.021216433 0.011499673 0.0070705228 4285624349
0.023218442 0.011637613 0.0066503044 4285624348
0.02592684 0.0089151189 0.0090060588 4285558813
0.029194444 0.0040493533 0.013437659 4285493534
0.032317594 -9.8899007e-05 0.0171686 4285493789
0.035842076 -0.0056740046 0.022277508 4285624858
0.040532999 -0.015532404 0.031527892 4285558303
-0.0049359277 0.0080737472 0.011334581 4287129103
-0.0034914762 0.011089668 0.0081127323 4285557028
-0.0019266084 0.013384588 0.0055950396 4285623583
5.5398792e-05 0.013519935 0.0051781051 4285558303
0.002772551 0.010058664 0.0082539245 4285558813
0.0055165552 0.0065993369 0.011324184 4285624604
0.0073733218 0.0074558258 0.010204373 4285690139
0.0086048059 0.01118727 0.0062983129 4285690139
0.010125041 0.013479792 0.0037904996 4285886999
0.012270808 0.012897596 0.0040690564 4285755419
0.01491113 0.010161117 0.0064320955 4285952788
0.017407212 0.0081442893 0.0080961045 4285887254
0.019414276 0.0082823187 0.007674627 4285558558
0.021079302 0.0098559111 0.0058662426 4285559068
0.02342863 0.0085587651 0.0068319123 4285493533
0.026141506 0.0058278739 0.0091801565 4285493533
0.029233951 0.0016642734 0.012907557 4285493789
0.032540269 -0.0032139421 0.017319553 4285624859
0.03606848 -0.008806251 0.022414494 4285558558
0.040387861 -0.017261855 0.030261058 4285294633
0.00035341457 0.0097269267 0.0060776453 4285622053
0.0023434274 0.0098628998 0.0056590829 4285558558
0.0047820508 0.0078349262 0.0073296484 4285559069
0.0066281818 0.0086928681 0.0062137228 4285559323
0.008004576 0.011713535 0.0030131973 4285755164
0.0095172152 0.014012046 0.00051189959 4285557538
0.011654649 0.013427041 0.00079059415 4285492003
0.014448941 0.0099607781 0.0038424525 4285689374
0.016773462 0.0086572617 0.0048097391 4285624348
0.018940564 0.0080746785 0.0050824229 4285624604
0.020942219 0.0082124472 0.0046621654 4285559069
0.023638118 0.0054715276 0.0070072915 4285362208
0.026531674 0.0020126626 0.010038735 4285164074
0.029809795 -0.0028829277 0.01444507 4285163309
0.0023549981 0.0075050294 0.0051568244 4285623583
0.0040490478 0.009088397 0.0033482146 4285558558
0.0057325624 0.010671124 0.0015419517 4285624349
0.007250838 0.012976438 -0.0009556897 4286214929
0.0089105256 0.014557749 -0.00275678 4286214929
0.011039622 0.013970003 -0.0024780408 4285820698
0.013662178 0.011214837 -0.00012445822 4285886744
0.016306195 0.0084612519 0.0022246968 4285821464
0.018971674 0.0057092533 0.004569428 4285558813
0.021487914 0.0036809742 0.0062194411 4285493533
0.02436699 0.00021008402 0.0092456061 4285493533
0.027096815 -0.0025371388 0.01157709 4285229098
0.0052941963 0.010494955 -0.0010357685 4285622309
0.0068075545 0.012806408 -0.0035274141 4285557794
0.0084621161 0.014391765 -0.0053241896 4285820954
0.010745373 0.013076395 -0.0043549621 4285820954
0.013364386 0.010312244 -0.0020072348 4285755163
0.016335178 0.0061004013 0.0017156359 4285493278
0.019002456 0.0033397973 0.0040534008 4285361953
0.021861695 -0.00014349818 0.0070754047 4285295653
0.024574552 -0.0029007196 0.0094037857 4285163053
0.008328408 0.012780055 -0.0065051848 4285623583
0.010611154 0.011460274 -0.0055391537 4285624094
0.013229299 0.0086873248 -0.0031978395 4285558558
0.01669379 0.0022817701 0.0025799777 4285558814
0.019535866 -0.0012137145 0.0055972766 4285229608
0.02223441 -0.0039807931 0.0079219658 4285163054
0.013742752 0.0041458458 -0.0016396623 4285425958
0.017216139 -0.0022786707 0.0041214395 4285295143
