# .PCD v0.7 - Point Cloud Data file format
VERSION 0.7
FIELDS x y z rgba
SIZE 4 4 4 4
TYPE F F F U
COUNT 1 1 1 1
WIDTH 737
HEIGHT 1
VIEWPOINT 0 0 0 1 0 0 0
POINTS 737
DATA ascii
-0.0061921217 0.0040664226 0.031560604 4287509564
-0.0050969608 0.0084151551 0.026881862 4289407273
-0.0029686131 0.007847555 0.027180124 4290649123
-0.00067995116 0.0065785572 0.028186847 4291303199
0.0013044886 0.006713748 0.027773514 4289477654
-0.010046065 0.010752603 0.022253752 4286920768
-0.0086728409 0.013704058 0.01900709 4288621874
-0.0071715713 0.015949767 0.016473901 4290257954
-0.0049263053 0.014673334 0.017486274 4289865254
-0.002051603 0.01058159 0.021327894 4290585884
0.00038330629 0.0086036921 0.02304098 4290849044
0.0025143661 0.0080343708 0.023337245 4289869844
-0.012702223 0.011839084 0.018644795 4287968309
-0.011759873 0.016920049 0.013279109 4289212199
-0.010854818 0.021998625 0.0079212235 4289604389
-0.0089431852 0.022128522 0.0075228056 4289539364
-0.0067278184 0.0208457 0.0085380459 4289081383
-0.0034203157 0.01462001 0.014494921 4289670433
-0.00085031986 0.011928 0.016913336 4289998108
0.0015813671 0.0099434182 0.018622205 4289997853
0.0037042014 0.0093714371 0.018918592 4290063389
0.0055021346 0.010210939 0.017805886 4289736479
0.0074626468 0.010344855 0.017397813 4290653458
0.0095937662 0.0097737536 0.017692711 4288363813
0.011730295 0.0092031211 0.017986558 4288365598
-0.013960976 0.015913766 0.011810652 4288688175
-0.012608085 0.018881153 0.0085812984 4289604389
-0.011861514 0.024683081 0.0025312183 4290782234
-0.010114983 0.02552069 0.0014303569 4290389533
-0.0079188123 0.024232134 0.002446332 4290651419
-0.0044774897 0.017276965 0.0090972586 4290651674
-0.0019243844 0.014575053 0.011512577 4290782744
0.00049059466 0.012582757 0.013219967 4290127903
0.0024347566 0.012715343 0.012815132 4289866274
0.0042140186 0.013555776 0.011707905 4289604899
0.0059880204 0.0143959 0.010601888 4289669923
0.0082677715 0.013113741 0.011600981 4290520603
0.010558285 0.011832468 0.012597869 4290782744
0.012859561 0.010552034 0.013592596 4290717719
0.015171599 0.009272404 0.014585209 4289872648
-0.016293991 0.015624363 0.009638208 4287837238
-0.014935296 0.01860074 0.0064141406 4289736224
-0.013311002 0.020153053 0.0046051377 4289669923
-0.012427721 0.025260653 -0.00072516501 4290127649
-0.010689143 0.026099835 -0.0018226905 4289342758
-0.0083500445 0.024095558 -0.0001047207 4289931553
-0.0052242167 0.018539298 0.0051251678 4290193439
-0.0028394349 0.016538285 0.006833815 4290193439
-0.00075742602 0.015959017 0.0071353028 4290063134
0.0010057576 0.016800374 0.0060330248 4289800994
0.0029284917 0.016931579 0.0056327162 4290062368
0.0045163408 0.018482357 0.0038319407 4290062369
0.0066040531 0.017903849 0.004132594 4289866273
0.009388499 0.01448844 0.0072287144 4289473828
0.012199756 0.01107499 0.010319344 4290128158
0.014859635 0.0083724335 0.012706443 4289997599
0.017360099 0.0063802972 0.014391675 4289474849
0.018959012 0.0079324171 0.012589115 4290522899
-0.017250653 0.01833031 0.0042514419 4289081128
-0.01562627 0.019886903 0.0024455776 4289408293
-0.013582718 0.019302219 0.0027529607 4289473829
-0.012117308 0.02157145 0.00024692994 4289800483
-0.010370672 0.02241338 -0.00085069425 4289538853
-0.0084779859 0.022542007 -0.001245142 4289538598
-0.0058155134 0.019106608 0.0018676287 4289997088
-0.0037526377 0.018523738 0.0021713609 4289931809
-0.0015250333 0.01722889 0.0031743338 4289866784
0.00022751093 0.018071692 0.0020759152 4289801248
0.0019748025 0.01891423 0.00097866077 4290193438
0.0033822209 0.021180365 -0.0015147254 4290651163
0.0052835979 0.021310315 -0.001910435 4289604643
0.0078756362 0.018594172 0.00048402417 4289212454
0.011365749 0.012322798 0.0063589541 4289539620
0.014726061 0.0067659914 0.011527526 4289539364
0.017767873 0.0026342496 0.015295534 4290390044
0.019741736 0.0027696863 0.014885138 4289081384
0.021529613 0.0036158562 0.013780083 4287382574
-0.01941913 0.017353572 0.0027968353 4288621619
-0.018067408 0.020346791 -0.00041270163 4290323743
-0.016034979 0.019758992 -0.00010470022 4290520093
-0.013997074 0.01917173 0.00020219572 4290716699
-0.012245145 0.020016037 -0.00089492742 4289996834
-0.010201618 0.019429348 -0.00058904849 4289473574
-0.0081526414 0.01884314 -0.00028422941 4289604644
-0.0059444383 0.017542336 0.00071936194 4289473829
-0.0043511391 0.019101776 -0.001076282 4289343268
-0.0022911467 0.0185166 -0.00077353884 4289801504
-0.00054923818 0.019360848 -0.0018681102 4289735969
0.0011874139 0.020204827 -0.0029615117 4289866529
0.002417434 0.023190882 -0.0061448431 4290651418
0.0044750981 0.022605985 -0.0058412896 4290389788
0.0072280504 0.019166581 -0.0027551195 4289997089
0.010883521 0.0121613 0.0038023973 4290193438
0.014948156 0.003733106 0.011738404 4290192928
0.018716041 -0.0032642186 0.018272657 4289866018
0.020888992 -0.003840737 0.018552676 4289015849
-0.021317054 0.014944665 0.0027499562 4288228663
-0.020086396 0.018665925 -0.0011580996 4289210924
-0.018469695 0.020230528 -0.0029558456 4290585629
-0.016583119 0.020358317 -0.0033493461 4289931554
-0.014410663 0.019050345 -0.0023419596 4290650908
-0.012518477 0.019178696 -0.0027364912 4290323999
-0.010329708 0.017871998 -0.0017323038 4289604644
-0.0084319264 0.018000938 -0.002127842 4289670179
-0.0063804612 0.017412797 -0.0018251305 4289932319
-0.0047922693 0.018976189 -0.0036163861 4289866783
-0.0028968342 0.019105278 -0.0040111989 4289997854
-0.0010013096 0.019234478 -0.0044059595 4289932319
0.00056577101 0.020796776 -0.0061926357 4289604643
0.0021222532 0.022358425 -0.007976965 4289866529
0.0041769333 0.021771118 -0.0076744556 4289343269
0.0069261752 0.018320557 -0.0045957556 4289474084
0.010926936 0.0098616481 0.0033337167 4289669923
0.015524819 -0.00073943287 0.013329462 4289931553
0.019662067 -0.0091887638 0.02123072 4289473574
0.021667749 -0.0090511516 0.020813707 4288427054
-0.022764977 0.020589799 -0.0054085199 4289668393
-0.021290887 0.022878759 -0.0079018949 4289995813
-0.019557979 0.023725785 -0.0089920256 4289277223
-0.017550204 0.023131967 -0.00868225 4288753964
-0.015251573 0.021098375 -0.0069759199 4289473828
-0.013082128 0.019785874 -0.0059710927 4290324254
-0.010753818 0.01775451 -0.0042707883 4289997088
-0.008409366 0.015724283 -0.002573736 4289474084
-0.0066623092 0.016572885 -0.003666345 4289932319
-0.0053886883 0.019578915 -0.0068459138 4289867040
-0.0039776154 0.021864578 -0.0093254969 4290128413
-0.0017754361 0.020554919 -0.0083270259 4290193949
0.0001093559 0.02068349 -0.0087194704 4289866529
0.0021609813 0.020093668 -0.0084180674 4289670178
0.0043874532 0.018786035 -0.0074244575 4289670179
0.0073131099 0.014606692 -0.0036621699 4289670179
0.011669125 0.0046861321 0.0056306114 4289800994
0.016632419 -0.0073824897 0.016982645 4290127648
0.020605922 -0.015139267 0.024169654 4289865763
0.022079112 -0.012848385 0.021677889 4288492334
-0.025027122 0.020368148 -0.0075481832 4288817968
-0.023550104 0.02266378 -0.01003736 4289473064
-0.022088956 0.024958387 -0.012523112 4290585629
-0.02036934 0.025806718 -0.013608878 4290127648
-0.018375244 0.025209725 -0.013297876 4290454814
-0.015948083 0.022446271 -0.010896324 4290585884
-0.013789829 0.021128669 -0.0098925252 4290782234
-0.011472892 0.019089907 -0.00819478 4289800994
-0.0092903338 0.017774172 -0.0071958811 4289997598
-0.0072501786 0.01718086 -0.0068941354 4289801248
-0.0058280937 0.019473642 -0.0093711196 4289801504
-0.004263401 0.021044262 -0.011150884 4290782743
-0.0020643882 0.019730017 -0.010155063 4290651418
0.00014539436 0.018416654 -0.0091614444 4290782489
0.0021993779 0.017824821 -0.008862175 4290651674
0.004428044 0.016512915 -0.0078722853 4289735458
0.0078709088 0.010159649 -0.0020469474 4289670179
0.012584116 -0.0012311712 0.0086021284 4289866019
0.017737482 -0.01405593 0.020613465 4289669669
0.021007802 -0.018956512 0.025021262 4289276968
0.021941563 -0.014499746 0.020466071 4286071874
-0.026645843 0.016528491 -0.0061886571 4287902264
-0.025410499 0.020282447 -0.010073154 4288885034
-0.023938414 0.022584256 -0.012556385 4289408804
-0.022482205 0.024885088 -0.015036224 4289538853
-0.020904873 0.026460033 -0.016815931 4289538853
-0.018779423 0.02513564 -0.015808744 4289277224
-0.016358476 0.022363003 -0.01341252 4289931553
-0.014351044 0.021764964 -0.013105845 4289997088
-0.012190472 0.020443201 -0.012105717 4290324254
-0.010019105 0.019122325 -0.011107798 4289800994
-0.0079899468 0.018526062 -0.010805424 4289866273
-0.0064224415 0.02010107 -0.012582527 4290324509
-0.0048655272 0.02167546 -0.014357352 4289866528
-0.0025139898 0.019633077 -0.012671396 4289015848
1.7397106e-05 0.016868804 -0.010297546 4289800993
0.0024038628 0.014828965 -0.0086186659 4290127903
0.0051445626 0.011344962 -0.0055630086 4289539108
0.0087707639 0.0042503551 0.00093455054 4289931553
0.013671383 -0.0078968257 0.012243518 4289669669
0.018485866 -0.019315474 0.022845265 4289473318
0.02104909 -0.02134265 0.024487797 4288361009
-0.025277924 0.017295364 -0.0098044183 4288164148
-0.023668591 0.018876627 -0.011587662 4288688173
-0.022203948 0.021184534 -0.01406435 4289212199
-0.020618383 0.022764426 -0.015842536 4288950313
-0.018624891 0.022162981 -0.015534739 4289473574
-0.016483758 0.020835359 -0.014534058 4289669669
-0.01462147 0.020961605 -0.014922417 4290258463
-0.012759063 0.021087971 -0.015310711 4290258974
-0.010896549 0.021214437 -0.01569896 4289800738
-0.0087282136 0.019889038 -0.014703595 4290193439
-0.0071711801 0.021467727 -0.016475277 4290782234
-0.0053083412 0.021594536 -0.01686335 4289866273
-0.0031236783 0.020270567 -0.015871147 4288753963
-0.00027409568 0.016046461 -0.012122983 4289080873
0.0024414323 0.012549728 -0.0090704048 4289473574
0.0058593042 0.0061553717 -0.0032696174 4289669668
0.0098400228 -0.0024096444 0.0045848181 4289473575
0.014930353 -0.015317343 0.01654987 4289538854
0.018701762 -0.022423655 0.023000948 4289341993
0.020910475 -0.023008712 0.023265149 4286660414
-0.024760108 0.01211042 -0.0074563744 4288229684
-0.023137208 0.013696913 -0.0092391903 4288360499
-0.021524835 0.015282847 -0.011019768 4288492589
-0.020059634 0.017597374 -0.013491526 4289081128
-0.01833171 0.018452838 -0.014574062 4288885034
-0.016467016 0.018579118 -0.014963016 4289080873
-0.014746834 0.019434225 -0.016043736 4289342759
-0.012884568 0.019560561 -0.016432021 4289539109
-0.011172168 0.020415343 -0.017510958 4290127393
-0.0093123391 0.020541724 -0.017898578 4289669668
-0.0080737621 0.023580186 -0.021044539 4290389533
-0.0060664117 0.022978265 -0.020740775 4290193184
-0.0037322529 0.020921547 -0.019061062 4289800739
-0.00072855875 0.01595629 -0.014632945 4289800739
0.0024786815 0.010266416 -0.0095251417 4290454814
0.0065722615 0.00094418228 -0.00099208765 4289866018
0.01107816 -0.0098269656 0.0088990731 4289538853
0.015664313 -0.020592518 0.018773612 4289407528
0.018740226 -0.024813697 0.02246527 4288753198
0.026304875 -0.022078581 0.018726841 4289082404
0.030989891 -0.032097973 0.027859494 4290000149
-0.02450094 0.0083677918 -0.0065113301 4287968054
-0.022738684 0.0092274249 -0.0075996304 4288229939
-0.021115396 0.010818385 -0.0093791755 4288296238
-0.019639108 0.013140224 -0.011848369 4288361774
-0.018039566 0.014729772 -0.013622805 4288492588
-0.016308788 0.01558765 -0.014704182 4289081128
-0.014438745 0.015714392 -0.015094179 4288427309
-0.01286288 0.017302707 -0.016863478 4288819498
-0.01129758 0.018890381 -0.018630445 4288884778
-0.0095903501 0.019747093 -0.019706581 4289081129
-0.0083538704 0.022794109 -0.022845542 4289408038
-0.0065073334 0.022919782 -0.023230242 4289211944
-0.0043397062 0.021585952 -0.022241136 4289015848
-0.0011822395 0.015875135 -0.017136222 4289604389
0.0026814565 0.0072495267 -0.0092970859 4290062114
0.007451959 -0.0050179139 0.0019547539 4290127393
0.012142237 -0.016549967 0.01250317 4289734949
0.016222619 -0.025160372 0.020297427 4289538088
0.027102588 -0.027377419 0.020916145 4288688174
0.031798258 -0.037426591 0.03002353 4288883758
-0.024242777 0.0046123564 -0.0055757705 4287968054
-0.022472452 0.0054746494 -0.0066640857 4288164403
-0.020974543 0.0078043416 -0.0091329589 4288296493
-0.019356225 0.0093994066 -0.010908109 4288361773
-0.017609503 0.010260411 -0.011991269 4288427308
-0.01586799 0.011121176 -0.013073253 4288362029
-0.014131691 0.011981741 -0.014154115 4288296493
-0.012694534 0.014307827 -0.016609851 4288492844
-0.01097402 0.01516749 -0.017687215 4289016104
-0.0094110668 0.016759496 -0.019450372 4289081128
-0.0078586712 0.01835084 -0.021211209 4288885034
-0.0063168928 0.019941628 -0.022969788 4289408293
-0.0043047406 0.019335758 -0.022670254 4289669923
-0.00098319352 0.012875751 -0.01689405 4289473319
0.0032148659 0.0027609095 -0.0077070091 4289407783
0.0081611872 -0.010274522 0.0041989433 4289407783
0.01269076 -0.021109469 0.014035837 4289342249
0.016258456 -0.027552217 0.019761149 4287641398
0.027898502 -0.032697856 0.023089599 4288426033
-0.024369892 0.0030531734 -0.006720664 4287836984
-0.022468772 0.0031814277 -0.0071175857 4288099124
-0.020967778 0.0055178106 -0.0095821321 4288296239
-0.019346576 0.0071174428 -0.01135466 4288361518
-0.017735902 0.0087164268 -0.013124864 4288492844
-0.015852895 0.0088438988 -0.013517675 4288558379
-0.014258008 0.010442071 -0.015284468 4288362029
-0.012526866 0.011304513 -0.016362488 4288688938
-0.010651518 0.011431791 -0.016753461 4288754474
-0.008776065 0.011559181 -0.017144375 4288754474
-0.0072100982 0.013155796 -0.018904757 4288688939
-0.0056547225 0.014751844 -0.020662891 4288819498
-0.0039498098 0.015613057 -0.021735033 4289015849
-0.00062201172 0.009133853 -0.015974944 4289473574
0.0037468709 -0.0017449334 -0.00612952 4289211944
0.009036798 -0.01628641 0.0071093077 4289145899
0.013067026 -0.024952687 0.0148744 4287902773
0.028505752 -0.037307493 0.024569139 4286791484
-0.024496961 0.0014942661 -0.0078653581 4287838003
-0.022465389 0.00088407844 -0.0075740516 4287968563
-0.020828087 0.0024890229 -0.0093467515 4288362029
-0.019201305 0.0040933415 -0.011117112 4288296493
-0.017585065 0.0056970716 -0.012885252 4288362029
-0.015696865 0.0058248714 -0.013279166 4288558379
-0.01409639 0.0074277297 -0.015043792 4288558379
-0.012213279 0.0075554103 -0.015436477 4288558379
-0.010330055 0.0076831952 -0.015829107 4288623658
-0.0082947724 0.0070741847 -0.015537952 4288688939
-0.0067178942 0.0086758882 -0.017297329 4288427053
-0.0049943291 0.0095404536 -0.018371858 4288688938
-0.0029560775 0.0089319423 -0.018081017 4288362029
0.00038865581 0.002434276 -0.012339283 4288492589
0.004277464 -0.0062680095 -0.0045646718 4288623149
0.0092383474 -0.019380875 0.0072790058 4288295473
0.012930308 -0.026601769 0.013664084 4287445048
0.029298257 -0.042668901 0.026712522 4285875268
-0.02298392 0.0015449896 -0.010779863 4287577393
-0.021088269 0.001672931 -0.011175605 4287904304
-0.019328188 0.0025411993 -0.012256742 4288428074
-0.01771174 0.0041492954 -0.014021639 4288427819
-0.015823659 0.0042770803 -0.014415538 4288427564
-0.014222968 0.0058842823 -0.016176939 4288296749
-0.012193564 0.0052724406 -0.015886394 4288558379
-0.010158714 0.0046611205 -0.01559688 4288361773
-0.0081184134 0.0040502325 -0.015308442 4288558124
-0.0065359734 0.0056566522 -0.017065698 4288427053
-0.0046499111 0.0057849661 -0.017458672 4288427308
-0.0026039742 0.005174838 -0.017171128 4288296238
0.00090945885 -0.0020803809 -0.010765614 4288296239
0.0048066527 -0.010808282 -0.0030124513 4288230193
0.0094392262 -0.022483818 0.0074425479 4288099379
0.012623154 -0.027512692 0.011775785 4287052604
-0.015950423 0.00272955 -0.015551714 4287774763
-0.014062356 0.0028574169 -0.015945537 4288296748
-0.012174178 0.0029854104 -0.016339304 4288492843
-0.010136977 0.0023720264 -0.016051952 4288623658
-0.0082459003 0.0025004372 -0.016446147 4288296493
-0.0063547343 0.0026289672 -0.016840279 4288296493
-0.0046203919 0.0034985617 -0.017913731 4288427564
-0.0022529028 0.0014048293 -0.016270641 4288165679
0.0012665913 -0.005871743 -0.0098828319 4288034353
0.005169481 -0.014625378 -0.0021505943 4287968819
0.0093041733 -0.024114743 0.006245519 4287903284
0.012656968 -0.029898994 0.011244143 4286529853
-0.012447227 0.0021819845 -0.018155238 4288035374
-0.010413017 0.0015662238 -0.017868916 4288100399
-0.0083733425 0.0009509474 -0.017583635 4288099634
-0.0063282438 0.00033608079 -0.017299376 4288230958
-0.004434444 0.00046490878 -0.017693968 4288165678
-0.0022217184 -0.00089205056 -0.016734051 4287904049
0.0011363998 -0.0074475929 -0.011039517 4287772979
0.0052017309 -0.016970105 -0.0026504286 4287903283
0.0093365945 -0.026487745 0.0057242801 4288099634
0.01235025 -0.030804925 0.0093595078 4286333758
-0.0044057481 -0.0018318444 -0.018156635 4287970094
-0.0021908656 -0.0031930134 -0.017200461 4287773233
0.0010062493 -0.0090231374 -0.012195979 4287773233
0.0050690807 -0.018574096 -0.0038277358 4288034609
0.0095359385 -0.02960939 0.0058740145 4287838258
0.012553696 -0.033939339 0.0094985245 4287577139
0.00087613612 -0.010598369 -0.013352214 4287054899
0.0049364641 -0.020177819 -0.0050048456 4287381043
0.0095675178 -0.031992719 0.0053451983 4287315764
0.012416966 -0.035589032 0.008287753 4286530619
-0.026776392 -0.0010075942 -0.010443252 4282347854
-0.025261167 0.0013491064 -0.012896214 4282285123
-0.023371119 0.0014765486 -0.01329088 4282546498
-0.021348018 0.00086150318 -0.013001047 4284049468
-0.026903 -0.0025633946 -0.01158572 4282347853
-0.025514733 0.00054495782 -0.014717765 4281828163
-0.023887578 0.0021620616 -0.016478561 4281762118
-0.021872822 0.0015442967 -0.016188689 4282219078
-0.019852575 0.00092701614 -0.01589988 4282545988
-0.027029555 -0.0041189119 -0.012727983 4282413900
-0.025513519 -0.0017491356 -0.015171282 4281632069
-0.02375361 -0.00087463111 -0.016247662 4281697348
-0.021866355 -0.00074730068 -0.016641688 4281762628
-0.019978967 -0.0006198436 -0.01703565 4281762884
-0.018229317 0.00025429577 -0.018109636 4281631558
-0.01648486 0.001128234 -0.019182442 4281761864
-0.014602434 0.0012556836 -0.019575123 4282481218
-0.012865748 0.002129294 -0.020646147 4282678078
-0.010837208 0.0015109554 -0.020360291 4283267129
-0.027031709 -0.0064238012 -0.013188786 4282414153
-0.025512602 -0.0040473714 -0.015627775 4281632069
-0.023749989 -0.0031704605 -0.016703121 4281697348
-0.02199256 -0.0022938475 -0.017777272 4281631813
-0.020240333 -0.0014174804 -0.01885025 4281762629
-0.018631 0.00020743161 -0.020600518 4281632324
-0.016611133 -0.00041402876 -0.020314772 4281631813
-0.014728833 -0.00028660148 -0.020707432 4281893188
-0.012846414 -0.00015903264 -0.021100018 4281827653
-0.010963891 -3.1374395e-05 -0.021492559 4281761864
-0.0090812556 9.6417964e-05 -0.02188503 4282479178
-0.0070448183 -0.00052332878 -0.021602293 4283263814
-0.027034182 -0.0087328181 -0.013652544 4282152524
-0.025385167 -0.0071012974 -0.015408208 4281370694
-0.023617167 -0.0062219203 -0.016483013 4281566534
-0.02198654 -0.0045914277 -0.018234666 4281566789
-0.020231608 -0.0037126988 -0.019306568 4281631813
-0.018619392 -0.0020832717 -0.021054178 4281697348
-0.016877536 -0.0012052059 -0.022123182 4281567298
-0.014855195 -0.0018285736 -0.021839514 4281631559
-0.012972925 -0.0017010495 -0.022232097 4281500743
-0.011090536 -0.0015733913 -0.022624604 4281435209
-0.0093589164 -0.00069556385 -0.023691133 4281631049
-0.0074789934 -0.000567846 -0.024082955 4281500489
-0.0055989847 -0.00043999404 -0.024474699 4281761864
-0.0030833855 -0.003310062 -0.022176748 4281826123
0.00058450922 -0.011423983 -0.01518009 4282086989
0.005132325 -0.023279496 -0.0048391148 4282414153
0.0095987916 -0.034380123 0.0048134541 4282414154
0.012280278 -0.037238382 0.0070772348 4283001164
-0.026912946 -0.011799909 -0.013441303 4282021709
-0.025511723 -0.0086559653 -0.016549831 4281631049
-0.023743678 -0.0077744275 -0.017623013 4281369673
-0.022112843 -0.0061395913 -0.019371446 4281566789
-0.020223197 -0.0060120225 -0.01976591 4281567298
-0.018745434 -0.0036249086 -0.022186093 4281632579
-0.016863529 -0.0034976453 -0.02257878 4281697859
-0.014981519 -0.0033702627 -0.022971401 4281501508
-0.012954038 -0.0039953515 -0.022690363 4281436228
-0.011217143 -0.003115125 -0.023756446 4281501254
-0.0094854794 -0.0022351295 -0.024821347 4281566023
-0.0079124235 -0.00060325861 -0.026557004 4281500234
-0.0061939321 0.00027606636 -0.027618999 4281499978
-0.0036871992 -0.0026033521 -0.025325723 4281630793
0.0001319088 -0.011493355 -0.017674819 4281825868
0.0049994104 -0.024886958 -0.0060189776 4281891658
0.009629719 -0.036771558 0.0042786738 4281956938
0.011974242 -0.038136475 0.0051983511 4283000398
-0.027287673 -0.011850536 -0.015942032 4283199298
-0.025638226 -0.010210328 -0.01769124 4281893698
-0.023741011 -0.010082506 -0.01808748 4281762884
-0.021843631 -0.0099545494 -0.018483661 4281697603
-0.0200806 -0.0090709776 -0.019554 4281698113
-0.018459965 -0.0074322522 -0.021296844 4281306944
-0.016710024 -0.0065493286 -0.022364281 4281502783
-0.015107792 -0.0049116611 -0.024103068 4281437248
-0.013225812 -0.0047841668 -0.024495602 4281306434
-0.011343721 -0.0046565533 -0.024888065 4281436228
-0.0096120127 -0.0037743822 -0.025951331 4281370439
-0.007885579 -0.0028924197 -0.027013468 4281500743
-0.0061643682 -0.0020107254 -0.02807436 4281696329
-0.0036558397 -0.0048987344 -0.025788054 4281826634
0.00016363338 -0.013814859 -0.018156901 4281825868
0.0050304011 -0.02724766 -0.0065304753 4281760588
0.0091607384 -0.036906987 0.0017383015 4281695819
0.011499409 -0.038276687 0.0026559485 4282869838
-0.020073008 -0.011380643 -0.020020943 4282875959
-0.018175509 -0.01125247 -0.020416986 4282484023
-0.016277876 -0.011124164 -0.020812966 4281829439
-0.014949407 -0.0079670772 -0.023892663 4281633088
-0.013207216 -0.007082276 -0.024956662 4281110848
-0.011470247 -0.006197691 -0.026019476 4281371714
-0.0095881931 -0.0060699806 -0.026411861 4281566789
-0.0077060424 -0.0059421286 -0.026804168 4281566789
-0.0059794635 -0.0050579235 -0.027864557 4281631559
-0.003624808 -0.007198222 -0.026253395 4281696329
0.00019502267 -0.016140401 -0.018642018 4281630283
0.0048973858 -0.028856672 -0.0077114785 4281630283
0.008858867 -0.037788928 -0.0001294706 4281891148
0.011194345 -0.039163209 0.0007855501 4282870858
0.013540555 -0.040536575 0.0016983962 4283524679
-0.018302497 -0.012806349 -0.021557909 4284640049
-0.01654448 -0.011918545 -0.022623751 4282809913
-0.014933836 -0.010271609 -0.024357792 4282157368
-0.013478544 -0.0078661218 -0.026758261 4281372479
-0.011596743 -0.0077385381 -0.027150676 4281633089
-0.0095646866 -0.008369647 -0.026875384 4281566023
-0.0075272061 -0.009000279 -0.026601128 4281566023
-0.0056397729 -0.0088719428 -0.026994444 4281631303
-0.0034359321 -0.010260068 -0.026055686 4281565769
0.00038690493 -0.019228108 -0.018464699 4281630793
0.0047644004 -0.030465402 -0.0088922726 4281565513
0.0085573904 -0.038666166 -0.0019937996 4282152779
0.010889668 -0.040045001 -0.0010814499 4283328074
-0.011723202 -0.0092790872 -0.028281659 4284447268
-0.0096914731 -0.0099124089 -0.028007947 4282483513
-0.0076543204 -0.010545217 -0.027735267 4282090048
-0.0057670362 -0.01041694 -0.028128572 4281893698
-0.0034057312 -0.012569882 -0.026528604 4282024514
0.00025682151 -0.020803705 -0.019621223 4282220099
0.0044681281 -0.031313665 -0.010736135 4282154563
0.0084222965 -0.040298618 -0.0031919759 4282544968
-0.0098182298 -0.011454888 -0.029140308 4284640303
-0.0079338588 -0.011326917 -0.029533103 4284182834
-0.0058942698 -0.011961631 -0.029262494 4282808639
-0.0033758655 -0.014883772 -0.027004525 4282481984
0.00012676045 -0.022379018 -0.020777538 4282416958
0.0043353923 -0.032919593 -0.011914869 4282482238
0.0081214271 -0.041168697 -0.0050510336 4282808129
0.0040397234 -0.033760764 -0.013753456 4284704308
0.0082311593 -0.041384362 -0.015481861 4283721538
0.0074274354 -0.039904051 -0.019274456 4283069503
0.0048419498 -0.039314181 -0.02199704 4282876213
0.0072947405 -0.041506 -0.020450214 4282348873
0.0017883591 -0.036377035 -0.026664462 4284116279
0.0043809041 -0.039354563 -0.024467604 4282156349
0.0069948547 -0.042330503 -0.022275107 4282020433
0.0042493232 -0.040945016 -0.025634957 4282738513
0.020564536 -0.0016225576 0.061270129 4285098029
0.015757758 0.0067736804 0.049662959 4285361444
0.017272159 0.0089622736 0.047083288 4285820444
0.019659031 0.0077359006 0.048096616 4285819934
0.023499666 0.0010493696 0.054846775 4285885213
0.027943037 -0.0076807216 0.063736312 4285754398
0.012901437 0.0077007264 0.045985546 4285427234
0.014069181 0.011266381 0.041976355 4285689884
0.015909597 0.01208955 0.040840276 4285623584
0.018099751 0.011542454 0.041137982 4285557794
0.021016072 0.0082565397 0.044297662 4285689119
0.024507824 0.0029186457 0.049597468 4285689374
0.028042445 -0.0024162233 0.054888431 4285623838
0.031243479 -0.0063795 0.058742348 4285492768
0.03409487 -0.0089723095 0.061162617 4285493024
0.035999827 -0.0081440732 0.060013603 4285164074
0.011747383 0.010160677 0.040464215 4285493024
0.013587784 0.010985926 0.039329711 4285821464
0.015422922 0.011810899 0.038196374 4285886489
0.017607424 0.011261225 0.038493592 4285755164
0.020157348 0.0093379915 0.040218022 4285755163
0.022906072 0.0067290962 0.042652804 4285755673
0.025861621 0.0034351125 0.045796208 4285558558
0.02809182 0.002888903 0.046084255 4285558813
0.029945958 0.0037157834 0.044947334 4285558813
0.031408004 0.0059145316 0.042388935 4285623839
0.033638254 0.00536865 0.042677127 4285820189
0.037265081 2.3111701e-05 0.047936078 4285950748
0.042747483 -0.01148928 0.059573423 4285819678
0.0090987459 0.010440439 0.037523758 4285427743
0.010764677 0.011957332 0.035677191 4285493278
0.012935363 0.011404321 0.035975479 4285624093
0.014588062 0.01292051 0.034131803 4285755419
0.016584415 0.013057273 0.033716567 4285755674
0.019120295 0.011126503 0.035438959 4285755674
0.022219801 0.0071297884 0.039294053 4285624093
0.02461075 0.0058908015 0.040296812 4285624349
0.026636731 0.0060299784 0.039875705 4285689628
0.028091148 0.0082347021 0.037323713 4285689883
0.029529542 0.010438383 0.034775183 4285689374
0.031539526 0.01057674 0.034357611 4285557539
0.034740865 0.006587632 0.038191937 4285623328
0.038980499 -0.00083787739 0.045560066 4285755163
0.043482922 -0.008946836 0.053623613 4285755164
0.0082973056 0.01156351 0.033460759 4285558559
0.010459591 0.011007637 0.033759065 4285624349
0.012627292 0.010452226 0.03405631 4285689629
0.014451858 0.01128082 0.032928456 4285623583
0.016625065 0.010725982 0.033224702 4285624094
0.018983312 0.0094801858 0.034230798 4285624094
0.021716962 0.0068527535 0.036655493 4285624093
0.023917083 0.0063000396 0.036946356 4285558558
0.025371917 0.008511208 0.034399211 4285624093
0.027001049 0.010030739 0.032564111 4285886743
0.028233476 0.012930572 0.029315092 4285820698
0.030422984 0.012377508 0.029608458 4285557539
0.033212978 0.0097545236 0.032021869 4285558049
0.036828578 0.0043733716 0.037256755 4285689629
0.041098185 -0.0030740649 0.044600617 4285624603
0.046871468 -0.015344322 0.056869846 4285493279
0.0063319467 0.0090955347 0.033386692 4285427488
0.0076634325 0.012009956 0.030122891 4285886233
0.0099861361 0.010756977 0.031132791 4285886488
0.012319643 0.0095047876 0.032140564 4286018068
0.014489803 0.0089474395 0.032435711 4285689628
0.016488601 0.0090843365 0.032019943 4285624093
0.018666912 0.0085277408 0.032313541 4285624349
0.021032769 0.0072781444 0.033314869 4285624349
0.023039751 0.0074159205 0.03289764 4285624094
0.024484295 0.00963296 0.030357521 4285624094
0.026102986 0.011156112 0.028527945 4285624094
0.027325314 0.014064029 0.025287583 4285821208
0.029699326 0.012815528 0.026287541 4285821719
0.032282256 0.010875501 0.027990788 4285755673
0.036287297 0.0040917173 0.034624759 4285689883
0.040752932 -0.0040721595 0.042656291 4285558303
0.047344983 -0.019149259 0.057712059 4285558303
0.0042007007 0.0073203146 0.03259917 4285229863
0.0057066269 0.0095472336 0.030050572 4285493023
0.0071965866 0.011773162 0.027505375 4285623584
0.0095134713 0.010515347 0.028513212 4285557794
0.012012389 0.0085620284 0.030228246 4285886489
0.01470134 0.0059137642 0.032648738 4285755164
0.016705368 0.0060510188 0.032231882 4285689629
0.019068014 0.0047967434 0.033230502 4285624349
0.020531643 0.007021457 0.030691225 4285689884
0.022533149 0.0071588233 0.03027511 4285689884
0.023785472 0.01007735 0.027034961 4285689629
0.025776342 0.010214187 0.026621215 4285623839
0.026996598 0.013130706 0.02338789 4285558304
0.029367466 0.011877574 0.024385236 4285558303
0.032145046 0.0092362538 0.02678803 4285493278
0.03654949 0.0010418221 0.03481238 4285493534
0.041831598 -0.0099247098 0.045634288 4285493024
0.0034237504 0.008478716 0.02855641 4285426978
0.0049193986 0.010711484 0.026014905 4285886233
0.0065648146 0.012244292 0.024185687 4285688863
0.0088731833 0.010981552 0.025191937 4285689118
0.011363398 0.0090210661 0.026903808 4285820698
0.014043484 0.0063634068 0.029319592 4285820698
0.016215779 0.0058019087 0.029611044 4285624093
0.018572573 0.0045428798 0.030607525 4285624348
0.020031292 0.0067737773 0.028074268 4285624348
0.021473981 0.0090036914 0.025544364 4285886744
0.023087788 0.010535128 0.023722317 4285952278
0.025639892 0.0085796267 0.025421802 4286018323
0.02763065 0.0087165534 0.025008146 4285821208
0.030011727 0.0074597523 0.026000075 4285559069
0.032996979 0.0041136667 0.029096406 4285559324
0.037612982 -0.0048027635 0.037800338 4285427998
0.04351759 -0.017892376 0.050696354 4285493790
0.0046222582 0.0097896531 0.024115771 4285688099
0.0064307787 0.010625541 0.022997584 4286016283
0.0085704438 0.010059305 0.023293942 4285951513
0.011057317 0.0080920309 0.025001556 4285952024
0.013386749 0.0068265572 0.026000272 4285689628
0.015550714 0.0062622949 0.026291803 4285689628
0.017899003 0.0049982667 0.027286794 4285624093
0.01953169 0.0065351948 0.025463913 4285754909
0.020969469 0.008771278 0.022940021 4285820698
0.022578157 0.010306783 0.021122295 4285754908
0.025313847 0.0076448023 0.023520358 4285820698
0.028070971 0.0049843937 0.025914039 4285886743
0.030654546 0.0030246526 0.027602233 4285624094
0.034044728 -0.0017295033 0.032089446 4285559324
0.039074894 -0.012070835 0.042169139 4285559068
0.044997282 -0.02520071 0.055030126 4285428254
0.0081000887 0.0098448768 0.020694312 4285556518
0.010410234 0.0085735992 0.021693654 4285557284
0.012557771 0.0080059022 0.021986861 4285623328
0.014710732 0.0074387044 0.022279032 4285624093
0.017047826 0.0061695352 0.023273036 4285624348
0.018851463 0.0070078596 0.022157963 4285886744
0.020097556 0.0099520385 0.018938825 4285754908
0.021882541 0.010789298 0.01782779 4285426213
0.024609338 0.0081180111 0.020221051 4285557538
0.027933896 0.0033437982 0.024710234 4285623839
0.031101128 -0.00072640926 0.028492156 4285624093
0.03528776 -0.0082998872 0.035762362 4285558814
0.040734023 -0.02007471 0.047210816 4285493534
0.01780992 0.0089028254 0.017460492 4285556264
0.019227132 0.011150636 0.014950722 4286213908
0.021001477 0.011989333 0.013843539 4285885723
0.023905968 0.0086046308 0.016931668 4285885978
0.027604921 0.002407141 0.022808168 4285821209
0.031546645 -0.0044903979 0.029372655 4285624349
0.036330961 -0.014197372 0.038715538 4285427998
0.041989967 -0.026711591 0.050830137 4285296164
0.018909346 0.010247804 0.013071303 4285556263
0.020867459 0.010382272 0.012664269 4285556773
0.023392774 0.0083987042 0.014349517 4285623073
0.027468083 0.0007693246 0.021606404 4285623839
0.032185491 -0.0089729428 0.030940007 4285558814
0.037766155 -0.02153194 0.043041125 4285362208
0.027522817 -0.0015762672 0.021100063 4285492513
0.032822892 -0.013472751 0.03249469 4285427233
0.038804621 -0.027485915 0.04595286 4285427233
0.027959965 -0.0053464994 0.021978039 4285819933
0.033652894 -0.018699892 0.034729764 4285294888
0.039644182 -0.032756031 0.048152987 4285294889
0.028778406 -0.0105545 0.024230581 4286146844
0.034868803 -0.025373176 0.0383319 4285949728
0.035307463 -0.029219076 0.039152313 4285753123
0.035358049 -0.031644449 0.038586773 4285818914
0.035408303 -0.034073904 0.038018271 4286146079
-0.027414348 -0.013408951 -0.017086459 4284966959
-0.025890995 -0.011006169 -0.019506715 4285098538
-0.023996573 -0.010878548 -0.019902382 4285034278
-0.022102002 -0.010750808 -0.020297997 4284904739
-0.027540993 -0.014967091 -0.018230684 4285229098
-0.025891114 -0.013318196 -0.019973444 4285360933
-0.02412295 -0.012430176 -0.021041751 4285295654
-0.02209707 -0.013062522 -0.020765793 4285164584
-0.020333972 -0.012174599 -0.021832872 4284901679
-0.027421016 -0.018050514 -0.018031452 4285163563
-0.025765579 -0.016396947 -0.019772051 4285426979
-0.023992058 -0.015506372 -0.020839902 4285361188
-0.022355016 -0.013853818 -0.022576492 4285492259
-0.020460602 -0.013725989 -0.022971995 4285360678
-0.01842944 -0.014359929 -0.022698604 4285294888
-0.016392823 -0.014993377 -0.022426266 4285295398
-0.014918577 -0.012580238 -0.024825864 4285361443
-0.013460238 -0.010168009 -0.027222104 4284970018
-0.027301718 -0.021142386 -0.017838433 4285294889
-0.025640737 -0.01948411 -0.019576918 4285295653
-0.023990277 -0.017826445 -0.021313125 4285426979
-0.022350367 -0.01616931 -0.023047075 4285361188
-0.020453427 -0.016041316 -0.02344311 4285360934
-0.01855636 -0.015913218 -0.023839097 4285360934
-0.016659167 -0.015784979 -0.024235018 4285426214
-0.015045416 -0.014129199 -0.025963105 4285361188
-0.013442252 -0.012473963 -0.027688947 4285426979
-0.011702511 -0.011582725 -0.028747439 4285230118
-0.027183089 -0.024242751 -0.017651582 4285294634
-0.025516566 -0.022579722 -0.019387987 4285295653
-0.023604024 -0.022450924 -0.019787468 4285426979
-0.022215087 -0.019255564 -0.022853883 4285426723
-0.020446558 -0.018360749 -0.023917237 4285426469
-0.018683244 -0.01746621 -0.024979375 4285426469
-0.016647253 -0.018104076 -0.024710199 4285426469
-0.014889035 -0.017209664 -0.025771108 4285492003
-0.013280306 -0.015549757 -0.027494783 4285361189
-0.011535216 -0.01465594 -0.028552804 4285360933
-0.0099449567 -0.012997054 -0.03027245 4285360933
-0.0079084449 -0.013634272 -0.030002933 4285229609
-0.0058665201 -0.014271006 -0.02973444 4285164073
-0.003188692 -0.017966568 -0.0268222 4284967724
-3.2633543e-06 -0.023954019 -0.021933623 4284967468
-0.025142226 -0.027222149 -0.017872728 4285228843
-0.023475338 -0.025554717 -0.019605817 4285295399
-0.021949735 -0.023118995 -0.022001786 4285426979
-0.020440008 -0.020684302 -0.024394324 4285360933
-0.01853789 -0.020555876 -0.02479138 4285426469
-0.016774435 -0.019659013 -0.025851866 4285492003
-0.014874738 -0.019530497 -0.026248222 4285426469
-0.013119046 -0.018633962 -0.027306873 4285426469
-0.011368584 -0.017737664 -0.028364331 4285360933
-0.009772785 -0.016074017 -0.030081902 4285360933
-0.00773127 -0.016713135 -0.029815037 4285360934
-0.0059938654 -0.015817292 -0.030869532 4285295398
-0.0033170916 -0.019523785 -0.027965276 4285229609
-0.00013326108 -0.025528744 -0.023089506 4285098028
0.0040700026 -0.03613051 -0.014271685 4285098029
-0.02321941 -0.029438086 -0.018766258 4285097773
-0.021815989 -0.026224338 -0.021822616 4285360678
-0.020167302 -0.0245535 -0.023548482 4285360933
-0.018393245 -0.023653917 -0.024609603 4285360678
-0.01662441 -0.022754572 -0.025669545 4285360423
-0.014860783 -0.021855466 -0.026728304 4285360679
-0.013246294 -0.020186439 -0.028446663 4285360933
-0.01134922 -0.020057887 -0.028842311 4285360933
-0.0097505338 -0.018389747 -0.030557156 4285360934
-0.0077066869 -0.019030817 -0.030292451 4285360933
-0.0058120042 -0.018902048 -0.030687317 4285295144
-0.0032882057 -0.021849908 -0.028450187 4285295144
5.6631863e-05 -0.028641187 -0.022930291 4285229098
-0.016336668 -0.026631169 -0.024833202 4285163054
-0.014706079 -0.024956904 -0.026551712 4285229608
-0.013229776 -0.022510916 -0.028927108 4285360933
-0.011476595 -0.021610096 -0.029981866 4285295398
-0.0097286329 -0.020709515 -0.031035446 4285360934
-0.0078341737 -0.020580895 -0.03143036 4285360934
-0.0060940497 -0.019680597 -0.032482121 4285295144
-0.0034167208 -0.023408726 -0.029594436 4285295143
-7.3660165e-05 -0.030219689 -0.024088949 4285229098
-0.014411163 -0.028841458 -0.025723167 4285229098
-0.012926485 -0.026388414 -0.028095413 4285098538
-0.011311483 -0.024710633 -0.029807214 4285295144
-0.0097070485 -0.023033366 -0.031516735 4285295143
-0.0079616457 -0.022130668 -0.032568056 4285295143
-0.0059130341 -0.022775665 -0.03230755 4285295143
-0.0035452172 -0.024967283 -0.030738495 4285295144
-0.00036348775 -0.031024538 -0.025901604 4285294889
-0.0074835569 -0.026784554 -0.031088393 4285097518
-0.0060408041 -0.024327345 -0.033446606 4285163308
-0.003673669 -0.02652552 -0.031882323 4285229609
-0.00081231073 -0.031049103 -0.02836347 4285032493
-0.0033325031 -0.030417226 -0.031071283 4284901168
