# .PCD v0.7 - Point Cloud Data file format
VERSION 0.7
FIELDS x y z rgba
SIZE 4 4 4 4
TYPE F F F U
COUNT 1 1 1 1
WIDTH 314
HEIGHT 1
VIEWPOINT 0 0 0 1 0 0 0
POINTS 314
DATA ascii
0.0049572214 -0.0050243884 0.035827629 4282738769
0.0071661398 -0.0055844486 0.036009893 4282217804
0.0013384596 -0.00033852458 0.028869025 4282411859
0.0017700419 0.0071001053 0.02144732 4281109574
0.0042518973 0.0050790906 0.023022637 4281435973
0.0083939359 -0.0042119324 0.031498104 4281694798
0.012604918 -0.013497248 0.039956495 4282216784
-0.00069847703 0.0067420527 0.019356612 4280067134
0.00033900887 0.011280999 0.014719312 4280719168
0.0026373789 0.0099812001 0.015605676 4280392768
0.006588541 0.0013890117 0.023377515 4279413568
0.011270709 -0.010114342 0.033886146 4281108043
-0.0030293912 -0.0040218532 0.027432304 4281107788
-0.0022345483 0.0019998476 0.021408994 4280848709
-0.0016378611 0.0087504461 0.014707102 4280915009
-0.00013636798 0.011105582 0.012148307 4281240899
0.0021561608 0.0098009184 0.013032787 4280848709
0.0054433942 0.0041080415 0.018037952 4280847943
0.0092729926 -0.0037751794 0.025092229 4280783683
0.011975996 -0.0065359324 0.027330846 4281045314
0.014356457 -0.0078330487 0.028193761 4281826633
-0.0063958615 1.7248094e-05 0.02119774 4281304139
-0.0049974173 0.0031172112 0.017942842 4280978759
-0.0036199391 0.0062155873 0.014693235 4281045314
-0.0022633746 0.0093123466 0.01144899 4279481143
-0.0004523471 0.01020515 0.01027077 4280001853
0.0016758516 0.0096297413 0.010466523 4280458814
0.0046284124 0.0053863078 0.014088991 4280067134
0.007945694 -0.0003214553 0.01907352 4280914753
0.01046012 -0.0023591816 0.020626053 4281045314
0.012475435 -0.002196297 0.020123802 4281109828
0.014839619 -0.0034990311 0.020987578 4281433934
-0.010840625 -0.00048920512 0.019608218 4282412879
-0.0097161531 0.0040953457 0.014978413 4281565768
-0.0080323443 0.0057286695 0.01310848 4281371714
-0.0059078783 0.0051503479 0.013303111 4281503039
-0.0043898746 0.0075196028 0.010749894 4281111104
-0.0027319565 0.0091512054 0.008886612 4280458558
-0.00092611462 0.010045707 0.0077113668 4280784448
0.0013573617 0.0087315515 0.0085914684 4280980543
0.0039787441 0.0059465319 0.010837023 4281045824
0.0069538355 0.0016919598 0.014444041 4281112634
0.0091165602 0.001117453 0.014629754 4281113143
0.010598719 0.0034846514 0.012086029 4280915008
0.012413453 0.004380554 0.01090908 4280069428
0.015283775 0.00086709112 0.013817786 4279939124
0.018898427 -0.0055826008 0.019440204 4280588864
-0.012848042 0.0074726045 0.0094620502 4279807033
-0.011177368 0.0091091394 0.0075985445 4280067388
-0.0090745687 0.0085267127 0.0077968752 4279677238
-0.006666027 0.006466575 0.009365282 4280850238
-0.0046997815 0.0066246688 0.0088746371 4281111104
-0.0027333349 0.0067828968 0.0083840312 4281111360
-0.00092478842 0.0076797605 0.0072097452 4281111104
0.0012000725 0.0070997179 0.0074029425 4281241663
0.0033303872 0.006520167 0.0075948955 4281111360
0.00596416 0.0037275851 0.0098307868 4281046078
0.0079446584 0.0038875043 0.0093371002 4280916029
0.0088975877 0.0084723383 0.0047608577 4280198969
0.010514654 0.010105714 0.0029116943 4280981564
0.013357334 0.006579116 0.0058190227 4280851259
0.017122682 -0.00062932819 0.012112121 4279221299
0.020577349 -0.0063601583 0.017036505 4280784193
0.023520909 -0.0098782182 0.019918993 4282150483
-0.014406532 0.0027197003 0.011513275 4281567554
-0.013571925 0.0088137165 0.0055324472 4280849984
-0.011766881 0.0097119063 0.004360253 4281175874
-0.0096723586 0.0091266707 0.0045589302 4280654909
-0.0071225762 0.0063178837 0.0068086842 4280850494
-0.0048565939 0.0049932376 0.0076862639 4281176384
-0.0025798604 0.0036695153 0.0085612899 4281176383
-0.00045023113 0.0030875579 0.0087515516 4281111358
0.001524359 0.0032466277 0.0082590608 4280981054
0.0031728223 0.0048864037 0.0064049996 4280981053
0.0051424429 0.0050453246 0.005913917 4280981309
0.0067753643 0.0066841245 0.0040638708 4280199224
0.0077135563 0.011280805 -0.00049881544 4281176129
0.0094887614 0.012177825 -0.001662645 4281371714
0.012140632 0.0093784183 0.00056245178 4281306944
0.015708834 0.002885744 0.0061667114 4281372224
0.018961478 -0.0021253675 0.010406769 4281046078
0.021882664 -0.005656153 0.013286549 4281175874
0.025391266 -0.011399776 0.018184487 4281697858
0.028752699 -0.016401649 0.022397697 4282216529
-0.017566323 -0.004444927 0.016111378 4282803794
-0.016533323 0.0009265542 0.010813958 4281241663
-0.015537106 0.0062952414 0.0055257585 4280852279
-0.014294058 0.010172665 0.0016158279 4281241153
-0.012355074 0.010328203 0.0011317115 4281305923
-0.010268815 0.0097401068 0.0013307929 4280980289
-0.007578209 0.0061783195 0.0042586587 4280198459
-0.005013369 0.0033621192 0.0064981161 4281176385
-0.002582185 0.0012908503 0.0080511374 4281111104
-0.00076553226 0.002192691 0.0068781031 4281046588
0.00088566542 0.0038369596 0.0050265193 4280981308
0.0025264919 0.0054804534 0.0031776428 4281046333
0.0043224692 0.0063809529 0.0020100139 4281046079
0.0061133206 0.0072811991 0.00084369257 4280850238
0.0072155818 0.011148527 -0.003030173 4279612724
0.0089855567 0.012047261 -0.0041910778 4280329274
0.011454992 0.0099800229 -0.0026468853 4280394554
0.014655624 0.0049493834 0.0015944391 4280394044
0.0178934 -7.8186393e-05 0.0058266334 4280980034
0.020616069 -0.0028802454 0.0080278097 4281110593
0.024667121 -0.010864407 0.014936808 4281567554
0.028018985 -0.015882343 0.019140877 4281628753
-0.018659599 -0.00086610019 0.010114855 4281371458
-0.017643757 0.0045192391 0.0048331954 4281112123
-0.016247854 0.007661961 0.0016115047 4280525368
-0.014589705 0.0093102902 -0.00023908541 4279937848
-0.012509272 0.0087194145 -4.0307641e-05 4279872059
-0.010276489 0.0073831081 0.00083881244 4279285814
-0.0077339336 0.0045562983 0.0030770861 4280458814
-0.0053222105 0.0024768263 0.0046299249 4280980544
-0.0033588335 0.002634719 0.0041400231 4280980799
-0.0024972931 0.0080085099 -0.001102414 4281046589
-0.00087221712 0.0096550137 -0.0029442008 4281111358
0.0010678917 0.0098113716 -0.0034280303 4280981054
0.0040003434 0.0055010468 0.00014995039 4281045824
0.0057886168 0.0064032152 -0.0010140352 4280980289
0.0072304532 0.0087931454 -0.0035279351 4280849984
0.00900314 0.0096943006 -0.0046879086 4280784704
0.011298507 0.0083642751 -0.0038234624 4280914753
0.014318921 0.0040616393 -0.00026695803 4280719678
0.017189957 0.0005049035 0.0026087053 4281045313
0.020087555 -0.0030495673 0.0054778447 4281697858
0.023944311 -0.010315552 0.011698931 4282087499
0.027475759 -0.016092032 0.016564865 4282020179
-0.019216105 -0.00025312603 0.0068739643 4281565259
-0.01793465 0.0036488771 0.0029707439 4281239623
-0.016401939 0.0060513318 0.00043805689 4281305669
-0.014743514 0.0077040195 -0.0014093108 4281111104
-0.012663409 0.0071109086 -0.0012121201 4280979268
-0.010431185 0.0057701617 -0.00033618882 4280980034
-0.0078896135 0.00293459 0.0018957332 4280784193
-0.0057825074 0.0023439452 0.0020864867 4280849984
-0.0041337237 0.0039964318 0.00024187565 4280784449
-0.0035958737 0.010879308 -0.0063414345 4279352114
0.00026275963 0.011190146 -0.0073038409 4278569773
0.0036786869 0.0046258047 -0.0017066523 4280719679
0.005799979 0.0040370226 -0.0015189648 4280784704
0.007585831 0.0049412623 -0.002680622 4280849729
0.0095396116 0.0050991774 -0.0031675361 4280587333
0.011669248 0.0045114309 -0.002981659 4280587078
0.01416105 0.0024330318 -0.0014528711 4280915774
0.017030887 -0.0011347011 0.0014148345 4281306178
0.019927263 -0.0047001541 0.0042760177 4281956938
0.023781747 -0.011988103 0.01048117 4282020434
-0.019238308 -0.0026322827 0.0063696271 4281630539
-0.018089183 0.0020320341 0.0017927289 4281173578
-0.016278945 0.0029390007 0.0006255731 4281238604
-0.014473766 0.0038457215 -0.00054020435 4281306179
-0.012386091 0.003251031 -0.00034656376 4281110848
-0.010439374 0.003407225 -0.00083259121 4281111870
-0.0083433837 0.0028134286 -0.00064085051 4280849474
-0.0063936636 0.0029700771 -0.0011274628 4280523584
-0.0049068853 0.0053759888 -0.0036432669 4280719168
-0.0043778419 0.0122777 -0.010209571 4280719423
-0.00021602958 0.011088617 -0.0098177707 4278569519
0.0035224482 0.0030063912 -0.0028860867 4280654143
0.0054758117 0.0031640306 -0.0033730716 4280719168
0.0075995252 0.0025733858 -0.0031875633 4280914755
0.0099015459 0.0012350231 -0.0023314958 4280325703
0.012214277 -0.00010228902 -0.0014780392 4280587079
0.014537722 -0.0014386624 -0.00062712375 4280979268
0.017052658 -0.0035215616 0.0008909991 4281631303
0.019950479 -0.0070977807 0.0037435768 4281956429
0.023433138 -0.012913182 0.0085951528 4281954898
-0.019526929 -0.003508389 0.0045021204 4281826124
-0.01797232 -0.0010912865 0.0019737361 4281499979
-0.016156711 -0.00018171221 0.00080688577 4281303374
-0.014346175 0.00072757155 -0.00035860762 4281107533
-0.012397155 0.00088382512 -0.00084530562 4281108044
-0.010740392 0.0025452375 -0.0026855357 4281241408
-0.0089451522 0.0034536719 -0.0038470067 4281242685
-0.0073065236 0.0051138476 -0.0056825466 4280784448
-0.0056782961 0.0067733526 -0.0075154491 4279807033
-0.0043740571 0.0099354386 -0.010693919 4281110595
-0.0022935793 0.0093386471 -0.010499641 4281306179
-4.5582652e-05 0.0079911426 -0.0096338093 4280849218
0.0028720722 0.0036403984 -0.0060818084 4280132158
0.0051520914 0.0022957176 -0.0052237851 4280979524
0.0074428394 0.00095203519 -0.0043683317 4280586823
0.0099169537 -0.0011411309 -0.0028452319 4281173833
0.012407072 -0.0032328665 -0.0013260329 4281631303
0.014735207 -0.0045731664 -0.00047963951 4281892679
0.017074067 -0.0059125423 0.00036423188 4281631304
0.019973323 -0.0094995201 0.0032082042 4281891148
0.023085002 -0.013833553 0.0067125512 4281954389
-0.019416608 -0.0066471398 0.0046735285 4281826124
-0.017991692 -0.0034675598 0.0014707847 4281629519
-0.016173355 -0.0025555342 0.0003048582 4281367888
-0.014360107 -0.0016438961 -0.0008596899 4281302608
-0.012408592 -0.0014874712 -0.0013470361 4281630539
-0.010894924 0.00093322992 -0.0038598967 4281109574
-0.009396933 0.003352806 -0.0063688122 4281372223
-0.0079146251 0.005771257 -0.0088737309 4281111614
-0.006294027 0.0074344203 -0.010701403 4280262719
-0.0045272335 0.008343026 -0.011853833 4280067389
-0.0024471208 0.0077439994 -0.011661138 4280002109
-0.00019967556 0.006392099 -0.010798465 4280263229
0.0023875311 0.0035346746 -0.0085972026 4280588608
0.0048288703 0.0014321059 -0.0070710741 4280848964
0.0072861984 -0.00066900253 -0.0055488762 4280717893
0.009759523 -0.0027687699 -0.0040305448 4281499978
0.012248859 -0.0048671067 -0.0025161067 4281891914
0.014576428 -0.0062118173 -0.0016728686 4282022218
0.016914714 -0.007555604 -0.00083216 4281761863
0.019446686 -0.0096500516 0.0006719036 4282087244
0.022365995 -0.013246149 0.0035027359 4282281299
-0.019572325 -0.0082784444 0.003484915 4281760334
-0.018146679 -0.0050901026 0.00028858241 4281694288
-0.016466163 -0.0034184158 -0.0015513087 4281498194
-0.014655486 -0.0025047958 -0.0027135764 4281498958
-0.012706727 -0.0023486167 -0.0032002334 4281434188
-0.011049405 -0.00067850947 -0.005034056 4281303884
-0.0095509216 0.0017476305 -0.0075381589 4281434445
-0.0082191974 0.0049290955 -0.010710541 4281305159
-0.0066009685 0.0065964013 -0.012534343 4280717128
-0.0046803728 0.0067508817 -0.01301356 4281109828
-0.0026005954 0.0061496496 -0.012822419 4281175363
-0.00035373122 0.0047933385 -0.01196292 4281046589
0.0019038841 0.0034379661 -0.01110597 4281175363
0.0045061111 0.00057315826 -0.0089149624 4281239878
0.0072992072 -0.0030447841 -0.0060615139 4281434953
0.0097743832 -0.0051508844 -0.0045486363 4282021199
0.012265585 -0.007255584 -0.0030396031 4281824339
0.014595218 -0.0086044818 -0.0022001839 4281955154
0.016935561 -0.0099524558 -0.0013633049 4281695563
0.019103788 -0.010545462 -0.001193394 4282151249
-0.019727968 -0.0099094212 0.0022965176 4281627733
-0.018166572 -0.0074722916 -0.00021877978 4281824594
-0.016483136 -0.0057960451 -0.0020561265 4281628753
-0.014950387 -0.0033610463 -0.0045640776 4281564749
-0.0130044 -0.0032051057 -0.0050500641 4281564749
-0.011349432 -0.0015308037 -0.0068800421 4281499724
-0.0097048506 0.00014273077 -0.0087073036 4281630795
-0.0080706626 0.0018155873 -0.010531928 4281239624
-0.0064468607 0.0034876764 -0.012353841 4281174343
-0.0046772882 0.0044007972 -0.013503704 4281175618
-0.0025952235 0.0037975684 -0.013314795 4281371714
-0.00034626573 0.00243707 -0.012459125 4280980289
0.0020775124 0.00031989813 -0.010938615 4281437248
0.004684031 -0.0025532693 -0.008755275 4281370948
0.0071424469 -0.0046674013 -0.0072432132 4281696329
0.0096168369 -0.0067801028 -0.0057351002 4281955664
0.011757914 -0.0073779076 -0.0055603208 4281954898
0.014259003 -0.0094881803 -0.0040586679 4281824339
0.016416162 -0.010084391 -0.0038877553 4281497939
-0.018591344 -0.0075721592 -0.0027482929 4281497174
-0.016775422 -0.0066539347 -0.0039086798 4281367124
-0.015104704 -0.0049743056 -0.0057394439 4281564239
-0.013301603 -0.0040569007 -0.0068964632 4281630540
-0.0115036 -0.0031397343 -0.0080521787 4281434189
-0.0095626712 -0.0029840171 -0.0085367495 4281499213
-0.0079228953 -0.0013064072 -0.010359441 4281368908
-0.0062935501 0.00037050247 -0.012179483 4281303119
-0.0045186281 0.0012862086 -0.013329059 4281173833
-0.0024316162 0.00068119168 -0.013143048 4281304903
-0.00033918023 7.6666474e-05 -0.012958258 4281631048
0.0022503436 -0.0028066784 -0.010777381 4281629519
0.0045280904 -0.0041689873 -0.0099320086 4281824848
0.0071548894 -0.0070490837 -0.0077602277 4281890129
0.0096311644 -0.0091681927 -0.0062574828 4282216784
0.011948958 -0.010526896 -0.0054218224 4282347344
-0.015258975 -0.0065872967 -0.0069146166 4281300824
-0.013598345 -0.0049039721 -0.0087395171 4281301844
-0.011802904 -0.0039849281 -0.0098929266 4282084949
-0.0097169206 -0.0045926869 -0.0097086737 4281759058
-0.0079264194 -0.0036737919 -0.010860653 4281695054
-0.0062941238 -0.0019923672 -0.012678117 4281565514
-0.0045164973 -0.0010742396 -0.013826761 4281238858
-0.0022688136 -0.0024437159 -0.012977433 4281500488
-1.0423362e-05 -0.0038121641 -0.012130701 4281304649
0.0024223626 -0.0059416741 -0.010622353 4281825868
0.0047048405 -0.0073079616 -0.0097814659 4281955664
0.0068290681 -0.0079117119 -0.0096059674 4282020433
0.0091302916 -0.009276256 -0.0087695839 4282477649
-0.01389461 -0.005746454 -0.010579162 4281170264
-0.011956766 -0.0055911094 -0.011063063 4281954389
-0.0098711327 -0.0062010586 -0.010880374 4282346579
-0.008080557 -0.005280003 -0.01203074 4281955153
-0.0064479932 -0.0035942197 -0.01384499 4281696074
-0.0045147389 -0.0034387708 -0.014327389 4281630794
-0.0025813505 -0.0032832325 -0.014809762 4281630794
-0.00032615662 -0.004656285 -0.013965544 4281499979
0.0019397587 -0.0060284138 -0.013123878 4281760588
0.004548572 -0.0089274496 -0.010960949 4281890128
0.0070099235 -0.011060938 -0.0094644632 4282020434
-0.0100253 -0.0078091621 -0.012051866 4282085204
-0.0080846027 -0.0076533556 -0.012536322 4281890128
-0.0064491257 -0.0059630126 -0.014348012 4282151504
-0.0046686977 -0.0050403923 -0.015494038 4281890384
-0.0027354434 -0.004884854 -0.015976377 4281891659
-0.00032021105 -0.0070288926 -0.014473655 4281956429
0.0017845184 -0.0076388568 -0.014296827 4282020434
0.0042264685 -0.0097804964 -0.012800569 4282085459
0.0065158531 -0.01115486 -0.011967881 4282345048
-0.0086883754 -0.0069523752 -0.015695713 4282281553
-0.0066030845 -0.0075664967 -0.01551607 4282281809
-0.0046674982 -0.0074109137 -0.015999094 4281955154
-0.0025739819 -0.0080241412 -0.015821319 4281826123
-0.00047504902 -0.0086368024 -0.015644813 4282087754
0.0016293228 -0.0092489868 -0.015469545 4282215763
-0.0049764886 -0.0082427561 -0.017826706 4282214998
-0.0030435249 -0.0080872178 -0.018308979 4281955663
-0.00079002976 -0.0094735026 -0.017474242 4281889618
-0.0035121813 -0.0081412643 -0.020790108 4281953878
0.016196147 -0.0167685 -0.016644673 4282471273
-0.014341138 -0.015952438 -0.03757165 4282602599
-0.014780484 -0.015925378 -0.040000401 4282536554
-0.01493042 -0.017490193 -0.041140385 4282536553
-0.018687695 -0.016614705 -0.050945278 4282929254
-0.018976159 -0.017347276 -0.052703984 4282667113
