# .PCD v0.7 - Point Cloud Data file format
VERSION 0.7
FIELDS x y z rgba
SIZE 4 4 4 4
TYPE F F F U
COUNT 1 1 1 1
WIDTH 819
HEIGHT 1
VIEWPOINT 0 0 0 1 0 0 0
POINTS 819
DATA ascii
-0.0051852725 -0.0267139 0.042436488 4286268479
-0.0057909302 -0.028712429 0.038544647 4286660413
-0.0064099282 -0.028285384 0.03519614 4286595644
-0.017404791 -0.027847901 0.033366561 4286792503
-0.01536132 -0.027705178 0.03292419 4289412374
-0.011815596 -0.034685999 0.039521627 4289346074
-0.0092864968 -0.036677711 0.041183807 4288887584
0.018096505 0.0013999417 -0.0015524086 4287512879
0.023911204 -0.011925392 0.011184381 4287512879
0.031477489 -0.03091076 0.029434362 4287512879
0.038352195 -0.047052845 0.044888169 4287774509
-0.017257135 -0.030963384 0.033548214 4285875268
-0.015355799 -0.030105554 0.032401763 4288950569
-0.01240949 -0.034249999 0.036173172 4289277988
-0.010041799 -0.035534501 0.037130445 4289082659
0.010192934 0.006497018 -0.0083903167 4287577648
0.012307838 0.0059216172 -0.0081118643 4287577648
0.015022308 0.0032131299 -0.0057584867 4287773999
0.018360358 -0.0016267076 -0.0013354011 4287904813
0.024380084 -0.015704334 0.012060767 4287904303
0.03174305 -0.034037918 0.029575581 4287904304
0.037992369 -0.048098989 0.04292243 4287838258
-0.012852393 -0.034517199 0.033535242 4289146919
-0.010490526 -0.035806552 0.034490541 4289409313
0.0016530082 0.0072301105 -0.0106583 4287447088
0.0041151531 0.0052218437 -0.0089905336 4287381299
0.0060317628 0.0053572655 -0.0094042737 4287643183
0.0083281435 0.0040649176 -0.0084337071 4287970349
0.010442697 0.0034871846 -0.0081569105 4287969583
0.012757838 0.0021963418 -0.0071901828 4287707954
0.015281543 0.00019302219 -0.0055353306 4287969585
0.01882403 -0.0053750798 -0.00043469481 4288034864
0.024644632 -0.018783115 0.012238516 4287772468
0.031802006 -0.03646078 0.02902201 4287772468
0.03763295 -0.049140394 0.040960126 4287575864
-0.013144828 -0.03549429 0.031603158 4287838258
-0.010633815 -0.037507042 0.03325443 4288689448
-0.0095987804 0.0034152493 -0.0079362821 4285940803
-0.0083587691 0.0064202845 -0.011130417 4287773488
-0.0064560324 0.0065540597 -0.011541663 4287904814
-0.0043795407 0.0059707053 -0.011258855 4288231979
-0.0024739839 0.006104894 -0.011670556 4288362794
-0.00038934872 0.0055223182 -0.011389347 4288100398
0.0018823594 0.0042235106 -0.010416985 4288427564
0.0041648038 0.0029255301 -0.0094468128 4288492844
0.0064579733 0.001628466 -0.0084789135 4288231214
0.0085721798 0.0010483563 -0.00820373 4288362029
0.010884102 -0.00024715811 -0.0072397143 4288362029
0.013206724 -0.0015418008 -0.0062779216 4288165678
0.015737751 -0.0035512075 -0.0046295207 4287904049
0.018885877 -0.0077055171 -0.00091984682 4287969328
0.024705417 -0.021155186 0.011722447 4287903283
0.031654898 -0.038172677 0.027778367 4287838004
0.037273914 -0.050177053 0.039001219 4287771958
0.040451229 -0.053599194 0.041973546 4287641144
-0.012988433 -0.038630158 0.031767182 4286987833
-0.01077706 -0.03920722 0.032018527 4287904304
-0.009732306 0.0018381104 -0.0090825614 4286202944
-0.008323539 0.0041320696 -0.011576746 4287969073
-0.0064182654 0.0042660236 -0.01198855 4288100143
-0.0041659549 0.0029611364 -0.011015527 4288100399
-0.0022551864 0.0030956939 -0.011428349 4288100398
-0.000165537 0.0025112703 -0.011149878 4288165678
0.0017480254 0.0026462451 -0.011563143 4288427564
0.0040299632 0.0013438463 -0.010596145 4288427564
0.0065094456 -0.00067621469 -0.0089418814 4288623658
0.008815486 -0.0019766316 -0.0079799565 4288689193
0.011132233 -0.0032761991 -0.0070202695 4288558379
0.013654524 -0.0052928925 -0.0053749867 4288296749
0.015797846 -0.0058727339 -0.0051075108 4288165678
0.019147547 -0.010757707 -0.00072131865 4288034863
0.024563015 -0.022813953 0.010517376 4288034354
0.031507816 -0.039884254 0.026534965 4288034354
0.036498938 -0.049774975 0.035676003 4287968564
0.039667152 -0.053208686 0.038642116 4287771959
-0.012832735 -0.041774549 0.03192509 4286857018
-0.0095351972 -0.0011832491 -0.00884357 4286594878
-0.0082886405 0.0018397495 -0.012026073 4288099379
-0.0063808374 0.0019738525 -0.012438435 4288034353
-0.0041263625 0.0006647408 -0.011469167 4288230704
-0.0018611364 -0.00064355135 -0.010502096 4288361773
5.7566911e-05 -0.00050832331 -0.01091655 4288558379
0.002157636 -0.0010941103 -0.010641896 4288296749
0.0038951524 -0.00023755431 -0.01174527 4288492843
0.0063739382 -0.0022642165 -0.010095769 4288689448
0.0084901564 -0.0028485134 -0.0098243477 4288558633
0.011379648 -0.0063137859 -0.0068069668 4288624168
0.013517281 -0.0068963394 -0.0065399865 4288100653
0.015857585 -0.0081983656 -0.0055884793 4288101164
0.018808538 -0.011658981 -0.0025840569 4288035373
0.024420634 -0.024472423 0.0093125124 4287969583
0.031155428 -0.040876061 0.02460788 4287969583
0.036141083 -0.05079776 0.033727162 4287772979
0.039094873 -0.053523652 0.036003165 4288099124
-0.014454316 -0.046523407 0.033914752 4286006339
-0.012826804 -0.044201806 0.031382404 4286725949
-0.009338811 -0.0042130649 -0.0086107934 4286725693
-0.0080863014 -0.0011809245 -0.011788045 4287837748
-0.0061732978 -0.0010464638 -0.012201539 4287968819
-0.0040870942 -0.0016357824 -0.011925736 4288295983
-0.0018197186 -0.0029482618 -0.010962457 4288230704
0.00027995929 -0.0035363734 -0.010689442 4288361773
0.0023850389 -0.0041240454 -0.010417479 4288492844
0.0039441623 -0.0025417507 -0.012207286 4288558379
0.006052006 -0.0031289384 -0.011935779 4288362539
0.0083543546 -0.0044384301 -0.01097959 4288297003
0.011050988 -0.0071921423 -0.0086553069 4288493863
0.012991162 -0.0070547387 -0.0090739029 4288036138
0.015128491 -0.0076393783 -0.0088084145 4287840298
0.018270127 -0.011833519 -0.0051268451 4287644204
0.024278279 -0.02613055 0.0081078988 4287185970
0.031008581 -0.042584777 0.023366557 4287185970
-0.014598031 -0.048233569 0.032671511 4286399038
-0.0093080252 -0.0065248013 -0.0090734856 4287118903
-0.0080522485 -0.0034837052 -0.012244905 4288296239
-0.0063069724 -0.0026227534 -0.013347144 4288099889
-0.0045669451 -0.0017621145 -0.014448132 4287969073
-0.0023054071 -0.0030794367 -0.013486839 4288165679
-3.3132732e-05 -0.0043958351 -0.012527813 4288231213
0.0022498779 -0.0057114065 -0.01157098 4288231469
0.0038092285 -0.0041247383 -0.013357575 4288165934
0.0057304874 -0.003989011 -0.013772341 4287841064
-0.0099365078 -0.0059252009 -0.012290102 4287315764
-0.0083533339 -0.0043331832 -0.014079093 4287838258
-0.006440606 -0.0041987598 -0.014492544 4287903284
-0.0045277961 -0.0040642247 -0.014905932 4287576884
-0.0026149116 -0.003929548 -0.015319238 4287642929
-0.00034582242 -0.0052505881 -0.014362766 4287316019
-0.0088212043 -0.0044471696 -0.016595379 4287513134
-0.0067440718 -0.0050437972 -0.016322691 4286923063
0.0045693703 0.0080081895 0.046665773 4284246329
0.0059269778 0.018356964 0.034882993 4282739278
0.0057225004 0.02654507 0.025735529 4281892679
0.0054539554 0.034728725 0.016601952 4281633598
0.0070042647 0.036205437 0.014735447 4279805758
0.0098806806 0.032991089 0.017944427 4279805249
-0.006833557 0.026794162 0.024184441 4284644129
-0.0050553493 0.027605046 0.023035893 4282160173
-0.0031103082 0.027742077 0.022615707 4282222393
-0.0018641502 0.030572783 0.019289179 4281957704
-0.00099410489 0.034748469 0.014515286 4280848964
0.00020411983 0.037575949 0.011199219 4280848709
0.0011982881 0.041074831 0.0071629658 4280851768
0.0021657944 0.04457191 0.0031325258 4281045824
0.0038590468 0.045377403 0.0020026993 4281501509
0.0065008849 0.042821229 0.0044897757 4281175363
0.010905202 0.034217972 0.013475304 4280849473
-0.012476806 0.031676713 0.016578076 4284054823
-0.012031063 0.037898973 0.0096172858 4282093874
-0.010967132 0.04141324 0.0055738091 4280528683
-0.0089145266 0.040869854 0.0058929995 4280396594
-0.0068564788 0.040326927 0.0062110722 4280266288
-0.0047930032 0.039784458 0.0065280311 4281111614
-0.0032557696 0.041268669 0.0046706609 4280719933
-0.0017291456 0.042752221 0.0028156452 4280785468
-0.00039571896 0.044910178 0.0002396889 4279026224
0.00073649734 0.04774192 -0.0030554309 4280328764
0.0025990531 0.047873579 -0.003457468 4281306434
0.0052240156 0.045307435 -0.00097332895 4281111104
0.0088366978 0.039371476 0.0051110126 4280850238
0.015044648 0.024675772 0.020549914 4280133943
-0.015481666 0.034028821 0.011479003 4281699643
-0.015026446 0.040271383 0.0045308843 4281112888
-0.014291827 0.045153536 -0.00095544383 4281176893
-0.012929074 0.047319636 -0.0035331771 4281371713
-0.010906126 0.046771899 -0.0032091942 4280980798
-0.0085343719 0.044868678 -0.001438465 4280524860
-0.0059721135 0.04228884 0.0010522716 4280654908
-0.0040965565 0.042421088 0.00064717978 4280915518
-0.0025803484 0.043908268 -0.0012023132 4280915773
-0.0012571402 0.046072066 -0.0037711412 4280655673
-0.00013495982 0.04891187 -0.0070575234 4279548208
0.0013413616 0.05039648 -0.008898221 4279613488
0.0039494336 0.047820356 -0.0064170202 4279744559
0.0071581379 0.043216385 -0.0017823633 4279614253
0.011970241 0.033204723 0.0085944608 4280461109
-0.015186701 0.022102084 0.021634718 4284182323
-0.016563792 0.036542632 0.0059841629 4281698369
-0.016444661 0.044165783 -0.0023953859 4280721974
-0.015239701 0.047019523 -0.0056935735 4280069174
-0.013889842 0.049191281 -0.0082635973 4280589628
-0.011711705 0.047959991 -0.0072153984 4280198969
-0.009008266 0.04468894 -0.0040024184 4278700078
-0.0066263862 0.042779878 -0.0022387113 4280654908
-0.0044052452 0.041551884 -0.0011996739 4280850749
-0.0028914325 0.043043278 -0.0030453671 4280851003
-0.0013882406 0.044534035 -0.0048887543 4280916539
-0.00026540458 0.047382653 -0.0081687113 4281111868
0.0013987236 0.04819259 -0.0092872977 4281112124
0.0034379847 0.047644481 -0.008968058 4281177404
0.0062541515 0.044382043 -0.0057789274 4281308218
0.0094882026 0.039764546 -0.0011611469 4281438524
0.014940184 0.027688298 0.011331121 4281568573
-0.0162219 0.032932956 0.0070215594 4282284104
-0.016735353 0.043313563 -0.0042343475 4281242684
-0.015859049 0.047541887 -0.00897054 4280134964
-0.014350757 0.049036838 -0.010812081 4280329784
-0.012515739 0.049165953 -0.011208622 4280068664
-0.0098240227 0.045883097 -0.0080013378 4280655164
-0.0072795004 0.04328442 -0.0055199564 4281111359
-0.0052435175 0.042733461 -0.005201973 4280980799
-0.0032021143 0.042182967 -0.0048850942 4281111359
-0.001337301 0.042314596 -0.005287759 4280981563
0.0001582168 0.043809235 -0.0071261032 4281046844
0.0016430952 0.045303233 -0.0089621376 4281046843
0.0033073686 0.046115462 -0.01007905 4281177403
0.0051590241 0.046246499 -0.010478622 4280655419
0.0075968169 0.044335455 -0.0087314304 4280329528
0.011436936 0.037661992 -0.0019827336 4279873843
0.020147569 0.014664348 0.021900391 4279939124
-0.015407749 0.027253654 0.010215608 4282413389
-0.016704731 0.041095272 -0.0046270303 4281175873
-0.016150974 0.046707332 -0.010795931 4281242173
-0.014147706 0.046151526 -0.010472782 4281176128
-0.012475915 0.046965785 -0.011590194 4281111360
-0.010295965 0.045725878 -0.010548935 4281241919
-0.0081052519 0.044486865 -0.0095099797 4281176128
-0.0057272874 0.042564422 -0.0077552488 4281110848
-0.0035123713 0.041327275 -0.0067214007 4281176894
-0.0014685206 0.040774837 -0.0064066406 4281046843
0.00058074668 0.040222824 -0.0060929414 4281177404
0.0020739101 0.041721798 -0.0079274783 4281046843
0.0031767786 0.044586685 -0.011189866 4281047099
0.0044508204 0.046767004 -0.013733015 4278700333
0.0062943883 0.046897542 -0.014130786 4280134454
0.0095229298 0.042249069 -0.0095348191 4280134454
0.01579673 0.027365189 0.0057453271 4280134454
-0.013177428 0.015358262 0.01987453 4282805069
-0.015712857 0.034747381 -0.00070360117 4282022729
-0.015627805 0.042440496 -0.0090215346 4280784449
-0.013945352 0.043257594 -0.010139684 4280916028
-0.012436423 0.044761445 -0.011974804 4280981309
-0.010767121 0.045577779 -0.013089986 4278506533
-0.008929465 0.045707207 -0.013487002 4279157039
-0.0065628476 0.043777362 -0.011734769 4278569773
-0.0040011704 0.041162498 -0.0092701344 4279743539
-0.0019629598 0.040607456 -0.0089558102 4280980798
-0.00010363385 0.040738761 -0.0093572438 4281111870
0.001381781 0.042241558 -0.01118683 4281046589
0.0026669316 0.044429138 -0.013727518 4280134198
0.0039360747 0.046615727 -0.016264729 4281306178
0.0059691817 0.046060756 -0.015948977 4281632578
0.0087983124 0.0427665 -0.012787184 4281502783
0.013256833 0.033996247 -0.0039414112 4281502783
0.020626903 0.015647192 0.01483828 4281502783
-0.010637838 0.0020170137 0.030923238 4283590978
-0.01424329 0.026299473 0.0053523947 4282543184
-0.015106089 0.038156264 -0.0072597973 4280848453
-0.01374371 0.040355116 -0.0098128757 4280654398
-0.012397248 0.042552892 -0.012362408 4280915518
-0.011066724 0.044749677 -0.014908476 4279743028
-0.0095786937 0.046256557 -0.01673563 4280394554
-0.007044673 0.043630909 -0.014271718 4278504494
-0.0046679676 0.041695282 -0.012526535 4278895153
-0.0026380606 0.041137449 -0.012212071 4280850238
-0.0013391972 0.043332394 -0.014750926 4280980799
0.00013045967 0.044838455 -0.016573831 4280980799
0.0014000349 0.047031507 -0.019106233 4279090483
0.0032300055 0.047160983 -0.019501144 4279808054
0.0054496005 0.045915917 -0.018474493 4280589884
0.008074861 0.043297369 -0.01602971 4280719933
0.01132194 0.038619611 -0.011460678 4280590394
0.016431779 0.02776368 -0.00051834621 4279938613
0.024709417 0.0066153184 0.02103241 4279938613
-0.012297753 0.01573183 0.013526412 4282411859
-0.014423251 0.033162858 -0.0047946293 4281891659
-0.014203683 0.040210482 -0.012354259 4280785213
-0.013030022 0.043105915 -0.015612785 4280525369
-0.011707049 0.045308724 -0.018152304 4281176893
-0.010053527 0.046128377 -0.019260759 4281371713
-0.0075256974 0.043493483 -0.016802041 4281306688
-0.0053336024 0.042241536 -0.015773149 4280720443
-0.0034932569 0.042371385 -0.016170569 4280589883
-0.0022046231 0.044572167 -0.0187023 4280785214
-0.00055877492 0.045391738 -0.019808756 4280784703
0.0010817684 0.046211045 -0.020914054 4280849728
0.0027170181 0.047030054 -0.022018081 4280655164
0.0051254071 0.045090601 -0.020284282 4280785468
0.0077471323 0.042463049 -0.017845301 4280850238
0.010590199 0.039147943 -0.014702877 4281045823
0.013865238 0.034456916 -0.010151309 4281307199
0.020051867 0.020125683 0.0042882077 4281307199
-0.01003759 0.003718704 0.023089128 4282347599
-0.013579864 0.027453676 -0.0016308334 4282413134
-0.014497824 0.039381109 -0.014175171 4281239624
-0.013997048 0.045059662 -0.020279985 4279875629
-0.012516599 0.046574689 -0.022099072 4279874099
-0.010700628 0.046702534 -0.022491442 4280460088
-0.0081816651 0.044058215 -0.0200374 4280134199
-0.0058196597 0.042108383 -0.018298913 4279482418
-0.0039847717 0.042237822 -0.018695174 4280720444
-0.0027010366 0.044444881 -0.021220962 4280719679
-0.00087404624 0.044573955 -0.021615373 4280719168
0.0011420846 0.044010967 -0.02130099 4280980289
0.0029718317 0.044140413 -0.021695867 4281110594
0.0051904544 0.042886492 -0.020675587 4281372479
0.0078139864 0.040250294 -0.018243572 4281372989
0.010658674 0.036924362 -0.015109705 4281371714
0.013530077 0.033600405 -0.011981537 4281307709
0.018274188 0.024059586 -0.0025118161 4281241665
0.028079797 -0.0020548627 0.023854004 4281307709
-0.0122521 0.019629661 0.0036525447 4282543694
-0.01446183 0.037164379 -0.014568126 4281173324
-0.014459591 0.044948217 -0.022795876 4280786743
-0.013154402 0.047162846 -0.025321679 4280330039
-0.01100082 0.04589922 -0.024291189 4280395064
-0.008485388 0.043245882 -0.021842964 4280264758
-0.0059485286 0.040594146 -0.019399296 4280589883
-0.0041137412 0.040723573 -0.019795535 4281048629
-0.0022789016 0.040853102 -0.02019172 4280981308
-0.00025779009 0.040288217 -0.019880172 4280980289
0.0019576177 0.039029457 -0.018862581 4281110338
0.0038006045 0.039159842 -0.019260311 4281044804
0.0060320981 0.037902445 -0.018246097 4280980034
0.0084712133 0.03595211 -0.016528716 4280914243
0.011125948 0.033309449 -0.014109934 4280914244
0.014004316 0.029975031 -0.01099148 4281043528
0.018548738 0.021097139 -0.0022495575 4281043784
0.027729617 -0.0030217245 0.021945102 4281108808
-0.010765646 0.011067852 0.0096185468 4282477649
-0.013767488 0.032150604 -0.012121322 4282217038
-0.014251966 0.042053677 -0.02246465 4281044548
-0.012940995 0.044275306 -0.024986835 4280849983
-0.010609869 0.042309925 -0.023251701 4281175873
-0.0082626417 0.040345773 -0.021519976 4281372223
-0.0055432729 0.036988311 -0.018376049 4281437504
-0.0033392161 0.035724126 -0.017359547 4281306944
-0.0014911331 0.035854578 -0.017758597 4281176128
0.00072905794 0.034591708 -0.016745448 4281241153
0.0027712919 0.034026176 -0.016439993 4281045314
0.0050102696 0.032764822 -0.01543076 4280979778
0.007065922 0.032200478 -0.015128093 4281044548
0.0095203891 0.03024466 -0.01341895 4281109573
0.011990894 0.028290063 -0.011713199 4281044804
0.014679477 0.025641181 -0.0093082599 4281304649
0.019641493 0.015344538 0.0008147303 4281304393
0.029039051 -0.0095455274 0.025651382 4281304649
-0.012252539 0.023612954 -0.0061448701 4282281809
-0.012707818 0.03354872 -0.016471544 4281304648
-0.011539526 0.036478851 -0.019702615 4280848964
-0.0095300376 0.035908282 -0.019392207 4280915518
-0.0069896281 0.033239152 -0.016962532 4280850494
-0.0047834478 0.031970583 -0.015949812 4280784194
-0.0027470365 0.031402186 -0.015645014 4280980799
-0.0008883886 0.031533379 -0.016046347 4281111104
0.0013419949 0.030266847 -0.015038682 4281241154
0.0033946075 0.02969984 -0.014737124 4281241409
0.0054525957 0.029133365 -0.014436683 4281240644
0.007515952 0.02856737 -0.014137328 4281305924
0.0099777356 0.026605483 -0.012434698 4281239623
0.012455564 0.024644889 -0.010735491 4281174598
0.014949432 0.022685483 -0.0090396293 4281435209
0.02032291 0.010960985 0.0024590939 4281304649
0.02993142 -0.014705047 0.027935704 4281435209
-0.011069864 0.016436741 -0.0016152281 4282543184
-0.011501294 0.026404824 -0.011924087 4281954643
-0.010141376 0.028643005 -0.01444703 4281567043
-0.0081081614 0.028071895 -0.014143404 4281370948
-0.0058945417 0.026799358 -0.013135659 4281371203
-0.0042031072 0.027632762 -0.014243997 4281305923
-0.0023366325 0.02776438 -0.014647115 4281436228
-0.00047009811 0.027896121 -0.015050163 4281436228
0.001953464 0.025924612 -0.013344542 4281567043
0.003828112 0.026057117 -0.013749197 4281632834
0.0058938041 0.025488995 -0.013452065 4281632578
0.0077711903 0.025621884 -0.013857166 4281566789
0.010433976 0.022953413 -0.011459894 4281566534
0.012720125 0.021686878 -0.010467146 4281304904
0.015218636 0.019721277 -0.0087772505 4281369929
0.020594122 0.0079597048 0.0026931409 4281434698
0.029993827 -0.017087877 0.027411142 4281434698
-0.010218352 0.010635257 0.0014771987 4282542674
-0.010631278 0.020635277 -0.0088126985 4282085714
-0.009593796 0.024290055 -0.012743745 4281698369
-0.0073780939 0.023013212 -0.011739864 4281501508
-0.0056759864 0.023849428 -0.012848964 4281305668
-0.0039791539 0.024685379 -0.013956844 4281240644
-0.0024677105 0.026224758 -0.015765931 4281371203
-0.00023569912 0.024949461 -0.014765276 4281501763
0.0020070449 0.023675032 -0.013766853 4281632324
0.0038842447 0.023807704 -0.014172063 4281697859
0.0057614818 0.023940481 -0.014577207 4281501763
0.007832244 0.023370579 -0.014282699 4281566789
0.010300659 0.021396071 -0.012591389 4281370694
0.012785127 0.019422758 -0.010903423 4281435464
0.015487127 0.016748507 -0.0085210307 4281370184
0.02106877 0.004247874 0.0036182739 4281434954
0.030055879 -0.019474804 0.026883615 4281434954
-0.0098607987 0.0069286972 0.0024377666 4282607954
-0.010429833 0.017666951 -0.0085351961 4282152013
-0.0093862042 0.021333087 -0.012459381 4281696329
-0.0071656518 0.020052146 -0.011459799 4281631559
-0.0058073476 0.022303507 -0.013972422 4281370693
-0.0041104481 0.023141645 -0.015078682 4281435973
-0.0024188124 0.023979504 -0.016183736 4281502019
0.00018059835 0.021288529 -0.013786299 4281501763
0.0022455752 0.020715743 -0.013492466 4281763139
0.0041279905 0.020848788 -0.013898803 4281697349
0.0062010624 0.020276789 -0.013606562 4281632324
0.0082795136 0.019705277 -0.013315401 4281631558
0.010755267 0.017724685 -0.011630548 4281239369
0.013247058 0.015745312 -0.0099490937 4281304138
0.016157484 0.012358434 -0.0068785781 4281566534
0.02195025 -0.00088530034 0.0059252735 4281631304
0.030530863 -0.0232739 0.027743241 4281566534
0.038863733 -0.044242576 0.048135445 4281631304
-0.01039549 0.015399091 -0.0089659579 4282152013
-0.0095174648 0.019785292 -0.013584276 4281696839
-0.0074691512 0.019208588 -0.013288828 4281566023
-0.0057642572 0.020049401 -0.014395306 4281501508
-0.0038875416 0.020181626 -0.014800724 4281566789
-0.0020107515 0.020313948 -0.015206087 4281566789
0.00041337311 0.018322609 -0.01351541 4281436229
0.0026684664 0.017040275 -0.012526236 4281435719
0.0049343035 0.015758757 -0.011539258 4281500743
0.0068299808 0.015892833 -0.011948389 4281762119
0.0091119036 0.014612708 -0.010964765 4281631049
0.011208765 0.014040366 -0.010679103 4281630794
0.014104759 0.010641403 -0.0076137641 4281826123
0.017228577 0.0065378472 -0.0038595032 4282153799
0.023033649 -0.0067465752 0.0089105386 4282022983
0.031211192 -0.027792096 0.029286979 4282022983
0.038503297 -0.045295954 0.04616446 4282415174
-0.010195263 0.012415908 -0.0086992597 4282152013
-0.0091420077 0.016104583 -0.012609141 4281565768
-0.0072575621 0.016237117 -0.013016403 4281566279
-0.0053730384 0.016369767 -0.013423602 4281435719
-0.0034884401 0.016502537 -0.013830733 4281762884
-0.0014242008 0.015925106 -0.013540188 4281958724
0.0006454289 0.015348166 -0.013250725 4282023493
0.003090281 0.013351813 -0.011569373 4282414664
0.0053636208 0.012066454 -0.010587299 4282740808
-0.009995725 0.0094241798 -0.0084387111 4282871368
-0.0089363381 0.013124242 -0.01234178 4282024004
-0.0068753064 0.012544021 -0.012052385 4281826888
-0.004808858 0.011964347 -0.011764112 4281761864
-0.0029137097 0.012097836 -0.012173541 4281957703
-0.00065973774 0.010806445 -0.011190849 4282871878
0.0012408793 0.010940529 -0.011601299 4283265088
-0.008562848 0.0094198957 -0.011383832 4282807618
-0.0066653118 0.0095533356 -0.011793936 4282938689
-0.0044199899 0.0082566738 -0.0108128 4283461693
-0.0026934929 0.0091056414 -0.011918971 4284377654
-0.0076129399 -0.032189421 0.027479881 4282541909
-0.0079126395 -0.033153661 0.025559368 4282607189
-0.0093222186 -0.038593844 0.028252168 4282738259
-0.0083692037 -0.033390358 0.022947991 4282607444
-0.0086678751 -0.034342967 0.021035912 4282477139
-0.0088091977 -0.036018059 0.019818308 4282607953
-0.0094895698 -0.023516394 0.0076405313 4282411348
0.012077283 -0.0057548657 -0.012967207 4283526719
0.014203604 -0.0063424781 -0.012700983 4283069759
0.0175329 -0.011274755 -0.0083448319 4282743358
0.023731407 -0.026340403 0.0055409931 4282024514
0.03065682 -0.043569386 0.021444773 4282024514
0.035841815 -0.054276481 0.031200072 4281892934
0.038373236 -0.055573121 0.032104313 4282348873
-0.0089504905 -0.037692852 0.01860092 4282739023
-0.0097872578 -0.02442459 0.0057614092 4282477138
0.0050372183 -0.0033896863 -0.01697175 4283983933
0.0071391203 -0.0039816052 -0.016702108 4283329859
0.0092463903 -0.0045729876 -0.016433585 4282480453
0.011553094 -0.0058906376 -0.015484755 4282219333
0.013476998 -0.0057542548 -0.015899748 4281958724
0.017195668 -0.012155309 -0.010192527 4281893698
0.022983223 -0.025814891 0.0023010205 4281697349
0.029895959 -0.043097243 0.018168284 4281697349
0.035277382 -0.054563716 0.028579885 4281892680
0.037802916 -0.055865094 0.029482083 4282152014
-0.0095613562 -0.037172534 0.015320217 4283066189
-0.010084514 -0.025328122 0.0038857479 4282412369
-0.010692906 -0.013489611 -0.0075301491 4282674508
-0.0046615265 -0.0056399256 -0.01605108 4282807874
-0.0025735609 -0.0062355921 -0.015780509 4282481474
-0.00065809116 -0.0061006472 -0.016194303 4282220353
0.0014379956 -0.0066954643 -0.015925355 4281893953
0.0031730346 -0.0058303848 -0.017021667 4281828163
0.0049027801 -0.0049654841 -0.018116772 4281305158
0.0066272318 -0.0041008964 -0.019210618 4280913479
0.0087288283 -0.0046948716 -0.018942514 4281370694
0.011029694 -0.0060173348 -0.017995644 4281435463
0.013537798 -0.0080677271 -0.016371809 4281435719
0.017058063 -0.013759747 -0.011358172 4281435974
0.022841889 -0.027461089 0.0011050832 4281631048
0.029545367 -0.044067964 0.016256521 4281696584
0.034506485 -0.054113775 0.025289381 4281760843
-0.01781806 -0.049833052 0.025946608 4283131723
-0.016340099 -0.046751186 0.02274601 4282871879
-0.010540377 -0.025493354 0.0013278257 4282545223
-0.01131298 -0.012886614 -0.010746479 4282544714
-0.010861278 -0.0061520338 -0.017324846 4282414153
-0.0091212727 -0.0052851066 -0.018421121 4282284104
-0.0068774484 -0.0066170022 -0.017466061 4282153033
-0.004622858 -0.0079480559 -0.016513187 4281761353
-0.0025325604 -0.0085457116 -0.01624481 4281697094
-0.00061456487 -0.0084105879 -0.016659152 4281632578
0.0013034977 -0.0082753375 -0.017073415 4281436738
0.0030385815 -0.0074080452 -0.018168092 4281306433
0.0049540736 -0.007272765 -0.018581644 4281045058
0.007057976 -0.0078688562 -0.018315749 4281045058
0.0089762099 -0.007733129 -0.018729704 4281240133
0.011281874 -0.009059608 -0.017787207 4281240133
0.013598241 -0.010385223 -0.016846873 4281500743
0.017318569 -0.01682549 -0.011169484 4281500999
0.022902295 -0.029837616 0.00058585778 4281500489
0.029399563 -0.045764402 0.01502412 4281500489
0.033943795 -0.054380566 0.022684047 4281499214
-0.018103339 -0.050793938 0.024024656 4282675019
-0.016772952 -0.046966754 0.020144092 4283066444
-0.010995455 -0.025649421 -0.0012235232 4282872645
-0.011608865 -0.013741404 -0.01258597 4282609738
-0.010994133 -0.0077226833 -0.018466443 4281891659
-0.0094209239 -0.0061183497 -0.020243451 4281369419
-0.0071802847 -0.0074548423 -0.01929098 4281435208
-0.0051010586 -0.0080555752 -0.019021934 4281305159
-0.0026667379 -0.010125235 -0.017392701 4281566789
-0.00092639402 -0.0092556402 -0.018487062 4281501509
0.0011690296 -0.0098549053 -0.018221261 4281501763
0.0032698438 -0.010453649 -0.017956529 4281240898
0.0051905289 -0.010317989 -0.018371187 4281044803
0.0071112551 -0.010182202 -0.018785769 4281305924
0.0092228539 -0.010779843 -0.018523103 4281305924
0.011533346 -0.012110375 -0.017584873 4281305158
0.013854515 -0.013439991 -0.0166489 4281369928
0.017777182 -0.020632625 -0.01031155 4281435974
0.023566887 -0.034416534 0.0020882264 4281565769
0.029457984 -0.048193134 0.014466299 4281631049
0.033588745 -0.055370629 0.020759055 4281695818
-0.018816169 -0.049532764 0.020048296 4282477393
-0.017205026 -0.047173284 0.017548816 4282804813
-0.015461739 -0.045553483 0.015737606 4283001929
-0.011449751 -0.025796458 -0.0037682299 4283525443
-0.011743028 -0.015329309 -0.013740147 4282477904
-0.01112695 -0.0092930421 -0.019607829 4281369164
-0.0093868673 -0.0084217787 -0.020700866 4281370184
-0.0071440674 -0.0097624734 -0.019752134 4281304904
-0.0047185309 -0.011839412 -0.018126002 4281435719
-0.0026262254 -0.01244133 -0.01786135 4281435974
-0.0008831732 -0.011569358 -0.018954663 4281305414
0.0010345988 -0.011434153 -0.019368885 4281371203
0.0031350814 -0.012035117 -0.019105718 4281175363
0.0052409396 -0.012635589 -0.01884363 4281371203
0.0073521808 -0.013235606 -0.018582577 4281306434
0.0094687864 -0.013835065 -0.018322626 4281370948
0.011784077 -0.015169598 -0.017388752 4281304903
0.013914071 -0.015767865 -0.017131502 4281435718
0.017837388 -0.022982337 -0.010810624 4281697094
0.023424685 -0.036072768 0.00088498741 4281827909
0.029108033 -0.049156308 0.012560027 4281827909
0.033027414 -0.055621348 0.018165333 4282154053
-0.017926592 -0.045888416 0.013592562 4282673999
-0.016045939 -0.045005955 0.012470121 4282870603
-0.011427846 -0.028154954 -0.0042636637 4283852354
-0.011554878 -0.018396929 -0.013533494 4282412368
-0.010932129 -0.012342721 -0.019389525 4281435974
-0.0091866627 -0.011468895 -0.020482088 4281631559
-0.0071081854 -0.01207421 -0.020216273 4281304904
-0.0048524849 -0.013418324 -0.019273488 4281370694
-0.0027605146 -0.014022432 -0.019010397 4281304393
-0.00084028393 -0.013887182 -0.019425249 4281239623
0.0012598075 -0.014490478 -0.019163728 4281501509
0.0033652931 -0.015093327 -0.018903244 4281436738
0.0054761544 -0.015695632 -0.018643878 4281698113
0.0074045844 -0.015559308 -0.019060126 4281501254
0.0095235221 -0.016160786 -0.018802313 4281501763
0.01164782 -0.016761787 -0.018545577 4281632324
0.013777472 -0.017362259 -0.018289892 4282023748
0.01750027 -0.023861296 -0.012657224 4282351169
0.022880234 -0.036254324 -0.0016613528 4282481983
0.028350882 -0.04864078 0.0093150586 4282547264
0.032466881 -0.055862956 0.015578287 4283263303
-0.018501673 -0.045328982 0.010331487 4282281043
-0.016481366 -0.045188047 0.0098939892 4282477904
-0.014761504 -0.043561108 0.0080945063 4283395903
-0.013052173 -0.041934736 0.0062973592 4284507704
-0.011528384 -0.020730786 -0.014011692 4283132999
-0.010901611 -0.014658913 -0.019855484 4281827399
-0.0089871623 -0.014524557 -0.02026945 4281696838
-0.0069036819 -0.015131705 -0.020006353 4281631813
-0.004643172 -0.01647979 -0.019067919 4281565769
-0.0027204864 -0.016344488 -0.019483386 4281108044
-0.0006207861 -0.016950183 -0.019223481 4281304649
0.0014843047 -0.017555334 -0.018964699 4281501764
0.0035947822 -0.018159971 -0.018706976 4281893953
0.0057106391 -0.018764116 -0.018450329 4282221374
0.0076442584 -0.01862742 -0.018867696 4282810933
0.009768188 -0.019230731 -0.018612599 4284052019
-0.019075599 -0.044756092 0.0070802569 4282345559
-0.016916003 -0.045361087 0.0073245093 4282216018
-0.015201248 -0.043730102 0.0055293515 4282741829
-0.011341441 -0.023813196 -0.013815729 4283657789
-0.010871444 -0.016979143 -0.020324459 4281958469
-0.0091205649 -0.016100608 -0.021414943 4281632068
-0.0068686604 -0.017453797 -0.020478019 4281762629
-0.0047774352 -0.01806248 -0.020218154 4281631304
-0.0028548986 -0.017927192 -0.020633599 4281696074
-0.0011090599 -0.017048515 -0.021722628 4282154309
0.0013492256 -0.019142449 -0.020118041 4283462713
0.0034593642 -0.019749284 -0.019861879 4283789623
0.0059444197 -0.021841101 -0.018262895 4284443954
-0.017202612 -0.046272539 0.0054400489 4282280788
-0.015490308 -0.044637389 0.003648676 4282609228
-0.013483368 -0.044497184 0.0032142326 4283590469
-0.011168096 -0.017810665 -0.022146303 4283465009
-0.0092539303 -0.017676346 -0.02256022 4284314158
-0.0070025399 -0.019033946 -0.021626467 4284443954
-0.017930001 -0.044930123 0.0015285052 4282477393
-0.016078405 -0.044040918 0.00041893497 4282543184
-0.018215232 -0.045825593 -0.00034435093 4282607699
-0.016366277 -0.044934355 -0.0014517605 4282346833
-0.014370296 -0.044794939 -0.0018838458 4282805579
-0.016803075 -0.045069225 -0.0039920546 4282541654
-0.014812585 -0.044930212 -0.0044229701 4282477904
-0.013440762 -0.041776828 -0.0075414181 4282938943
-0.017537486 -0.043682761 -0.0078687007 4282607189
-0.015557799 -0.043544509 -0.0082972879 4282542929
-0.014196038 -0.040383123 -0.011407021 4283203633
-0.016149834 -0.042899072 -0.011489332 4282150738
-0.014641147 -0.040487476 -0.013922207 4282090558
-0.013305359 -0.037319094 -0.017019723 4283656258
-0.016437754 -0.043760836 -0.013336194 4282149973
-0.014777217 -0.042103 -0.015096568 4281829438
-0.013440825 -0.038925849 -0.018187679 4282875194
-0.016573995 -0.045380406 -0.014513548 4282738258
-0.014913227 -0.043718196 -0.016270708 4282089029
-0.013106409 -0.042818733 -0.017360549 4282220098
-0.011623375 -0.04039558 -0.019777942 4283917889
-0.015202995 -0.044568591 -0.018108554 4282607954
0.0029447861 -0.0057485253 0.068749122 4285688608
-0.0026910342 -0.0024176165 0.062534325 4285295654
-0.0016017929 0.0017468184 0.057693079 4285689118
0.00012390688 0.0032308996 0.055784933 4285820189
0.0030274503 2.8826296e-05 0.058995828 4285885979
-0.015869852 -0.0023140609 0.061041646 4285294634
-0.013805736 -0.0021693483 0.060595207 4285425959
-0.011439685 -0.0033702999 0.061615549 4285360423
-0.0089092292 -0.00524313 0.063366473 4285229864
-0.0071437396 -0.0037521869 0.061452709 4285296164
-0.0057065785 -0.00091727078 0.058077984 4285427743
-0.0049369447 0.0046047121 0.051783606 4285689883
-0.0040456764 0.009451896 0.046228953 4285623074
-0.0025240332 0.01160951 0.043602146 4285557794
-0.00033993647 0.011079773 0.043896295 4285492769
0.0027108938 0.0071936473 0.047833152 4285295908
-0.02056146 -0.0022815689 0.058492266 4285296418
-0.019076582 0.00056494772 0.055113405 4285427488
-0.017612901 0.0034100562 0.051739179 4285754908
-0.015430238 0.0028773844 0.05203145 4285820698
-0.012639251 -0.00035517663 0.055249736 4285886744
-0.01058827 -0.00021126121 0.054806232 4285624094
-0.0090052448 0.0019568503 0.052170865 4285559069
-0.008390408 0.0081711076 0.045158617 4285558814
-0.0081462674 0.015730742 0.036697865 4285755164
-0.007960774 0.023286376 0.028249795 4285361444
-0.023171548 -0.0020896718 0.055502765 4285164583
-0.02210306 0.0027998239 0.049932264 4285362463
-0.020501751 0.0049753785 0.047297485 4285755674
-0.018335562 0.0044392496 0.047591582 4285558049
-0.015868153 0.0025485978 0.049346097 4285623583
-0.012782525 -0.0020499825 0.054017879 4285754909
-0.011497576 0.0014794171 0.049926326 4285886999
-0.011641871 0.01109932 0.03927929 4285493788
-0.012336396 0.022744235 0.026463119 4284970018
-0.022663321 0.0031638443 0.046520725 4285230628
-0.021211866 0.006025482 0.043162189 4285756183
-0.018911656 0.0048064366 0.044186749 4285821718
-0.016009968 0.00086951256 0.048125632 4285952533
-0.012324423 -0.006462574 0.055700511 4285952788
-0.012098957 0.0018337518 0.046518654 4285624349
-0.014583807 0.021670874 0.024984358 4285362209
-0.022803996 0.001493983 0.045306869 4285164839
-0.021636177 0.0057289153 0.04049734 4285493534
-0.019341774 0.004505083 0.041519791 4285558558
-0.016004223 -0.001491189 0.047632888 4285623584
-0.01201788 -0.010210842 0.056643531 4285623583
-0.011476647 -0.0032505542 0.048931956 4285624093
-0.02120797 0.0013346002 0.042201698 4285427998
-0.01919261 0.0014756098 0.041765593 4285559324
-0.015998792 -0.003856048 0.047137119 4285624603
-0.011712391 -0.013972081 0.057577111 4285689884
-0.010245632 -0.011091568 0.054228611 4285886998
-0.013769578 0.013660807 0.027709706 4285427234
-0.02092297 -0.0023903921 0.043167874 4285296163
-0.019332986 -0.00018941611 0.040555283 4285493533
-0.01614077 -0.0055387691 0.045913972 4285624603
-0.01185726 -0.01568792 0.056329921 4285689884
-0.0091703571 -0.018286094 0.058773398 4285886998
-0.011580572 0.0017469376 0.037365884 4285820189
-0.020780552 -0.0054395199 0.043400764 4285230373
-0.019906033 0.00021191686 0.037175149 4285493534
-0.01731107 -0.0024016723 0.039631791 4285755674
-0.013049178 -0.012585215 0.050027691 4285755163
-0.0090115257 -0.021386772 0.05896315 4285755164
-0.0090872496 -0.011608735 0.048416212 4285492004
-0.02033383 -6.4179301e-05 0.034526579 4285427234
-0.018331982 7.5861812e-05 0.034093373 4285755928
-0.014387805 -0.0087608248 0.043027557 4285821209
-0.0094616301 -0.021734677 0.056266747 4285886999
-0.0075286366 -0.020898156 0.055095732 4285886489
-0.02018534 -0.003103599 0.034765027 4285361699
-0.018764433 -0.00019153953 0.031452499 4285493279
-0.015424971 -0.0062864125 0.037491173 4285624604
-0.010214712 -0.020688377 0.052140146 4285558814
-0.0065922514 -0.027466401 0.058868989 4285623839
-0.0082617514 -0.010706767 0.041200414 4285033004
-0.018610641 -0.0032303706 0.031690039 4285295398
-0.01556569 -0.0079548508 0.036278389 4285493024
-0.010207761 -0.023097888 0.0516105 4285493024
-0.0062758848 -0.03128691 0.059755147 4285492769
-0.018165201 -0.0076723695 0.033353955 4285163054
-0.015706342 -0.0096230209 0.035065793 4285952534
-0.01050413 -0.024117641 0.049647488 4286214929
-0.0067314506 -0.031636573 0.057058893 4286475793
-0.006193731 -0.024523154 0.049463041 4286343194
-0.01540095 -0.013388962 0.035995878 4285951003
-0.010497417 -0.026530981 0.049115025 4286081563
-0.0068782419 -0.033375062 0.05579523 4286146333
-0.015245114 -0.016466245 0.036203966 4285885214
-0.01064216 -0.028247088 0.047867596 4286081563
-0.0070249736 -0.03511323 0.054531805 4286277149
-0.015089925 -0.019552112 0.036405884 4285950238
-0.010635886 -0.030666456 0.047330752 4286016029
-0.0070180148 -0.037554473 0.053978369 4286146588
-0.01523165 -0.021234542 0.035182878 4286146844
-0.010780711 -0.032384172 0.046082132 4286146843
0.011897495 -0.019833595 -0.01835853 4284902699
0.014032146 -0.020435907 -0.018105568 4284967214
0.017560152 -0.026214771 -0.013159017 4284966959
0.022336558 -0.036426775 -0.0042010844 4284901169
0.0078832172 -0.021704048 -0.018681383 4284967724
0.009822052 -0.021566883 -0.019099792 4285033514
0.011953676 -0.022171706 -0.018847896 4285163563
0.014286082 -0.023517981 -0.017927432 4285229608
0.017817764 -0.029314049 -0.012994773 4285229354
0.022195183 -0.038073272 -0.0053972378 4285097774
0.027043475 -0.04831057 0.0035224073 4285097773
-0.0028153509 -0.020255268 -0.02111089 4284967213
-0.0010668151 -0.019374169 -0.02219891 4285032748
0.0012141839 -0.020729251 -0.021271152 4285229608
0.0033239871 -0.021338314 -0.02101657 4285294889
0.0058083199 -0.023436718 -0.019422332 4285295143
0.0077469684 -0.023299687 -0.019840794 4285361188
0.0096856542 -0.023162507 -0.020259159 4285360933
0.012009507 -0.024513893 -0.019340223 4285360934
0.01473454 -0.02735272 -0.017087381 4285295654
0.017876744 -0.031677812 -0.013504128 4285295399
0.022254415 -0.040463209 -0.0059262738 4285228843
0.026899336 -0.049987502 0.002304187 4285228844
-0.011138219 -0.020134695 -0.022618042 4284967213
-0.0093872659 -0.019251794 -0.023705285 4285295144
-0.0069680065 -0.021362014 -0.022102484 4285229609
-0.0047037229 -0.022723012 -0.021174667 4285164073
-0.0026024356 -0.023335241 -0.020920159 4285098283
-0.00084852427 -0.022451647 -0.022007676 4285163819
0.0010791719 -0.022315763 -0.022424052 4285295144
0.0033703484 -0.023674317 -0.021501714 4285360679
0.0060410313 -0.02652622 -0.019244052 4285360933
0.007984858 -0.026388817 -0.01966363 4285295398
0.0097390004 -0.025504567 -0.020750718 4285360934
0.01206499 -0.02686017 -0.019835526 4285295399
0.014596738 -0.028961249 -0.018256038 4285361188
0.017737653 -0.033299528 -0.014682315 4285295143
0.02211291 -0.042111263 -0.0071235634 4285163564
-0.010945797 -0.023213573 -0.022420982 4285163818
-0.0091894828 -0.022328131 -0.02350775 4285360679
-0.0069337972 -0.02369421 -0.022581434 4285360678
-0.004667379 -0.025059395 -0.021657402 4285295398
-0.0025637597 -0.025673628 -0.021405028 4285360934
-0.00063094869 -0.025537506 -0.021822611 4285360934
0.0016596727 -0.026900634 -0.020903466 4285360934
0.0039609857 -0.028262861 -0.0199866 4285360934
0.0062730238 -0.029624164 -0.019071925 4285360934
0.0082220249 -0.029486403 -0.019492622 4285295143
0.010171067 -0.029348515 -0.019913249 4285294888
0.012312341 -0.029959269 -0.019668311 4285229354
0.014458954 -0.030569449 -0.019424461 4285295399
0.017598592 -0.034920901 -0.015860271 4285360934
0.021971427 -0.043758981 -0.0083206119 4285032494
0.026611125 -0.053340338 -0.00013151951 4285032494
-0.010916773 -0.025548004 -0.022900211 4285295399
-0.0093231127 -0.023907356 -0.024655571 4285361188
-0.0070679486 -0.025277846 -0.023732414 4285295399
-0.0048020519 -0.026647404 -0.022811526 4285360933
-0.0025254264 -0.028016113 -0.021892875 4285360934
-0.00059010461 -0.027879827 -0.022311009 4285360934
0.0017026551 -0.029247165 -0.021395598 4285360934
0.0038247593 -0.02986192 -0.021148581 4285360934
0.0061362684 -0.031227641 -0.020237077 4285360934
0.0082718059 -0.031841233 -0.019992732 4285295143
0.010412697 -0.032454267 -0.019749478 4285229098
0.012750961 -0.033817716 -0.018843465 4285228588
0.015099926 -0.035180308 -0.017939601 4285229099
0.018248931 -0.039544187 -0.014387242 4285163563
0.022429995 -0.047657438 -0.0075311149 4285163563
-0.010725584 -0.028641649 -0.022713885 4285295398
-0.0091263652 -0.026996307 -0.024467144 4285426979
-0.0070342347 -0.027615987 -0.024215762 4285295143
-0.0051071942 -0.027480535 -0.024632297 4285360934
-0.0026605949 -0.029608242 -0.023049951 4285360934
-0.00054958835 -0.030226268 -0.022802331 4285361444
0.0019237883 -0.032351822 -0.021225572 4285361188
0.0042320602 -0.033722319 -0.020316705 4285360934
0.0063672066 -0.034338191 -0.020074036 4285229863
0.0088807084 -0.036460601 -0.018505633 4285295143
0.01141024 -0.038581684 -0.016940627 4285229098
-0.010535102 -0.031743757 -0.022533715 4285426469
-0.0089303367 -0.03009367 -0.024284907 4285361188
-0.0066655688 -0.031472169 -0.023370419 4285295144
-0.0047306791 -0.031336181 -0.023788638 4285164073
-0.0024497695 -0.032713346 -0.022877414 4285294888
-0.00033378229 -0.03333316 -0.022632547 4285098794
0.0021442175 -0.035464987 -0.021061666 4285032493
0.00445728 -0.036839455 -0.020157132 4284901423
-0.010183182 -0.035613947 -0.02169428 4285098028
-0.0082406141 -0.035477661 -0.022114363 4285360933
-0.0061305054 -0.036100447 -0.021870144 4285229353
-0.0040149912 -0.036722727 -0.021626998 4285163564
-0.0015484877 -0.038862169 -0.020058725 4285163818
0.00075861439 -0.040241726 -0.019156333 4284967213
