# .PCD v0.7 - Point Cloud Data file format
VERSION 0.7
FIELDS x y z rgba
SIZE 4 4 4 4
TYPE F F F U
COUNT 1 1 1 1
WIDTH 790
HEIGHT 1
VIEWPOINT 0 0 0 1 0 0 0
POINTS 790
DATA ascii
0.0029712021 -0.0076436773 0.030758573 4287510838
0.0016624257 -0.0034714714 0.024001421 4290848533
0.0032507256 -0.0035141632 0.020985818 4289345053
0.0029675253 -0.0044162348 0.019067882 4289934359
0.0043741427 -0.0013505444 0.015927227 4290395908
0.0045434944 -0.004444018 0.016067041 4289671963
0.0060888007 -0.0021052659 0.013618082 4289018398
0.0042584464 -0.0053347871 0.014158253 4289279008
0.0061093159 -0.0044633895 0.013075192 4289213728
0.0038227588 -0.0054817945 0.011573918 4290521624
0.005975768 -0.0060865879 0.011850694 4290586393
0.0075085834 -0.0037356764 0.0094143953 4290328078
0.0030860677 -0.0041370988 0.0076413993 4289801503
0.0052280463 -0.0047448054 0.007918708 4290782744
0.0070629977 -0.0038700849 0.00684225 4290392339
0.0085748583 -0.0015139729 0.0044152085 4289477399
0.00066941604 -0.0043947399 0.0054724645 4289869844
0.002350837 -0.0027747527 0.0037221927 4289343524
0.004481785 -0.0033853576 0.0040000509 4289605154
0.0066181831 -0.0039955452 0.0042769257 4289410079
0.0082838126 -0.0023762509 0.0025301091 4289671963
-0.00020169467 -0.0022724643 0.00088642724 4291047943
0.001617074 -0.0013947338 -0.00018368103 4289147174
0.0038902014 -0.0027537942 0.00076838769 4289147174
0.0060182288 -0.003366679 0.0010452196 4290652183
0.0079931542 -0.0032339022 0.0006485004 4289605918
0.0096457005 -0.0016111284 -0.0010922197 4290000658
-0.00092332065 -0.00087622553 -0.0030099489 4289280029
0.0010351315 -0.00074495375 -0.0034036618 4289015849
0.0032997206 -0.002108857 -0.0024532638 4289931808
0.0055751093 -0.0034719855 -0.001504912 4289343523
0.0077028982 -0.0040869117 -0.0012296094 4289539873
0.0095140226 -0.0032071024 -0.0022960966 4289345053
0.011319846 -0.0023275018 -0.0033614766 4289216278
-0.001201015 -0.0017129034 -0.0048786588 4289737499
0.00075462088 -0.0015818179 -0.0052718055 4289539874
0.0033217147 -0.0044499934 -0.0029833457 4289735458
0.0055992715 -0.0058172718 -0.0020387685 4288819498
0.0078876093 -0.0071836561 -0.0010963148 4288623658
0.009704113 -0.0063013732 -0.0021622283 4288100653
0.011515334 -0.0054192916 -0.0032269796 4287709483
-0.0011836663 -0.0040497482 -0.0054041641 4289082659
0.00077450275 -0.0039184839 -0.0057978174 4289212453
0.0031907409 -0.0060431063 -0.0041851839 4288558123
0.0056231245 -0.0081665963 -0.002575676 4288362029
0.0080716461 -0.010288849 -0.00096930098 4288166189
0.0098935254 -0.0094039738 -0.0020346483 4288035119
-0.0052295104 -0.0058980882 -0.005813417 4288168739
-0.0031272359 -0.006521821 -0.0055384887 4288232233
-0.00087237358 -0.0078995749 -0.0045963628 4288623659
0.0013932921 -0.009276554 -0.0036562933 4288623658
0.0035172626 -0.0098984838 -0.003385446 4288100399
0.0058018155 -0.011273906 -0.0024490384 4287969584
0.0080971718 -0.012648523 -0.0015146425 4287904303
0.0097612366 -0.011007696 -0.003244373 4287969838
-0.0092742667 -0.0077455342 -0.0062222471 4288955414
-0.0070389584 -0.0091292858 -0.0052798269 4288363813
-0.0050760731 -0.0089981258 -0.0056747487 4288166443
-0.0031130463 -0.0088668168 -0.0060695922 4288362539
-0.00085601211 -0.01024881 -0.0051312251 4288427564
0.001561448 -0.012386419 -0.0035289703 4288427564
0.0035381317 -0.012253836 -0.0039262762 4288558379
0.0056698695 -0.012877271 -0.0036585694 4288231214
0.0078070536 -0.013500288 -0.0033918312 4288100399
0.0096289776 -0.012611136 -0.0044538779 4288231724
-0.011094064 -0.01098115 -0.0056894673 4288625699
-0.0089954585 -0.011609823 -0.0054174354 4288297513
-0.0070301369 -0.011478618 -0.0058129421 4288297259
-0.0050647184 -0.011347294 -0.0062083704 4288100398
-0.0030991882 -0.011215836 -0.0066037355 4288296749
-0.00083997473 -0.012602016 -0.0056691645 4288231214
0.0014300123 -0.013987288 -0.0047366992 4288362029
0.0037108101 -0.015371762 -0.0038062707 4288885544
0.0056927726 -0.015238717 -0.0042045489 4288165678
0.0078322887 -0.015863672 -0.0039399862 4288165679
0.0093366131 -0.013456263 -0.0063253557 4287708463
-0.017485633 -0.010675229 -0.007706291 4287054134
-0.015531681 -0.010545261 -0.0080998754 4288231724
-0.01331646 -0.011939406 -0.0071603535 4288165678
-0.011223659 -0.012570754 -0.0068889251 4288624168
-0.0089894682 -0.013963409 -0.0059530437 4288689703
-0.0070216358 -0.01383204 -0.006349057 4288558379
-0.0051949471 -0.01293914 -0.007409404 4288362029
-0.0029416941 -0.014330149 -0.0064770691 4288165678
-0.00097085908 -0.014198214 -0.0068734065 4288296749
0.0012986287 -0.015587851 -0.0059441999 4288362029
0.0034269542 -0.01621598 -0.0056792572 4288688938
0.0055607148 -0.016843647 -0.0054152682 4288362284
0.007542599 -0.016710497 -0.0058134533 4287707954
-0.01858896 -0.018506154 -0.0031750426 4286661688
-0.017364137 -0.013787225 -0.0075687282 4287314743
-0.01566042 -0.01212801 -0.0092942342 4288099889
-0.013576083 -0.012762263 -0.0090228356 4288035119
-0.011220172 -0.014924124 -0.0074238181 4288165678
-0.009119533 -0.015557043 -0.0071555078 4288296749
-0.0070134513 -0.016189441 -0.0068882555 4288623914
-0.0050429665 -0.016057789 -0.007284712 4288427564
-0.0030723847 -0.015926003 -0.0076811053 4288231213
-0.0011017062 -0.015794113 -0.008077424 4288362539
0.001018174 -0.016425088 -0.0078125596 4288231979
0.0032952651 -0.017818391 -0.0068881251 4288100654
0.0054286979 -0.018448256 -0.0066257417 4288100908
-0.018596582 -0.020872846 -0.0037174411 4286660668
-0.01736819 -0.016140759 -0.0081018396 4287642164
-0.015534036 -0.015243724 -0.0091607906 4288034864
-0.013574891 -0.015113324 -0.0095553659 4288230704
-0.011216968 -0.01728157 -0.0079617091 4288231214
-0.0091139972 -0.017916456 -0.0076955967 4288231213
-0.0068673491 -0.01931674 -0.0067688711 4288427564
-0.0050325766 -0.018419042 -0.0078274682 4288362539
-0.0030594692 -0.018287115 -0.0082243793 4288231979
-0.018970557 -0.020936199 -0.0062525459 4287053114
-0.017621897 -0.016960442 -0.0099633671 4287903794
-0.015663035 -0.016830206 -0.010357983 4288361773
-0.013443992 -0.018236995 -0.0094293207 4288361773
-0.011081412 -0.020411424 -0.0078416355 4288296493
-0.0089734197 -0.021048129 -0.007578209 4287968309
-0.0068599619 -0.021684363 -0.0073157847 4287707953
-0.0050224885 -0.020784326 -0.0083732642 4287185969
-0.019100107 -0.022533156 -0.0074577145 4286464320
-0.017501712 -0.020088822 -0.0098382607 4287903029
-0.015537642 -0.019958243 -0.010233924 4288492589
-0.013313733 -0.021369085 -0.0093095414 4288034608
-0.011079021 -0.022779033 -0.0083872862 4287511603
-0.017257832 -0.023998879 -0.0090600066 4287052603
-0.015285894 -0.023867771 -0.0094572604 4286790973
0.016902551 -0.011408731 -0.0092328526 4283986739
0.019221287 -0.012789607 -0.008309315 4283202103
0.02190318 -0.01568342 -0.0060697757 4282417979
0.025500897 -0.022359177 -0.00054207072 4282220098
0.02896524 -0.028275028 0.0043181479 4282545224
0.01249671 -0.011751577 -0.010964662 4283986738
0.014798798 -0.013138175 -0.010041274 4283203123
0.017111633 -0.014523894 -0.0091199949 4282288183
0.019435208 -0.0159088 -0.0082007162 4281959998
0.022121571 -0.018810928 -0.0059687644 4281828674
0.025901567 -0.026264697 0.00020002946 4281892168
0.029190954 -0.031438604 0.004389273 4282544969
0.010724206 -0.014999971 -0.010453679 4283592254
0.012695435 -0.014867142 -0.010849416 4282155584
0.015002351 -0.016257711 -0.009930402 4281502784
0.017149527 -0.016885832 -0.009670224 4281437503
0.019475266 -0.018274903 -0.0087547302 4281828419
0.02198758 -0.020424336 -0.0071855634 4281762119
0.025408568 -0.026377663 -0.0023434954 4281696329
0.028691189 -0.031567156 0.0018354524 4282153289
0.0025572404 -0.016360573 -0.010732532 4283853374
0.0046796314 -0.016993269 -0.010469638 4282807618
0.0064935684 -0.016096234 -0.011523478 4282089793
0.0084618405 -0.015963875 -0.011918832 4282023493
0.010592468 -0.016595677 -0.01165732 4281893444
0.012728505 -0.017226957 -0.011396788 4281762884
0.014869943 -0.017857768 -0.011137251 4281371458
0.017016776 -0.018488079 -0.010878686 4281241153
0.019169006 -0.019117944 -0.010621071 4281632324
0.022029281 -0.022800803 -0.0077480264 4281631049
0.025273005 -0.028008096 -0.0035731019 4281761354
0.028373195 -0.032449745 -5.8582053e-05 4282413133
-0.0018015057 -0.016682424 -0.012459982 4283527228
1.2207776e-05 -0.015783623 -0.013512395 4283070523
0.00212349 -0.016419373 -0.013249058 4282089028
0.0042402074 -0.017054632 -0.012986716 4281827909
0.0062055811 -0.016922608 -0.013381593 4281631813
0.0083304681 -0.017557099 -0.013120644 4281893698
0.01046076 -0.018191069 -0.012860738 4281763139
0.012596466 -0.018824533 -0.012601808 4281567298
0.014905024 -0.020223618 -0.011689797 4281567300
0.0170542 -0.020855963 -0.011433337 4281044549
0.019208767 -0.021487787 -0.011177897 4281370694
0.021719679 -0.023650229 -0.0096184611 4281826890
0.024781153 -0.028107494 -0.0061063254 4282087243
-0.0051532686 -0.022383593 -0.0095799118 4282873663
-0.0036074594 -0.019941971 -0.01194917 4282414920
-0.0022234768 -0.01673153 -0.014971897 4281696583
-0.00011796877 -0.017369971 -0.014709182 4281501509
0.0018417388 -0.017238572 -0.01510312 4281370949
0.0039554462 -0.017876193 -0.01484184 4281632069
0.0059179887 -0.017744347 -0.015236143 4281501254
0.0080398619 -0.018381178 -0.014976323 4281566279
0.010167152 -0.019017555 -0.014717445 4281632069
0.012299839 -0.019653395 -0.014459588 4281631049
0.014605213 -0.021056972 -0.013550267 4281631049
0.016751371 -0.021691635 -0.013294905 4281239113
0.01907555 -0.023093745 -0.012389123 4281303118
0.021410462 -0.024494946 -0.011485424 4281759059
-0.0064330325 -0.02874887 -0.0064484635 4282741063
-0.0051436536 -0.024754778 -0.01013016 4282285633
-0.0038808733 -0.020762399 -0.013806377 4282154054
-0.0022075884 -0.019087255 -0.015511755 4281566534
-0.00024811551 -0.01895602 -0.015905753 4281501509
0.0020135567 -0.020367607 -0.014991574 4281370693
0.0041322857 -0.021007098 -0.014732942 4281566789
0.0061000213 -0.02087491 -0.015128292 4281566534
0.0080678202 -0.020742595 -0.015523564 4281630793
0.010197438 -0.021380946 -0.01526688 4281826634
0.012168039 -0.021248177 -0.015662502 4281957450
0.014472887 -0.022656128 -0.014756434 4281826124
0.01661871 -0.023292944 -0.014502667 4281563474
0.019114822 -0.025469452 -0.012950383 4281952603
-0.0068396926 -0.028811365 -0.008974717 4282543439
-0.0054147243 -0.025581256 -0.011992563 4282284359
-0.004011035 -0.022352442 -0.015006032 4282089029
-0.0024830848 -0.019898981 -0.017361593 4281501509
-0.00037823245 -0.020541742 -0.01710207 4281631814
0.0018829331 -0.021957695 -0.016191147 4281304904
0.0041548833 -0.023372829 -0.015282251 4281500489
0.0062813535 -0.024013795 -0.015026793 4281695563
0.0080954432 -0.023108035 -0.016073909 4282281298
0.010227405 -0.023748338 -0.01581933 4282345304
-0.0075202957 -0.027311519 -0.012801153 4282607954
-0.0061054751 -0.024073482 -0.015810281 4282285379
-0.0044265352 -0.022389486 -0.017510235 4282154563
-0.0027582012 -0.020706035 -0.019207999 4281109573
-0.00080439076 -0.020575173 -0.019600853 4281239879
0.0013002306 -0.021220043 -0.019342821 4281303628
0.0035636313 -0.02264002 -0.01843559 4281693268
0.0056817532 -0.02328369 -0.018180124 4282214743
-0.0063752383 -0.024884216 -0.017660808 4282349894
-0.0045562647 -0.023974597 -0.01870618 4282284358
-0.0030329227 -0.0215085 -0.021050859 4281434954
-0.0010819361 -0.021377861 -0.021443166 4281238349
0.0010196529 -0.022025041 -0.021186247 4281757019
-0.0049706437 -0.023998037 -0.021200195 4281951838
0.023176072 -0.029963419 -0.014880844 4282536808
0.027390778 -0.032856241 -0.015609008 4282536299
-0.020247124 -0.032130852 -0.017188171 4282732903
-0.017088681 0.01070904 0.026834717 4285491493
-0.0142124 0.0058072135 0.031339385 4285688353
0.028040847 0.00064069778 0.030838119 4285492258
0.030631902 -0.0013672784 0.032497019 4285820189
0.033609029 -0.0048046261 0.035530828 4285819933
0.037738971 -0.012530692 0.042690374 4285425958
-0.022621758 0.017488211 0.018005809 4285163564
-0.021142721 0.020505786 0.01480954 4285754653
-0.019068822 0.019914076 0.01511647 4285819933
-0.016359933 0.015715674 0.018918557 4285885723
-0.012718774 0.0064709112 0.027605018 4285820188
0.020233646 -0.0037261769 0.033299103 4285361444
0.021599844 -0.00071420521 0.030127021 4285427488
0.023118781 0.0015782341 0.027648909 4285558814
0.024621664 0.0038697273 0.02517405 4285623839
0.026287965 0.0054424405 0.023390958 4285558048
0.029036365 0.0027086586 0.025737723 4285689373
0.03199102 -0.0007410273 0.028767658 4285820698
0.035909921 -0.0077751949 0.035226651 4285689374
-0.033802159 0.010039017 0.024092024 4284902444
-0.03016568 0.012475669 0.021189978 4285032239
-0.028523676 0.014780372 0.018690167 4285295654
-0.026785165 0.016359612 0.016893936 4285427743
-0.025172167 0.018662572 0.014400112 4285624349
-0.02357503 0.020964578 0.011909554 4285820698
-0.021993764 0.0232656 0.0094223246 4285557794
-0.020059258 0.023394361 0.0090327282 4285557538
-0.017621711 0.020628847 0.011433542 4285623839
-0.01452063 0.01424782 0.01731536 4285623839
-0.010322683 0.0020842329 0.028759612 4285558558
0.01265689 -3.5710633e-05 0.027754197 4285557029
0.014686994 0.00010100752 0.027346579 4285688354
0.016883053 -0.0004831031 0.027628569 4285623329
0.018747408 0.00037475675 0.026531534 4285493279
0.020264007 0.0026734024 0.024058817 4285559069
0.022112407 0.0035304278 0.022965161 4285624349
0.023602322 0.0058274865 0.020497972 4285820953
0.025434725 0.006683588 0.019407729 4285689119
0.027807645 0.0053800195 0.020377489 4285623839
0.03074519 0.0019183755 0.02340248 4285820954
0.034271453 -0.0036997125 0.028477853 4285689883
0.038790513 -0.012911119 0.036968149 4285295908
-0.037194654 0.017758951 0.014160614 4285163308
-0.035656996 0.020796977 0.010965362 4285688864
-0.033723943 0.020924956 0.010575525 4285819934
-0.031470247 0.018872038 0.012284862 4285820189
-0.029638261 0.019727573 0.011194283 4285624604
-0.027811415 0.020582855 0.010104815 4285558813
-0.026219428 0.022890881 0.0076202247 4285624348
-0.024408251 0.023745313 0.0065340567 4285886744
-0.022722453 0.025325622 0.0047519933 4285820699
-0.020801432 0.025453445 0.0043650828 4285820699
-0.018503651 0.023404136 0.0060660616 4285820953
-0.015676759 0.018453591 0.010545544 4285755673
-0.012288705 0.010604061 0.017796999 4285493023
-0.0080402046 -0.0015928522 0.029202709 4285493024
0.0084613077 -0.0019558147 0.0273272 4285163563
0.0095451251 0.0025223196 0.022782503 4285689119
0.011238266 0.004104659 0.021000164 4285754909
0.013246808 0.0042399168 0.020596864 4285755419
0.015586808 0.0029291362 0.021569366 4285886743
0.017769217 0.0023420826 0.021852462 4285624093
0.019614931 0.003200911 0.020760959 4285624349
0.021281615 0.004782021 0.018984361 4285624349
0.022761211 0.0070849061 0.016524224 4285821209
0.024582949 0.0079424381 0.01543778 4285886998
0.026944663 0.0066337958 0.016406449 4285821463
0.03005489 0.0024387464 0.020109521 4285755929
0.03301017 -0.0010324195 0.023122711 4285559069
0.036561631 -0.0066659376 0.028179681 4285493789
0.041310847 -0.016624011 0.037323244 4285427744
-0.040835127 0.013003364 0.016556358 4285295908
-0.039553091 0.018241569 0.011260424 4285493023
-0.038012393 0.02128832 0.0080711562 4285689884
-0.036290281 0.022874668 0.0062845908 4285689374
-0.034266755 0.022272348 0.0065960474 4285820954
-0.032131054 0.020941332 0.0076045487 4285886488
-0.030093737 0.020340085 0.0079134181 4285755419
-0.028386846 0.021925837 0.0061301664 4285689628
-0.026575819 0.022782288 0.005045604 4285558558
-0.024887279 0.024367012 0.0032661948 4285689884
-0.023209259 0.025951091 0.0014890246 4285821209
-0.021296412 0.026078351 0.0011037402 4285821209
-0.019007288 0.024021894 0.0028014537 4285821209
-0.01644589 0.020511113 0.0058835112 4285624348
-0.013857573 0.017002217 0.008960221 4285559069
-0.010441996 0.0091308579 0.016187785 4285559069
-0.0064231455 -0.0016453862 0.026172193 4285493533
-0.0028788112 -0.0095080063 0.033374041 4285295653
0.0055355057 -0.00010812283 0.023048116 4285492004
0.0072420724 0.001479201 0.021266239 4285755164
0.008938022 0.0030659586 0.019486537 4285689118
0.010623351 0.0046520978 0.017709116 4285623584
0.012623716 0.0047867745 0.01730744 4285689374
0.014789674 0.0041963309 0.017592071 4285755164
0.01729745 0.0021562129 0.01924712 4285689629
0.019137852 0.0030168295 0.018158356 4285624348
0.020972945 0.0038772523 0.017070701 4285624349
0.02227404 0.006910935 0.013932006 4285624349
0.024448287 0.0063215941 0.014215393 4285624094
0.026991082 0.0042844415 0.015863812 4285623839
0.029918503 0.00080052018 0.018874085 4285624349
0.031938009 0.0009374842 0.018469343 4285624348
0.034716006 -0.0018199012 0.020790325 4285624603
0.038284637 -0.0074694455 0.025830595 4285361699
0.043455943 -0.018902004 0.036305055 4285361700
-0.041893937 0.018738776 0.0083670802 4285427489
-0.040254429 0.021062136 0.0058824308 4285690138
-0.038532294 0.022652708 0.0040990598 4285689629
-0.036719523 0.023510948 0.0030154381 4285623328
-0.034704305 0.022905894 0.0033268761 4285623583
-0.032683559 0.022301294 0.0036372654 4285886743
-0.030657232 0.021697134 0.0039466564 4285755164
-0.028737195 0.021824434 0.0035595931 4285624349
-0.026931457 0.022682711 0.0024777055 4285624348
-0.025130868 0.02354072 0.0013969839 4285624094
-0.023335457 0.024398476 0.00031737983 4285623838
-0.021300212 0.023795404 0.00062529556 4285623838
-0.019134268 0.022462681 0.0016248934 4285689373
-0.016957454 0.021130815 0.0026223306 4285624094
-0.014900342 0.020529509 0.0029260758 4285689883
-0.012038432 0.015551217 0.0073751844 4285624604
-0.0084594674 0.0069286078 0.015269363 4285624604
-0.0048161261 -0.0016896427 0.02315071 4285492768
-0.0018146336 -0.0066583082 0.027571982 4285491749
0.0047931895 0.0011696145 0.019065117 4285557793
0.0067985281 0.0013042837 0.018662175 4285754909
0.0083320402 0.0036229342 0.01620069 4286411789
0.010329515 0.0037572831 0.015799491 4285952279
0.012164414 0.0046193451 0.014713245 4285886488
0.014324695 0.0040263534 0.014997328 4285886743
0.016322389 0.0041610748 0.014596367 4285689629
0.018661518 0.0028418005 0.015562503 4285624348
0.020664673 0.0029771104 0.015160607 4285689883
0.022491816 0.0038392097 0.014076348 4285624348
0.024492372 0.0039745569 0.013675144 4285624349
0.027037181 0.0019310266 0.015318183 4285690139
0.02941398 0.00061486661 0.016277203 4285755419
0.031054467 0.0022033826 0.014512973 4285821464
0.03325256 0.0016139597 0.014790261 4286148374
0.036416609 -0.0026030093 0.018462716 4286082329
0.040976368 -0.011895686 0.026879733 4285951259
0.046000697 -0.022633962 0.036639184 4285623329
-0.042112865 0.017908216 0.0064883195 4285164584
-0.040666796 0.021706358 0.0026151631 4285624604
-0.038854174 0.022566609 0.0015331451 4285821463
-0.036945753 0.022692755 0.0011481121 4285886998
-0.035037123 0.02281899 0.0007631015 4285886999
-0.033128284 0.022945337 0.00037812814 4285886999
-0.031001329 0.021605127 0.0013817139 4285624093
-0.029086761 0.021732055 0.00099573657 4285624349
-0.026943386 0.020393081 0.0019961987 4285559068
-0.025140069 0.021253429 0.00091653131 4285559068
-0.023341946 0.02211348 -0.00016197562 4285624349
-0.021304332 0.021508388 0.00014376268 4285624349
-0.019511208 0.022368319 -0.00093357265 4285689884
-0.017340235 0.021031678 6.1713159e-05 4285886743
-0.015549481 0.021891691 -0.0010150364 4285952278
-0.012965716 0.01836092 0.0020459406 4285886488
-0.0099479184 0.012637421 0.0071681645 4285952024
-0.0061952174 0.0032599196 0.015723584 4285820443
-0.0030781403 -0.0024567917 0.020826025 4285426469
0.0063557401 0.0011382997 0.016064925 4285622818
0.0080414191 0.00273294 0.014294 4285755164
0.010036089 0.0028671175 0.013893381 4285820953
0.012030818 0.003001377 0.01349281 4285820699
0.013860464 0.0038654059 0.012409331 4285623838
0.015852656 0.0039997399 0.012009447 4285689629
0.018185947 0.0026757047 0.012973452 4285624093
0.020356797 0.0020816028 0.013254007 4285689884
0.022533037 0.001487948 0.013533546 4285624348
0.024714677 0.00089479238 0.013812102 4285624348
0.026901707 0.00030208379 0.014089717 4285624348
0.028910205 0.00043819845 0.013687098 4285755419
0.030172385 0.0034870058 0.010569895 4285820698
0.031980932 0.0043505728 0.0094914734 4285755163
0.034743793 0.0015750378 0.011802135 4285820443
0.03889041 -0.0062921345 0.018848082 4285951768
0.043885086 -0.017064817 0.028588371 4285820443
-0.042145848 0.01560916 0.0060047656 4285032493
-0.040791795 0.020154655 0.00144393 4285493278
-0.039175309 0.02248951 -0.0010260586 4285624348
-0.037171565 0.021879174 -0.00071573444 4285689628
-0.035369165 0.022741102 -0.0017939545 4285558304
-0.033359684 0.022131324 -0.0014846455 4285623838
-0.031235866 0.020786569 -0.00048379414 4285624093
-0.029212639 0.020177938 -0.00017715618 4285624093
-0.027298003 0.020304933 -0.00056309812 4285624349
-0.025266387 0.019697063 -0.00025799125 4285690139
-0.023348719 0.019824453 -0.00064439327 4285624349
-0.021430887 0.019951969 -0.001030745 4285624348
-0.020012207 0.023017347 -0.0041746125 4285755673
-0.018104754 0.023144364 -0.0045587299 4285820954
-0.016197138 0.023271501 -0.004942785 4285623328
-0.013625108 0.019729167 -0.0018878803 4285689374
-0.010890633 0.015454993 0.0018489249 4285886234
-0.0077092759 0.0089824051 0.0076394565 4285689374
-0.0044796318 0.0025131553 0.013420364 4285558304
-0.0016323663 -0.0017531514 0.017134732 4285360423
0.0075942501 0.0025799647 0.011707867 4285689628
0.009902671 0.0012494773 0.012673154 4285689884
0.012059569 0.00065180659 0.012954468 4285623838
0.01372695 0.0022499114 0.011190789 4285623838
0.015216038 0.0045789257 0.0087485835 4285755163
0.017540783 0.0032500327 0.0097109061 4285820953
0.020049307 0.0011907369 0.011350906 4285820954
0.022398237 -0.00013628602 0.012308555 4285689884
0.024222821 0.00073005259 0.011228228 4285624349
0.026223127 0.00086550415 0.010827165 4285624093
0.027672268 0.0031925589 0.0083934721 4285886998
0.02947817 0.004057996 0.0073171668 4285689118
0.031467803 0.004193075 0.0069185179 4285623839
0.034032706 0.0021383837 0.008547822 4285623583
0.037391394 -0.0028341338 0.012875656 4285689374
0.041576024 -0.010722354 0.019895671 4285689628
0.046219103 -0.020065226 0.028252603 4285558049
-0.040726237 0.017126113 0.0016602539 4285427744
-0.039201885 0.020206124 -0.0014990084 4285559069
-0.037296377 0.020331994 -0.001883518 4285624349
-0.035390653 0.020457983 -0.0022679884 4285624094
-0.033590682 0.021321975 -0.0033439901 4285689628
-0.031795844 0.022185683 -0.0044188313 4285689629
-0.029783599 0.02157414 -0.0041116774 4285820954
-0.027651869 0.020225696 -0.0031156037 4285689628
-0.025625892 0.019615263 -0.0028110519 4285689884
-0.0237137 0.019742265 -0.0031963754 4285624093
-0.022167288 0.022079781 -0.0056465697 4285689628
-0.020636752 0.024416327 -0.0080934269 4285952788
-0.018867478 0.025279071 -0.0091626327 4285820954
-0.016843349 0.024668977 -0.0088572744 4285689374
-0.014415704 0.021851122 -0.0064945333 4285623838
-0.011831172 0.018298909 -0.0034504468 4285689884
-0.009081699 0.014012888 0.00027336739 4285690138
-0.0061592869 0.0089935809 0.0046753045 4285558814
-0.0027691238 0.0017707273 0.011121793 4285426468
0.0077749193 -0.00050198287 0.011853745 4285557029
0.0099287443 -0.0011021495 0.012133909 4285558558
0.012087993 -0.0017018393 0.012413064 4285559068
0.013428677 0.001368627 0.0092927832 4285689883
0.014915477 0.0037040114 0.0068560187 4285952279
0.016726583 0.004571259 0.0057797935 4285952024
0.019223712 0.0025047064 0.0074170642 4285952534
0.021561433 0.0011725947 0.0083736032 4285886999
0.023553532 0.0013073608 0.0079740901 4285624093
0.025183929 0.0029079318 0.0062217526 4285558813
0.026803628 0.0045079291 0.0044715982 4285690394
0.02859886 0.0053747967 0.0033991039 4285953044
0.030577637 0.0055091232 0.0030026212 4285887254
0.033131137 0.0034471899 0.0046292003 4285755673
0.036089204 -7.7396631e-05 0.0076002013 4285821463
0.039467886 -0.0050635338 0.011912419 4285624349
0.043682478 -0.012973346 0.018908108 4285493023
0.048765082 -0.023804568 0.028580768 4285361189
-0.040471151 0.012607679 0.0032543559 4285229354
-0.039326526 0.018659279 -0.0026665796 4285493534
-0.037521534 0.01952555 -0.0037420858 4285559324
-0.035721697 0.020391516 -0.0048164446 4285690139
-0.033821248 0.0205172 -0.0051998124 4285755419
-0.032137461 0.022122711 -0.0069618244 4285952278
-0.030130886 0.021508604 -0.0066552255 4285952278
-0.028118759 0.020894967 -0.0063496605 4286018324
-0.02598463 0.019542441 -0.0053573549 4285689883
-0.024316184 0.02114737 -0.0071160197 4285689629
-0.022658259 0.022751644 -0.0088724419 4285624093
-0.02113536 0.025094174 -0.011312809 4285821209
-0.019501187 0.026697081 -0.013064286 4285952789
-0.017488085 0.026084118 -0.012758445 4285952534
-0.014939494 0.02251859 -0.0097155869 4285887254
-0.012499169 0.019693032 -0.0073620304 4285755928
-0.010175176 0.017606951 -0.0056961784 4285558813
-0.0074133947 0.013308845 -0.0019847685 4285559069
-0.0039033592 0.0053253397 0.005131973 4285558814
-0.0004802011 -0.0019167662 0.011555122 4285491494
0.0094766915 -0.001248382 0.009554226 4285557793
0.011306383 -0.00037807226 0.0084756855 4285558813
0.012636937 0.0027003288 0.00536412 4285821208
0.013946123 0.0057773888 0.0022569224 4285623583
0.015743881 0.006645903 0.0011850651 4285557539
0.018399589 0.0038363561 0.0034965519 4285754909
0.020901434 0.0017637461 0.0051279198 4285689628
0.022885356 0.0018979758 0.004730057 4285624348
0.02432725 0.0042373613 0.0023077559 4285558814
0.025753098 0.006575793 -0.00011122413 4285558814
0.027907062 0.0059745759 0.00016815774 4285558813
0.030066375 0.0053739026 0.00044653751 4285558814
0.032613829 0.0033051297 0.0020692665 4285558558
0.035565503 -0.00023072958 0.0050332267 4285493278
0.038150415 -0.002296716 0.0066486392 4285493279
0.041947942 -0.0087639987 0.012287404 4285493024
0.046804145 -0.018895701 0.021269305 4285361189
-0.039255954 0.015627265 -0.0024542129 4285295654
-0.037846535 0.019466199 -0.0062864795 4285493789
-0.036051981 0.020333938 -0.0073581226 4285690139
-0.034368172 0.021943673 -0.0091169439 4285689884
-0.032694869 0.023552775 -0.010873532 4285558048
-0.030810185 0.023677595 -0.011253577 4285623584
-0.028584525 0.021577537 -0.0095736887 4285755164
-0.026458904 0.020220101 -0.0085830428 4285755164
-0.024679288 0.021087453 -0.0096512064 4285689883
-0.023148127 0.023436859 -0.01208833 4285624349
-0.021384232 0.024303377 -0.013153169 4285624349
-0.019498579 0.024428867 -0.013532948 4285689883
-0.0174831 0.023813881 -0.01322927 4285689628
-0.015065171 0.020978063 -0.010877995 4285624093
-0.012625687 0.018143795 -0.0085309707 4285558559
-0.010440029 0.016791254 -0.0075517977 4285493024
-0.007962849 0.013959706 -0.0052122036 4285427488
-0.0046059489 0.0066914782 0.0012074504 4285427488
-0.0009040013 -0.0020521432 0.0089767855 4285426723
0.0018235892 -0.0056158602 0.011975763 4286474009
0.010202717 0.0024402216 0.0031977221 4285689119
0.011682216 0.0047879368 0.00077236071 4286280208
0.013312839 0.0063965619 -0.00097378716 4285886233
0.015102591 0.0072667226 -0.0020424239 4285689373
0.01757694 0.0051856637 -0.00041064434 4285689884
0.020067398 0.0031058192 0.0012180004 4285755928
0.022218287 0.0025019199 0.0014960133 4285559068
0.024013553 0.0033728853 0.00042668171 4285559069
0.025620302 0.0049806237 -0.0013141911 4285493788
0.027773939 0.0043772385 -0.0010364 4285493789
0.029744398 0.0045110062 -0.0014312174 4285427744
0.032288488 0.0024355352 0.00018716604 4285427234
0.035042528 -0.00037504733 0.0024729781 4285427234
0.037817977 -0.0031840503 0.0047545861 4285426978
0.041611046 -0.0096710473 0.010379191 4285492514
0.046461873 -0.019833311 0.019338762 4285361188
-0.038070694 0.01867108 -0.0081364363 4285361698
-0.036484249 0.021029912 -0.01058024 4285624859
-0.034808218 0.022643358 -0.012334138 4285821718
-0.033034608 0.023512095 -0.013399787 4285755419
-0.031044647 0.022892475 -0.013093179 4285689629
-0.028935738 0.021529526 -0.012102654 4285821209
-0.026815966 0.02016741 -0.011114236 4285887509
-0.025041655 0.021036536 -0.012179688 4285624349
-0.023272522 0.02190543 -0.013244009 4285559068
-0.02138447 0.022030957 -0.013624359 4285559068
-0.019242659 0.020670712 -0.012640068 4285624859
-0.017089993 0.019311257 -0.011657825 4285493278
-0.014794342 0.017210037 -0.0099964719 4285559069
-0.012482502 0.015110053 -0.0083383145 4285493024
-0.010291986 0.013753444 -0.0073634544 4285361188
-0.0078102909 0.010913566 -0.00503146 4285492769
-0.0045928322 0.0043658763 0.00069164671 4285558814
-0.0013270713 -0.0021785051 0.0064051803 4285492004
0.001245942 -0.005011946 0.0087190662 4287325963
0.0095859915 0.003063038 -3.4442171e-05 4285556773
0.010893594 0.0061571449 -0.0031280201 4285689118
0.012513719 0.0077693537 -0.0048687356 4285820443
0.014462426 0.0079008341 -0.005259824 4285821209
0.017100353 0.0050728172 -0.0029581543 4285690138
0.019584753 0.0029861182 -0.0013333689 4285558814
0.02190762 0.0016401112 -0.00038376264 4285493789
0.024060888 0.0010343343 -0.00010780618 4285493789
0.025853541 0.0019074008 -0.0011748448 4285559324
0.028012196 0.0013022274 -0.00089978985 4285625114
0.030176215 0.00069754571 -0.00062571466 4285690903
0.032727659 -0.0013839379 0.00098623522 4285624094
0.035295155 -0.0034642145 0.0025950577 4285492768
0.038075075 -0.00628151 0.0048690308 4285426979
0.041672651 -0.012049593 0.0098100863 4285426978
0.046321724 -0.021504164 0.018078996 4285295143
-0.038194552 0.017133728 -0.0092968401 4285295654
-0.036915384 0.02173917 -0.013792334 4285493278
-0.035457626 0.02484946 -0.016911289 4285755929
-0.033697344 0.025719449 -0.0179726 4285821718
-0.031721048 0.025096729 -0.01766493 4285821463
-0.029399462 0.022236533 -0.015308252 4285821719
-0.027172253 0.020123638 -0.013638632 4285558813
-0.02528464 0.020248905 -0.014019076 4285558813
-0.023518138 0.021119758 -0.015081212 4285493278
-0.021384984 0.019754499 -0.014098613 4285559069
-0.01911436 0.017644905 -0.012437413 4285559068
-0.016698234 0.014791563 -0.010099267 4285690394
-0.01426059 0.011939771 -0.0077653704 4285690394
-0.012070686 0.010578722 -0.0067938576 4285624349
-0.0098699555 0.0092184544 -0.0058244122 4285492514
-0.0075184219 0.0071148574 -0.0041791145 4285558303
-0.004580006 0.002036199 0.00017284229 4285558304
-0.0016040131 -0.0030397922 0.0045172814 4285491493
0.01076277 0.0045735389 -0.0043225195 4285623329
0.012549873 0.0054476634 -0.0053873304 4285558558
0.014331676 0.0063215345 -0.0064509995 4285558814
0.016796615 0.0042269379 -0.00482741 4285558814
0.019102879 0.0028753728 -0.0038779154 4285559069
0.02177481 4.1246414e-05 -0.0015895888 4285493024
0.024107896 -0.0013082027 -0.000645319 4285426978
0.026268885 -0.0019154996 -0.00037248991 4285426979
0.028620752 -0.0032634884 0.00056823529 4285492514
0.03060698 -0.0031286553 0.00017026253 4285492259
0.03316576 -0.0052161217 0.0017757136 4285426468
0.035547063 -0.0065616965 0.0027107913 4285492259
0.038331471 -0.0093873441 0.00497723 4285558049
0.042131677 -0.015912682 0.010570314 4285426469
0.046786271 -0.025394902 0.018816387 4285294634
-0.037819773 0.011851326 -0.0070349323 4285426979
-0.037038274 0.020215049 -0.01494273 4285427489
-0.035790056 0.024831422 -0.019421849 4285559069
-0.033927314 0.024954617 -0.019797608 4285558813
-0.031843595 0.023581184 -0.018808763 4285493023
-0.029522851 0.020712271 -0.016458629 4285558814
-0.027180538 0.017844848 -0.014112724 4285493278
-0.025171965 0.017222449 -0.013813064 4285559068
-0.023036763 0.015852854 -0.012834265 4285492769
-0.02089072 0.014484107 -0.011857626 4285492514
-0.018733829 0.013116151 -0.010883047 4285492259
-0.016436979 0.011001989 -0.0092320992 4285492514
-0.013992146 0.0081420094 -0.0069063576 4285492514
-0.011525773 0.0052835941 -0.0045848582 4285492514
-0.0093121678 0.0039198622 -0.0036213547 4285492514
-0.0070877336 0.002557002 -0.0026599858 4285492004
-0.0045674853 -0.00029747188 -0.00034906343 4285491748
-0.002170898 -0.0024043769 0.0012823641 4285490984
0.011123694 0.0007558763 -0.003502259 4285687333
0.012585692 0.0031219125 -0.0059089847 4285623839
0.014539465 0.0032537282 -0.0063010957 4285558559
0.016837146 0.0018971339 -0.0053533223 4285756184
0.019494798 -0.00094668567 -0.0030689035 4285690138
0.021996599 -0.0030450374 -0.0014575524 4285493025
0.024154563 -0.0036548004 -0.0011858782 4285426978
0.026500551 -0.0050076321 -0.00024740957 4285361188
0.02885725 -0.0063595846 0.0006889496 4285426724
0.031224672 -0.0077107102 0.0016233157 4285426468
0.033412125 -0.0083179995 0.0018894486 4285492259
0.03560492 -0.0089247972 0.0021546036 4285558304
0.038195111 -0.011016339 0.0037489496 4285558049
0.041993536 -0.017561205 0.0093273446 4285492259
0.046041477 -0.0248449 0.015560189 4285229098
-0.037148036 0.0042938516 -0.002740778 4285294888
-0.036854446 0.016438052 -0.014046147 4285426469
-0.035702169 0.021818787 -0.01919877 4285493278
-0.033834212 0.021942303 -0.019575596 4285559324
-0.031635396 0.01981438 -0.017910512 4285624858
-0.029307462 0.016937263 -0.01556849 4285690393
-0.026842378 0.01331152 -0.012551184 4285624348
-0.024705164 0.011937603 -0.011576249 4285623839
-0.022678018 0.011314355 -0.011281936 4285492513
-0.020521767 0.0099419728 -0.010310696 4285492004
-0.018607207 0.010069288 -0.010696368 4285492004
-0.01630567 0.0079488903 -0.0090513695 4285492514
-0.013987951 0.0058296695 -0.0074095465 4285426723
-0.01151976 0.002962783 -0.0050951522 4285426723
-0.0094409361 0.0023435876 -0.0048106853 4285426724
-0.0070773661 0.00022780895 -0.0031778701 4285361189
-0.0048399344 -0.0011384189 -0.0022223238 4285360934
-0.0027366914 -0.0017555952 -0.0019425582 4285491494
0.013120398 -0.0014481694 -0.0044256616 4285688864
0.015084721 -0.0013156682 -0.0048198979 4285689628
0.017392609 -0.002675876 -0.0038775112 4285623839
0.019711226 -0.0040351972 -0.0029372303 4285426468
0.022040587 -0.0053936616 -0.0019990047 4285360933
0.024380689 -0.0067513287 -0.0010627983 4285360933
0.02691398 -0.0088538229 0.00053745136 4285361188
0.029278193 -0.01020956 0.0014689788 4285360934
0.031653121 -0.011564448 0.0023984462 4285361188
0.0334673 -0.010683104 0.0013323836 4285426979
0.035662442 -0.011291891 0.001595404 4285558304
0.038254615 -0.013389781 0.0031843297 4285361188
0.042053923 -0.019953981 0.0087475106 4285294888
0.045700189 -0.025770366 0.013638809 4284966449
-0.036365487 0.010388695 -0.011117355 4285163053
-0.035300806 0.016538657 -0.016941823 4285229099
-0.033527009 0.017415904 -0.018000921 4285492769
-0.031098031 0.013776764 -0.014984875 4285558304
-0.028754883 0.010892011 -0.012652612 4285492004
-0.026505575 0.0087611154 -0.011002533 4285491749
-0.02447623 0.0081357211 -0.010710437 4285491749
-0.022320628 0.0067588016 -0.0097424835 4285557538
-0.02027759 0.0061345547 -0.0094529632 4285492003
-0.018229052 0.0055107623 -0.0091644749 4285492004
-0.016175032 0.0048874617 -0.0088769998 4285492259
-0.013984069 0.0035133287 -0.0079158265 4285426468
-0.011514045 0.00063788146 -0.0056084599 4285426468
-0.0094328672 1.6719103e-05 -0.005326191 4285558304
-0.0072067603 -0.001354672 -0.0043718591 4285426469
-0.0051119886 -0.0019746944 -0.004092155 4285360679
0.013155036 -0.0037884861 -0.0049583046 4285491239
0.015459683 -0.0051533431 -0.0040187044 4285492258
0.017603502 -0.0057687536 -0.0037478348 4285492513
0.020101227 -0.007880494 -0.0021457551 4285492259
0.02226118 -0.0084945634 -0.0018779142 4285360933
0.024426516 -0.0091081411 -0.0016110716 4285360934
0.026779508 -0.010469124 -0.00068069529 4285360934
0.02932816 -0.012576886 0.00091151148 4285361189
0.031705264 -0.013935983 0.0018372461 4285360933
0.033712454 -0.013799585 0.0014351755 4285426979
0.035912614 -0.014410198 0.0016955212 4285426468
0.038705096 -0.017261147 0.0039403029 4285294634
-0.034692064 0.0097267404 -0.01334416 4285229099
-0.032899506 0.010607332 -0.014405345 4285426469
-0.030672587 0.0084682405 -0.012755955 4285492258
-0.028429464 0.0063303709 -0.01110979 4285426468
-0.026285358 0.0049481466 -0.010143036 4285426213
-0.024248295 0.0043211058 -0.0098541677 4285426468
-0.022326298 0.0044486672 -0.010241533 4285557538
-0.020280905 0.0038223937 -0.0099541824 4285492259
-0.018230014 0.0031965896 -0.009667851 4285492258
-0.016173624 0.0025712326 -0.0093824919 4285492004
-0.014243029 0.0026998073 -0.0097712502 4285491748
-0.011910468 0.00056877732 -0.0081424173 4285558049
-0.0098349601 -5.492568e-05 -0.0078606848 4285492513
-0.0073361322 -0.0029368848 -0.0055656452 4285426213
-0.005241666 -0.0035590902 -0.0052875569 4285359658
0.013189353 -0.006132856 -0.0054939417 4285425449
0.015496157 -0.0075018555 -0.0045581711 4285426468
0.017642327 -0.0081192553 -0.0042894399 4285558048
0.019967962 -0.0094867721 -0.0033572083 4285426979
0.02230433 -0.010853402 -0.0024270779 4285360933
0.024651436 -0.01221922 -0.0014989665 4285361189
0.027009256 -0.013584137 -0.00057293847 4285360934
0.029562581 -0.015698083 0.0010133684 4285294888
0.032131955 -0.017810777 0.0025965087 4285360678
0.034337137 -0.018423319 0.002854079 4285360679
0.036933277 -0.020533964 0.0044321045 4285229354
-0.034503154 0.005914256 -0.012476375 4285294634
-0.032916598 0.0083119273 -0.014890091 4285295144
-0.030797377 0.0069234967 -0.013921851 4285426468
-0.028554916 0.0047791004 -0.012280578 4285492003
-0.026411287 0.0033925027 -0.011317097 4285426214
-0.024374545 0.0027632713 -0.011029849 4285426213
-0.022452682 0.0028907955 -0.011417206 4285491748
-0.020161472 0.00075002015 -0.0097853895 4285491749
-0.018105537 0.00012239814 -0.0095017459 4285557794
-0.015915714 -0.001260519 -0.0085471775 4285557793
-0.01397723 -0.0011314452 -0.0089375358 4285491238
-0.011771068 -0.0025130957 -0.0079860333 4285556518
0.013223335 -0.0084812194 -0.0060326597 4285360423
0.015363768 -0.0091012865 -0.0057645468 4285426469
0.017338395 -0.0089679807 -0.0061607724 4285492513
0.019660834 -0.010339983 -0.0052312864 4285361189
0.021994025 -0.01171118 -0.0043038158 4285294888
0.024696413 -0.014586233 -0.0020549297 4285229353
0.027420234 -0.017459735 0.00018974766 4285163308
-0.034315251 0.0020890906 -0.011618238 4285097773
-0.032613426 0.0037343502 -0.013353992 4285360678
-0.030703053 0.0038606822 -0.013739375 4285426469
-0.028568119 0.002469115 -0.012777623 4285426213
-0.026422299 0.00107833 -0.011817932 4285426468
-0.024265647 -0.00031159073 -0.010860393 4285491493
-0.022338584 -0.00018371642 -0.011248801 4285425959
-0.02016557 -0.0015723556 -0.010294331 4285360423
-0.017981723 -0.0029601455 -0.0093420167 4285557029
-0.015658788 -0.0051050484 -0.0077214232 4285622309
0.012925629 -0.0093227401 -0.0078999875 4285426214
0.015063062 -0.0099451691 -0.0076329401 4285426724
0.017205887 -0.010567136 -0.0073668947 4285426723
0.019354101 -0.011188589 -0.0071018292 4285294888
0.022036862 -0.01407373 -0.0048557818 4285229098
0.025278248 -0.019220918 -0.00063359737 4285229098
0.028557099 -0.02436538 0.0035811327 4285099048
-0.034336366 -0.00022543967 -0.012116715 4285098029
-0.032631643 0.0014243573 -0.013849759 4285360678
-0.030500025 2.8088689e-05 -0.012890745 4285361189
-0.028357558 -0.0013673007 -0.011933856 4285426469
-0.026204206 -0.0027619153 -0.010979045 4285491748
-0.023922659 -0.0049164593 -0.009355532 4285557029
-0.021985054 -0.0047879219 -0.0097460914 4285425704
-0.019924551 -0.0054197162 -0.0094668325 4285359658
-0.017733164 -0.0068113431 -0.0085193282 4285818403
0.012793817 -0.010917209 -0.0091026565 4284901169
-0.032011114 -0.0054719001 -0.010320386 4285098794
-0.029752098 -0.0076347589 -0.0086976225 4285229863
-0.027476877 -0.009796463 -0.0070779799 4285295144
-0.028679892 -0.017629057 -0.002522802 4285033514
-0.026264273 -0.020560861 -0.00024534762 4284900914
