# .PCD v0.7 - Point Cloud Data file format
VERSION 0.7
FIELDS x y z rgba
SIZE 4 4 4 4
TYPE F F F U
COUNT 1 1 1 1
WIDTH 965
HEIGHT 1
VIEWPOINT 0 0 0 1 0 0 0
POINTS 965
DATA ascii
-0.023178019 -0.0269548 0.027182622 4286923319
-0.018682204 -0.016488209 0.01612878 4290262544
-0.016290158 -0.018517628 0.017841743 4289606429
-0.014007561 -0.019826725 0.018849446 4289933338
-0.011970825 -0.019696899 0.018451666 4289933084
-0.0052134208 -0.01199276 0.0098650102 4286857529
-0.0034863763 -0.010427654 0.0080745425 4287380788
-0.0022033118 -0.006709069 0.004190566 4287380788
-0.0010940842 -0.0022742599 -0.00038616359 4287512114
-1.693517e-05 0.0021586493 -0.0049565881 4287577393
0.00072312728 0.0080245584 -0.01091462 4287905068
0.0021962821 0.010301195 -0.013381897 4286989363
0.0088048391 0.0070900694 -0.0110358 4287642929
0.01157872 0.00363224 -0.0079425052 4287642674
0.013873696 0.0023256615 -0.0069359131 4287904304
0.01652199 -0.00041269511 -0.0045446716 4287904048
0.018843856 -0.0017172918 -0.0035431944 4287838515
0.020999845 -0.0023051426 -0.0032360163 4287838004
0.023340542 -0.003608346 -0.0022379924 4287641653
0.025873967 -0.0056262836 -0.00055076368 4287707443
0.029531607 -0.011935674 0.0052778181 4288099633
0.035111181 -0.02539438 0.017999193 4287838004
0.040982723 -0.039561458 0.031390563 4287445303
-0.024163418 -0.036713518 0.034080572 4286856508
-0.022971317 -0.03080292 0.028046252 4286987579
-0.021821894 -0.024894968 0.022020398 4286922299
-0.020597659 -0.019711494 0.016705086 4287642164
-0.018809915 -0.018139087 0.014905451 4289474594
-0.016664185 -0.018731952 0.015211316 4290259994
-0.014387429 -0.020045772 0.016216775 4290390809
-0.012356177 -0.019916311 0.015820062 4289606429
-0.003755562 -0.011343114 0.0061651524 4286989108
-0.0026187375 -0.0068935975 0.0015928764 4287511858
-0.0012200475 -0.0038860813 -0.0015802458 4287446324
-0.00014201552 0.00055991858 -0.0061409399 4288035119
0.00090394914 0.0050039217 -0.010695264 4287772979
0.002382867 0.0072874129 -0.013158662 4287381043
0.0043188259 0.0074119344 -0.013535906 4287708719
0.006735988 0.0053790808 -0.011831677 4287773998
0.0091693029 0.0033473223 -0.010130472 4287904813
0.011950232 -0.00012093037 -0.007046828 4287707954
0.014252771 -0.0014313534 -0.0060450658 4287904049
0.01656609 -0.0027409866 -0.005045265 4287642164
0.018716373 -0.0033315048 -0.0047387201 4287707189
0.020695586 -0.0032034218 -0.0051238015 4287707189
0.023033112 -0.0045111254 -0.0041285027 4287838004
0.025381386 -0.0058180764 -0.0031351801 4288099633
0.029031964 -0.012147523 0.0026798937 4287838258
0.034789927 -0.026365563 0.016060153 4287838258
0.040655158 -0.040576518 0.02941964 4287512114
-0.024185471 -0.039143175 0.033519074 4286856253
-0.022653587 -0.035388321 0.029602012 4286921788
-0.021492235 -0.029462196 0.023586994 4286791483
-0.020256229 -0.024262831 0.018280959 4287446324
-0.018817566 -0.020513564 0.014382368 4287904048
-0.016914815 -0.019660994 0.013287092 4289146918
-0.014766537 -0.020255789 0.013590863 4289867294
-0.012740802 -0.020126715 0.0131952 4290261014
-0.0026010908 -0.009236224 0.0010878351 4287381043
-0.0011991784 -0.0062198266 -0.0020793211 4287511858
3.1918287e-05 -0.0024826452 -0.0059364904 4288297004
0.0012362972 0.0012529492 -0.0097883604 4287707953
0.0028784573 0.0028218105 -0.011555294 4287642673
0.004509978 0.0043900684 -0.013320005 4287838768
0.0067716464 0.0030723289 -0.012313845 4287707953
0.0092069991 0.0010341778 -0.010617996 4287838768
0.011824049 -0.0017238483 -0.0082340837 4287904049
0.013957862 -0.002317816 -0.007926153 4287773234
0.016268015 -0.0036320314 -0.0069290604 4287707443
0.018241704 -0.0035044253 -0.0073131528 4287903794
0.020391706 -0.0040970072 -0.0070081148 4287707189
0.022368129 -0.0039689988 -0.0073925685 4287511859
0.024526209 -0.0045608431 -0.007088935 4287119924
-0.022560738 -0.038537666 0.029745089 4286464064
-0.021049388 -0.034773156 0.025840359 4286856509
-0.019681804 -0.030283928 0.021241942 4287053114
-0.018346176 -0.025796644 0.016649911 4287446324
-0.01679752 -0.022763178 0.013459953 4287577139
-0.015019745 -0.02118253 0.011669008 4289016614
-0.01299683 -0.021053664 0.01127387 4289867804
-0.0010319799 -0.0092820525 -0.0018882472 4287775273
0.00020520389 -0.0055336133 -0.0057383534 4288165934
0.0014156587 -0.0017867908 -0.0095831677 4288100654
0.002754055 0.0012345687 -0.012731072 4288100654
0.0045431331 0.0020834506 -0.013801459 4287773489
0.0068070143 0.00076145679 -0.012798991 4287838768
0.0090816692 -0.00055970252 -0.011798596 4287773489
0.011532508 -0.0026032776 -0.01011065 4287904048
0.013831403 -0.0039226487 -0.0091147982 4288034863
0.015970312 -0.0045183674 -0.008809438 4287707443
0.017941177 -0.0043909475 -0.0091929864 4287642674
0.019912075 -0.0042633936 -0.0095764436 4287578158
-0.022356875 -0.042424195 0.030580217 4286071618
-0.020836778 -0.038648307 0.026682014 4286660414
-0.019460283 -0.034145519 0.022091797 4287118393
-0.017996088 -0.030372947 0.018204695 4287183928
-0.016680844 -0.025873847 0.013626611 4287773233
-0.014897518 -0.024288483 0.011837812 4288558378
-0.013124764 -0.022703737 0.010051208 4288755749
7.9575926e-05 -0.0071401969 -0.0069285296 4288035373
0.0012907423 -0.0033824518 -0.010765227 4287969839
0.0027841926 -0.0010785013 -0.013216615 4287707698
0.0044188015 0.00049867481 -0.014975385 4287969328
0.0065223351 -0.00010194629 -0.014665124 4287969328
0.0084687546 2.3439527e-05 -0.015044262 4287838513
0.010910898 -0.0020272359 -0.013359588 4287838768
0.01303336 -0.0026262999 -0.013052754 4287904303
0.015502408 -0.0046750084 -0.011373153 4287838768
-0.019239709 -0.038019933 0.022932133 4286725948
-0.017766766 -0.034235924 0.019051528 4287184439
-0.016320452 -0.030453548 0.015176238 4287772979
-0.014775909 -0.027402915 0.012000399 4287904304
-0.01299759 -0.025813453 0.010215944 4287381043
0.00086258352 -0.003520973 -0.013324855 4287184949
0.0026597008 -0.0026673451 -0.014393593 4287642674
0.0042945109 -0.0010858253 -0.016149107 4288492843
0.0063977316 -0.0016886368 -0.015840441 4288034610
0.0081816465 -0.00083553046 -0.016906355 4287446069
0.010620452 -0.0028929636 -0.015226004 4287054898
-0.019253381 -0.040441409 0.022374814 4286202943
-0.017896377 -0.035913676 0.017808238 4287184694
-0.016327344 -0.03285294 0.014634116 4288296749
-0.01477959 -0.029793404 0.011464192 4288427564
-0.013253111 -0.026735112 0.0082985144 4287315254
0.00058661774 -0.0043810531 -0.015190509 4286661688
0.0023810789 -0.0035253838 -0.016257126 4287643184
0.0040134192 -0.0019397289 -0.018008817 4287969073
0.0061136521 -0.0025449246 -0.017701238 4287577139
-0.018025927 -0.037591115 0.016565168 4287119413
-0.016456373 -0.034521684 0.013397535 4288362283
-0.015032575 -0.030718915 0.0095432159 4287838258
-0.013508245 -0.027652107 0.0063845348 4287053879
-0.016950324 -0.033979475 0.010091757 4288035883
-0.015409537 -0.030903034 0.0069363769 4287118905
-0.013763003 -0.028564371 0.0044739787 4286923318
-0.015537396 -0.032555901 0.005711576 4287118393
-0.013890512 -0.030210726 0.0032540392 4286857529
0.0093206242 0.040997706 0.01332465 4280656439
0.01176513 0.039110806 0.015133196 4280457794
0.0039880723 0.036338024 0.016201159 4281827398
0.0048320852 0.041178595 0.010717956 4281568574
0.0056386068 0.046016779 0.0052421596 4281047099
0.0065715872 0.050179504 0.00050156005 4281306433
0.0088058524 0.048956208 0.0015862454 4281242174
0.012744538 0.04100547 0.0099372882 4280786234
-0.0021513179 0.043956194 0.0055750702 4282089793
-0.00054096431 0.045431674 0.0037449356 4281502274
0.0013702884 0.045554742 0.0033726115 4280915009
0.0028062835 0.047705002 0.00081843883 4280784959
0.0043873638 0.049178809 -0.0010058247 4279874354
0.0054663271 0.052678064 -0.0050067194 4280655419
0.0076840408 0.051449321 -0.0039221402 4280851513
0.010250919 0.048871383 -0.0013892334 4280331058
0.014729962 0.038871575 0.0091112386 4280201264
-0.007265605 0.047573537 -0.00066473335 4280591158
-0.0058134831 0.049731106 -0.0032173581 4281112888
-0.0036262237 0.048495572 -0.0021305215 4280396339
-0.0015810356 0.047939084 -0.0017725043 4280915774
0.00046959892 0.047383033 -0.0014154837 4280980798
0.0020508654 0.048861086 -0.003236495 4280720189
0.0032995418 0.051694013 -0.006505711 4279742263
0.0046904646 0.053848088 -0.0090460759 4279678259
0.0068969987 0.052614249 -0.0079626497 4279678259
0.009621378 0.049349576 -0.0047105215 4280069173
0.01305946 0.043378565 0.0014287122 4280850748
0.01619713 0.038764514 0.0061134789 4281176638
0.020434853 0.030092802 0.015123149 4281307453
-0.0090860389 0.035562169 0.0098425467 4283135804
-0.0091394074 0.045222178 -0.00071538985 4281633853
-0.0081102997 0.049429744 -0.0054452643 4280072233
-0.0063764267 0.050231405 -0.0065380819 4280526133
-0.0020080581 0.047751285 -0.0043698587 4280785214
3.6947429e-05 0.047192663 -0.004013421 4280915774
0.0016130842 0.048674777 -0.0058301687 4280719678
0.0028569959 0.051516064 -0.0090917926 4280719424
0.0044064373 0.052996613 -0.010903224 4280784959
0.0066098534 0.051758192 -0.0098225195 4280915264
0.0093305893 0.048482366 -0.0065779798 4280980545
0.012421269 0.0438499 -0.0018957518 4280915519
0.014330089 0.04397333 -0.0022672117 4281177148
0.016769633 0.042060181 -0.00047739781 4280396338
0.021200726 0.032682363 0.0092279557 4280266034
-0.011689939 0.036591638 0.0061419439 4282811954
-0.011296853 0.044233434 -0.0022202265 4281307709
-0.010111693 0.047771588 -0.0062174425 4281112888
-0.0088087134 0.050624967 -0.0094843525 4281372223
-0.0070855059 0.051428098 -0.01057345 4281502274
-0.0049179196 0.050182559 -0.0094894953 4280655164
-0.0024343543 0.047572516 -0.0069605988 4279938613
-0.00023972988 0.046328835 -0.0058817472 4280850749
0.0016498454 0.046450533 -0.0062498301 4280719678
0.0025757812 0.050665043 -0.01094936 4280654143
0.0046127066 0.050103903 -0.010592792 4280784959
0.0068210401 0.048861466 -0.0095164068 4280784703
0.0095461756 0.045574993 -0.0062810313 4280849984
0.011612788 0.045016043 -0.0059301071 4280916283
0.013162699 0.046501249 -0.0077380389 4280981818
0.014701892 0.047985882 -0.0095438678 4280136493
0.017845063 0.043341734 -0.0048832372 4280069428
0.023393046 0.029850658 0.0091005955 4280069428
-0.012630448 0.03913464 0.00062728114 4281436994
-0.011834756 0.04474245 -0.0055405013 4281045059
-0.010798536 0.048976529 -0.010251965 4279611959
-0.0092170238 0.050467245 -0.012063414 4279612978
-0.007646136 0.051957391 -0.013872778 4279547954
-0.0054870285 0.050706886 -0.012790453 4278960434
-0.0030123107 0.048087515 -0.01026649 4280134199
-0.00067111105 0.046154309 -0.0084680263 4280850493
0.0012129992 0.046275638 -0.0088350587 4280850238
0.0027762949 0.04776565 -0.010642599 4280850238
0.0049814358 0.046518549 -0.0095689856 4280916284
0.0068657584 0.046640143 -0.009935867 4280915518
0.0087501258 0.046761811 -0.010302706 4281046333
0.010121003 0.048934393 -0.012824047 4280460854
0.011649668 0.050422624 -0.014624577 4281111613
0.013167646 0.051910199 -0.016422924 4281567299
0.01592955 0.048615515 -0.013202747 4281568319
0.019809838 0.041225132 -0.0056911148 4281111614
0.026149057 0.024962928 0.011111693 4281111614
-0.011799261 0.032759476 0.0045360718 4282220099
-0.011538737 0.041137524 -0.0045137703 4281305414
-0.011059504 0.048136089 -0.012106352 4280914243
-0.0097687691 0.051006082 -0.015357652 4280849984
-0.0080588311 0.051812679 -0.016440881 4280719933
-0.0056064613 0.049183056 -0.013919264 4280654654
-0.0031325221 0.046554886 -0.011401795 4280850493
-0.0014115646 0.047362469 -0.012487035 4280915773
0.00030411407 0.048169747 -0.013571149 4281046078
0.0020145103 0.048976775 -0.01465416 4280916029
0.0043714345 0.047038209 -0.012863524 4281111613
0.0060819499 0.047845453 -0.013946477 4281307199
0.0077871606 0.048652388 -0.0150283 4281111613
0.00880301 0.052202299 -0.018975312 4280525878
0.010660529 0.052322395 -0.019336803 4279743793
0.012341697 0.053128023 -0.020413756 4280589884
0.015091904 0.049821667 -0.017199593 4280914754
0.01805071 0.04583203 -0.013276123 4281045313
0.022332758 0.037049953 -0.0043611173 4280915264
0.02724595 0.026218224 0.006680673 4280915263
-0.010426614 0.023592915 0.011309246 4282284359
-0.0104119 0.033379253 0.00083070435 4281434188
-0.010330852 0.042470977 -0.0089124553 4281438015
-0.0093114376 0.046730191 -0.013600726 4281240898
-0.0077373795 0.048229225 -0.015404112 4280849728
-0.0054271147 0.04628069 -0.013609678 4280784958
-0.0035568029 0.046400934 -0.013974173 4280524348
-0.0019958653 0.047899324 -0.015774772 4280459579
-0.00060300156 0.050086018 -0.018290825 4278700589
0.0014142394 0.049516976 -0.017935537 4279353389
0.003599707 0.048259817 -0.016864695 4278637604
0.0052995607 0.049068533 -0.017943928 4280786743
0.0068259574 0.050565116 -0.019737486 4281112124
0.0083416589 0.052061096 -0.021528888 4280916538
0.010193709 0.05218083 -0.021889322 4280199734
0.012045782 0.052300647 -0.022249695 4280069173
0.014434543 0.050358128 -0.0204699 4280329784
0.017565738 0.045667462 -0.015841695 4280526898
0.020918762 0.040292237 -0.010508455 4281112888
0.024688641 0.033545893 -0.003759807 4281176129
0.031166948 0.017188188 0.012936527 4281176129
-0.0093292296 0.015763238 0.016606638 4283070523
-0.0090111569 0.024197266 0.0075853039 4281957194
-0.009039633 0.034011416 -0.0028615724 4281370949
-0.0085677728 0.041053168 -0.01041954 4281436994
-0.0075634196 0.045324553 -0.015094889 4281176638
-0.0056959912 0.045444503 -0.015458903 4280980798
-0.003980346 0.046255946 -0.016539842 4280589884
-0.002733659 0.049140848 -0.01976908 4280849984
-0.0011938736 0.050642356 -0.02156223 4280654909
0.0009749718 0.049379654 -0.020491548 4280916283
0.0033172294 0.047427073 -0.018708061 4279353898
0.0051797628 0.047547229 -0.019070731 4280851769
0.006874375 0.048357822 -0.020147186 4280786233
0.008393012 0.049858347 -0.021935854 4280981308
0.010420982 0.049288221 -0.021584008 4280981308
0.01245435 0.048718534 -0.021233138 4281242173
0.014850553 0.046769913 -0.019459719 4281439033
0.017988469 0.042064451 -0.014844471 4281374263
0.021348063 0.036672167 -0.0095257182 4281504058
0.024750605 0.031282749 -0.0042152498 4281633599
0.030848421 0.016250525 0.011022301 4281633599
-0.0087773018 0.010672893 0.019000994 4282873918
-0.0077524073 0.015661713 0.013586434 4281957449
-0.0071878731 0.022731133 0.0060268287 4281892934
-0.0069641694 0.031185377 -0.0029560681 4281893698
-0.0068047456 0.039635632 -0.011926407 4281371714
-0.0058154613 0.043919191 -0.016588829 4280654654
-0.0045548677 0.0468136 -0.019814234 4280524859
-0.0031612664 0.049013313 -0.022320574 4279872313
-0.0016265996 0.050518788 -0.024109386 4280719933
0.00037667155 0.04994446 -0.02375471 4281176639
0.0028727017 0.04729183 -0.021261215 4280916029
0.0050600059 0.046026167 -0.020197356 4280200243
0.0069224872 0.046146385 -0.020559963 4280916538
0.0089555196 0.04557427 -0.02021078 4281177404
0.010993946 0.045002639 -0.019862626 4281111868
0.013389498 0.043047346 -0.018094115 4281242684
0.015979707 0.040401362 -0.015618601 4281503548
0.019135097 0.035681736 -0.011018304 4281308474
0.022144159 0.031656176 -0.0071343742 4281176383
0.025372032 0.026941422 -0.002548039 4281109574
0.031287353 0.01255288 0.011943663 4281304649
-0.0084979087 0.0069545209 0.019945571 4282808383
-0.0070495345 0.0098692365 0.016689831 4282284869
-0.0060448833 0.014872123 0.011290817 4281891913
-0.0056516156 0.022657882 0.003037991 4281892424
-0.0056095757 0.031832237 -0.0066328738 4281827654
-0.0053394809 0.039610274 -0.014861546 4281437249
-0.0046737157 0.045297273 -0.020937484 4281111870
-0.0037423484 0.049590349 -0.02557856 4279286069
-0.0020585954 0.050404232 -0.026649868 4279677239
-6.0968101e-05 0.049827345 -0.026295761 4279873844
0.002428893 0.047165588 -0.023807699 4279809075
0.0049402751 0.044505347 -0.021323808 4280395064
0.0071379244 0.043236025 -0.020265175 4281046333
0.0096869916 0.040578347 -0.01778844 4281176894
0.012084551 0.038616586 -0.016025413 4281307964
0.014849629 0.03526748 -0.012847362 4280849984
0.017284829 0.033308286 -0.011091482 4281044039
0.020460369 0.028574701 -0.0065066982 4281109829
0.023122279 0.025924776 -0.0040515792 4281240389
0.025992077 0.022582818 -0.00089362077 4281239368
0.031725273 0.0088422894 0.012855524 4281434954
-0.0083547495 0.0039223135 0.020165315 4282873918
-0.0070383884 0.0075449198 0.016200295 4282284868
-0.0056080818 0.010467272 0.012954755 4281826633
-0.0044857264 0.014785308 0.008286098 4281957450
-0.0039794445 0.02189469 0.00077112578 4281630283
-0.0041214339 0.031793326 -0.0095838886 4281435974
-0.0040357076 0.040291298 -0.0185 4281174343
-0.0035521425 0.046691783 -0.025268735 4280587078
-0.0021764189 0.048903439 -0.027761566 4281045314
-0.00017907098 0.048324339 -0.027409071 4281241153
0.0023099966 0.045653798 -0.024927488 4281176129
0.0051501393 0.041590512 -0.021031056 4281241665
0.0076876208 0.038923278 -0.018558763 4280979524
0.010586902 0.034863986 -0.014673711 4281371714
0.013172776 0.032200072 -0.012210689 4281240643
0.015780143 0.029537603 -0.0097518042 4281240899
0.018409008 0.02687664 -0.0072970185 4281697859
0.020878479 0.024913263 -0.0055527445 4281370438
0.023364069 0.022950992 -0.0038114842 4281500488
0.026052011 0.02029413 -0.0013679806 4281500488
0.031784296 0.0065099522 0.012348207 4281761354
-0.0070275366 0.0052165166 0.015707718 4283786818
-0.0057344437 0.008848615 0.011755573 4282152779
-0.0043249018 0.011778407 0.0085207615 4282088264
-0.003082525 0.015407432 0.0045786481 4281957449
-0.0029064193 0.023937214 -0.0043352488 4281695563
-0.0029458031 0.033163153 -0.013947075 4281238603
-0.0027470924 0.040984735 -0.02212533 4280782663
-0.001354862 0.043203965 -0.02461643 4280586823
0.0006583035 0.042623699 -0.024268672 4281307708
0.00300074 0.040644873 -0.022505103 4281306688
0.0056885593 0.037268594 -0.019328866 4281176129
0.0084032528 0.033894151 -0.016157791 4281044294
0.011314802 0.029822573 -0.012285065 4281110339
0.013913281 0.027150728 -0.0098311435 4281305924
0.016182579 0.025877614 -0.0087929331 4281435973
0.018640669 0.023906823 -0.0070514381 4281501509
0.020934178 0.022635434 -0.0060177427 4281435719
0.023605188 0.019968703 -0.0035776868 4281566024
0.026297685 0.017303426 -0.0011416879 4281565769
0.032031756 0.0034757331 0.012541072 4281500233
-0.0058607459 0.0072302148 0.010556577 4282609738
-0.0043076687 0.0094658211 0.0080387238 4282283595
-0.0027705617 0.011700559 0.0055240262 4282218824
-0.0016944557 0.016041908 0.00088435225 4281891913
-0.0014055446 0.023893155 -0.0072933491 4281826889
-0.0013292432 0.032442845 -0.016167793 4281240134
-0.00022255629 0.036074404 -0.020074908 4281240133
0.0016527139 0.036195129 -0.020440245 4281372478
0.0041750483 0.033509314 -0.017978452 4281178423
0.0067189187 0.030824941 -0.015520742 4281044294
0.0091171861 0.028843358 -0.013772871 4281044039
0.011701405 0.026161775 -0.011322871 4281305924
0.014134638 0.024182692 -0.0095817 4281305668
0.016408853 0.022905491 -0.0085477158 4281435464
0.018693812 0.021629129 -0.0075157899 4281435719
0.020809004 0.021053951 -0.0071889628 4281500743
0.02347921 0.018378455 -0.0047553703 4281435208
0.026542697 0.014304176 -0.00092165172 4281827399
0.032655682 -0.00096678734 0.01413071 4281827399
-0.0027505532 0.0093906298 0.0050432514 4282348874
-0.0013745315 0.012335841 0.0018283259 4282153799
-0.00062324852 0.018097959 -0.0042113066 4281892934
-0.00037539378 0.025970604 -0.012362741 4281762884
0.00075081736 0.029614292 -0.016265396 4281566789
0.0024858564 0.030440237 -0.017340042 4281632324
0.0048619062 0.028450534 -0.015593003 4281369928
0.0072541237 0.026461925 -0.013848996 4281304649
0.0094955489 0.025177952 -0.012812169 4281500998
0.011747748 0.023894817 -0.011777403 4281566534
0.014183037 0.021909267 -0.01004157 4281370949
0.01645945 0.020627901 -0.0090113655 4281304904
0.018924322 0.018644463 -0.0072811376 4281369929
0.021044573 0.018067483 -0.0069569908 4281369929
0.023902379 0.014681067 -0.0038298927 4281696074
0.027344201 0.0091895834 0.0013934448 4281892168
0.033655073 -0.0068308488 0.017107511 4281892168
-0.0027308427 0.0070765987 0.0045594368 4282740553
-0.0013515688 0.01003072 0.0013504904 4282218568
-0.00044567883 0.015103761 -0.0039710701 4282218824
0.00011602789 0.021587662 -0.010695467 4281957958
0.0012537055 0.025242973 -0.014592084 4281632324
0.0029995255 0.026071772 -0.015667193 4281632324
0.0052242689 0.024782196 -0.014630628 4281501508
0.0074598081 0.023493394 -0.013596034 4281436228
0.0097061284 0.022205412 -0.012563517 4281435463
0.011963226 0.02091822 -0.011533031 4281500998
0.014575373 0.018221103 -0.0091016442 4281370693
0.017034203 0.016230647 -0.0073752776 4281043784
0.019686656 0.013536323 -0.0049515869 4281239114
0.022000216 0.012253184 -0.0039317794 4281565258
0.024690259 0.0095615014 -0.0015152507 4281761353
0.028143987 0.0040533766 0.003692532 4282022984
0.034464151 -0.012016565 0.019366721 4282807364
-0.0014767274 0.0084305927 0.00016509369 4282740553
-0.00072026253 0.014227841 -0.0058490988 4282218313
-6.634742e-06 0.020022497 -0.011854894 4281892679
0.0012876466 0.022980154 -0.015040453 4281697603
0.0030362047 0.023811299 -0.016114438 4281762374
0.0052631572 0.022517502 -0.015081625 4281566789
0.0075009167 0.021224469 -0.01405078 4281435973
0.0099160485 0.019224383 -0.012321161 4281631559
0.012178052 0.017933112 -0.011294894 4281369929
0.014794756 0.015227564 -0.0088710226 4281369929
0.017432947 0.012523502 -0.0064512547 4281500233
0.020447291 0.008406572 -0.0026380513 4281762118
0.022773791 0.0071199015 -0.0016240776 4283395139
-0.00039314479 0.010512155 -0.0049141869 4282806599
0.00017676875 0.017035745 -0.011610426 4281827144
0.0011655875 0.021424003 -0.016193181 4281632324
0.0030725636 0.021546714 -0.016564738 4281827909
0.0053017512 0.020248663 -0.015535622 4281500743
0.0078691952 0.017530955 -0.013109062 4281435463
0.01029174 0.015524775 -0.011385802 4281500743
0.012730431 0.013519727 -0.0096656121 4281631303
0.015357047 0.010806095 -0.0072502904 4281762119
0.018005144 0.0080940053 -0.0048391186 4282284358
0.020851906 0.0046739504 -0.0017348193 4282808893
0.00020669401 0.014753588 -0.012072433 4283134274
0.0013546236 0.018442184 -0.015946258 4281761864
0.0031086281 0.019278042 -0.017018065 4281696329
0.0056617931 0.016550548 -0.014595383 4281630794
0.0082364902 0.013824552 -0.012176808 4281891659
0.010666437 0.011812292 -0.010459971 4282153289
0.013281465 0.0090891048 -0.0080490932 4282741064
0.0016983524 0.014736794 -0.015007569 4282152778
0.0034604594 0.015575305 -0.016079262 4282022729
0.0061815754 0.012124769 -0.012967577 4281827654
0.0087661743 0.0093906894 -0.010557562 4282937158
-0.009100534 -0.012968495 0.011350369 4283459908
-0.0094953552 -0.013168983 0.0087354463 4282741063
-0.0073515661 -0.013761483 0.009042142 4282478669
-0.0054801553 -0.012912355 0.0079518016 4283460163
-0.0096226558 -0.014806606 0.0075220931 4282544459
-0.0076152384 -0.014678374 0.0071302485 4282217804
-0.0057464652 -0.013827302 0.0060421061 4282609739
0.040138274 -0.040867478 0.026765803 4283461694
-0.011104297 -0.020199195 0.010182431 4283393864
-0.0096166544 -0.01716923 0.0070047732 4282348108
-0.007742621 -0.016315743 0.005917104 4282283338
-0.0060123876 -0.014737584 0.0041358564 4282218568
-0.0042927526 -0.013159998 0.0023567509 4282282828
0.024216883 -0.0054523125 -0.0089703128 4283788348
0.028034817 -0.012543984 -0.0024958588 4282416449
0.034148529 -0.02829387 0.012192486 4282481474
0.040001154 -0.042592652 0.025488311 4281762883
-0.011232208 -0.021847121 0.0089613926 4283459399
-0.0097440146 -0.018808432 0.005790228 4282348108
-0.0080056824 -0.017225504 0.0040105525 4282283593
-0.006416332 -0.014916085 0.0015399475 4282153033
-0.0047018714 -0.013334453 -0.00023490004 4282152779
-0.0028542392 -0.012480192 -0.0013154708 4282348874
0.021577202 -0.0050179884 -0.011835057 4282937923
0.02408924 -0.0070634633 -0.010163469 4281893443
0.027721312 -0.01345282 -0.0043894108 4281436484
0.033828367 -0.029250942 0.010263825 4281436484
0.03948535 -0.042869866 0.022844659 4281239878
-0.0098713227 -0.020447344 0.0045758914 4282937924
-0.0081327893 -0.018860064 0.0027994756 4281956938
-0.0066813305 -0.015814789 -0.00035780855 4281891404
-0.0049693324 -0.014229029 -0.0021288376 4282022729
-0.003267955 -0.012643792 -0.0038977508 4282024769
-0.0015771911 -0.011059172 -0.0056644753 4282352443
0.015035212 -0.0048225895 -0.013930228 4282937413
0.017168172 -0.0054229721 -0.013626883 4282218313
0.019306514 -0.0060228482 -0.013324542 4282153544
0.021628693 -0.0073489621 -0.01233949 4281957450
0.024142753 -0.0094008371 -0.010673253 4281891913
0.027775802 -0.015809707 -0.0049142595 4281630794
0.033695079 -0.030929558 0.0090207737 4281630794
0.039159432 -0.043863952 0.020889269 4281695819
-0.009998586 -0.022085935 0.0033617895 4283854138
-0.0083952397 -0.019762672 0.00089821033 4282022473
-0.0069459267 -0.016708858 -0.0022520572 4282022729
-0.0052364022 -0.015118934 -0.00401932 4281957703
-0.0036809444 -0.012798384 -0.0064732935 4281698368
-0.00199534 -0.011209764 -0.0082357172 4282286654
-0.00076673925 -0.007429257 -0.012059437 4283394374
0.012614418 -0.0050873756 -0.016100124 4283590979
0.014909215 -0.0064199641 -0.015113316 4282022729
0.017214786 -0.0077517703 -0.014128467 4281957450
0.01953109 -0.009082742 -0.013145683 4281957450
0.021858152 -0.010412924 -0.01216484 4281891913
0.024195939 -0.011742271 -0.011186054 4281957194
0.027829967 -0.018170625 -0.0054421015 4281695563
0.033561815 -0.032607846 0.0077779684 4281695819
0.038644888 -0.044125214 0.018257434 4281630028
-0.0085220858 -0.021394454 -0.00031081773 4283723834
-0.0070722289 -0.018331908 -0.0034545902 4282022984
-0.0052219294 -0.01747112 -0.0045308489 4281696584
-0.0038066804 -0.014410563 -0.007667698 4281500999
-0.0021208748 -0.012817606 -0.009426875 4282022728
-0.00074294582 -0.0097592175 -0.012556272 4282349384
0.00046233833 -0.0059692636 -0.016367059 4283133253
0.0058299452 -0.0033965632 -0.01955859 4283525953
0.0079326071 -0.0040036738 -0.019253049 4282219843
0.010534797 -0.0068061799 -0.01689931 4281957705
0.012823708 -0.0081436113 -0.015914751 4281500234
0.014953326 -0.0087486804 -0.015614156 4281369419
0.017261073 -0.010084666 -0.014633097 4281630539
0.019579582 -0.011419863 -0.013653981 4281826633
0.021908827 -0.012754224 -0.012676915 4281760843
0.024248805 -0.014087759 -0.011701848 4281957194
0.027700342 -0.019804917 -0.0066523589 4281957703
0.033056278 -0.032824717 0.0051776562 4281957959
0.038131058 -0.044377416 0.0156323 4282022473
-0.0087839365 -0.02228988 -0.0022067707 4284704564
-0.0071984865 -0.019954644 -0.0046568941 4282546754
-0.0053481571 -0.019091703 -0.005731523 4281631813
-0.0037892759 -0.016757943 -0.0081762914 4281695308
-0.0022463724 -0.014425136 -0.010617808 4281826123
-0.0011648126 -0.009887673 -0.015109863 4281957449
0.00018694997 -0.0068221688 -0.018227477 4282480964
0.0018249825 -0.0052275881 -0.019973777 4282480454
0.0036088601 -0.0043682009 -0.021034915 4282349639
0.0058649555 -0.0057124421 -0.020047538 4282219333
0.0081318431 -0.0070559382 -0.019062135 4282220100
0.010738559 -0.0098667964 -0.016715933 4281762119
0.013032351 -0.011208311 -0.015735587 4281500489
0.01499711 -0.011081405 -0.016118044 4281303883
0.017307051 -0.012421601 -0.015140714 4281761353
0.019452494 -0.013027593 -0.014844673 4281761353
0.021603316 -0.013633065 -0.014549626 4282022218
0.023940116 -0.014971159 -0.013577247 4282022984
0.027570739 -0.021438874 -0.007862376 4282350404
0.032551456 -0.033032544 0.0025840532 4282742339
0.037806589 -0.04535304 0.013690589 4282807108
-0.018760122 -0.037988178 0.011324937 4282804304
-0.0073246993 -0.021577083 -0.0058589783 4283723323
-0.0056146011 -0.019974135 -0.0076164845 4282351423
-0.0040580258 -0.017634012 -0.010055853 4281826378
-0.002371829 -0.016032346 -0.011808513 4281760334
-0.00099281594 -0.012956537 -0.01492493 4281826633
0.00021388754 -0.0091448054 -0.018719511 4282088008
0.0017011464 -0.0068086609 -0.021145012 4281957703
0.003641367 -0.0066839308 -0.021523137 4281892934
0.0058996603 -0.0080324039 -0.020539502 4281762119
0.0081687421 -0.0093800724 -0.019557817 4281826633
0.010612942 -0.011463232 -0.017898405 4281826890
0.012906246 -0.012809113 -0.016921261 4281761863
0.01504058 -0.013418205 -0.01662495 4281892679
0.017180309 -0.014026813 -0.016329581 4281893189
0.019325431 -0.014634997 -0.01603513 4281827908
0.02147593 -0.015242681 -0.01574168 4282810424
0.023812249 -0.016585134 -0.014772495 4284314669
-0.020470537 -0.042752042 0.013239356 4282934863
-0.019244775 -0.037431695 0.0080277529 4282413389
-0.017449714 -0.035819821 0.0062563177 4282349639
-0.004040882 -0.019985124 -0.010567216 4282547009
-0.00264268 -0.016899534 -0.013680877 4282088263
-0.0012658127 -0.013815172 -0.016790284 4281826633
-6.108731e-05 -0.0099927261 -0.020576248 4281957959
0.0017308109 -0.0091286227 -0.021635754 4281957703
0.0036735684 -0.0090037435 -0.022014383 4281892424
0.0059340671 -0.010356456 -0.021034431 4281761863
0.0082053244 -0.011708312 -0.020056538 4281826633
0.010651559 -0.013797879 -0.018402414 4281761098
0.012780171 -0.014409646 -0.018106731 4281761098
0.014914185 -0.015020914 -0.017811993 4281761354
0.017053593 -0.015631713 -0.017518215 4282089029
0.019373309 -0.016979896 -0.016549261 4282743614
0.021526169 -0.017589577 -0.016257906 4283724088
-0.020947151 -0.042196922 0.009939244 4283131724
-0.019609891 -0.037605427 0.0054259952 4282022473
-0.017698839 -0.036732934 0.0043437462 4281827654
-0.015669152 -0.03660392 0.0039470624 4282285634
-0.0041666254 -0.021598257 -0.011762345 4283854904
-0.0026226155 -0.019245878 -0.014189259 4282481728
-0.0010945946 -0.016894333 -0.01661299 4281891913
0.00011619925 -0.013060652 -0.020391887 4281892168
0.0020667836 -0.012935393 -0.020772135 4281957959
0.0040174276 -0.012810014 -0.021152308 4281761863
0.0061268061 -0.013425544 -0.020854799 4281827399
0.0082416013 -0.014040597 -0.020558259 4281696074
0.010525834 -0.015395887 -0.019586055 4281826634
0.012654129 -0.016009837 -0.019291958 4281891658
0.014957201 -0.017363645 -0.018323289 4281957705
0.017098974 -0.017976515 -0.018031588 4283396668
0.019246131 -0.018588871 -0.017740877 4284377399
-0.021307036 -0.042374305 0.0073333737 4282411604
-0.019855976 -0.038515858 0.0035147239 4281891913
-0.017947562 -0.037641414 0.0024346802 4281370439
-0.016044371 -0.036767192 0.00135573 4281762373
-0.014399067 -0.034402631 -0.0010866858 4282415938
-0.012898713 -0.031293854 -0.004207639 4284442423
-0.0010717995 -0.01923801 -0.017120078 4282611779
0.00029282272 -0.016136952 -0.020213811 4281957450
0.0020954944 -0.015267842 -0.021272134 4281695819
0.0040486753 -0.015142314 -0.021652816 4281826889
0.0060019232 -0.01501666 -0.022033414 4281957703
0.008116398 -0.015633918 -0.02173846 4281958213
0.010400143 -0.01699359 -0.020769468 4282876214
0.012694634 -0.018352419 -0.019802531 4284314413
-0.02189713 -0.041046433 0.0033687521 4282214233
-0.020337939 -0.037925743 0.00024251826 4281956174
-0.018195905 -0.038545229 0.000529062 4281500744
-0.016418852 -0.03692136 -0.0012289416 4281760843
-0.014652379 -0.035298087 -0.0029847547 4282022729
-0.013025321 -0.032928057 -0.0054185763 4283724599
-0.01128266 -0.031306081 -0.007169554 4284639284
-0.0011969097 -0.020839639 -0.01830662 4283789114
0.00016825646 -0.017729901 -0.021393882 4282350148
0.0016650297 -0.015367165 -0.023801416 4281695818
0.0037683398 -0.015987545 -0.023506118 4281891913
0.0057187602 -0.015862092 -0.023886183 4282154564
0.0079912283 -0.017226934 -0.022918442 4283070268
0.010438155 -0.019336015 -0.021279316 4284050488
-0.020700887 -0.03807231 -0.0023392029 4282347088
-0.01844386 -0.039444335 -0.0013730787 4281825869
-0.016792633 -0.037066527 -0.0038068779 4281826124
-0.014905311 -0.036188893 -0.0048793592 4281890893
-0.013151892 -0.034561954 -0.0066292733 4282021963
-0.011277679 -0.033684917 -0.0076990128 4282546244
0.0013880655 -0.016205303 -0.025650231 4283398708
0.0034883879 -0.016828112 -0.025355974 4283723834
-0.01857096 -0.041090943 -0.0025933124 4282021199
-0.016919374 -0.038706608 -0.0050222427 4281760589
-0.015157856 -0.037075005 -0.0067705102 4281891404
-0.013149898 -0.036947228 -0.0071628317 4281825613
-0.011272997 -0.036067806 -0.0082314871 4281826889
-0.0094013177 -0.035188638 -0.0092989951 4283725108
-0.0078079812 -0.032807477 -0.01171606 4284573748
-0.019058943 -0.040474214 -0.0058439039 4282214743
-0.01729203 -0.038838066 -0.0075900294 4281890893
-0.015410043 -0.037956424 -0.0086582452 4281825359
-0.013404906 -0.037828825 -0.0090500191 4281825613
-0.011530649 -0.036947466 -0.010116488 4281695818
-0.0096616372 -0.036066331 -0.011181839 4282481219
-0.0080706179 -0.033678748 -0.01359354 4283723324
-0.0064955577 -0.031292118 -0.016001999 4284704819
-0.015661813 -0.038833193 -0.010542478 4281823573
-0.013659511 -0.038705803 -0.01093372 4281696073
-0.011918783 -0.037066646 -0.012671169 4281827143
-0.0099215731 -0.03693933 -0.013061218 4281890639
-0.0083328746 -0.034545399 -0.015467532 4281891149
-0.0066212341 -0.032907717 -0.017199017 4283854649
-0.01416976 -0.03806176 -0.014158055 4282022983
-0.012044825 -0.03869278 -0.013876103 4282153034
-0.010314502 -0.037049778 -0.015608184 4281890129
-0.0084587149 -0.036165021 -0.016667575 4282020943
-0.0067468956 -0.034523003 -0.018395811 4282483769
-0.0049043112 -0.033638828 -0.019452497 4284247093
-0.014678955 -0.037404291 -0.017372519 4282345814
-0.01243186 -0.038798206 -0.016420688 4282412624
-0.010573503 -0.037911274 -0.01747904 4282151504
-0.0087203868 -0.037024535 -0.018536273 4282151759
-0.0068725199 -0.036138006 -0.019592389 4281959234
-0.0048886761 -0.036011212 -0.019979566 4281960764
-0.0030486546 -0.035124891 -0.021034013 4284444464
-0.012818176 -0.038894661 -0.018958542 4282346323
-0.010965161 -0.038005896 -0.020014219 4282281808
-0.0089816824 -0.03787937 -0.020401519 4282087754
-0.0069980994 -0.03775271 -0.020788744 4281698114
-0.0047323145 -0.039149277 -0.019843489 4281634873
-0.00288691 -0.038260497 -0.020897284 4282942768
-0.0091070682 -0.039493717 -0.021597654 4282150228
-0.0069854446 -0.040131114 -0.021319754 4281958468
-0.0048583485 -0.040768005 -0.021042801 4282025789
-0.0028693788 -0.040640779 -0.021430906 4282416704
-0.0013190284 -0.038222812 -0.023809608 4282742849
-0.0092324242 -0.041107781 -0.02279358 4282541908
-0.0071111284 -0.041747369 -0.022517271 4282088519
-0.0051250793 -0.041620441 -0.022904892 4282610758
-0.0029955395 -0.042259254 -0.022629991 4283065934
-0.011687391 0.0038810968 0.054210216 4285688099
-0.0092236847 0.0019878373 0.056009181 4285754144
-0.016576231 0.0053081959 0.050089329 4285492258
-0.015007973 0.0081518739 0.046750382 4285754653
-0.013082217 0.0089609176 0.045616418 4285689118
-0.010517027 0.0063817278 0.048148789 4285689119
-0.0072721317 0.00041679293 0.054339722 4285820444
-0.020947136 0.0040388554 0.048910707 4285032494
-0.019241847 0.0062117726 0.046308108 4285558559
-0.017673194 0.0090640783 0.042975627 4285624348
-0.015755601 0.009874668 0.041844822 4285952279
-0.013591044 0.0093250871 0.042178988 4285689118
-0.010905907 0.006056726 0.04543788 4285623328
-0.0080623403 0.0021105558 0.049422465 4285754654
-0.005186405 -0.0018334985 0.053400859 4285952024
-0.0033725984 -0.00034108758 0.051533997 4285557793
-0.028218709 0.0081112385 0.042263195 4285492259
-0.026403844 0.0096072629 0.040398821 4285885723
-0.024036981 0.0076875612 0.042201377 4285951769
-0.021653831 0.0057690069 0.044000745 4285754909
-0.019725837 0.0065822452 0.042869411 4285624348
-0.018164627 0.009442769 0.039544992 4285624348
-0.016131788 0.0095726624 0.039148211 4285690138
-0.013846956 0.0083382875 0.040212162 4285886998
-0.010908291 0.0036947876 0.044923045 4285952533
-0.0087195151 0.0031446815 0.045250915 4285821208
-0.0079987049 0.010093134 0.037561372 4285689629
-0.008424487 0.022490066 0.024056384 4285165348
-0.03027752 0.0056321025 0.042160533 4285427489
-0.028882451 0.0098750927 0.037368305 4285623838
-0.026971087 0.010689169 0.036241665 4285688863
-0.024615549 0.008762151 0.038041413 4285820699
-0.022128731 0.0061511993 0.040568829 4285755164
-0.020091012 0.006281212 0.040170945 4285689883
-0.01829385 0.0077807307 0.038313553 4285624093
-0.016261123 0.007910572 0.037916765 4285624349
-0.013599522 0.0046187341 0.041163549 4285624093
-0.010654088 -3.9689243e-05 0.045861527 4285624093
-0.0096374489 0.0055646151 0.03963723 4285558814
-0.011071634 0.023475356 0.020332834 4285493533
-0.032544382 0.004524827 0.040592305 4285493024
-0.030822881 0.0067179129 0.038001001 4285624603
-0.029224016 0.0095978044 0.034682125 4285689628
-0.027317949 0.01041368 0.033558138 4285689629
-0.024968393 0.0084797293 0.035354003 4285820954
-0.022372864 0.005172357 0.038605168 4285952789
-0.020102888 0.003928028 0.039665088 4285689883
-0.018302806 0.0054320171 0.037810445 4285624349
-0.016144603 0.0048752725 0.038140729 4285559068
-0.013353042 0.00088621676 0.042105407 4285559068
-0.010529116 -0.0031006709 0.04606384 4285559069
-0.010422349 0.0073248819 0.034769222 4285559324
-0.011999227 0.025977802 0.014784129 4285494555
-0.032774195 0.0035517886 0.038629487 4285426979
-0.031158917 0.00644131 0.035313919 4285493023
-0.029564828 0.0093295276 0.032002605 4285821209
-0.027664043 0.010147247 0.030881235 4285887254
-0.025432453 0.0088958591 0.031945229 4285886998
-0.022845916 0.0055770129 0.035189778 4285689883
-0.020701781 0.00501699 0.035520993 4285624094
-0.01879216 0.0058355406 0.034398176 4285624094
-0.016519561 0.0045871437 0.03545437 4285624348
-0.013609082 -0.00010421872 0.040135838 4285624348
-0.010660909 -0.004793033 0.044809975 4285624348
-0.010028645 0.0029117614 0.036437385 4285559068
-0.011323396 0.020248041 0.017941846 4285099813
-0.032498099 -0.00087901205 0.040312879 4285294633
-0.03118284 0.0040967762 0.034817643 4285493279
-0.029691949 0.0076860338 0.030784739 4285493279
-0.02779112 0.0085058808 0.02966498 4285558813
-0.025448143 0.0065582916 0.031452157 4285558814
-0.02308888 0.0046118125 0.033236206 4285558303
-0.021182068 0.0054322928 0.032115467 4285689629
-0.019280404 0.0062524751 0.030995829 4286083858
-0.017138846 0.0056902319 0.031325981 4285952533
-0.014365613 0.0016737282 0.035274349 4285886743
-0.011304248 -0.0037221014 0.040663026 4285689373
-0.0097668283 -0.00082807243 0.037369937 4285624349
-0.01038304 0.013111446 0.022524731 4285690394
-0.03181953 -0.008105725 0.044891164 4285097518
-0.030792594 -0.0010298193 0.037223861 4285426978
-0.029606447 0.0046541542 0.031018784 4285427489
-0.027918123 0.0068647712 0.028448893 4285559324
-0.025687404 0.0056045204 0.029506357 4285624603
-0.023560084 0.0050388947 0.029837413 4285624094
-0.021661237 0.0058609545 0.028719893 4285820954
-0.019887254 0.0073762685 0.026880151 4286083604
-0.017756701 0.0068110675 0.027210807 4285951769
-0.014870286 0.002087608 0.031873681 4286017559
-0.011818424 -0.0033263415 0.037250981 4285820954
-0.0097668171 -0.0031951964 0.036850579 4285689884
-0.0097115301 0.0073251873 0.025640571 4285493278
-0.030093648 -0.0082680807 0.041788332 4285228843
-0.029203169 -0.00047575682 0.033419304 4285426979
-0.027827427 0.0038312078 0.028680472 4285493534
-0.026037723 0.0053515881 0.026840745 4285559068
-0.024030209 0.0054793656 0.026448535 4285624093
-0.022139326 0.0063030645 0.025334196 4285820954
-0.020253636 0.0071265176 0.024220938 4285754653
-0.018128723 0.0065587759 0.024550973 4285557794
-0.015498742 0.0032101944 0.027762348 4285754654
-0.012459077 -0.0022220165 0.033128746 4286149649
-0.010157838 -0.0034815222 0.03416951 4285689883
-0.0095737502 0.0042921528 0.025860993 4285427999
-0.029707126 -0.01344458 0.044157609 4285163309
-0.028589599 -0.0070247501 0.037249051 4285163053
-0.027628712 9.0673566e-05 0.029627794 4285426723
-0.026164666 0.0037109479 0.025625004 4285361443
-0.024613217 0.0066313893 0.02234857 4285624603
-0.02273301 0.0074565858 0.0212379 4285952534
-0.02085799 0.0082814991 0.020128356 4285886489
-0.018622026 0.0070131272 0.021178367 4285885978
-0.015876338 0.002955541 0.025102152 4286345999
-0.012843512 -0.002494581 0.030456601 4286215184
-0.010418002 -0.0044559911 0.032213084 4285624349
-0.0094365738 0.0012506098 0.026075101 4285427744
-0.02942533 -0.017941579 0.045789234 4285163053
-0.027978338 -0.013604105 0.041056216 4285163054
-0.027105547 -0.0057649687 0.032727078 4285228843
-0.026069254 0.00066942722 0.025849385 4285360679
-0.024739519 0.004999727 0.021139493 4285427488
-0.023092255 0.0072274655 0.018592624 4285623839
-0.021341711 0.0087542534 0.016767314 4285820954
-0.019114263 0.0074809268 0.01781564 4285886234
-0.016502284 0.0041093305 0.021013914 4285689119
-0.013354439 -0.0020585507 0.027074287 4285558049
-0.010807693 -0.0047264919 0.029543793 4285558558
-0.0091674477 -0.0024986565 0.026998704 4285492768
-0.027686186 -0.018104613 0.042682722 4285228589
-0.026367791 -0.013052374 0.037244737 4285163308
-0.025197655 -0.0072997212 0.031095831 4285294379
-0.024297498 -0.00014452636 0.023519674 4285294889
-0.023101769 0.0049001873 0.01810587 4285493024
-0.021586329 0.0078359172 0.01484975 4285559069
-0.019362018 0.0065580085 0.015895361 4285558559
-0.016504936 0.0017714947 0.020517467 4285492259
-0.013229012 -0.0051176697 0.0272779 4285556773
-0.010418225 -0.009197183 0.031169238 4285884704
-0.0087668672 -0.0069621354 0.028626924 4286343193
-0.025957003 -0.018259309 0.039584979 4285163308
-0.024550639 -0.013898134 0.034879796 4285163053
-0.023516662 -0.0074246526 0.028032368 4285228589
-0.022530742 -0.00095413625 0.021194404 4285360424
-0.021117516 0.0026957318 0.017226493 4285492768
-0.019123286 0.0028227791 0.016836962 4286019088
-0.016507886 -0.0005704686 0.02001795 4286541838
-0.013231084 -0.0074814409 0.026761679 4286277913
-0.010289207 -0.01227764 0.031355761 4286539289
-0.025871702 -0.021365941 0.039762266 4285097773
-0.024127193 -0.019112706 0.037211068 4285163819
-0.02285178 -0.014032647 0.031804778 4285229098
-0.021961674 -0.006834507 0.024263708 4285492004
-0.020531639 -0.0031727105 0.020300752 4285557029
-0.018764153 -0.0016317815 0.018482057 4286213143
-0.016014956 -0.0057415739 0.022365319 4286277913
-0.01298001 -0.011261433 0.027666265 4286473753
-0.024257652 -0.020802349 0.035958953 4285032493
-0.022868045 -0.016416132 0.031276956 4285294634
-0.021742061 -0.010613903 0.025176411 4285425703
-0.020303234 -0.0069406927 0.021219989 4285622308
-0.0185275 -0.005394958 0.019403005 4286343959
-0.015895255 -0.0088089705 0.022564119 4286408473
-0.013109516 -0.012929447 0.026430352 4286539288
-0.022884592 -0.018803731 0.030746086 4285163053
-0.021870323 -0.012272716 0.023947185 4285425704
-0.020312451 -0.0092995614 0.020709155 4285556773
-0.018533826 -0.0077493489 0.018894872 4286540054
-0.021767579 -0.015357934 0.024136571 4285491238
-0.020321943 -0.011662588 0.020195318 4285491238
-0.021896057 -0.017020546 0.022904506 4285294634
-0.020331718 -0.014029652 0.01967839 4285359914
-0.010258362 -0.022990167 0.001458561 4285031983
-0.0089105219 -0.023918845 -0.0034137275 4284966449
0.032047335 -0.033231266 -2.8871e-06 4284901169
-0.010771226 -0.027156077 -0.002861362 4285163818
-0.0089023337 -0.026287876 -0.0039365217 4285229354
-0.007313475 -0.023939423 -0.0063774306 4285229098
-0.005740568 -0.021591924 -0.008815093 4285034023
0.023864668 -0.018936254 -0.015292465 4285033514
0.027311601 -0.02470585 -0.010281701 4285098283
0.032286469 -0.036369421 0.00011302903 4284966959
-0.01251366 -0.031145178 -0.0016297083 4284901168
-0.011029772 -0.028046019 -0.0047539566 4285032748
-0.0090289935 -0.027918391 -0.0051446334 4285229098
-0.0074397698 -0.025563404 -0.007580664 4285360168
-0.0057266019 -0.023951612 -0.0093321968 4285163564
0.02157608 -0.019940563 -0.016777162 4284902188
0.024096865 -0.022031106 -0.015141948 4285426724
0.027913179 -0.029296748 -0.0087992959 4285294633
0.032339469 -0.038776651 -0.00044970959 4285294633
-0.011156239 -0.029676206 -0.0059618633 4284901678
-0.0091556087 -0.0295486 -0.0063525345 4285164073
-0.0072919056 -0.028676301 -0.0074233115 4285296164
-0.0057129301 -0.026315354 -0.00985232 4285229608
-0.0040074959 -0.024699599 -0.01159895 4285229354
-0.0026028641 -0.021596231 -0.014700676 4284903208
0.017144028 -0.020325311 -0.018547993 4285229864
0.019118976 -0.020197533 -0.018932264 4285295909
0.021802925 -0.02303762 -0.016627014 4285295398
0.024328392 -0.02513434 -0.014997712 4285426724
0.028148178 -0.032421455 -0.0086722337 4285294634
0.032206856 -0.040446475 -0.0016862452 4285229098
-0.0094163939 -0.030431591 -0.0082392879 4285230119
-0.0074184611 -0.030304037 -0.0086293425 4285229863
-0.0055599846 -0.029429786 -0.0096973628 4285163563
-0.0039912574 -0.0270629 -0.012119353 4285163563
-0.0024384931 -0.024696879 -0.014538112 4285032494
0.012901194 -0.021443956 -0.019643251 4284901424
0.015380349 -0.023550682 -0.018010266 4285164074
0.017532185 -0.024167188 -0.017723855 4285164073
0.019515019 -0.024038918 -0.018109672 4285295399
0.022029094 -0.026143044 -0.016483147 4285360678
0.02437951 -0.027502023 -0.015529878 4285426468
0.028200092 -0.034810796 -0.0092210397 4285426468
0.031889159 -0.041372322 -0.0035917014 4285294889
-0.007544972 -0.031931467 -0.0098351464 4285032749
-0.0056864731 -0.031055056 -0.010901533 4285228843
-0.0041173808 -0.028681628 -0.013318643 4285228844
-0.0025642663 -0.02630911 -0.015732553 4285098029
-0.0014693998 -0.02169273 -0.020167809 4285098794
-0.00010638684 -0.018574446 -0.023248056 4285099558
0.0054359734 -0.016702846 -0.025735488 4284967469
0.007866092 -0.018819615 -0.024098175 4285032493
0.010312349 -0.020935275 -0.02246389 4285163308
0.012940902 -0.023796819 -0.020161439 4285229098
0.015590936 -0.026656844 -0.017863072 4285229099
0.017919347 -0.028021909 -0.016909149 4285229354
0.020258512 -0.029386207 -0.015957177 4285295144
0.022608399 -0.030749641 -0.015007239 4285295143
0.025148612 -0.032858469 -0.013390653 4285426469
0.028251674 -0.037204139 -0.009772893 4285425703
0.031941704 -0.043785132 -0.0041585825 4285163054
-0.0059521571 -0.031929038 -0.012780327 4285097774
-0.004527282 -0.028798483 -0.015866332 4285228844
-0.0026899874 -0.027921014 -0.016926758 4285163819
-0.0015942603 -0.02329158 -0.021352295 4285229864
-0.00023071095 -0.020164572 -0.024426052 4285361189
0.0057854466 -0.02053792 -0.024896743 4285163564
0.0080622956 -0.021911196 -0.02393641 4285229098
0.010513239 -0.024033017 -0.022308014 4285229099
0.013312314 -0.027652182 -0.019343469 4285228844
0.01580086 -0.029771365 -0.017722163 4285228843
0.018305499 -0.031889401 -0.016103908 4285228844
0.020826237 -0.034006216 -0.014488716 4285163308
0.023186358 -0.035373367 -0.013544023 4285294889
0.025916012 -0.038236417 -0.011267364 4285294889
0.029031275 -0.042594321 -0.0076618642 4285228844
-0.0049364567 -0.028906323 -0.018407285 4285229099
-0.0031045042 -0.02802705 -0.019465022 4285229354
-0.001571998 -0.02564273 -0.021864936 4285229608
9.4290823e-05 -0.024011768 -0.023590483 4285163819
0.0019023903 -0.023133628 -0.024643343 4285098029
0.0040154569 -0.023759954 -0.024354871 4285163564
0.0061339438 -0.024385788 -0.024067413 4285163563
0.0082578361 -0.025011145 -0.023780916 4285228843
0.010713477 -0.027139224 -0.022158343 4285229098
0.013185222 -0.029266097 -0.020538863 4285163564
0.016010124 -0.032894365 -0.017587446 4285098028
0.01869064 -0.035769604 -0.015308149 4285032493
0.021392623 -0.038643397 -0.013032906 4284966704
-0.0050617903 -0.03051541 -0.019599441 4285098028
-0.0030855834 -0.030388959 -0.019985024 4285294889
-0.0015500449 -0.027997933 -0.022380587 4285163818
0.00011911243 -0.026362471 -0.024103403 4285229098
0.0017776303 -0.024727546 -0.025824111 4285097773
0.0040453263 -0.026110359 -0.02486879 4285163563
0.0061661638 -0.026738189 -0.024583437 4285163308
0.0084527358 -0.028119557 -0.023631606 4285163564
0.010750059 -0.02950003 -0.022681814 4285163564
0.013555154 -0.033140518 -0.019734927 4285098028
0.016555414 -0.037532546 -0.016127322 4285097518
-0.0032110363 -0.031997748 -0.021176923 4285163308
-0.001528386 -0.030357219 -0.022899184 4285163563
0.00014362857 -0.028717212 -0.024619315 4285163308
0.0018050224 -0.027077794 -0.026337247 4285097773
0.0039201118 -0.027708314 -0.026052512 4285097773
0.0061980858 -0.029094644 -0.025102451 4285097773
0.008646965 -0.031236313 -0.023488566 4285098029
