# .PCD v0.7 - Point Cloud Data file format
VERSION 0.7
FIELDS x y z rgba
SIZE 4 4 4 4
TYPE F F F U
COUNT 1 1 1 1
WIDTH 603
HEIGHT 1
VIEWPOINT 0 0 0 1 0 0 0
POINTS 603
DATA ascii
0.018794049 -0.017301716 0.036533695 4288034864
0.02191576 -0.022955738 0.041719314 4286594878
0.01390551 -0.0031889603 0.020301323 4289343524
0.017313361 -0.011042178 0.027580824 4290520349
0.020780366 -0.018891566 0.034849148 4290846238
0.023281667 -0.020935588 0.036536742 4286267459
0.0058177188 0.0064098611 0.0090620201 4289867803
0.0078318119 0.0065345317 0.0086800605 4290063389
0.010197721 0.004475154 0.010387935 4290062623
0.012699775 0.0016890168 0.012788959 4289735204
0.015836366 -0.0047342703 0.01866392 4290454813
0.019271918 -0.012609579 0.025920004 4290193184
0.022126894 -0.016844139 0.029692017 4289668393
0.024883579 -0.020349346 0.032763932 4287052093
0.0012414753 0.0074468628 0.0058167912 4290523153
0.0033533573 0.0068398714 0.0061332677 4290063899
0.0054707974 0.0062333271 0.0064487699 4290259739
0.0072506592 0.0078184009 0.004676858 4290716953
0.0093711093 0.007212244 0.0049919467 4289211944
0.011736549 0.0051463917 0.0066950489 4288622893
0.014730316 -0.00056783855 0.01186499 4289081129
0.01789223 -0.0070089623 0.017720263 4290061603
0.020719256 -0.011258341 0.021487661 4289276459
0.02383953 -0.016964369 0.026633888 4289472044
0.026603419 -0.02047988 0.029696241 4288425524
-0.00098715723 0.0064279214 0.0042864513 4289215514
0.0011188984 0.0058182701 0.0046022702 4289473318
0.0032304972 0.0052090511 0.0049171206 4289866274
0.0051245838 0.0060657486 0.0038422663 4289669923
0.0068992898 0.0076548234 0.0020746272 4290585629
0.00901407 0.0070461258 0.0023891162 4290454814
0.011134371 0.0064378753 0.0027026366 4288034609
0.013871446 0.002169691 0.0064769126 4289539363
0.016515914 -0.0013644695 0.0095533114 4289800483
0.019187365 -0.0048968568 0.012624688 4289604134
0.022016075 -0.0091590434 0.016381904 4289341738
0.025276028 -0.01561334 0.022203978 4288883759
0.028448734 -0.02133321 0.027327131 4288294964
-0.0074886158 0.007376112 0.0014295001 4290198283
-0.0055001378 0.0074984878 0.0010518525 4290849044
-0.0036121234 0.0083565265 -2.0539388e-05 4290128414
-0.0013159961 0.0062727258 0.0016852003 4290716953
0.00089040399 0.0049252287 0.0026942156 4290193438
0.002890341 0.0050486997 0.0023146998 4289539363
0.004667744 0.0066421703 0.0005497057 4289735458
0.0065486133 0.0075003132 -0.00052092411 4290062368
0.008657746 0.0068890825 -0.00020703301 4288819243
0.010891788 0.0055438206 0.00079714879 4288688428
0.013502963 0.0019966215 0.0038714763 4289473574
0.015642039 0.0013875589 0.004179934 4289865763
0.017914057 4.5053661e-05 0.0051771421 4289865763
0.020457219 -0.0027642176 0.0075507741 4289473318
0.023686029 -0.009239994 0.013363816 4289538600
0.026963267 -0.015712641 0.019167781 4288883503
0.03028889 -0.022182129 0.024962686 4288817968
-0.011944823 0.0084685832 -0.0018018242 4290069508
-0.0096902922 0.0063752159 -9.3447044e-05 4290065174
-0.0077048391 0.0064972565 -0.00047063455 4289998108
-0.0060125589 0.0088332221 -0.002928799 4289473573
-0.0041352063 0.0096927509 -0.0039975215 4289211944
-0.0018504411 0.0076017007 -0.0022946335 4290520604
0.00055645406 0.0047742948 9.743683e-05 4290128159
0.0026594177 0.0041601136 0.00041061826 4289408548
0.0045455173 0.0050206408 -0.00065949745 4289539364
0.0063125417 0.0066178665 -0.0024190936 4289866019
0.0085352436 0.0052674785 -0.0014162213 4289604134
0.010768823 0.0039178506 -0.0004152786 4289277223
0.013135187 0.0018325895 0.0012727175 4289669669
0.015143998 0.0019572601 0.000892004 4289473318
0.017025653 0.0028181672 -0.00017669238 4289800738
0.019291975 0.0014709905 0.00081836991 4290651164
0.022099737 -0.0028184131 0.0045596864 4289996323
0.025210496 -0.0085769519 0.009668095 4289864999
0.028640296 -0.015803538 0.016140491 4290191399
0.031842481 -0.021556132 0.021231767 4289079344
-0.011975355 0.006120123 -0.0023075249 4289540129
-0.0099955946 0.0062416866 -0.0026837308 4289736224
-0.0081105754 0.0071036145 -0.0037524477 4289996833
-0.0067188516 0.011665873 -0.0082803098 4289081129
-0.0047572404 0.011786625 -0.0086528333 4288819499
-0.0024864972 0.0096881837 -0.006952255 4289538853
0.00022321194 0.0046323538 -0.0024925694 4290454814
0.0023204982 0.0040156469 -0.0021800548 4289211944
0.0042012781 0.0048779622 -0.0032474641 4289342758
0.0060768649 0.0057400763 -0.0043138023 4289408549
0.0081800073 0.0051240623 -0.004002152 4289539618
0.010526836 0.0030309334 -0.002315456 4289474083
0.012646377 0.0024161711 -0.0020067301 4289605154
0.014522552 0.0032787547 -0.0030728485 4289931808
0.016393512 0.0041411743 -0.0041379314 4289538853
0.01851882 0.0035270751 -0.0038299877 4289866018
0.020914596 0.0014375821 -0.0021521989 4288492078
0.023596901 -0.0021263584 0.00089249946 4289145643
0.026719701 -0.0079014078 0.0059854407 4288818224
0.030026056 -0.014411069 0.011754237 4289014064
0.033524014 -0.021654867 0.018197358 4288032568
-0.011737883 0.0015392527 -0.00074040517 4288034863
-0.010115951 0.0046318993 -0.0038844049 4289670690
-0.0085152686 0.0077233464 -0.0070242891 4289931298
-0.0072282031 0.013040438 -0.01223128 4289735203
-0.0051773041 0.012418367 -0.011911864 4288819498
-0.0029151961 0.010312818 -0.010214592 4290062369
-0.00010932237 0.0044994429 -0.0050759185 4289538853
0.0018741339 0.0046218559 -0.0054523516 4289342503
0.0038577542 0.0047443584 -0.0058287475 4289604389
0.0058415458 0.00486698 -0.006205095 4289277479
0.0079417303 0.0042485595 -0.0058944952 4289473829
0.010166325 0.0028896853 -0.0048985574 4289539364
0.012158602 0.0030131713 -0.005276246 4289605154
0.014026754 0.0038774163 -0.0063392054 4289997343
0.015762724 0.0054819211 -0.0080859531 4290454814
0.017747357 0.0056052878 -0.0084619354 4289146409
0.01999677 0.0042484775 -0.007470211 4288165169
0.02239202 0.00215251 -0.0057971682 4288557104
0.025354192 -0.0029014796 -0.0013959575 4289734184
0.028634761 -0.0094322935 0.0043627918 4289341484
0.032106761 -0.016699411 0.010794263 4288883504
0.035486776 -0.02322375 0.016534399 4288425268
0.038173106 -0.026049338 0.018861651 4286136388
-0.011680171 -0.0015688613 -0.0005667042 4286791483
-0.010144323 0.0022776201 -0.0043950677 4287641908
-0.0088242963 0.0076117888 -0.009596833 4289342503
-0.0073469728 0.011454836 -0.013413866 4289211944
-0.0052963719 0.010830551 -0.013096075 4288557613
-0.0030348971 0.0087184235 -0.011403673 4289866020
-0.00054647774 0.0051194951 -0.0083397608 4289538854
0.0013207719 0.0059851333 -0.0094014313 4289342503
0.0031828359 0.00685063 -0.010462059 4289996579
0.0051530898 0.0069724098 -0.010835839 4289866018
0.0074716806 0.0048643574 -0.0091538597 4290324254
0.0095690191 0.0042437315 -0.0088443439 4289735458
0.011429012 0.005109489 -0.0099042114 4289670179
0.013283789 0.0059750304 -0.010963002 4289539364
0.015260115 0.0060977563 -0.011337502 4290389278
0.017236561 0.0062205717 -0.011711953 4290454814
0.019477434 0.0048589334 -0.010721987 4289277223
0.021863997 0.0027559027 -0.0090522747 4289865763
0.024541788 -0.00082992762 -0.0060232077 4289734949
0.027526893 -0.0058975741 -0.0016378667 4289276713
0.031121191 -0.013929352 0.0054611154 4289015593
0.034920149 -0.022698738 0.013228595 4288622384
0.037745856 -0.026274882 0.01623008 4287836984
-0.011533968 -0.0054324418 0.00028936379 4286791229
-0.0099893808 -0.0015746728 -0.0035323519 4286987834
-0.0086603165 0.0037751868 -0.008724289 4289081129
-0.0070771202 0.0068829581 -0.011847549 4289211944
-0.0052157417 0.0077501014 -0.012906761 4289277223
-0.003052026 0.0063780472 -0.011906384 4289800484
-0.00077223778 0.0042606369 -0.010222362 4289996834
0.00098449737 0.0058742836 -0.01196705 4289931298
0.0027306899 0.0074873492 -0.01370961 4290781469
0.0046927631 0.0076085851 -0.014081871 4290062113
0.0071185753 0.0047479942 -0.011719635 4290716444
0.0092102513 0.0041248277 -0.011410715 4290454814
0.011064902 0.004992418 -0.012467915 4289539108
0.012790389 0.0066047981 -0.014206165 4289538853
0.01488515 0.005982168 -0.013897574 4289669925
0.016856097 0.0061046407 -0.014270989 4288950058
0.019223124 0.003993772 -0.012602637 4288492334
0.021606356 0.0018839985 -0.010937283 4289734949
0.024143137 -0.00096877664 -0.0085953604 4289146153
0.027261604 -0.0067959949 -0.0035413075 4288818733
0.030708518 -0.014108069 0.0028617755 4288426033
0.03464536 -0.023647629 0.011288866 4287772979
0.037467387 -0.027234815 0.014282715 4287183163
-0.011566542 -0.0078101903 -0.00023821555 4286595134
-0.0099269822 -0.0046906024 -0.0033657383 4287183929
-0.0084029585 -0.00082311779 -0.0071752649 4288230704
-0.0069055259 0.0030427799 -0.010979613 4287969328
-0.0051357299 0.0046611801 -0.012723697 4289146409
-0.0031717792 0.0047820732 -0.013096659 4289669413
-0.0011026487 0.004154779 -0.012785563 4289604133
0.00054123253 0.0065205693 -0.015209479 4289735204
0.0022795722 0.0081374571 -0.016947264 4289473574
0.0042334571 0.0082581639 -0.017317982 4287772723
0.0067661777 0.004640691 -0.014278727 4289080873
0.0088521689 0.0040149912 -0.013970392 4289473574
0.010701492 0.0048843846 -0.015024954 4289473318
0.012545578 0.0057535693 -0.016078429 4289669669
0.014510892 0.00587558 -0.016450873 4289800484
0.016605474 0.0052508488 -0.016143834 4289473318
0.019100994 0.0023865923 -0.013800913 4288819244
0.021752588 -0.0012226924 -0.010783555 4288491823
0.024156742 -0.0033375397 -0.0091270301 4288295984
0.02699668 -0.0076897293 -0.0054412736 4288164658
0.030439094 -0.01502379 0.0009460859 4287837239
0.034225713 -0.023846023 0.0086762197 4287182908
-0.011510618 -0.010943525 -8.3360821e-05 4286529343
-0.0096822754 -0.0093175173 -0.0018355697 4286987833
-0.0080526993 -0.006189771 -0.0049545001 4288230449
-0.0067348257 -0.00081017613 -0.010121146 4287576628
-0.0052552819 0.0030655488 -0.01391376 4288295984
-0.0034958199 0.0046877563 -0.015652562 4289473575
-0.0015371963 0.0048084185 -0.016024439 4289408038
0.00020653754 0.0064298511 -0.017760033 4290454814
0.0019396991 0.0080507323 -0.019493537 4289800483
0.0038880855 0.0081710815 -0.019863231 4289277223
0.0062989071 0.0052922368 -0.017511452 4289146408
0.0084948167 0.0039141253 -0.016523326 4290258463
0.010701582 0.0025368407 -0.015537219 4289538853
0.01242476 0.0041576847 -0.017268391 4289473318
0.014389932 0.0042796358 -0.017640831 4289800484
0.016613163 0.0029037297 -0.016657578 4289277224
0.01924222 -0.0007179305 -0.013644336 4287903539
0.022032551 -0.0050865039 -0.0099592535 4287707444
0.024444088 -0.0072073787 -0.0083091585 4287576374
0.027151227 -0.010823794 -0.0053104078 4288033845
0.030454811 -0.017431132 0.00038445741 4287902518
0.03395183 -0.02478338 0.0067450814 4287117374
-0.01163251 -0.012577906 -0.0013024583 4286660158
-0.0097126737 -0.011701114 -0.0023680665 4287183674
-0.0080799311 -0.0085644796 -0.0054810373 4287510839
-0.0066617206 -0.0039226934 -0.0099545373 4287118649
-0.0051761344 -3.5785139e-05 -0.013740042 4287380023
-0.0037171543 0.0038495883 -0.017520411 4288492078
-0.0019707084 0.0054753795 -0.019253319 4289277223
-0.00044956803 0.0086057037 -0.022344673 4289996833
0.001270391 0.010230072 -0.024072384 4289669668
0.0033179596 0.0095973834 -0.023760287 4289211944
0.0057172701 0.0067091212 -0.021412903 4289669668
0.00813815 0.0038223267 -0.019069573 4289669668
0.010459855 0.0016885921 -0.017407937 4289473318
0.012550876 0.0010590777 -0.017103715 4288557613
0.014521264 0.0011813417 -0.01747716 4288100144
0.01687821 -0.00094982982 -0.015821921 4287576884
0.019514322 -0.0045819208 -0.012818306 4287380533
0.022177387 -0.0082121789 -0.0098196855 4287380278
0.024456784 -0.0095886216 -0.0088500706 4287576374
0.027026087 -0.012465246 -0.0065341284 4287902773
0.030185807 -0.018341862 -0.0015275031 4287771959
0.033533413 -0.024965845 0.0041442402 4287902008
-0.0081074238 -0.010943271 -0.0060106209 4287315254
-0.0064927191 -0.007799007 -0.0091134934 4286987833
-0.0049984083 -0.003900744 -0.012892406 4286791484
-0.0035307184 -4.0307641e-06 -0.01666618 4287183929
-0.0020896345 0.0038911551 -0.020434817 4288295984
-0.00067517906 0.0077848211 -0.024198307 4289473318
0.00093241036 0.010167919 -0.026600417 4288753964
0.0029743165 0.0095327199 -0.026288897 4288688428
0.0053674579 0.0066353604 -0.023946999 4289538598
0.0080180392 0.0022314265 -0.020255888 4289604133
0.010459706 -0.00066269934 -0.017923003 4289211689
0.012676395 -0.0020479932 -0.016945286 4288099888
0.014903918 -0.0034324452 -0.015969573 4287772978
0.017270945 -0.0055695027 -0.014321214 4287380789
0.019785471 -0.0084586516 -0.012001785 4287315509
0.022187583 -0.010593235 -0.010359935 4287445814
0.024469193 -0.011973873 -0.0093940413 4287510838
0.027040355 -0.014859103 -0.0070850402 4287968309
0.030201267 -0.020752929 -0.0020919107 4287771959
0.033260439 -0.025891654 0.0022216924 4287640634
-0.0084161311 -0.011053041 -0.0085818758 4286857783
-0.0065172762 -0.010172971 -0.0096400892 4286922553
-0.0047226176 -0.0085358247 -0.011375754 4286791739
-0.0033452138 -0.0038703904 -0.015821459 4286987578
-0.0021041408 0.00155022 -0.02093857 4287445303
-0.00090040267 0.0069686174 -0.026048472 4288950058
0.00092428178 0.0078446642 -0.027092187 4289408038
0.0030809641 0.0064508542 -0.026106762 4289015593
0.0055937618 0.0027887449 -0.02309685 4289342759
0.0081334859 -0.00087157637 -0.020091971 4288819498
0.010459282 -0.0030180886 -0.018441053 4289342758
0.012801282 -0.0051633939 -0.016793145 4288426799
0.015033685 -0.0065519437 -0.015821639 4287511604
0.017405421 -0.0086951926 -0.014179192 4287315253
0.019793361 -0.010837339 -0.012539676 4287446069
0.022197492 -0.012978368 -0.010903145 4287510839
0.02461781 -0.015118204 -0.0092696063 4287314234
0.027193524 -0.018011816 -0.0069680959 4288229429
0.030216433 -0.023168094 -0.0026592985 4287836474
-0.0066382959 -0.011791326 -0.010847158 4286858294
-0.0046457499 -0.011668898 -0.011225733 4286988599
-0.0029575974 -0.009268254 -0.013633455 4287118649
-0.0015979409 -0.0045908019 -0.018065846 4287380023
-0.00048400462 0.0016028136 -0.023842813 4287837748
0.001244545 0.0032407045 -0.025562322 4288230450
0.0035237223 0.0010844767 -0.023907779 4288165169
0.0058191121 -0.0010706037 -0.022256291 4287641909
0.0082483143 -0.0039829537 -0.019934369 4287445814
0.010578826 -0.0061356723 -0.018289318 4287903538
0.013048507 -0.009045288 -0.015974902 4288623148
0.01516284 -0.0096797869 -0.015680015 4287641908
0.017282657 -0.010313846 -0.015386078 4287576374
0.019669957 -0.012462549 -0.01375141 4287249209
0.022207115 -0.015367486 -0.011449408 4287248954
0.024902176 -0.019028164 -0.0084815919 4287117629
-0.0029770061 -0.011641368 -0.014160621 4287184439
-0.0014057532 -0.0084735081 -0.017235182 4287445559
-0.00017592311 -0.0030231997 -0.022326967 4287772469
0.0015635565 -0.0013803616 -0.024045205 4287510838
0.0037407205 -0.0027815551 -0.023070348 4287641654
0.006043531 -0.0049427226 -0.021425178 4287641654
0.0084799677 -0.007863313 -0.01911127 4287772468
0.01069776 -0.0092616454 -0.018143851 4287707444
0.012926415 -0.010659248 -0.017178357 4288230449
0.015040435 -0.011295952 -0.016885072 4287707189
0.017416231 -0.013451986 -0.015253283 4287314488
0.01993908 -0.016366608 -0.012955289 4287052603
0.022483453 -0.019279711 -0.010661308 4286921789
-0.002996698 -0.014018543 -0.01469082 4287052603
-0.0012145042 -0.012368992 -0.01641405 4287641398
-8.2179904e-05 -0.0061395839 -0.022168124 4287249209
0.0016628206 -0.0044920519 -0.023884164 4287249209
0.0037329867 -0.0051342919 -0.023584636 4287314488
0.0061524063 -0.0080647245 -0.021274211 4287576118
0.008358866 -0.0094682276 -0.020308055 4287380024
0.010696143 -0.011633538 -0.018674213 4287445303
0.01304961 -0.013797663 -0.017043389 4287576118
0.015293986 -0.015198492 -0.016084097 4288557103
0.017677173 -0.017360546 -0.014458731 4287117883
-0.0015427321 -0.012448512 -0.01895766 4286791483
-9.5449388e-05 -0.0084987953 -0.02268612 4287118649
0.0017614812 -0.0076121911 -0.023729352 4287183673
0.0037249476 -0.0074910298 -0.024101997 4287445303
0.0062606782 -0.011195071 -0.021129552 4287380024
0.0084720254 -0.01260262 -0.02016763 4287380024
0.010933779 -0.015538879 -0.017871678 4287314234
0.013172194 -0.01694452 -0.016914647 4287183418
0.015671723 -0.019878186 -0.014625672 4287052603
0.018064987 -0.022046112 -0.013007168 4287379769
-2.7641654e-06 -0.011629798 -0.022538196 4286529598
0.0018595308 -0.010740675 -0.023580838 4286921788
0.0039397851 -0.011386655 -0.023286562 4287248954
0.0063683242 -0.014333837 -0.020991154 4287249209
0.008584559 -0.015745439 -0.020033419 4287118393
0.011050865 -0.018690072 -0.017744943 4286660414
0.0020657033 -0.014647335 -0.022771787 4286856253
0.0041536838 -0.015294991 -0.022480689 4287117883
0.0065894499 -0.018250413 -0.020193208 4286529343
0.0042553917 -0.018444337 -0.022348903 4286529343
-0.021047883 -0.0081456378 0.0068730749 4284706093
-0.02109392 -0.010533012 0.0063413214 4283856689
-0.019389018 -0.0074185655 0.0031943955 4284574003
-0.020989113 -0.014424764 0.0071857795 4282740809
-0.019353904 -0.01055114 0.003354691 4283658044
-0.021036014 -0.016824625 0.0066447072 4282021963
-0.01947549 -0.012187861 0.0021337345 4281761609
-0.017543152 -0.01131285 0.0010637939 4283004223
-0.015532516 -0.011189856 0.0006813705 4284114493
-0.021308839 -0.016965099 0.0040415078 4281760078
-0.019752853 -0.012315653 -0.00045870617 4281760589
-0.01782582 -0.01143878 -0.0015260354 4282349128
-0.015737414 -0.012070201 -0.0012225732 4283003713
-0.021731116 -0.015583232 7.5489283e-05 4281562963
-0.020029508 -0.012434401 -0.0030444823 4281759824
-0.018027388 -0.012312092 -0.0034254119 4281890384
-0.015941933 -0.012945831 -0.0031230897 4282020688
-0.01385092 -0.013579153 -0.0028217025 4282936648
-0.022077151 -0.014942504 -0.0031942204 4281693268
-0.020150281 -0.014061511 -0.0042582899 4281889873
-0.018308796 -0.012422226 -0.0060034124 4281824338
-0.016229004 -0.013058506 -0.00570169 4281890129
-0.014143653 -0.013694346 -0.0054009585 4282216784
-0.012141027 -0.013571709 -0.0057817576 4282675019
-0.020425856 -0.014166676 -0.0068338765 4281625694
-0.018509418 -0.013284072 -0.0078942543 4281889109
-0.016515389 -0.013162203 -0.0082735969 4281824594
-0.014435686 -0.013800584 -0.0079734577 4281759313
-0.012526661 -0.012918115 -0.0090321815 4281629774
-0.010441214 -0.013555907 -0.0087329624 4282871115
-0.018709689 -0.014141209 -0.0097816577 4281626458
-0.016718455 -0.014019556 -0.010160505 4281823573
-0.014812283 -0.013135232 -0.011217128 4281759569
-0.012735352 -0.013775833 -0.010918035 4281694543
-0.01065287 -0.014416061 -0.010619893 4282348108
-0.0088448003 -0.012769617 -0.012351706 4282870859
-0.017003581 -0.014107443 -0.012720629 4281298273
-0.015017629 -0.013986006 -0.013098388 4281432149
-0.01303146 -0.013864435 -0.013476107 4281563219
-0.010954641 -0.014507137 -0.013178583 4281825104
-0.0089654252 -0.014385186 -0.013556737 4281955663
-0.0070718601 -0.013499051 -0.01460899 4282676038
-0.015222609 -0.014832139 -0.014976207 4281431384
-0.013151608 -0.015477479 -0.014679328 4281497174
-0.011165388 -0.015355825 -0.015056986 4281825103
-0.0092719868 -0.014467672 -0.01610766 4281759824
-0.0072880909 -0.014345936 -0.016484719 4282283849
-0.0052056462 -0.014990121 -0.016189661 4282544968
-0.015512004 -0.014904529 -0.017523572 4281298019
-0.013534151 -0.014783524 -0.01789974 4281496153
-0.011556104 -0.014662385 -0.018275864 4281824338
-0.0096707046 -0.01377257 -0.019323383 4281825103
-0.0076949745 -0.013651371 -0.019698899 4281892168
-0.0054244772 -0.015834734 -0.018063027 4281568573
-0.0032386407 -0.017248891 -0.017100122 4281894719
-0.01382836 -0.014847346 -0.020439345 4281494368
-0.011855789 -0.014726557 -0.020814434 4281692758
-0.0099757314 -0.013834931 -0.021859303 4281825103
-0.0080054849 -0.013714083 -0.022233788 4281761098
-0.00583902 -0.015133873 -0.021270592 4281306434
-0.0035609603 -0.017323174 -0.019641045 4282025024
-0.001576826 -0.017201118 -0.020017911 4282874174
-0.012244634 -0.014008649 -0.024015065 4281626458
-0.010280065 -0.013888262 -0.024388559 4281955919
-0.0083153099 -0.013767727 -0.024762001 4281500743
-0.0061546639 -0.015192278 -0.023800984 4281306178
-0.0037820488 -0.018160813 -0.02150863 4281959489
-0.0015942976 -0.019583456 -0.020552579 4282416448
-0.010306671 -0.01625786 -0.024911348 4281691229
-0.0083393902 -0.016137205 -0.025285285 4281563475
-0.0060788095 -0.018340699 -0.023662429 4281369163
0.026986301 -0.028906368 -0.024199884 4282666859
-0.0075865239 0.010480076 0.035830323 4285294378
-0.0052457079 0.0084837973 0.037592392 4285754654
-0.0022067353 0.0015357807 0.044370104 4285754399
-0.011824712 0.0085515827 0.035361845 4285230118
-0.010393053 0.013649806 0.029953469 4285558048
-0.0085393041 0.015195534 0.028133933 4285689374
-0.0064123496 0.014610946 0.028464023 4285558303
-0.0035991371 0.009058699 0.033800345 4285821209
-0.00034309179 0.00067087263 0.041987877 4285689373
-0.014340676 0.0096013471 0.031638253 4285427488
-0.012554765 0.011864863 0.029102664 4285624093
-0.010784708 0.014127538 0.026570112 4285820953
-0.0091222003 0.017101571 0.023325924 4285755419
-0.00700894 0.016513959 0.023656875 4285689629
-0.0045017898 0.013079055 0.026841681 4285755164
-0.0015685633 0.0067989752 0.032874104 4285755163
0.0013107136 0.0012335181 0.038184777 4285493024
0.0044433698 -0.0057520047 0.044911657 4285296164
-0.018866949 0.01054547 0.028310336 4285163054
-0.016914159 0.011385478 0.027208742 4285492768
-0.014966466 0.012225211 0.026108239 4285624349
-0.013023883 0.013064727 0.025008768 4285558813
-0.01126416 0.015333235 0.022483122 4285886998
-0.0094287395 0.016886391 0.020673666 4285821463
-0.0074153394 0.01701048 0.020291422 4285886999
-0.0050140768 0.014278233 0.022757497 4285755673
-0.0024915561 0.010833502 0.025931079 4285755419
-4.42788e-05 0.0081043094 0.028388571 4285558813
0.0024246499 0.0053765774 0.030841973 4285493534
0.005668737 -0.0023438632 0.038261645 4285493024
-0.023202278 0.010075137 0.026417628 4285689118
-0.021400556 0.012352243 0.023888599 4285885979
-0.019458659 0.013193578 0.022790682 4286017559
-0.017360546 0.012600154 0.02312078 4285820953
-0.015256807 0.012007102 0.023449909 4285624349
-0.013319544 0.012848459 0.022353034 4285558558
-0.011387385 0.013689555 0.021257237 4285558558
-0.0094603673 0.014530428 0.020162489 4285624349
-0.0074444041 0.014654614 0.019779708 4285558558
-0.0052347332 0.013346367 0.02081785 4285558559
-0.0030141324 0.012038827 0.021854017 4285558558
-0.0009867996 0.012164019 0.021469314 4285558813
0.0011455268 0.011573508 0.021793541 4285689629
0.0039282665 0.0066896975 0.026367273 4285558048
0.0075198635 -0.0031998754 0.035889182 4285492004
-0.027446829 0.0088954195 0.025242109 4285033003
-0.02563186 0.011179648 0.022715379 4285361954
-0.023832679 0.013462953 0.020191755 4285623838
-0.021823883 0.013586037 0.019809838 4285492514
-0.019737005 0.012989618 0.020140301 4285623838
-0.017564029 0.011674173 0.021181639 4285755163
-0.015629612 0.012517355 0.020086903 4285689883
-0.013614468 0.012641169 0.01970404 4285558558
-0.011510558 0.012046143 0.020031545 4285558813
-0.0094010383 0.01145155 0.020358052 4285559069
-0.0073798224 0.011576034 0.019974265 4285558814
-0.0052618161 0.010982119 0.020299349 4285624349
-0.0034360513 0.012543604 0.018498469 4285624348
-0.0017227307 0.014822617 0.015991915 4285690138
7.9326332e-05 0.016382836 0.014195692 4285820953
0.0026220232 0.012917839 0.017349016 4285820443
0.0058517084 0.0051487163 0.02473494 4285820188
0.0095912889 -0.0054864809 0.034932733 4285754653
-0.027971186 0.011580959 0.019735154 4285361698
-0.026171908 0.013870679 0.017216336 4285690394
-0.024316132 0.015437365 0.01541239 4285821718
-0.022320837 0.015559562 0.015032995 4285821209
-0.020247616 0.014960088 0.015364375 4285821463
-0.018008128 0.012917764 0.017115217 4285821463
-0.016001374 0.013040952 0.016733851 4285558558
-0.013908677 0.012442879 0.017061763 4285624349
-0.0118104 0.011845298 0.017388649 4285558813
-0.0097065121 0.011248149 0.017714534 4285624860
-0.007597059 0.010651432 0.018039439 4285558813
-0.0055784434 0.010775812 0.017656177 4285558558
-0.0037578046 0.012341239 0.015859608 4285690138
-0.0021512732 0.01534678 0.012652747 4285689374
-0.00035704672 0.016910769 0.010861333 4285557794
0.0018552244 0.015594296 0.011892565 4285557794
0.0047373846 0.0099596307 0.017149705 4285623839
0.0078876615 0.0028884262 0.023806989 4285623839
0.011206962 -0.0048988014 0.031157769 4285492259
0.014585461 -0.012682319 0.038497441 4285164074
-0.028226398 0.011394382 0.0170925 4285427488
-0.026501544 0.01441475 0.013868932 4285493023
-0.024725713 0.016709551 0.011359621 4285558813
-0.022591613 0.015382759 0.012401495 4285689628
-0.020446524 0.014056697 0.01344141 4285624093
-0.018210307 0.012007631 0.015187871 4285624094
-0.01637207 0.013577871 0.013390794 4285624094
-0.014373228 0.013700612 0.013010975 4285624093
-0.012374148 0.013823457 0.012631174 4285624348
-0.010193072 0.012500092 0.01366454 4285689884
-0.0081881881 0.012623481 0.013283789 4285558558
-0.0060868263 0.012024157 0.013608616 4285558558
-0.0041777864 0.012870587 0.012522366 4285755674
-0.0024771243 0.015161775 0.010028107 4285952533
-0.0007923767 0.017452128 0.0075368993 4285754909
0.0014114007 0.016130738 0.0085664019 4285952024
0.0040647313 0.011922069 0.012406025 4286017814
0.0067504421 0.0077155456 0.016239543 4285754653
0.0094685182 0.0035111383 0.020067014 4285427233
0.012925215 -0.0050202608 0.028097384 4285427234
0.016687267 -0.014990196 0.037517555 4285164329
-0.028081112 0.0068558604 0.018713802 4285163308
-0.026552916 0.012065493 0.013367631 4285427233
-0.024774037 0.014366992 0.01086263 4285493279
-0.02278699 0.014488593 0.010484736 4285559068
-0.020645022 0.013157986 0.011521835 4285559068
-0.01849211 0.011828102 0.012556974 4285624349
-0.016659006 0.013402395 0.010764141 4285689884
-0.014665641 0.013524748 0.010385316 4285821463
-0.012760103 0.014372699 0.0093010683 4285952533
-0.010587491 0.013044409 0.010332759 4285952533
-0.0086841956 0.013892449 0.0092490297 4285755419
-0.0064977556 0.012565203 0.010278232 4285624093
-0.0045967102 0.013413265 0.0091951378 4285624349
-0.002700828 0.014261164 0.0081130546 4285690139
-0.00091425329 0.015833288 0.0063296687 4285820954
0.0012890771 0.01450751 0.0073559172 4285755163
0.0037223101 0.011734106 0.0097829718 4285754909
0.0061771646 0.008962132 0.012206007 4285557794
0.0087685287 0.005467765 0.015325379 4285425194
-0.026327975 0.0067968443 0.01569283 4285163054
-0.024607144 0.0098343119 0.012483265 4285361188
-0.022758484 0.011413567 0.010690536 4285558813
-0.02076596 0.011535555 0.010311637 4285559068
-0.018773191 0.011657648 0.0099327546 4285624348
-0.016945228 0.013235867 0.0081442185 4285690138
-0.014957331 0.013357848 0.0077664126 4285689373
-0.013145015 0.014935337 0.0059809405 4285623584
-0.011071451 0.01432965 0.0063075721 4285820954
-0.0088990852 0.012997083 0.0073359683 4285820954
-0.0067157671 0.011665247 0.008362418 4285689884
-0.0047187507 0.011788271 0.0079832431 4285624348
-0.0029241294 0.013365157 0.0062015001 4285624604
-0.00093208998 0.013488062 0.0058234166 4285558303
0.001273483 0.012157999 0.0068459474 4285623839
0.0034899339 0.010828763 0.0078664441 4285558049
0.0059413165 0.0080478638 0.010283479 4287325964
-0.024369814 0.0045536235 0.014796343 4285426214
-0.022804894 0.009060733 0.010185329 4285559068
-0.021040827 0.011374451 0.0076931659 4285559069
-0.019212916 0.01295691 0.0059077982 4285624348
-0.017230749 0.013078399 0.0055309683 4285887509
-0.015333369 0.01393003 0.0044514649 4285689628
-0.013441123 0.014781445 0.0033730119 4285623584
-0.011373214 0.014173239 0.0036989804 4285820953
-0.0091135651 0.012106352 0.0054263603 4286083858
-0.0069333911 0.010769993 0.0064500123 4285689629
-0.0048407316 0.010163553 0.0067715459 4285624093
-0.0029447675 0.011015728 0.0056927111 4285624093
-0.00084635615 0.010409854 0.0060133114 4285621799
-0.024277002 0.00071751326 0.015686061 4285294634
-0.022703208 0.0052381679 0.011083275 4285294378
-0.021161281 0.0097569302 0.0064866096 4285361443
-0.019492216 0.012808777 0.003300285 4285493278
-0.017762117 0.015127055 0.00081966259 4285756183
-0.015878104 0.01597999 -0.00025567785 4285952534
-0.013911657 0.016100682 -0.00062939711 4286018069
-0.011764504 0.014757656 0.00039707497 4286214929
-0.009327665 0.011220284 0.0035202149 4285755164
-0.0071506202 0.0098793507 0.0045411214 4285623838
-0.0050609335 0.0092705712 0.0048614983 4285557793
-0.0030666515 0.0093934461 0.0044828542 4286411024
-0.025868341 -0.00693205 0.020464465 4285097518
-0.024256438 -0.0023962036 0.01586426 4285294634
-0.022528395 0.00066769123 0.012673177 4285294633
-0.021128297 0.006669946 0.0066822208 4285492513
-0.019532695 0.01046551 0.0028009005 4285558814
-0.01796364 0.01425954 -0.0010752939 4285558558
-0.016082257 0.015114449 -0.0021485109 4285624093
-0.014118619 0.015234917 -0.0025217254 4285689374
-0.011884518 0.013153277 -0.00079955906 4285689374
-0.00954137 0.010338902 0.0016174745 4285558049
-0.00727202 0.0082596317 0.003333101 4285558048
-0.005182609 0.0076486394 0.0036518537 4287130379
-0.024236441 -0.0055183098 0.016036138 4285032239
-0.022354819 -0.003919892 0.014250308 4285098029
-0.020866297 0.0013633296 0.0089696553 4285294634
-0.019335829 0.0059074536 0.0043950584 4285294378
-0.018001013 0.011923224 -0.0015701074 4285295398
-0.016116902 0.01278042 -0.0026422124 4285558558
-0.014237948 0.013637416 -0.0037132725 4285558559
-0.011914529 0.010812975 -0.0012991596 4285621798
-0.022329845 -0.0070458204 0.01441808 4285032238
-0.020682231 -0.0032255426 0.010543305 4285163308
-0.017711759 0.0066271499 0.00071891211 4285294634
-0.015983008 0.0089647993 -0.0017465204 4285361188
-0.014095977 0.0098244324 -0.0028174799 4286280208
-0.020651765 -0.0063487589 0.010711931 4285426214
-0.019103527 -0.0017775521 0.0061537381 4285294633
-0.017587192 0.0027917549 0.001601724 4285228843
-0.020850033 -0.0072494969 0.0087907612 4285295399
-0.019303605 -0.0026654676 0.0042428561 4285294888
-0.017463505 -0.0010564104 0.0024749935 4285360169
-0.015549816 -0.00019098818 0.0014021527 4285228843
-0.019424751 -0.0042943731 0.0030277707 4285032494
-0.017503209 -0.0034264252 0.001954997 4285163053
-0.017462112 -0.0065481216 0.0021221861 4285032239
-0.017583407 -0.0081786364 0.00090590306 4284901168
