# .PCD v0.7 - Point Cloud Data file format
VERSION 0.7
FIELDS x y z rgba
SIZE 4 4 4 4
TYPE F F F U
COUNT 1 1 1 1
WIDTH 971
HEIGHT 1
VIEWPOINT 0 0 0 1 0 0 0
POINTS 971
DATA ascii
0.042251419 -0.057473786 0.031695537 4282611269
-0.010662261 -0.031373739 0.010049457 4282347853
-0.0091220066 -0.029080242 0.0075350441 4281891148
-0.0075976774 -0.026787698 0.0050240513 4281695563
-0.0060892627 -0.024496131 0.0025165137 4281891659
-0.0041198358 -0.024364218 0.0021046232 4282806598
0.025031034 -0.020937249 -0.0054431241 4282870858
0.029618517 -0.030120708 0.0030977335 4282414408
0.035910841 -0.045031384 0.017127672 4282414408
0.041279942 -0.056352653 0.027697397 4282154054
-0.010794375 -0.03302218 0.0088685397 4282937923
-0.0092537403 -0.030722082 0.0063588936 4281760843
-0.0075755417 -0.029145099 0.0045496579 4281434954
-0.0060640648 -0.026846722 0.0020462871 4281761609
-0.0045685284 -0.024549291 -0.00045367517 4282022219
-0.0029274411 -0.022974461 -0.0022549015 4282282828
-0.0011328086 -0.022121623 -0.003359111 4283460163
0.018049844 -0.019363314 -0.0088228108 4283461183
0.020194668 -0.019950531 -0.0085412161 4282676548
0.022148632 -0.019818038 -0.0089486809 4282022473
0.024898164 -0.022561729 -0.0066061784 4281826124
0.029684711 -0.032492816 0.0026010387 4281826123
0.035567276 -0.046012282 0.015224496 4281826378
0.04093067 -0.057369135 0.02576953 4281891403
0.044493303 -0.062254824 0.030129662 4282085968
-0.011074364 -0.033945605 0.0069913659 4283593018
-0.009385407 -0.032363608 0.0051829629 4281892424
-0.0077070147 -0.030782238 0.0033769049 4281369928
-0.0061951429 -0.028477259 0.00087829866 4281761353
-0.0046992116 -0.026173234 -0.0016168971 4281826379
-0.0032192022 -0.023870192 -0.0041086208 4281956429
-0.0015911832 -0.02229169 -0.0059038457 4282282573
0.015779186 -0.02038648 -0.010258891 4282610504
0.01791833 -0.020976409 -0.009977825 4282284359
0.020256205 -0.022287533 -0.0090107564 4282088773
0.022212697 -0.02215486 -0.009418739 4281891913
0.024964035 -0.024907216 -0.0070830919 4281891659
0.029750578 -0.03486906 0.0021014567 4281891659
0.035836283 -0.049151249 0.015379092 4281826123
0.040995233 -0.059822328 0.025213497 4282021964
-0.011501744 -0.034137361 0.0044226274 4284704309
-0.0099683404 -0.031824596 0.0019241944 4282156348
-0.0082977414 -0.030239381 0.00012298487 4281697093
-0.0067935027 -0.027928323 -0.002369171 4281630283
-0.0049882978 -0.027070656 -0.0034725573 4281826633
-0.0035105832 -0.024761148 -0.0059589986 4281695564
-0.0018850081 -0.023178458 -0.0077504274 4282021454
-0.00060297549 -0.020145029 -0.01092158 4282151758
0.0085445046 -0.017318614 -0.015009672 4282741829
0.010656517 -0.017912939 -0.01472483 4282218313
0.012773909 -0.018506773 -0.014441026 4281891404
0.015460189 -0.021272808 -0.01209864 4281695563
0.017786842 -0.022589177 -0.011132615 4281696074
0.020124214 -0.023904733 -0.010168675 4281826633
0.022080561 -0.023772053 -0.010576623 4281891913
0.025029557 -0.027256772 -0.0075629894 4281826123
0.030017294 -0.037972666 0.0022826307 4281956938
0.036104571 -0.05229868 0.015527559 4281956938
0.040852901 -0.061556667 0.02397191 4282152779
-0.0084285885 -0.031869277 -0.0010445807 4283334194
-0.0066127628 -0.03100881 -0.0021486487 4281893444
-0.0051187202 -0.028691754 -0.0046337526 4281892934
-0.003479667 -0.027103908 -0.0064248648 4281826889
-0.0020148344 -0.024788573 -0.0089036841 4281695563
-0.00089850649 -0.021018453 -0.012757884 4281825614
0.00052907318 -0.018705375 -0.015228735 4282937414
0.0043821409 -0.01844611 -0.016033696 4283919929
0.0066627003 -0.019770622 -0.015061677 4282742593
0.0085947029 -0.019640341 -0.015465094 4282349893
0.010709062 -0.020236686 -0.015182357 4282022728
0.012828797 -0.020832568 -0.01490066 4281891913
0.015516892 -0.023607276 -0.012565138 4281565514
0.017655384 -0.024201632 -0.012287168 4281761354
0.019992245 -0.025521636 -0.011326378 4281826633
0.02214412 -0.026114844 -0.011051023 4281826633
0.025094738 -0.029610425 -0.0080458131 4282088008
0.029881269 -0.039633773 0.0010933951 4282219079
0.035964772 -0.054003954 0.014306737 4282218823
0.040710591 -0.063290663 0.022730565 4282349383
-0.019003607 -0.052723728 0.018040227 4283068228
-0.0067435354 -0.03263621 -0.003314402 4282286144
-0.0049329251 -0.031773806 -0.0044156965 4281958469
-0.0032883212 -0.030181162 -0.0062047746 4281891913
-0.0018177591 -0.027858868 -0.0086799432 4281761353
-0.0008614473 -0.023347288 -0.013215145 4281695308
0.00056921318 -0.021027461 -0.015681747 4282218568
0.0019838922 -0.018708564 -0.018144969 4282545223
0.0042531937 -0.020038314 -0.017173981 4282218824
0.0063564666 -0.020637907 -0.016890688 4282022984
0.008465115 -0.021236971 -0.016608475 4281892424
0.01076128 -0.022564553 -0.015642824 4282088264
0.013068184 -0.023891337 -0.014679288 4281892168
0.015198305 -0.024488583 -0.014401294 4281761353
0.017523944 -0.025813796 -0.01344152 4281565514
0.019860299 -0.027138218 -0.012483856 4281826634
0.022207342 -0.028461739 -0.01152836 4282546498
0.024961414 -0.031240247 -0.0092127016 4283071033
0.029544428 -0.040566817 -0.00077617913 4284182833
0.035417974 -0.054253839 0.011726109 4284182069
0.04015594 -0.06356959 0.020130536 4284442678
-0.019673258 -0.051470317 0.014061632 4282285633
-0.018193126 -0.048398644 0.010867456 4282936904
-0.0064085424 -0.036462277 -0.0024144985 4284639538
-0.0049057081 -0.034131512 -0.0048916955 4283594293
-0.0030976422 -0.033266999 -0.005990766 4282350404
-0.0019478649 -0.029472761 -0.0098359156 4281826633
-0.00082469732 -0.025680237 -0.013675367 4281826889
0.00027181208 -0.021889396 -0.017509172 4281761864
0.0020267516 -0.021027952 -0.018596774 4281957194
0.0041242912 -0.021630205 -0.018314039 4281826889
0.0062272325 -0.022232018 -0.018032297 4281891913
0.008694116 -0.024296083 -0.016384747 4281826888
0.010995135 -0.02562777 -0.015423303 4282023494
0.01330686 -0.026958562 -0.014464049 4281893189
0.01506741 -0.026096001 -0.01555228 4281892679
0.017202567 -0.026694983 -0.015276855 4282022728
0.019535732 -0.028023958 -0.014321802 4282284868
0.022270229 -0.030812725 -0.012008639 4283789878
0.025224086 -0.034330025 -0.0090202829 4284706094
-0.020074062 -0.051672138 0.011478608 4282415429
-0.018462345 -0.049328469 0.0089827031 4282283339
-0.016727459 -0.047722057 0.0071805045 4283068230
-0.0035492592 -0.033421852 -0.0085260337 4282546754
-0.0019148439 -0.031821072 -0.010306413 4282022984
-0.00095403194 -0.027282819 -0.014823198 4281435719
0.00031165779 -0.024215303 -0.017964924 4281565768
0.0018982068 -0.022617318 -0.019735064 4281761098
0.0043429434 -0.024689734 -0.01808787 4281826634
0.0064508915 -0.025293358 -0.017808838 4281695818
0.0087433383 -0.026630104 -0.01684898 4281761354
0.011228289 -0.028699443 -0.015209919 4281827144
0.013729304 -0.030767582 -0.013574114 4281958979
0.015497886 -0.029902242 -0.014662446 4282089793
0.017450947 -0.029770039 -0.015069896 4282677568
0.019596489 -0.030370444 -0.014798129 4283722813
0.022527924 -0.033900358 -0.011813282 4284508469
-0.021965876 -0.054954708 0.012085961 4282936138
-0.020340577 -0.052603684 0.009591965 4282350149
-0.018731155 -0.0502536 0.0071013886 4282087754
-0.017137598 -0.047904506 0.0046142489 4282219080
-0.015559927 -0.045556292 0.0021304991 4282547009
-0.01385393 -0.04394719 0.00033774227 4284049723
-0.0036796741 -0.03504172 -0.0096863294 4284640813
-0.0022079609 -0.03269963 -0.012147202 4283334193
-0.0010833144 -0.028885067 -0.015970791 4282024513
0.00018293411 -0.025808744 -0.01910617 4281761864
0.0021115206 -0.025679059 -0.01950915 4281826634
0.0042137429 -0.026285425 -0.019230651 4281564494
0.0063213632 -0.026891276 -0.018953184 4281565004
0.0086133033 -0.02823244 -0.017996451 4281630794
0.011097569 -0.030308418 -0.016362099 4282089539
0.013413612 -0.031647727 -0.015410231 4282876214
0.015366498 -0.03151565 -0.01581773 4284118573
-0.022099018 -0.056629144 0.010886149 4282282318
-0.020473346 -0.054271549 0.0083969068 4282283593
-0.018999562 -0.051174015 0.0052234326 4282021963
-0.017408304 -0.048818454 0.0027415827 4282088010
-0.015691556 -0.04720439 0.00094971433 4281892168
-0.014129385 -0.044850521 -0.0015258603 4284247859
-0.0021752194 -0.035051703 -0.012620407 4284641069
-0.0010471717 -0.031225964 -0.016436642 4282481984
0.00039035827 -0.02887933 -0.018885331 4281826888
0.0021534078 -0.028010771 -0.019969786 4281826890
0.0040845759 -0.027880803 -0.020373216 4281760844
0.0060157962 -0.027750686 -0.020776557 4281957194
0.0083045438 -0.029096484 -0.019822417 4282285125
0.010966871 -0.031917088 -0.017514059 4283789623
0.013282411 -0.033260815 -0.016565328 4284640303
-0.022754148 -0.055329546 0.0069377664 4282085713
-0.021138765 -0.052966058 0.0044555254 4282217549
-0.01940342 -0.051346615 0.0026628096 4282152268
-0.017678596 -0.04972773 0.00087233633 4282021964
-0.015964326 -0.048109442 -0.00091578811 4281564748
-0.014404453 -0.045749158 -0.003386043 4282874174
-0.0124209 -0.04561694 -0.003801357 4284378929
9.3467534e-05 -0.02973564 -0.02070866 4282416449
0.0020244233 -0.029605821 -0.02111215 4282220353
0.0039554387 -0.029475868 -0.021515554 4283725619
0.0060623996 -0.030086175 -0.021241194 4284444718
-0.021935746 -0.050897181 -0.00015804172 4282412624
-0.019535184 -0.053000651 0.0014776923 4282413644
-0.017810166 -0.051377364 -0.00030960143 4282283338
-0.016095687 -0.049754694 -0.0020945482 4281761353
-0.014535427 -0.047387823 -0.0045600496 4282022473
-0.012552038 -0.04725562 -0.0049753375 4282349383
-0.010717537 -0.046378896 -0.0060722418 4283068993
-0.008888267 -0.045502387 -0.007167954 4284704819
-3.5338104e-05 -0.031330377 -0.021850849 4283921459
0.0017251 -0.030457623 -0.022931529 4283724344
0.0039993785 -0.031813405 -0.021981021 4284377909
-0.019937903 -0.053159364 -0.0010730661 4282149974
-0.018218011 -0.05153209 -0.0028560124 4281694799
-0.016508676 -0.049905352 -0.0046367124 4282022729
-0.014666378 -0.049026176 -0.0057338215 4282021963
-0.0128293 -0.048147216 -0.0068297535 4282088009
-0.010848615 -0.048015073 -0.0072443783 4282349639
-0.0091708228 -0.046389922 -0.0090180896 4284115768
-0.018625125 -0.051677652 -0.0053959377 4281952093
-0.016498946 -0.05229494 -0.0051316135 4281823063
-0.014797278 -0.050664201 -0.0069073774 4281825358
-0.012960184 -0.049783081 -0.0080017112 4281825358
-0.011276968 -0.048153326 -0.009773422 4281891659
-0.0094529875 -0.047272801 -0.01086482 4282022729
-0.0076342523 -0.046392523 -0.011955027 4284246839
-0.014928155 -0.052301943 -0.0080807181 4281693523
-0.013091031 -0.051418617 -0.0091734417 4281694034
-0.011556093 -0.049033463 -0.011618923 4281826378
-0.0097347647 -0.048150972 -0.012708168 4281891913
-0.0077648461 -0.048019335 -0.013120387 4283136823
-0.0061078183 -0.0463866 -0.014883064 4284312118
-0.015201945 -0.053185791 -0.0099303247 4281626458
-0.013367459 -0.052300476 -0.011020896 4281693524
-0.011686523 -0.050662115 -0.012785673 4281890639
-0.0097141899 -0.050530434 -0.013198495 4282218059
-0.0080490485 -0.048892938 -0.014959753 4282154564
-0.0060818717 -0.04876136 -0.015371319 4281896248
-0.0042735748 -0.047877148 -0.016455926 4284705838
-0.013788987 -0.052421972 -0.013539371 4281953369
-0.012113184 -0.050779648 -0.015299819 4281955664
-0.01014635 -0.050648347 -0.015711494 4282021198
-0.0083328746 -0.049761876 -0.016795777 4281893698
-0.0060562342 -0.051140219 -0.015862498 4281765179
-0.0039276406 -0.051763028 -0.015602939 4282484789
-0.012243181 -0.052403264 -0.016462982 4282281298
-0.010125883 -0.053029425 -0.016202975 4282216784
-0.0084630139 -0.051383317 -0.017957296 4281827653
-0.0060309209 -0.053523153 -0.01635661 4281698878
-0.0038999915 -0.054148018 -0.016099159 4281895738
-0.0022475421 -0.052502215 -0.017851029 4282484534
-0.010557074 -0.053135693 -0.018707637 4282476374
-0.008593116 -0.053004488 -0.019118629 4281565514
-0.0063174963 -0.05439166 -0.018191595 4281501508
-0.0040311217 -0.055778012 -0.017266732 4282025024
-0.0022173524 -0.054886743 -0.018347573 4283067208
-0.0090290755 -0.053101949 -0.021615643 4281369164
-0.0067592971 -0.054493979 -0.020690609 4282216784
-0.0044787675 -0.055885106 -0.01976775 4282739534
0.0032103136 0.049229603 0.029077386 4278272953
-0.0035061128 0.050446365 0.025365977 4279127458
-0.0027763061 0.055051975 0.019689741 4279126693
-0.0017423593 0.058376316 0.015528252 4278995369
0.00082600862 0.055945877 0.018148487 4279125674
0.0044726729 0.049682684 0.025278317 4278338489
-0.01392407 0.05143705 0.02244482 4282274414
-0.012495209 0.053492427 0.019783763 4281093508
-0.010296237 0.052334178 0.020899354 4279782298
-0.0082463175 0.051819049 0.021258621 4279127968
-0.0063534938 0.051946513 0.020863255 4278603943
-0.0025509596 0.059387174 0.011406722 4278667439
-0.00034065172 0.05823002 0.012520185 4278601903
-0.016837269 0.053610798 0.017186722 4281815158
-0.011365321 0.054634005 0.015257457 4278665398
-0.0093317144 0.054115541 0.015618486 4278734758
-0.0074550249 0.054241888 0.015226467 4278472618
-0.0060734078 0.056300953 0.012580266 4278733993
-0.0028468296 0.058484413 0.0095488783 4278338234
-0.00046653301 0.056678947 0.01140943 4278272699
0.0050562955 0.050498165 0.018114986 4278733229
0.0078579858 0.047410544 0.021459473 4278472873
-0.018985115 0.052575227 0.015709752 4280505478
-0.017855927 0.055938594 0.011552414 4278471343
-0.016298864 0.057358257 0.0096584503 4278666419
-0.014289849 0.056835786 0.010022877 4278271933
-0.010095853 0.055145297 0.011499388 4278537389
-0.0080677383 0.054624282 0.011859952 4278537643
-0.0063639246 0.055396549 0.01071983 4278864808
-0.004832916 0.056814771 0.0088316165 4278930343
-0.0031423047 0.057586297 0.0076942891 4279126948
-0.00093820691 0.056419805 0.0088025499 4278602668
0.001803454 0.053316996 0.01215128 4278799783
0.0043936968 0.050861567 0.014747446 4278930853
0.0059197247 0.052279782 0.012860438 4278669478
-0.02187223 0.046217173 0.020651957 4280964223
-0.021270201 0.052194905 0.013482271 4278735778
-0.019986346 0.054919906 0.010083301 4278340529
-0.018575102 0.056993768 0.0074404236 4278864553
-0.017028462 0.058417112 0.0055518728 4279455899
-0.015030399 0.057891626 0.0059169829 4279259293
-0.012556851 0.055419039 0.0085305888 4278995624
-0.0083552673 0.053722497 0.010000674 4278799784
-0.0064893253 0.053848132 0.0096109081 4278537898
-0.0047906563 0.054622285 0.0084735099 4278669224
-0.002927199 0.054747872 0.0080843512 4278734758
-0.00071818382 0.053577315 0.0091882702 4278734503
0.0016770288 0.051759571 0.011035984 4278537898
0.0033760257 0.052534007 0.0098987091 4278603178
0.0086273327 0.054208361 0.0072374698 4278403004
0.013139807 0.045276355 0.017251963 4278271934
-0.02185826 0.043994572 0.020278966 4280373898
-0.021395139 0.050644733 0.012371937 4278866593
-0.020402215 0.054682828 0.0074782614 4278734759
-0.0088042468 0.053476382 0.0073975287 4278930343
-0.0067792088 0.052950747 0.0077554863 4278800294
-0.0050831139 0.05372693 0.0066202451 4278603689
-0.0030525327 0.053201798 0.006977139 4278538154
-0.0011890605 0.053327423 0.0065880027 4278668968
0.00084971264 0.052802969 0.0069432762 4278800038
0.0033182614 0.05760346 0.00096119754 4278930343
0.0049826503 0.05837791 -0.00016719662 4279585693
0.0070136413 0.057853144 0.00018993393 4279519903
0.010370355 0.052784111 0.0057370588 4278667438
0.015300354 0.042525437 0.017203605 4278733229
-0.020662412 0.045167506 0.015758796 4278800549
-0.020380482 0.05249178 0.0071265195 4278539429
-0.019415855 0.056541245 0.0022485424 4278865318
-0.018030308 0.058626674 -0.00037924387 4278276013
-0.016046125 0.058095768 -1.453422e-05 4278602668
-0.013587557 0.055604447 0.0025891345 4278733738
-0.011266425 0.05376805 0.0044422541 4278603434
-0.0094141252 0.053892646 0.0040552486 4279061923
-0.0077260584 0.054670401 0.0029232446 4278668458
-0.0057092085 0.054142058 0.0032813195 4278602669
-0.0035172291 0.052961405 0.0043821987 4278799528
-0.0016591921 0.053086646 0.0039941873 4278603434
-0.00015117973 0.054516688 0.0021206327 4278538154
0.0063316673 0.058275439 -0.0031292681 4278340529
0.01688938 0.041719936 0.014930183 4278472364
-0.019075245 0.035723329 0.023614118 4279587224
-0.019195616 0.045043841 0.012750579 4278997153
-0.018650226 0.051077418 0.0056366976 4279194014
-0.017700508 0.055139169 0.00077163242 4278734759
-0.016015477 0.055918653 -0.00035831332 4278865574
-0.014023412 0.055386145 3.0994415e-06 4278603178
-0.011867072 0.054198399 0.0011079665 4278668458
-0.01018437 0.054977916 -2.1351501e-05 4278537389
-0.0066678673 0.055880953 -0.0015336871 4278665654
-0.0026451349 0.054819256 -0.00081839785 4278602159
-0.0011502318 0.056252811 -0.0026859753 4278407338
0.00015647709 0.058340173 -0.0052919537 4278930853
0.0032706037 0.060549628 -0.0082751056 4278665908
0.0052796416 0.060018979 -0.0079167113 4278469814
0.0084236264 0.055566613 -0.0031289458 4278797744
0.01122326 0.052423865 0.00017536059 4278930088
0.013856083 0.049936309 0.0027368329 4278603943
0.01670664 0.046797138 0.0060306117 4278669989
-0.017349735 0.02556707 0.032177784 4280701829
-0.017287657 0.034262158 0.022074969 4279456663
-0.017294973 0.042952668 0.011986734 4278604198
-0.016919922 0.049663257 0.0041470118 4279062688
-0.015985128 0.053737294 -0.00070514344 4278996643
-0.014302552 0.054518849 -0.0018329248 4278734504
-0.012466587 0.054642227 -0.0022166036 4278537389
-0.010791808 0.055423398 -0.0033426546 4278865064
-0.0094502605 0.057519376 -0.0059512891 4278931619
-0.007624682 0.057642255 -0.0063326526 4278864809
-0.0034572259 0.05591723 -0.0048747417 4278537134
-0.0014486797 0.055384062 -0.0045180768 4278734504
3.317371e-05 0.056821253 -0.0063796751 4278734504
0.0016844422 0.057601307 -0.0075004715 4278668968
0.0033304021 0.058381066 -0.0086201113 4278603944
0.0055272542 0.057192277 -0.007526488 4278538409
0.00829909 0.054036532 -0.0042245742 4278800039
0.010716233 0.052194111 -0.0024007168 4278668969
0.012375731 0.052975062 -0.0035229754 4278538153
-0.016198397 0.017998073 0.037721284 4280963459
-0.015529718 0.024079528 0.030610817 4279784083
-0.01550002 0.032801189 0.020535959 4279390874
-0.015690159 0.042178907 0.0097326245 4278800803
-0.015495781 0.049570229 0.0011724848 4279193759
-0.01473707 0.054316517 -0.0044076107 4278930854
-0.0099003613 0.057324752 -0.0085162632 4278537899
-0.008413177 0.058766387 -0.010375891 4278735013
-0.0020957664 0.055838048 -0.0078229355 4278669224
-0.0002672784 0.05596137 -0.0082047218 4278800038
0.0017411299 0.05542611 -0.0078495657 4278538409
0.0033898652 0.056208257 -0.0089681642 4278538409
0.0057741813 0.054356851 -0.0071424432 4278603689
0.0079866871 0.053164769 -0.0060552936 4278537898
0.010019366 0.052631423 -0.005704999 4278668713
0.011091173 0.055387329 -0.0090262908 4278603178
0.014759412 0.055635795 -0.0097914357 4278664889
-0.016187947 0.015696708 0.037291139 4280570503
-0.015080389 0.019808535 0.032422177 4279915408
-0.014152348 0.024581391 0.026817897 4279784593
-0.014163066 0.03332904 0.016772723 4279587734
-0.014396153 0.042734824 0.0060011744 4279587734
-0.014237233 0.050148126 -0.0025336761 4279193249
-0.013345711 0.054245822 -0.0073572015 4278865318
-0.0043903701 0.055521391 -0.010000955 4278537644
-0.0022187382 0.054321766 -0.0089087989 4278799783
-0.00056734309 0.055106144 -0.01002644 4278669479
0.0012584403 0.055229358 -0.01040761 4278603943
0.0032666363 0.054691929 -0.010053995 4278472874
0.0054652877 0.053494371 -0.0089672236 4278669734
0.0074869543 0.052958 -0.0086163124 4278407594
0.0089428239 0.05440259 -0.010465738 4278602923
0.010001868 0.057166498 -0.013777911 4278274229
0.011431016 0.058609396 -0.015621604 4279258273
0.01364316 0.057413146 -0.01453743 4278996643
0.016871555 0.052920423 -0.0098011596 4279061669
0.02115633 0.045133982 -0.0014212057 4278930599
-0.016035751 0.012725443 0.037599549 4280899198
-0.014777157 0.016185455 0.033479989 4280243339
-0.013397753 0.018978499 0.030106479 4279784594
-0.012639865 0.024430584 0.023777941 4279915153
-0.012841102 0.033869382 0.013022492 4279849874
-0.013272531 0.043967962 0.0015439764 4279063198
-0.013151761 0.051403031 -0.0069649648 4279258783
-0.012446668 0.056176666 -0.012510962 4279061669
-0.010961719 0.057626914 -0.014363738 4279061923
-0.00898901 0.057084408 -0.014004618 4279127459
-0.0065044761 0.054550875 -0.011438771 4278996389
-0.0045128576 0.054009784 -0.0110835 4278603433
-0.0026899651 0.05413264 -0.011464181 4278669479
0.0047870576 0.053962074 -0.012253921 4278538408
0.0068004243 0.05342292 -0.011902913 4278407594
0.0078681149 0.056196168 -0.015210437 4278603178
0.022900946 0.043709293 -0.0029223505 4278406574
-0.014474917 0.012549337 0.034528367 4281030013
-0.013381299 0.016686726 0.029681852 4279915664
-0.012019861 0.019487429 0.026318634 4280111503
-0.011442497 0.025622472 0.019271271 4279784083
-0.011378873 0.03375525 0.010022486 4279391638
-0.011695165 0.043217342 -0.00068604946 4278866594
-0.011604503 0.050674681 -0.0091707194 4278603688
-0.010919556 0.055462461 -0.014701083 4278538409
-0.0092763267 0.056250419 -0.015814049 4278800039
-0.00696389 0.054373823 -0.013988312 4278406828
-0.0046353042 0.052498385 -0.012165896 4278537643
-0.00060131401 0.058189817 -0.019164925 4278599864
0.0039252564 0.055108268 -0.016261946 4278863279
0.0061150007 0.053901378 -0.015179825 4278538153
0.0071753003 0.056682907 -0.018479258 4278407594
0.0096224658 0.060913451 -0.023607092 4278471599
0.012010366 0.059042763 -0.02179651 4278340274
0.014815811 0.05584548 -0.018533902 4278340784
0.018054869 0.051322654 -0.013822577 4278734504
0.020713091 0.04879307 -0.011298724 4278472874
0.023183953 0.046928309 -0.0095052188 4278538663
0.026939549 0.041085757 -0.0033623967 4278997409
-0.013071071 0.01305129 0.030728748 4281488249
-0.011850704 0.016530935 0.026633466 4280636295
-0.010656945 0.020008828 0.022543849 4280046479
-0.0097999088 0.024823368 0.016988726 4279653014
-0.009926632 0.033649482 0.007031301 4279522198
-0.010122806 0.042471007 -0.0029115491 4279653013
-0.010225363 0.050619267 -0.012105891 4278866849
-0.0092317089 0.054084115 -0.016153395 4278407848
-0.0074225441 0.054205865 -0.016531348 4278603688
-0.0052710697 0.052991517 -0.01544483 4278471854
-0.0039777681 0.055117544 -0.018018842 4278865065
-0.002700448 0.057242531 -0.020589413 4278275249
-0.0010808595 0.058031462 -0.021695554 4279520413
0.0010789149 0.056817938 -0.0206105 4278602414
0.0036184266 0.054270834 -0.0180688 4278865065
0.0056178682 0.053726315 -0.017718147 4278472363
0.0068632886 0.055849575 -0.020281823 4278538154
0.0082852058 0.057305139 -0.022114309 4278472874
0.010086842 0.057427127 -0.022490136 4278538409
0.012086365 0.056882914 -0.022139283 4278538409
0.014692932 0.05434081 -0.019611228 4278538409
0.017320912 0.051800236 -0.017087584 4278668968
0.019352552 0.051258434 -0.016743256 4278342058
0.028046794 0.041653268 -0.0070370939 4278338743
-0.011831731 0.014237504 0.026207047 4281554039
-0.010482296 0.017055068 0.022859355 4280243338
-0.0088443682 0.018528529 0.020984145 4279980688
-0.0078472346 0.022686176 0.016177507 4280046223
-0.0078435019 0.030868003 0.0069803521 4279783828
-0.00871839 0.042399831 -0.0058648735 4278669988
-0.0086906776 0.049901627 -0.014300574 4278931618
-0.0077121966 0.053376544 -0.018336734 4278996643
-0.0059057102 0.053498168 -0.018714087 4278340784
-0.0035265461 0.058431327 -0.024575267 4278734758
-0.0019175634 0.059221696 -0.025677528 4278538153
0.00059431419 0.056663852 -0.023136673 4278472109
0.004934486 0.054229621 -0.02097727 4278472365
0.006551668 0.055020854 -0.022081014 4278668969
0.0083558708 0.055142939 -0.022457436 4278538409
0.010550149 0.053927701 -0.021382567 4278603944
0.012557425 0.053381812 -0.02103495 4278472874
0.014770443 0.052168041 -0.019963918 4278669479
0.016994175 0.050955046 -0.01889501 4278472618
0.018405659 0.052414741 -0.020721829 4278341039
-0.01030831 0.014092717 0.023168625 4281489524
-0.008819472 0.01624449 0.020563116 4280177293
-0.0073465742 0.018395323 0.01796096 4279718293
-0.0066898689 0.023911435 0.011705773 4279849618
-0.0067267679 0.03211702 0.0025367178 4279522199
-0.0073240139 0.042337101 -0.0088094492 4278735779
-0.0069929585 0.048515577 -0.015761117 4278997663
-0.0061977245 0.052673265 -0.020515533 4278538664
0.0028217956 0.05328162 -0.022398785 4278406574
0.0046258457 0.053403534 -0.022775292 4278734248
0.0060509443 0.054868046 -0.024602003 4278800039
0.0082340315 0.053647608 -0.023528151 4278603944
0.010427848 0.052427921 -0.022456437 4278735268
0.01263237 0.051209092 -0.02138694 4278472874
0.014247023 0.052002672 -0.0224883 4278800294
0.016059184 0.05212561 -0.02286615 4278603688
0.018225869 0.057061743 -0.028670285 4278472109
0.019808343 0.057853457 -0.029764704 4279259293
0.022453336 0.055296704 -0.027257383 4279192994
0.027282281 0.046046961 -0.017558908 4278996389
0.033718653 0.032117531 -0.0028430037 4278996389
-0.0087948963 0.013956305 0.020139037 4281423224
-0.0071616918 0.015438292 0.018271329 4279915409
-0.0060186759 0.018946048 0.014216846 4279784083
-0.0053899549 0.024477944 0.0079806093 4279653268
-0.0056300722 0.033382647 -0.0018895734 4279195034
-0.0059396736 0.042282775 -0.011745165 4279324318
-0.005977612 0.04982876 -0.020131247 4279127969
-0.0055545904 0.055347193 -0.026324308 4279062433
-0.0042946823 0.057490855 -0.028876688 4278996388
-0.0023363493 0.056936692 -0.028522519 4278996388
0.00017122924 0.054360852 -0.025993746 4278930854
0.0023323521 0.053134222 -0.024918701 4278669224
0.0039443113 0.053929463 -0.026018215 4278472618
0.0051723421 0.056071341 -0.028563596 4278342058
0.0071522743 0.055519029 -0.028213644 4278341039
0.0093322434 0.054294039 -0.02714234 4278275504
0.012114961 0.051050968 -0.023907533 4278407594
0.013724327 0.051846437 -0.025006209 4278473128
0.015328348 0.052641582 -0.026103668 4278865573
0.019054582 0.058385536 -0.032984424 4278536878
-0.0072914958 0.013828363 0.01711821 4280048263
-0.006147705 0.017347168 0.013071662 4279849364
-0.004868187 0.020186771 0.0097582955 4279587478
-0.0042701401 0.025734317 0.0035415199 4279718803
-0.0042179935 0.033310577 -0.0048456118 4279391128
-0.0047358125 0.042913847 -0.015397988 4278931618
-0.0046361834 0.049804997 -0.023033414 4278538663
-0.0040627606 0.054662786 -0.028483341 4278538409
-0.0020993575 0.054106742 -0.028131871 4278669224
5.0548464e-05 0.052874893 -0.027057849 4278603433
0.0022112206 0.051643822 -0.02598596 4278472108
0.003450349 0.053793021 -0.028528892 4278537388
0.0062641576 0.056737352 -0.032161701 4278469303
0.0086274482 0.05483181 -0.030370446 4278337978
0.012802709 0.053049251 -0.028957035 4279389089
0.013991088 0.055195462 -0.031488974 4278407083
0.014958201 0.05801532 -0.034736138 4278537388
0.027777893 0.046493053 -0.023702785 4278734758
0.032257967 0.038535189 -0.015499752 4278801058
-0.0061171465 0.015068609 0.012653211 4279981454
-0.0048343465 0.017917227 0.0093456376 4279915664
-0.003572844 0.020764511 0.0060425866 4279850129
-0.0030028261 0.026327919 -0.00015532412 4279653268
-0.0029861704 0.033926085 -0.0085170632 4279456919
-0.0032012202 0.042199396 -0.017590223 4279194269
-0.0029536933 0.048431993 -0.024480402 4278604709
-0.0018630661 0.051268198 -0.02774745 4278603944
-0.00025102124 0.052067637 -0.028843816 4278800038
0.0013557188 0.052866798 -0.029939018 4278602923
0.0025845878 0.055021912 -0.032474935 4278537134
0.0036084875 0.057853945 -0.035727806 4278930089
0.0055691376 0.057295863 -0.035377048 4279323553
0.0077294484 0.056060717 -0.03430815 4278928814
0.010491416 0.052794226 -0.031085312 4279190189
0.012082219 0.05359282 -0.032176815 4278603178
0.013667669 0.054391112 -0.033267152 4278603689
0.01483774 0.056542832 -0.035790369 4278800038
0.016822467 0.055986919 -0.035444316 4278865829
0.018812526 0.055431459 -0.035099301 4278866083
0.021660049 0.052171271 -0.031893939 4279128224
0.02475002 0.048236847 -0.02797926 4279128224
0.027872041 0.044304751 -0.024071228 4279127969
0.032352522 0.036320422 -0.015887728 4278473384
-0.0046388283 0.014961619 0.0096543115 4280244868
-0.0032066852 0.017136335 0.0070802961 4279850129
-0.0021252222 0.020673234 0.0030632 4279783828
-0.0014104992 0.025571212 -0.002393635 4279915154
-0.0010785833 0.031829238 -0.009286887 4279652759
-0.001320947 0.040127248 -0.018334784 4279389598
-0.00091518462 0.045697529 -0.024485089 4278866338
-0.00055219978 0.051265042 -0.03062645 4279259548
0.00086851418 0.052746765 -0.032439422 4278602668
0.0031116493 0.057748642 -0.03821478 4278602669
0.0048752129 0.057867963 -0.038582735 4279389344
0.007221166 0.055948019 -0.036797617 4279192739
0.0095831677 0.054029286 -0.035015829 4278406319
0.011362821 0.054149956 -0.035386946 4278407084
0.01314247 0.054270703 -0.035758007 4278538663
0.015126932 0.053712487 -0.035413582 4278473383
0.017531745 0.051796965 -0.033640418 4278669734
0.020162761 0.049203925 -0.031156231 4278669989
0.023028007 0.045933928 -0.027962681 4278539684
0.025919978 0.042665839 -0.024774631 4278604710
0.028838662 0.039399661 -0.021592082 4278801058
0.033109352 0.032067612 -0.014142456 4278866593
-0.0030060485 0.014179047 0.0073864851 4279916173
-0.00191845 0.017727356 0.0033762138 4279849874
-0.0008575134 0.021273967 -0.00062841736 4279718294
4.1946769e-06 0.025502346 -0.0053479858 4279652759
0.00030825287 0.03177841 -0.012220741 4279652759
0.00020844117 0.039417461 -0.020522233 4278932894
-0.00013075396 0.047735561 -0.029530285 4278997408
0.00019883737 0.053318501 -0.035651572 4278799784
0.011242405 0.052675728 -0.036442474 4278800549
0.013627864 0.050752107 -0.034670275 4278800803
0.016438648 0.047467131 -0.031473689 4278997409
0.019276179 0.044184074 -0.028282601 4278736033
0.022140443 0.040902913 -0.025097027 4278343079
0.024818771 0.038304374 -0.022629123 4278277034
0.027518464 0.035707377 -0.020165607 4278408104
0.030457538 0.032431576 -0.016995419 4278802078
0.034306116 0.02643697 -0.010988714 4279195289
-0.0017123558 0.014772918 0.0036830138 4280049284
-0.00047561526 0.017645121 0.00040472858 4279587478
0.00056744739 0.021201622 -0.003587991 4279194268
0.0014088005 0.025441889 -0.0082934592 4279587478
0.0016849935 0.031735986 -0.015145719 4279521688
0.0011915565 0.040767405 -0.024857009 4278998683
0.00062859058 0.049794216 -0.034553725 4279325338
0.00073903427 0.056077406 -0.041371174 4279127713
0.0021202043 0.057565376 -0.043169238 4278996899
0.0040639415 0.056999579 -0.042819872 4278800293
0.0065943226 0.054381572 -0.040328071 4278997154
0.0089497007 0.052449126 -0.038554601 4279062944
0.01171935 0.049150169 -0.035357688 4279193504
0.014515752 0.045853119 -0.03216628 4278997408
0.017747827 0.041191034 -0.027555874 4278670243
0.020810224 0.037214816 -0.023664873 4278539174
0.02369488 0.033924028 -0.020491665 4278997663
0.026393779 0.03131808 -0.018034542 4279195034
0.028683702 0.030079216 -0.017001886 4279783828
0.030984296 0.028841138 -0.015971337 4279653269
0.034618627 0.023509547 -0.010689508 4279522198
-0.00043373927 0.015379284 -7.2717667e-06 4279850129
0.00078496337 0.018259175 -0.0032752268 4279128223
0.0021571703 0.020450015 -0.0058218669 4279653014
0.0028033033 0.025389899 -0.011230075 4279522198
0.0026912168 0.03307673 -0.01949325 4279194523
0.0019716918 0.042821102 -0.029889476 4279064218
0.001548402 0.051186539 -0.038840819 4278801059
0.0025667436 0.054053448 -0.042066544 4278996898
0.0047091208 0.052799359 -0.041006971 4278931873
0.0074429549 0.049486794 -0.037810825 4279128733
0.010007314 0.046862356 -0.035332549 4278866338
0.012792006 0.043553405 -0.032146893 4278538664
0.015805054 0.039560486 -0.028255519 4278408104
0.018850215 0.035569802 -0.024370724 4278604708
0.021927454 0.031581432 -0.020492593 4278802078
0.02440789 0.029651303 -0.018749744 4279260568
0.026904332 0.027722415 -0.017010195 4279456918
0.028771844 0.0278496 -0.017399227 4279653523
0.031509954 0.025237691 -0.014956632 4279653268
0.035371087 0.019204319 -0.0089817494 4279849874
-0.00056150183 0.013799593 -0.0011386368 4280114818
0.00082978234 0.015998233 -0.0036844593 4279325338
0.0022050925 0.018195882 -0.0062268768 4279325083
0.0032097287 0.021771997 -0.010195205 4279391128
0.004007645 0.026035942 -0.014871988 4279522198
0.0040427223 0.033055298 -0.022396229 4278997918
0.0036535785 0.041449524 -0.031335257 4278867868
0.0041405074 0.046394445 -0.036698602 4278538918
0.0059250519 0.046515174 -0.037070941 4279325848
0.0090633966 0.041815504 -0.032464001 4278997919
0.011847075 0.03849538 -0.029286318 4278801569
0.014458757 0.035865434 -0.026824336 4278932383
0.016890423 0.033925124 -0.025076384 4279194779
0.01954223 0.031298082 -0.022622634 4279260569
0.022215415 0.028672628 -0.020173315 4279326103
0.024491092 0.027423777 -0.019144263 4279587988
0.026777431 0.026175775 -0.01811742 4279653268
0.028859645 0.025615748 -0.017799523 4279456663
0.031817064 0.022308175 -0.014657499 4279980943
0.037002705 0.012134273 -0.0044635311 4280112013
0.0020782053 0.016629711 -0.0073485039 4279916684
0.0032607839 0.019524947 -0.010595807 4279587988
0.0046018697 0.021727044 -0.013126026 4279587733
0.0055619106 0.025311347 -0.01707679 4279391129
0.0055692792 0.032350935 -0.024578949 4279194524
0.0060867742 0.037313394 -0.029937344 4279456409
0.0077100955 0.038127124 -0.031026091 4278997664
0.010487393 0.034795459 -0.027855262 4278866849
0.013095565 0.032156363 -0.025399115 4278997918
0.015327998 0.030899836 -0.02436462 4278998173
0.017369891 0.030334432 -0.02404034 4279260569
0.019824967 0.028389201 -0.022302069 4279260568
0.022502676 0.025755197 -0.019860145 4279260823
0.024992494 0.023812521 -0.018128971 4279260569
0.027710263 0.021181487 -0.015695293 4279784338
0.030664029 0.017862562 -0.012560692 4279653269
0.034948278 0.01041019 -0.0052032564 4279849874
0.0034885146 0.016579542 -0.010287862 4279850638
0.0051946901 0.017400693 -0.011392559 4279850129
0.0065308735 0.019609194 -0.013916871 4279653013
0.0067409873 0.025978405 -0.020696679 4279456663
0.0072783679 0.030957574 -0.026047818 4279325593
0.0089204721 0.031774826 -0.027138906 4279325593
0.011329405 0.029819462 -0.025396174 4279456409
0.013558682 0.028558215 -0.024364339 4279195034
0.015600292 0.02799046 -0.024041642 4279195034
0.017647237 0.027423188 -0.023720039 4279391638
0.019903261 0.026164051 -0.022693567 4279391638
0.02278921 0.022829231 -0.019553151 4279457173
0.026329158 0.017420352 -0.01430382 4279522454
0.030547161 0.0099390969 -0.0069506289 4279653268
0.035467293 0.00038706511 0.0025014617 4279784338
0.0054271258 0.014449298 -0.011090325 4279982728
0.0064047799 0.018056799 -0.015028542 4279718804
0.0068012215 0.023750104 -0.02108583 4279456663
0.0075299181 0.028049294 -0.025718747 4279391129
0.0093676262 0.028173618 -0.026102182 4279260059
0.011591062 0.026907459 -0.025072457 4279325594
0.013825223 0.025642097 -0.024044842 4279325593
0.015871871 0.02507253 -0.02372486 4279522453
0.018124748 0.023808666 -0.022701053 4279391638
0.020998999 0.020461898 -0.019566344 4279653269
0.025137359 0.012950808 -0.012214555 4279653269
0.030587997 0.0012786053 -0.00065561756 4279653268
0.037187442 -0.013857357 0.014397694 4279718803
0.0066426545 0.015108243 -0.01472562 4279981199
0.006676469 0.022215679 -0.022184607 4279194524
0.0074061267 0.02652815 -0.026807982 4279194524
0.0092437156 0.026652448 -0.027191401 4279194524
0.011659358 0.024684332 -0.025459804 4279456664
0.014091048 0.022717446 -0.023731524 4279325849
0.016538804 0.020751711 -0.022006474 4279456663
0.019404005 0.017393261 -0.018878112 4279456664
0.023312818 0.010552838 -0.012241535 4279587734
0.029129565 -0.0025532022 0.00070367754 4279653269
0.044450313 -0.039883927 0.037748016 4279784083
0.0065517463 0.02068153 -0.023283187 4279063963
0.0074695088 0.024307195 -0.027192533 4279063454
0.0093096495 0.024431676 -0.027576482 4279128989
0.012304783 0.020357959 -0.023740031 4279587988
0.014941683 0.017685581 -0.021315847 4279587733
0.018193532 0.012916677 -0.016789209 4279784338
0.021883857 0.0067520887 -0.010866887 4279981198
0.026841475 -0.0036030635 -0.00074757263 4280308363
0.034143887 -0.021639563 0.017061764 4280439690
0.042210974 -0.041762374 0.036942311 4280439690
0.0082804151 0.019272931 -0.024768353 4279195288
0.01013381 0.019398294 -0.025155073 4279391128
0.013718057 0.0132064 -0.019225458 4279915153
0.016960487 0.0084213391 -0.014708298 4279915409
0.020833343 0.0015342608 -0.0080968095 4280243339
0.02455936 -0.0046477094 -0.002196528 4280243339
0.029551577 -0.015033521 0.0078912415 4280701064
0.043943904 -0.049805291 0.041986138 4282140793
0.012282424 0.0094127767 -0.017843835 4282010743
0.016089143 0.0024989843 -0.011234944 4281813628
0.019364946 -0.0022992119 -0.0067360885 4282076533
-0.014667645 -0.0081217512 0.054871157 4285361444
-0.014174804 -0.00061375275 0.04631985 4285820954
-0.019573629 -0.0067330077 0.050818481 4285295908
-0.017399937 -0.0072695687 0.05112996 4285427488
-0.015081886 -0.0084781721 0.05217772 4285558558
-0.013601996 -0.0056521818 0.04880251 4285689374
-0.012864228 0.00053301826 0.041750655 4285492004
-0.026321307 -0.0061281323 0.047933035 4285950749
-0.024551064 -0.0046423003 0.046032809 4286016538
-0.022399433 -0.0051827505 0.046347119 4285885978
-0.020508863 -0.0043726563 0.045186602 4285623838
-0.018623449 -0.0035628304 0.044027217 4285624349
-0.016327269 -0.0047773197 0.045076229 4285624348
-0.01387886 -0.0066655055 0.046858266 4285821209
-0.011702262 -0.0072038695 0.047167651 4286017559
-0.011426955 0.0010221973 0.03793291 4286082839
-0.011215664 0.0092440248 0.028711656 4285163819
-0.028848775 -0.0059097484 0.044940688 4285558049
-0.027206279 -0.003741987 0.042307168 4285819934
-0.025068477 -0.0042856857 0.042622663 4285885214
-0.022925138 -0.0048289225 0.042937055 4285820188
-0.020776272 -0.0053717494 0.043250397 4285755164
-0.01902926 -0.0038828179 0.041358389 4285623838
-0.016877342 -0.0044252351 0.041671172 4285558559
-0.014296468 -0.0069973841 0.044183724 4285624094
-0.010974914 -0.012950756 0.050357074 4285624094
-0.010095518 -0.0074025616 0.044068038 4285624093
-0.010750487 0.004904788 0.030468622 4285493024
-0.03266646 -0.0098933503 0.046797998 4285230118
-0.03123907 -0.0063568652 0.042691179 4285559068
-0.029593676 -0.0041824654 0.040061876 4285821209
-0.027589329 -0.0040490404 0.039642066 4285689119
-0.025457144 -0.0045953616 0.039957069 4285688609
-0.023189157 -0.0058208704 0.041005246 4286017813
-0.021176197 -0.0056866407 0.040583812 4285886744
-0.019298665 -0.0048730075 0.039429262 4285624093
-0.017149702 -0.005417861 0.039741017 4285558813
-0.014431354 -0.0086780488 0.042979769 4285559324
-0.010824215 -0.016008966 0.050601773 4285559068
-0.0087676011 -0.015871368 0.050171532 4285493534
-0.0098397098 -0.0014871247 0.034404062 4285558814
-0.033383995 -0.0081594735 0.041916959 4285493279
-0.031969197 -0.0046128631 0.037820853 4285624604
-0.030336738 -0.0024327487 0.035199106 4285887509
-0.028221086 -0.0029825047 0.03551586 4285886488
-0.025845043 -0.0048958808 0.037297964 4285951514
-0.023582846 -0.0061262697 0.038344108 4286017558
-0.02144257 -0.0066741258 0.038655885 4285689629
-0.019432195 -0.0065400153 0.038235031 4285624094
-0.017559752 -0.0057244748 0.037083216 4285624604
-0.014847748 -0.0089961365 0.040315151 4285624604
-0.01153497 -0.01498986 0.046461023 4285558813
-0.0089045949 -0.017576247 0.048950277 4285558814
-0.0093778111 -0.0058679804 0.036131188 4285559068
-0.032934085 -0.013252974 0.044390798 4285427744
-0.031982087 -0.0069552287 0.037366517 4285493534
-0.030590326 -0.0033990815 0.033283405 4285558813
-0.02860222 -0.0032668486 0.032866925 4285689883
-0.026359394 -0.0045030639 0.033913776 4285755419
-0.023975775 -0.0064225122 0.035689451 4285689373
-0.021973722 -0.0062890798 0.035270244 4285624093
-0.020106725 -0.0054718181 0.034121104 4285689883
-0.01810699 -0.0053383783 0.0337025 4285689628
-0.015544605 -0.0079383403 0.036199331 4285820699
-0.01210095 -0.01463595 0.043061428 4285689373
-0.0091874972 -0.018597789 0.047001459 4285624094
-0.0089172795 -0.010266304 0.037845805 4285558814
-0.0091650188 0.00010899454 0.026523778 4285820444
-0.03139995 -0.012736902 0.040567905 4285229098
-0.030234866 -0.0077949539 0.035026975 4285427744
-0.028484955 -0.0062887445 0.03314703 4285559068
-0.026491404 -0.0061561018 0.032729447 4285624859
-0.024497643 -0.0060233548 0.032311879 4285558814
-0.02263613 -0.005204387 0.031165415 4285624094
-0.020779781 -0.0043856278 0.030020056 4286281229
-0.018653058 -0.004938744 0.030331546 4286017813
-0.015959088 -0.0082337335 0.033550948 4285951769
-0.012665782 -0.014268495 0.039671607 4285820444
-0.0097615458 -0.018244229 0.04360377 4285688863
-0.0090519413 -0.011941858 0.036645569 4285557793
-0.0089948848 -0.0029030964 0.026797378 4285689119
-0.030463241 -0.02061256 0.045940839 4285163309
-0.029394507 -0.014964521 0.039676391 4285361443
-0.028119884 -0.010697 0.034879006 4285427489
-0.026623324 -0.0078088716 0.031545289 4285493788
-0.024759255 -0.0069876686 0.03039982 4285624348
-0.023032591 -0.00547833 0.028528107 4285755419
-0.021181509 -0.0046578124 0.027385486 4285820443
-0.01906044 -0.0052135065 0.027696459 4285688864
-0.016513087 -0.0078321621 0.030183388 4285754654
-0.013086572 -0.014575079 0.037016526 4286017048
-0.010334469 -0.01787705 0.040215753 4286345233
-0.0091865584 -0.013617136 0.035445519 4286082074
-0.0089763403 -0.0052366927 0.026341384 4285493279
-0.029885724 -0.026453458 0.049099691 4285163564
-0.028678305 -0.021477945 0.043572567 4285228588
-0.02750808 -0.016504861 0.038053341 4285228844
-0.02650176 -0.010843195 0.031815059 4285427489
-0.025149852 -0.0072565153 0.027764743 4285558814
-0.023560338 -0.0050525963 0.025171576 4285821719
-0.021851957 -0.0035400614 0.023307027 4285820189
-0.01974187 -0.0040987208 0.023618655 4285951259
-0.017206021 -0.0067270026 0.026101464 4286212634
-0.01379209 -0.013492815 0.032920972 4286408984
-0.010906253 -0.017496325 0.036837503 4286344214
-0.0093211234 -0.01529213 0.034245662 4286015519
-0.0089580938 -0.0075744763 0.025882462 4285230374
-0.029547304 -0.030933343 0.05078575 4285033004
-0.027843297 -0.028715618 0.048173152 4285163054
-0.026898302 -0.022339024 0.041208804 4285228843
-0.026254274 -0.014579266 0.03280399 4285558813
-0.025410429 -0.0082092136 0.025860978 4285558813
-0.023823194 -0.0059988797 0.023273116 4285689884
-0.02211722 -0.0044821277 0.0214123 4285885979
-0.020147339 -0.0043508261 0.02099984 4286278933
-0.017897472 -0.0056038573 0.022032408 4286409238
-0.014638711 -0.011700533 0.028116362 4286277913
-0.011622176 -0.016410135 0.032747544 4286015774
-0.0094556138 -0.016966864 0.033045985 4286015773
-0.0089401565 -0.0099163875 0.0254205 4285361444
-0.026537955 -0.026808463 0.042896897 4285294633
-0.025755063 -0.019719027 0.035230994 4285425958
-0.025283478 -0.01124268 0.026129989 4285426214
-0.024085604 -0.0069404617 0.021378024 4285492769
-0.022650853 -0.0040298402 0.018076854 4285623839
-0.020552039 -0.0045937225 0.018387547 4286214674
-0.018028542 -0.0072405264 0.020859903 4286016029
-0.014913887 -0.012662895 0.026209233 4285884449
-0.011611246 -0.018776394 0.032269433 4285949473
-0.026302457 -0.030597597 0.043849818 4285228844
-0.025257528 -0.024880625 0.037642322 4285425959
-0.02451288 -0.017771654 0.030000707 4285360169
-0.023689948 -0.01136332 0.023091311 4285426978
-0.02210971 -0.0091402084 0.020514688 4285492769
-0.020271569 -0.0083117783 0.019381238 4285689629
-0.01788044 -0.01027029 0.021126257 4286279954
-0.014904212 -0.015013538 0.025742976 4286408729
-0.024761707 -0.030064099 0.040037982 4285294633
-0.023873359 -0.023631729 0.033129394 4285360168
-0.023032919 -0.017202437 0.026230922 4285294634
-0.021704309 -0.013573222 0.02221798 4285294633
-0.019855417 -0.012741901 0.02108389 4285819934
-0.017314866 -0.015405245 0.023539638 4286212888
-0.014468689 -0.019464441 0.027425295 4286343194
-0.023492903 -0.02811446 0.034802482 4285360424
-0.022509135 -0.022366211 0.028633868 4285294633
-0.021032549 -0.019426502 0.025343334 4285294379
-0.019167572 -0.018591955 0.024207463 4285950749
-0.01702942 -0.019159831 0.02450504 4286343958
-0.011580233 -0.025900118 0.030817294 4286473754
-0.023498788 -0.030502543 0.034312643 4285426214
-0.022511065 -0.024736457 0.028156152 4285294888
-0.021164894 -0.021084107 0.024155723 4285294124
-0.019299872 -0.020247377 0.02302145 4286016539
-0.017022979 -0.021520838 0.024032047 4286409239
-0.0233768 -0.033601008 0.03453511 4285228844
-0.022513278 -0.02711086 0.027675522 4285163308
-0.021163672 -0.023447312 0.023682466 4285294634
-0.019432105 -0.021902502 0.021835638 4286212378
-0.022646435 -0.028781123 0.026478803 4285163053
-0.021296062 -0.025106534 0.022493677 4285163308
-0.01942829 -0.024265237 0.021361975 4286277404
-0.011633188 -0.035778247 0.0032471102 4285163308
-0.011764579 -0.037418813 0.0020718165 4285229354
-0.0102304 -0.035092846 -0.00041708164 4285098793
-0.01160147 -0.040526167 0.0022770911 4285295399
-0.010061573 -0.038193256 -0.00020817667 4285164073
-0.0082324371 -0.037327677 -0.0013119094 4285164074
0.029609282 -0.042955011 -0.0012843832 4284901168
0.035075255 -0.055224277 0.0098304879 4284901424
-0.01173313 -0.042170525 0.0010990631 4285425958
-0.010192845 -0.039831012 -0.0013814345 4285229609
-0.0085160732 -0.038227811 -0.0031710491 4285229863
-0.0070049465 -0.035890065 -0.0056452453 4285032494
0.025486067 -0.037428349 -0.0088339141 4285032494
0.0296738 -0.045347273 -0.0017955005 4284966958
0.034326605 -0.054726042 0.006584499 4285032239
-0.012158498 -0.042338625 -0.0014527477 4285163308
-0.010324072 -0.041468456 -0.0025544688 4285098028
-0.0086471066 -0.039860874 -0.0043409113 4285163563
-0.0069807097 -0.038253911 -0.0061250012 4285229353
-0.0053248927 -0.036647558 -0.0079068048 4285229609
0.017509026 -0.032118581 -0.015547046 4285164329
0.019849189 -0.033455849 -0.014599914 4285163819
0.022784904 -0.036996469 -0.011624063 4285163308
0.025747342 -0.040535145 -0.0086536771 4285294379
0.029537683 -0.047009304 -0.0029853918 4285294379
0.033985015 -0.0556826 0.0046988353 4285163309
-0.01228971 -0.043977931 -0.0026271604 4284901424
-0.01060465 -0.042365611 -0.0044121277 4285098283
-0.0087781027 -0.04149361 -0.0055105388 4285098029
-0.0072662085 -0.039142653 -0.0079751899 4285229099
-0.0054554753 -0.038271517 -0.0090700677 4285229354
-0.0038100556 -0.03666129 -0.010846409 4284967978
0.015421914 -0.033866264 -0.016295716 4285033259
0.017566774 -0.034471169 -0.016027175 4285294888
0.020101193 -0.036549851 -0.014407775 4285294633
0.022846423 -0.039364174 -0.012116297 4285294633
0.025613027 -0.042176969 -0.0098291449 4285229353
0.029601704 -0.049407549 -0.0035007931 4285294889
0.033846591 -0.057370812 0.0034902394 4285229099
-0.010586429 -0.044742391 -0.0048998632 4284966958
-0.0086053275 -0.044610083 -0.0053144805 4284966959
-0.0069331825 -0.042993948 -0.0070933737 4285163308
-0.0052716136 -0.041378438 -0.0088699115 4285295143
-0.0037805215 -0.039021999 -0.011325228 4285295398
-0.0023053512 -0.036666557 -0.013777073 4285164073
0.011017442 -0.034265473 -0.017989233 4284967213
0.013151228 -0.034873575 -0.017720181 4285294634
0.015476979 -0.036220923 -0.016776677 4285294888
0.017813426 -0.03756737 -0.015835345 4285295143
0.0203525 -0.039652288 -0.014221757 4285295143
0.022907611 -0.041736022 -0.01261143 4285360679
0.025873274 -0.045296416 -0.0096578971 4285229609
0.029665396 -0.051809937 -0.0040190816 4285229099
0.033708192 -0.059058636 0.0022819135 4285097519
-0.0072185881 -0.043882042 -0.0089431107 4285229099
-0.005559504 -0.042262346 -0.01071592 4285426213
-0.0040706955 -0.039899491 -0.013165909 4285229353
-0.0022730865 -0.039024606 -0.014254632 4285229353
-0.0014709756 -0.033689998 -0.019412292 4284967469
0.0061086826 -0.032425746 -0.021708762 4284901678
0.0085801557 -0.034522474 -0.020086395 4285098539
0.011248745 -0.037360229 -0.017792299 4285229353
0.01338755 -0.037970185 -0.017525919 4285229098
0.015718114 -0.039321564 -0.016586699 4285294633
0.018059401 -0.040672086 -0.01564955 4285294633
0.020603105 -0.042763248 -0.014041834 4285294888
0.023162864 -0.044853255 -0.012437332 4285294889
0.026329897 -0.049165457 -0.0088211112 4285098283
0.030128248 -0.055698305 -0.0031981617 4285031984
-0.0073494427 -0.045511663 -0.010110475 4285098028
-0.0058469884 -0.043141499 -0.012558524 4285229099
-0.0042009614 -0.041518107 -0.014325317 4285163563
-0.002565518 -0.039895341 -0.016089752 4285229353
-0.0014352612 -0.036036581 -0.019882221 4285032238
