# .PCD v0.7 - Point Cloud Data file format
VERSION 0.7
FIELDS x y z rgba
SIZE 4 4 4 4
TYPE F F F U
COUNT 1 1 1 1
WIDTH 974
HEIGHT 1
VIEWPOINT 0 0 0 1 0 0 0
POINTS 974
DATA ascii
-0.0017972477 -0.016380552 -0.0052303253 4282282319
0.00012701377 -0.01624405 -0.005656532 4282479943
0.0018731467 -0.015392374 -0.0067791669 4282545989
0.0037948973 -0.015255827 -0.0072046509 4283069503
0.0057167225 -0.015119132 -0.0076300567 4283199044
-0.0026667416 -0.0231396 -0.0010663979 4283000909
-0.0017601587 -0.018696349 -0.0056731729 4282282828
-8.7171793e-06 -0.017842274 -0.0067954166 4281761353
0.0019154921 -0.017705668 -0.0072215302 4281761609
0.0036590807 -0.016851883 -0.0083419112 4281957958
0.0057641231 -0.01743209 -0.00807356 4281958469
0.0078745373 -0.018011782 -0.0078063672 4282218568
0.0098016709 -0.017874498 -0.00823279 4282479943
0.011537515 -0.01702084 -0.00935107 4283460419
0.013462067 -0.016883519 -0.009776759 4283787584
-0.002633635 -0.02547298 -0.0015210956 4282870604
-0.0018958971 -0.020296488 -0.0068134544 4282152269
3.0752271e-05 -0.020159815 -0.0072401976 4281891659
0.0017796643 -0.019303624 -0.0083601838 4281696074
0.0037037991 -0.01916692 -0.0087862154 4281500488
0.005444847 -0.018311005 -0.0099043353 4281500489
0.007552281 -0.018893149 -0.009638059 4281174088
0.0092881098 -0.018037375 -0.010754853 4281239369
0.011209819 -0.017900374 -0.011179994 4281239369
0.012937754 -0.01704498 -0.012294824 4281500488
0.01505335 -0.017626029 -0.012030059 4282023239
0.016776012 -0.016770761 -0.013143546 4282088775
0.01889699 -0.017351199 -0.012879797 4282283848
0.021227803 -0.018648695 -0.011929694 4282348618
0.024812145 -0.024249297 -0.0068609742 4282479688
0.030747086 -0.037735406 0.0057470724 4282414408
0.03763321 -0.054081928 0.021075375 4282675784
0.042920783 -0.064685389 0.030896232 4282740808
-0.0029401444 -0.026366066 -0.0033657141 4282478669
-0.0018592849 -0.022618312 -0.0072606048 4282021709
-0.00010508299 -0.02175967 -0.0083802482 4281761098
0.0018215068 -0.021622922 -0.0088069132 4281696073
0.0037481748 -0.02148604 -0.0092334999 4281369419
0.0054919422 -0.020627793 -0.010350567 4281565514
0.0072304271 -0.019769762 -0.011466428 4281434953
0.008963652 -0.018912014 -0.012580977 4281434953
0.011073507 -0.019495916 -0.012316736 4281565769
0.012995116 -0.01935881 -0.012741773 4281369929
0.014916759 -0.019221578 -0.013166732 4281565258
0.016639469 -0.018364135 -0.014278627 4281826634
0.018356871 -0.017506938 -0.015389252 4281957450
0.020681817 -0.018809196 -0.014441132 4281826633
0.02425918 -0.024427939 -0.0093837734 4281891913
0.030604262 -0.039395187 0.0045648348 4281957450
0.037485857 -0.055792611 0.019856926 4281957194
-0.003076788 -0.027978834 -0.0045150444 4282609739
-0.0016508922 -0.025668491 -0.007019382 4282021963
0.00010868907 -0.024807278 -0.008138597 4281761354
0.0018630177 -0.023946326 -0.0092565613 4281892424
0.0036120936 -0.023085613 -0.010373273 4281565258
0.005355902 -0.022225168 -0.011488738 4281565514
0.0070944391 -0.021364938 -0.01260299 4281696073
0.0090158097 -0.021228101 -0.013028164 4281631049
0.010746464 -0.020368215 -0.014140437 4281565514
0.012665257 -0.020231333 -0.014564867 4281565514
0.014780194 -0.020816829 -0.014303195 4281565003
0.016502952 -0.019957174 -0.015413473 4281630540
0.018623266 -0.020542059 -0.015152822 4281565003
0.020748939 -0.021126468 -0.014893209 4281630283
0.024327286 -0.026762675 -0.0098490454 4281499213
0.030670894 -0.041776236 0.0040658955 4281499469
0.037550621 -0.058224346 0.019321192 4281760844
-0.003382653 -0.028864663 -0.0063544959 4283069249
-0.0014431924 -0.028727259 -0.0067842007 4282480963
0.00032175705 -0.027863484 -0.0079030022 4282088264
0.0020814463 -0.026999902 -0.0090205818 4282023239
0.0036559701 -0.02541076 -0.010824854 4281892424
0.0055850893 -0.02527361 -0.011251919 4281696584
0.0073289983 -0.024410848 -0.012365708 4281696583
0.009255562 -0.02427363 -0.012792021 4281696584
0.010991588 -0.023411211 -0.013903899 4281565258
0.012915574 -0.023273934 -0.014329467 4281499978
0.014643665 -0.022411775 -0.015439443 4281695564
0.016763635 -0.022999052 -0.015180375 4281565259
0.018888943 -0.023585763 -0.014922429 4281499979
0.021019598 -0.024171989 -0.014665589 4281434188
0.024808198 -0.030549515 -0.0089530461 4281564495
0.030737169 -0.044161361 0.0035640355 4281564495
0.03719122 -0.059213024 0.017420713 4281760333
-0.0036881045 -0.029745761 -0.0081905834 4284181559
-0.0017514452 -0.029608559 -0.0086196736 4283462714
0.00018528849 -0.029471237 -0.0090486947 4282480963
0.0021221116 -0.029333781 -0.0094776414 4282350659
0.0036995113 -0.027740013 -0.011279374 4281957703
0.0056311414 -0.027602699 -0.011707 4281892679
0.0075628348 -0.02746525 -0.01213455 4281695818
0.0094945803 -0.027327675 -0.012562018 4281435463
0.011426367 -0.027189989 -0.012989413 4281696839
0.012972083 -0.025597904 -0.014783636 4281761864
0.014702898 -0.024733406 -0.015892569 4281696074
0.016626801 -0.024595913 -0.016317947 4281499723
0.018952826 -0.025911409 -0.015379857 4281565003
0.021085806 -0.026499663 -0.015125148 4281891914
0.025081599 -0.033623111 -0.0087468326 4281760844
0.03080309 -0.046550598 0.0030592661 4281695308
0.03704394 -0.060922731 0.016202964 4281760843
0.001985535 -0.030941274 -0.010623101 4284638774
0.0037427172 -0.030073386 -0.011736825 4284573749
0.0054946505 -0.029205795 -0.012849255 4284377653
0.0072413161 -0.028338458 -0.013960429 4283592509
0.0093577914 -0.028930802 -0.013704212 4283266363
0.011479639 -0.029522669 -0.013449114 4282678334
0.013413988 -0.029384676 -0.013876988 4281958724
0.015152842 -0.028517392 -0.014986062 4281827909
0.016886389 -0.027650382 -0.016093884 4281892679
0.018815489 -0.027512383 -0.016520318 4281892168
0.021151666 -0.028831448 -0.015587632 4281826889
0.025148081 -0.035976868 -0.0092255855 4281826889
0.030868649 -0.048943948 0.0025515575 4281892424
0.036896683 -0.062632114 0.01498545 4281957703
0.01366213 -0.032452878 -0.01365982 4283983933
0.01540634 -0.031583037 -0.014768478 4283788858
0.017145246 -0.030713383 -0.015875906 4282873918
0.018878859 -0.029844042 -0.016982034 4282351934
0.021013826 -0.030436549 -0.016730994 4282154564
0.025008196 -0.03760409 -0.010384661 4282154308
0.030516522 -0.049880568 0.00068739243 4282089283
0.030373277 -0.051545065 -0.00049819611 4284573749
-0.01837343 -0.048657183 -0.0041020624 4283001674
-0.01670792 -0.047032271 -0.005904926 4282543694
-0.014596965 -0.047637653 -0.0056567844 4282347344
-0.018217243 -0.051778462 -0.0038988683 4282479178
-0.016695321 -0.049403179 -0.0063816179 4281955408
-0.014885649 -0.048519727 -0.0074981842 4282020433
-0.013235629 -0.046891231 -0.0092942435 4282477904
-0.011439018 -0.046008464 -0.010407729 4282673999
-0.0094878078 -0.045870807 -0.010840466 4282804048
-0.0036336035 -0.045457046 -0.012138248 4284048959
-0.0016820244 -0.045318875 -0.012570699 4284442169
0.00026965514 -0.045180548 -0.013003072 4284573494
-0.019605212 -0.057291638 -0.0012188982 4282542673
-0.018354341 -0.053412262 -0.0050635431 4281889363
-0.016980968 -0.050282534 -0.0082218442 4281890384
-0.015173905 -0.049397033 -0.0093362648 4281890893
-0.013372049 -0.048511837 -0.0104494 4282020943
-0.011575393 -0.047626887 -0.011561295 4281955153
-0.0099435523 -0.045995053 -0.013349911 4281888853
-0.0016489178 -0.047683727 -0.013048558 4282607443
0.00013235584 -0.046799082 -0.01415647 4282543183
0.0019083843 -0.045914713 -0.01526315 4283197258
0.0040356219 -0.0465221 -0.015020942 4283264069
0.0058064535 -0.045637835 -0.016126277 4283395649
0.0083062574 -0.04773533 -0.014539825 4284115514
-0.019886486 -0.058185663 -0.0030711908 4282543438
-0.018637478 -0.054295506 -0.0069073197 4281955664
-0.017117411 -0.0519072 -0.0093799848 4281956174
-0.015310317 -0.051019531 -0.010492804 4281891149
-0.013508424 -0.050132144 -0.011604348 4281955918
-0.011711732 -0.049245004 -0.012714637 4281824849
-0.0097608417 -0.049107376 -0.013147311 4281954133
-0.00017762929 -0.04766899 -0.015983077 4282607443
0.0056689158 -0.047253925 -0.017277805 4283001418
0.0083513856 -0.05010568 -0.015024936 4283067463
0.011427268 -0.054450613 -0.011435779 4283461693
0.014157761 -0.057298686 -0.0091933524 4284311353
-0.020167343 -0.059075039 -0.0049200905 4282280789
-0.01906614 -0.0544216 -0.0094254706 4281759313
-0.017550997 -0.052027028 -0.011892254 4281956683
-0.015597947 -0.051889647 -0.012325695 4282022728
-0.013798669 -0.051000256 -0.013435038 4281956429
-0.011848032 -0.050862793 -0.013867756 4282021454
-0.0098972917 -0.050725196 -0.014300412 4281955409
0.0034047812 -0.048257928 -0.018668329 4282934863
0.0055314079 -0.048869673 -0.018429095 4282739024
0.0085793361 -0.053229887 -0.014843522 4282543438
0.012030963 -0.05908693 -0.0099271117 4282675784
-0.020590857 -0.059204828 -0.0074423766 4282476374
-0.019348286 -0.055293199 -0.011260943 4281758803
-0.017687 -0.053646665 -0.013046818 4281825359
-0.015734091 -0.053509291 -0.013480226 4282152779
-0.013781063 -0.053371806 -0.013913581 4282087244
-0.011827931 -0.053234179 -0.01434687 4282086734
-0.0098746791 -0.05309641 -0.014780084 4281954899
-0.0077596307 -0.053712051 -0.014540603 4282280533
0.0084405728 -0.054858584 -0.016003998 4282150484
0.011890538 -0.06073333 -0.011100146 4282412624
-0.0078965425 -0.0553337 -0.015696397 4282148444
0.0084846541 -0.057241183 -0.016497916 4282346578
0.011750143 -0.062379386 -0.012272953 4282607189
0.0081631504 -0.058115084 -0.01832431 4283066188
-0.0079064667 0.049103417 0.021742489 4278733994
-0.0044954456 0.050651487 0.019405287 4278404533
-0.010416362 0.049332462 0.018783856 4278733994
-0.0092188567 0.052037042 0.01536078 4278865064
-0.0078714862 0.054097481 0.01269405 4279061923
-0.0058449507 0.053586796 0.013035044 4279324828
-0.0031072386 0.050507344 0.016376592 4278930344
0.00019457936 0.045503512 0.02196176 4278602924
0.0029939003 0.042428516 0.0252898 4278537899
0.0092751235 0.040911809 0.026268672 4278800548
0.011148121 0.047594614 0.017959893 4278271679
-0.012420077 0.047639839 0.018086765 4280504968
-0.011211336 0.050353974 0.014667645 4278602923
0.00086104125 0.047927693 0.015935007 4278865318
0.0029197261 0.047417335 0.01626737 4278603689
0.0047969148 0.047551196 0.015852101 4278537643
0.0070133582 0.052966226 0.0090592131 4278668713
0.0084794834 0.054385178 0.0071592946 4278996388
0.014984846 0.045650139 0.016750351 4278274484
0.028260849 0.040685993 0.020906296 4278274484
-0.013691626 0.050614368 0.011723977 4278538918
-0.0023975968 0.05075825 0.010010201 4278865319
2.168119e-06 0.048951313 0.011837833 4278407083
0.0018658489 0.049084127 0.011425491 4278734503
0.0035428666 0.049862996 0.010268282 4278472108
0.0059207194 0.054647893 0.0042388868 4279060904
0.0077633038 0.054779451 0.003831394 4279847834
0.015927151 0.046791382 0.012246765 4278537389
0.018010028 0.046280973 0.012572546 4278734759
0.020098258 0.045771055 0.012897145 4278669478
0.0217703 0.046550132 0.011741452 4278407084
0.022369798 0.05054938 0.0068919379 4278799018
0.023801696 0.051970754 0.0050032437 4278993584
0.026316803 0.050172877 0.0068060551 4278337214
-0.01503548 0.046338681 0.014031034 4281029758
-0.014310379 0.05102044 0.0083780922 4278604453
-0.012796596 0.052450925 0.0064736195 4278603943
-0.011125494 0.053231135 0.0053190123 4278668713
-0.009118557 0.052712314 0.0056593157 4278865574
-0.0072793625 0.05284312 0.0052521937 4278669224
-0.0049124621 0.051027015 0.0070821531 4278538154
-0.0028865188 0.05050974 0.0074183885 4278472618
-0.00085514784 0.049992912 0.0077534653 4278603944
0.00063002855 0.05142175 0.0058556832 4278734759
0.0024776869 0.051553469 0.005446922 4278865574
0.014375124 0.049756836 0.0059541352 4278865574
0.016028564 0.050536655 0.0048040785 4278865574
0.017884584 0.050669476 0.0043938346 4278406828
0.020743649 0.053520575 0.00062381849 4278732463
0.022373075 0.054298937 -0.0005207397 4279586458
0.024652915 0.053139202 0.00054460764 4278866084
0.02804973 0.048751544 0.0052859038 4278865065
0.03170782 0.043721125 0.010753999 4278667694
0.035182014 0.039339148 0.015478302 4278668458
0.040901728 0.039750215 0.014215346 4278407338
0.04375473 0.042602163 0.010447612 4278337723
-0.015646286 0.046743322 0.010681923 4279390364
-0.014765635 0.050787929 0.0057888404 4278733739
-0.013421874 0.052874368 0.0031423029 4278271934
-0.011590995 0.053004425 0.0027369093 4278271679
-0.007063847 0.050007757 0.0056496225 4278603178
-0.0048679449 0.04883657 0.0067295115 4278668968
-0.0030179471 0.048968244 0.0063200761 4278865829
-0.0015298836 0.050401628 0.0044248477 4278472618
0.00013126805 0.051183693 0.0032743327 4278472874
0.0014144406 0.053266369 0.0006415341 4278407594
0.0030597262 0.054047436 -0.00050537288 4278603433
0.0046997219 0.054828178 -0.001651071 4278537898
0.0069175288 0.053659003 -0.00057569332 4278341548
0.0093431026 0.051840942 0.0012367647 4278407083
0.011784729 0.050024129 0.0030456781 4278407083
0.013837665 0.049507122 0.0033747219 4278472874
0.015280832 0.050937898 0.0014898628 4278472874
0.016713329 0.052367963 -0.00039259717 4278407083
0.029558733 0.047978278 0.0030324906 4278471854
0.032328237 0.045521773 0.0055523776 4278734759
0.034660913 0.044361629 0.0066030361 4278604199
0.035613701 0.04708555 0.0032611676 4278473129
0.036545072 0.049807996 -7.5925142e-05 4278602668
0.037455015 0.052528966 -0.0034082383 4278995878
0.039782088 0.051368725 -0.002356194 4279782043
0.043816775 0.045684271 0.0037989877 4278470579
-0.016096435 0.046506967 0.0080884453 4278866338
-0.015220061 0.05056446 0.0032060873 4278734248
-0.013881158 0.052657198 0.00056543946 4279258019
-0.0075403377 0.04977823 0.0030683726 4278668203
-0.0053502172 0.048602145 0.0041463207 4278734249
-0.0035056286 0.048733406 0.0037380606 4278865318
-0.001841791 0.049517792 0.0025885161 4278668968
-0.00036669895 0.050954767 0.00069940463 4278538154
0.0043779463 0.053956881 -0.0034755543 4278274484
0.0069809742 0.051478822 -0.00092596374 4278668969
0.0092117265 0.050306164 0.00014338084 4278407083
0.011253681 0.049786091 0.00047317892 4278604199
0.013098817 0.049917992 6.5239146e-05 4278735013
0.014739126 0.050701287 -0.001078669 4278735014
0.016166575 0.052135456 -0.002956802 4278407083
0.017373174 0.054219838 -0.0055673113 4278603178
0.028754393 0.048375629 -0.00026901811 4278800039
0.031062599 0.047209293 0.00078370981 4278800038
0.033152558 0.0466934 0.0011034384 4278669734
0.036374476 0.053585906 -0.0074202269 4278667439
0.038450841 0.053069301 -0.0070973001 4279192483
0.041743673 0.04930982 -0.0031366516 4278799274
-0.018546037 0.046805941 0.0051648412 4280111504
-0.015835635 0.051006727 -0.00011410937 4278340783
-0.014339626 0.052449085 -0.0020049065 4279389344
-0.01285417 0.053890787 -0.0038933717 4279258273
-0.0058316961 0.048376858 0.0015695579 4278799784
-0.0039925389 0.048507705 0.0011624806 4278603178
-0.0023339167 0.049293917 1.5707687e-05 4278471854
-0.0010471679 0.051389962 -0.002608154 4278602923
0.0092770346 0.048117451 -0.00021367148 4278603433
0.011122059 0.048249274 -0.00062163919 4278473129
0.012967113 0.048381161 -0.0010295697 4278603944
0.014402855 0.049820274 -0.0029063337 4278669479
0.015413284 0.052565373 -0.0062483167 4278538408
0.017032355 0.05334954 -0.0073858481 4278930854
0.018646102 0.054133352 -0.0085221035 4279258019
0.02068519 0.053611271 -0.008193003 4278996644
0.023165647 0.051784404 -0.0064020446 4278669224
0.026103476 0.04865393 -0.00315281 4278276523
0.028844623 0.046177663 -0.00063970312 4278538664
0.030702988 0.046311121 -0.0010501184 4278603944
0.031875215 0.048400193 -0.0036478452 4278669734
0.033031385 0.050488129 -0.0062419362 4278537898
-0.019771114 0.049886454 -0.001132682 4279260059
-0.018107966 0.050674617 -0.0022792593 4278668458
-0.0084908716 0.049346376 -0.0020746235 4278537389
-0.0063123628 0.048160613 -0.0010006968 4278800039
-0.0048341751 0.049606428 -0.0028840713 4278799783
-0.0031861439 0.050394103 -0.004026942 4278537388
-0.0008347556 0.055254072 -0.009993854 4279258783
0.00078414381 0.056039836 -0.011130084 4279062943
0.0033533908 0.053541634 -0.0085861469 4278602669
0.0061378554 0.050388407 -0.0053116046 4278733993
0.0085561238 0.048549939 -0.0035122372 4278668458
0.010393053 0.048681173 -0.0039184187 4278668969
0.012230016 0.048812475 -0.0043245647 4278472873
0.013862528 0.049599633 -0.0054634931 4278276523
0.023469873 0.048946984 -0.006030486 4278799528
0.026412001 0.045805782 -0.0027903244 4278735013
0.028488154 0.045284316 -0.0024708398 4278603944
0.029892087 0.046726134 -0.0043369085 4278538664
0.031056808 0.048821263 -0.00692805 4278669734
0.032436624 0.050261483 -0.0087886937 4278538664
0.034039557 0.051047288 -0.0099205226 4278472873
0.035637088 0.051832769 -0.011051113 4279061669
0.037946753 0.050658081 -0.010004933 4278668459
0.040750727 0.048177984 -0.0075118421 4278734248
0.045532163 0.040476196 0.00076864846 4278799783
-0.021107495 0.045592733 0.0011590607 4280832643
-0.020212263 0.049691092 -0.0036983863 4279128989
-0.018554367 0.050481111 -0.0048422348 4278735268
-0.017063215 0.051931832 -0.0067255469 4278931363
-0.015254147 0.052060153 -0.0071262494 4279127968
-0.013611857 0.052849226 -0.008266448 4278997154
-0.01129647 0.050996084 -0.006449718 4278866084
-0.0089649484 0.049144123 -0.0046364591 4278800548
-0.0069671571 0.048613615 -0.0043022558 4278735269
-0.0054966845 0.050063279 -0.0061806915 4278800548
-0.0042170621 0.052172016 -0.0087933401 4278472618
-0.0015200302 0.055726919 -0.013272471 4278405809
9.0975314e-05 0.056514323 -0.014405336 4278340529
0.0076401122 0.049654555 -0.0075341733 4278668713
0.0094662718 0.049785007 -0.0079379845 4278865574
0.011292472 0.049915537 -0.0083417501 4278668969
0.012914412 0.050704144 -0.0094767204 4278406319
0.015723057 0.053595711 -0.013203161 4278603179
0.02312045 0.048072018 -0.0078500258 4278799274
0.026279164 0.044262651 -0.0038894564 4278866083
0.02835504 0.043738969 -0.0035715271 4278735014
0.02953363 0.045841701 -0.0061609438 4278735268
0.030239539 0.049255922 -0.010198642 4278342058
0.031149685 0.052012198 -0.013505031 4278668713
0.03550528 0.050307479 -0.012137397 4278406064
0.038292468 0.047817297 -0.0096471338 4278996389
0.04134259 0.044673387 -0.0064385217 4278735269
0.046862621 0.034980133 0.0039884672 4278473128
-0.019716308 0.045522928 -0.0018157456 4279128478
-0.018047631 0.046315879 -0.0029603876 4279128478
-0.016545534 0.047771763 -0.004842896 4279259548
-0.014725871 0.047900807 -0.0052459678 4279194014
-0.013072804 0.048692826 -0.006386946 4279259549
-0.01108617 0.048159137 -0.0060520312 4278866338
-0.0090940893 0.047625922 -0.005718261 4278735524
-0.007271301 0.047755476 -0.0061218077 4278801058
-0.0059806146 0.049871545 -0.0087320926 4278800804
-0.0048859082 0.05264844 -0.012073744 4278931618
-0.0034470111 0.054100439 -0.013941893 4278341549
-0.0002248697 0.055679567 -0.016204476 4278273719
0.0043300539 0.052630514 -0.013337914 4278406574
0.0067256466 0.050777156 -0.011543297 4278537898
0.0085410438 0.050906837 -0.011944729 4278603434
0.010557905 0.050376132 -0.011615815 4278668713
0.013367116 0.053276427 -0.015335987 4278668204
0.014965154 0.054065675 -0.016463947 4278866084
0.016769966 0.054194968 -0.016862767 4279062433
0.019433847 0.051686484 -0.014352296 4278865318
0.025486011 0.044696975 -0.0071668187 4278735269
0.027330803 0.044829421 -0.007574264 4278538664
0.028499203 0.046938065 -0.010156539 4278538408
0.029423425 0.049704127 -0.013459581 4278407338
0.04169181 0.041813236 -0.0060960036 4278405298
-0.019065917 0.040671326 0.00079307519 4278735014
-0.017383814 0.04146741 -0.00035293587 4278538663
-0.008707568 0.044113699 -0.0045943484 4278473639
-0.0070513971 0.044908337 -0.0057342499 4278735779
-0.0057548955 0.047031414 -0.0083409688 4278736034
-0.0044743195 0.04915344 -0.010944099 4279128478
-0.0028445721 0.049946412 -0.012077993 4279062943
-0.0014053024 0.051402874 -0.013942884 4278932639
0.00021123886 0.052195106 -0.015073784 4278670499
0.001822494 0.052986983 -0.016203426 4278931873
0.0040081553 0.051788893 -0.01514045 4278735268
0.0060086399 0.051254701 -0.014809698 4278866339
0.007617373 0.052046627 -0.015938612 4278800548
0.0094220378 0.0521756 -0.016337626 4278800549
0.024474081 0.045806177 -0.011159126 4278800549
0.026530696 0.045276754 -0.010840225 4278800549
0.027916841 0.046730533 -0.012692548 4278800294
0.029503966 0.052938763 -0.020000957 4278996644
0.031311117 0.053068817 -0.020399859 4279194524
0.034297898 0.049898155 -0.017193597 4278734248
0.042281538 0.0382846 -0.0050397888 4278472618
-0.018417381 0.035797719 0.0033862088 4278735269
-0.016721822 0.036596932 0.0022388175 4278604198
-0.015031464 0.037395805 0.0010926798 4278539173
-0.013182636 0.037526853 0.00068310089 4278342568
-0.011333674 0.037658006 0.00027356111 4278342314
-0.009653613 0.038456373 -0.00087013282 4278473383
-0.0079787709 0.039254449 -0.002012616 4278407849
-0.0063091628 0.040052224 -0.0031538866 4278277034
-0.0033450574 0.042979702 -0.0068964483 4278342569
-0.0020612478 0.045108639 -0.0094953794 4278408104
-0.00042332336 0.045904461 -0.010629418 4278669988
0.00083393976 0.048031665 -0.013222357 4279063198
0.0028367043 0.047495257 -0.012893859 4278800803
0.0044588 0.048290193 -0.014024215 4279784338
0.0062713064 0.048419572 -0.014425078 4279849619
0.0076871105 0.049879141 -0.01628126 4279390874
0.0092933103 0.050673164 -0.017407937 4279194013
0.010690469 0.05213159 -0.019259932 4278931619
0.012283362 0.052924812 -0.020383555 4278996899
0.013661869 0.05438206 -0.022231314 4278668968
0.015876595 0.05318214 -0.02117764 4278734503
0.018316388 0.051319167 -0.019402118 4278669479
0.02098923 0.048793733 -0.016906573 4278735269
0.023463693 0.04693339 -0.015138603 4278604198
0.025509346 0.046400975 -0.014818905 4278604199
0.026885105 0.047858439 -0.016665675 4278669224
0.030481882 0.053551875 -0.023631562 4278930344
0.033223867 0.051031899 -0.021150848 4278733994
-0.018237107 0.032913096 0.0037569571 4279718038
-0.016377971 0.033044703 0.0033449698 4278801314
-0.014679506 0.033846326 0.0021986347 4278866849
-0.01298625 0.034647655 0.0010535065 4278735779
-0.01096591 0.034109589 0.0013759732 4278735524
-0.0092777312 0.034910716 0.00023208745 4278604198
-0.0074233077 0.035042368 -0.00017857552 4278538663
-0.0059171058 0.036512122 -0.0020520817 4278342314
-0.0040678047 0.036643576 -0.0024614893 4278473384
-0.0023979135 0.037443712 -0.0036010984 4278473383
-0.00073327869 0.038243558 -0.0047394838 4278408359
0.0067287609 0.044908267 -0.013319908 4278342314
0.00815285 0.046372887 -0.015174716 4278866338
0.0097671561 0.047169685 -0.016301567 4278604709
0.011376146 0.047966186 -0.017427186 4278735268
0.012567423 0.050095834 -0.020000271 4278997153
0.014160424 0.050891347 -0.021122238 4279062943
0.016382687 0.049687553 -0.020073477 4279325594
0.018615611 0.048484653 -0.019027054 4278932128
0.020642336 0.047948524 -0.018704908 4278997664
0.022674382 0.04741285 -0.018383881 4278669988
0.024045125 0.048874307 -0.020226341 4278604709
0.02585491 0.049004342 -0.020625979 4278342568
-0.019158594 0.02652427 0.008207608 4282732903
-0.018057533 0.030019764 0.0041215625 4279718548
-0.016193151 0.030151708 0.0037083887 4278736289
-0.014489282 0.030955939 0.002562413 4278735779
-0.012627285 0.03108787 0.0021498837 4278735779
-0.010765187 0.03121989 0.0017373916 4278735779
-0.009071596 0.032023586 0.00059390999 4278538918
-0.0073832273 0.032826982 -0.00054835714 4278735524
-0.0058740713 0.034301341 -0.002419278 4278735524
-0.0040222071 0.034432951 -0.0028292742 4278735524
-0.0023495555 0.035235479 -0.0039678793 4278866849
-0.00031820312 0.03469643 -0.003649151 4278866849
0.0013492666 0.035498746 -0.0047864933 4278539173
0.0028241612 0.036971025 -0.0066494914 4278539173
0.0042884275 0.038442686 -0.0085101184 4278604453
0.0059347339 0.039243735 -0.0096426019 4278539173
0.0075757541 0.040044487 -0.010773855 4278276779
0.010641214 0.042314451 -0.013756636 4278277289
0.016887637 0.046179894 -0.018978698 4278342059
0.022544272 0.045901932 -0.019460056 4278604708
0.024137318 0.046700049 -0.02058012 4278932128
0.025724998 0.047497869 -0.021698935 4278735779
0.02685258 0.049630199 -0.024252612 4278736034
0.027964113 0.051761422 -0.026802637 4279063198
0.029292261 0.05322459 -0.028632252 4279193759
0.03178649 0.051352911 -0.026878037 4278997408
0.035486817 0.046149299 -0.021548869 4278538663
0.042840246 0.030952247 -0.0055026365 4278538663
-0.019290775 0.024960779 0.0070933159 4282470508
-0.018033758 0.027792584 0.0037475657 4279914899
-0.016166814 0.027924677 0.0033337995 4278932894
-0.014299724 0.028056866 0.0029200613 4278801314
-0.012595616 0.02886332 0.0017757379 4278604708
-0.010565173 0.028321499 0.0020926781 4278473384
-0.0088661462 0.029127752 0.00094959699 4278473384
-0.0070012361 0.029260116 0.00053658523 4278801059
-0.0056575835 0.031412892 -0.0020611845 4278604453
-0.0038004741 0.031544849 -0.0024723578 4278801059
-0.0023015253 0.033023044 -0.0043376666 4278539173
-0.00026778877 0.032481894 -0.0040210579 4278735779
0.0014024377 0.033286646 -0.0051574372 4278604708
0.0030673966 0.034091052 -0.0062925564 4278539173
0.0045372956 0.03556747 -0.0081511438 4278604708
0.006573949 0.035026908 -0.0078349784 4278735524
0.0082257353 0.035830628 -0.0089669954 4278538918
0.010070026 0.035962336 -0.0093748439 4278604453
0.011112455 0.038780279 -0.012672065 4278735523
0.012742981 0.039582737 -0.013799194 4278473384
0.013956565 0.041727223 -0.016367465 4278407848
0.015988067 0.04118678 -0.016049795 4278473384
0.028984327 0.046921361 -0.02428654 4278342314
0.030093608 0.049059171 -0.026831174 4278931873
0.032362677 0.04785065 -0.025798704 4279128733
0.03583153 0.043298736 -0.021198064 4279194269
0.044147801 0.02537634 -0.0023352988 4279194269
-0.017390609 0.022853263 0.0062938221 4279324829
-0.015668012 0.023663051 0.0051468927 4279325594
-0.014110878 0.025149183 0.0032714996 4278932384
-0.012238428 0.025281796 0.0028566066 4278669989
-0.010365851 0.025414502 0.0024417508 4278866594
-0.0084931515 0.025547309 0.0020269323 4278670244
-0.006962195 0.027031874 0.00015763007 4278932128
-0.0054418109 0.028515818 -0.0017093141 4278997664
-0.0039319955 0.029999055 -0.0035738107 4278408103
-0.0022538267 0.030806346 -0.0047104191 4278604963
-0.00058092549 0.031613395 -0.0058458429 4278408103
0.0012709908 0.031745218 -0.0062556956 4278342824
0.0029360391 0.032551832 -0.0073892148 4278670498
0.0044062175 0.034032673 -0.0092446227 4278736033
0.0064425804 0.033489864 -0.0089300321 4278473894
0.008289393 0.033621661 -0.0093385037 4278473894
0.0099386424 0.03442749 -0.010468278 4278735524
0.011382286 0.03590681 -0.012317621 4278538918
0.0128153 0.037385419 -0.0141645 4278539173
0.014648885 0.037516601 -0.014569806 4278539173
0.016690772 0.036974698 -0.014256056 4278277034
0.01852704 0.037106253 -0.014661828 4278604453
0.020149684 0.037910677 -0.015785351 4278735524
0.022199566 0.037369601 -0.015473184 4278735524
0.024035806 0.037501402 -0.015878761 4278473384
0.025872024 0.037633292 -0.016284268 4278407849
0.02748391 0.038437281 -0.017405165 4278276779
0.028863452 0.039912801 -0.019239685 4278342314
0.030232256 0.041387677 -0.021071814 4278342569
0.031822659 0.042190373 -0.022187786 4278342569
0.033642635 0.042321503 -0.022589406 4278408104
0.037126053 0.037755206 -0.018003335 4278734759
0.045212734 0.020444889 0.00010130554 4278734759
-0.012322027 0.015444577 0.01089729 4280569993
-0.01106862 0.018293977 0.0075654779 4279849618
-0.0095056146 0.019785076 0.0056921318 4278342569
-0.0079531595 0.021275479 0.0038212389 4279456664
-0.0065820068 0.023443319 0.0012270305 4279063198
-0.0052267425 0.025610069 -0.0013635587 4278801058
-0.0035352409 0.026420416 -0.0025015697 4278735524
-0.0020277351 0.02790801 -0.0043623019 4278604708
-0.00016799197 0.028040297 -0.0047739558 4278539429
0.0013236701 0.029526889 -0.0066310139 4278473894
0.003178224 0.029658968 -0.0070413994 4278539429
0.004653994 0.031144651 -0.0088948542 4278604963
0.006503325 0.031276532 -0.0093039535 4278670498
0.0081579536 0.032084864 -0.01043336 4278604708
0.010004703 0.032216724 -0.010841769 4278735524
0.011451308 0.033700626 -0.012688476 4278604453
0.013090011 0.034508109 -0.013814221 4278604453
0.014928833 0.034639671 -0.014220679 4278735524
0.017183868 0.033420488 -0.013192214 4278539173
0.019028045 0.033552609 -0.013599727 4278408103
0.020872219 0.033684812 -0.014007182 4278801059
0.022500277 0.034491923 -0.015130213 4278735524
0.024341755 0.034624107 -0.015536943 4278604453
0.026183207 0.034756377 -0.015943602 4278604453
0.028024629 0.034888722 -0.016350197 4278735524
0.029639224 0.035695247 -0.017470047 4278669733
0.031248445 0.036501445 -0.018588593 4278473128
0.032852277 0.037307326 -0.019705895 4278276524
0.034685496 0.037439421 -0.02011043 4278669733
0.038418278 0.03218523 -0.014827363 4278604198
-0.0048391744 0.02201565 -0.00030049682 4281619829
-0.0033154711 0.023508653 -0.0021616053 4279197073
-0.0016237982 0.024321284 -0.0032979827 4278999449
-0.00011860579 0.025813194 -0.0051549058 4278933404
0.0013759956 0.027304407 -0.0070093684 4279064218
0.0030465573 0.028115794 -0.0081408825 4278867359
0.0047118329 0.028926948 -0.009271198 4278997919
0.00617994 0.03041653 -0.011119611 4278932129
0.0080265403 0.030548291 -0.011528053 4278932129
0.0096759573 0.031358525 -0.012654629 4278408103
0.011719864 0.0308121 -0.012344763 4278735524
0.013364002 0.031622127 -0.013470043 4278604453
0.015413292 0.031076264 -0.013161239 4278604453
0.017467933 0.030530855 -0.012853558 4278670243
0.019317338 0.030663352 -0.013262227 4278539173
0.020953503 0.031473167 -0.014385486 4278473638
0.022584317 0.032282688 -0.015507498 4278342568
0.024209781 0.033091914 -0.016628258 4278473638
0.026272377 0.032547519 -0.016322013 4278604453
0.028340278 0.032003589 -0.016016874 4278538918
0.030186897 0.03213641 -0.016424542 4278539173
0.031574957 0.03362149 -0.018254362 4278539173
0.033184208 0.034430027 -0.019371267 4278735269
0.035022661 0.034562521 -0.01977694 4278800804
0.03923367 0.027939903 -0.013088929 4278866594
0.00029251352 0.022218388 -0.0040984973 4279788419
0.0017953888 0.023714583 -0.0059515564 4279656074
0.0034740306 0.024528785 -0.0070832856 4279326614
0.0049583651 0.026023835 -0.0089321146 4279195034
0.0068154857 0.026156254 -0.0093429526 4279063963
0.0086726584 0.026288765 -0.0097537367 4278867613
0.01033283 0.027101973 -0.010881071 4278801314
0.012187406 0.027234482 -0.011291148 4278800804
0.013637237 0.028727554 -0.013132064 4278538663
0.015486524 0.028859869 -0.013540834 4278604198
0.017335819 0.028992265 -0.013949546 4278342568
0.019395502 0.02844511 -0.013644535 4278342824
0.021460533 0.027898386 -0.013340592 4278539173
0.02288371 0.029389992 -0.015175289 4278604708
0.024732979 0.029522758 -0.015583725 4278473638
0.02658223 0.029655594 -0.015992103 4278473638
0.02887891 0.028431104 -0.014978938 4278538918
0.030733427 0.028564503 -0.015388343 4278342569
0.032129761 0.03005464 -0.017216776 4278801059
0.033747114 0.030865945 -0.018333793 4278735524
0.03535907 0.031676937 -0.019449556 4278800804
0.040521652 0.0223216 -0.0099474331 4278472873
0.013909757 0.02582431 -0.012800188 4279393933
0.015559401 0.026639279 -0.01392342 4279261843
0.016996212 0.028135985 -0.015758023 4278998683
0.01947332 0.026222626 -0.014029791 4278932893
0.021540705 0.025673907 -0.013728036 4278998683
0.023828946 0.024444189 -0.012716485 4278801824
0.025473258 0.025259184 -0.013838161 4278408103
0.027553935 0.024711695 -0.013539139 4278539429
0.029192854 0.025526484 -0.014659489 4278408359
0.030826397 0.026340991 -0.015778577 4278539683
0.032225676 0.027835768 -0.017604405 4278867104
0.033614248 0.02932981 -0.019427765 4278801314
0.035460494 0.029462906 -0.019835131 4278866594
0.041096691 0.018716794 -0.0089433175 4278407849
0.019970763 0.022627845 -0.012997061 4279984769
0.02268387 0.020025749 -0.010568871 4279524494
0.02584899 0.016057882 -0.006726684 4279458958
0.028174091 0.014826443 -0.0057264082 4279196053
0.030068479 0.014962535 -0.0061447453 4278802078
0.031516142 0.016465034 -0.0079781348 4278409124
0.032953106 0.017966803 -0.0098090526 4278997919
0.03415066 0.02015068 -0.012343952 4278866849
0.035100825 0.023016017 -0.015580968 4278604453
0.036965646 0.023150448 -0.015992433 4278474148
0.042854011 0.01168802 -0.0044253841 4278539683
0.040052053 0.0063997395 -0.0011930112 4282275434
0.041741624 0.0072229989 -0.0023209918 4281094019
-0.03470321 -0.014980022 0.041675713 4285296163
-0.033578299 -0.010039728 0.036103509 4286017049
-0.031596489 -0.0099006034 0.035663478 4286147608
-0.028571479 -0.015244048 0.041074574 4286147608
-0.037201189 -0.014721308 0.03873565 4285032238
-0.035820253 -0.011141133 0.034635313 4285493278
-0.034340866 -0.0082506426 0.03127189 4285623328
-0.032500006 -0.0074247904 0.030104414 4285492003
-0.029883139 -0.010724489 0.033316959 4285754399
-0.026840851 -0.016084317 0.038711283 4285754653
-0.024297804 -0.018692348 0.04118165 4285689629
-0.022009589 -0.019924764 0.042191226 4285558559
-0.020273902 -0.018409159 0.040288724 4285493279
-0.018835723 -0.015520956 0.036934894 4285295653
-0.017418668 -0.012634162 0.033585809 4285689118
-0.014832027 -0.015238661 0.036046837 4285884448
-0.011163354 -0.022643883 0.043578696 4285884704
-0.039798222 -0.013756972 0.035070568 4284900914
-0.038414031 -0.01016568 0.030977525 4285493024
-0.03656821 -0.0093374811 0.029810417 4285821208
-0.035101503 -0.0064391047 0.026456259 4285820953
-0.033146545 -0.0063019618 0.026022121 4285820698
-0.030801363 -0.0082340352 0.027772691 4286017814
-0.027909346 -0.012923185 0.03243022 4285952534
-0.025656447 -0.014162678 0.033444334 4285624094
-0.023392707 -0.015401263 0.034456059 4285624604
-0.021680743 -0.013882969 0.032562036 4285624603
-0.02012258 -0.011676442 0.029945105 4285821208
-0.018726215 -0.008782316 0.026607081 4285952279
-0.016310424 -0.01070879 0.028342444 4285820443
-0.013424516 -0.014698822 0.032244746 4285885978
-0.0100445 -0.020750735 0.038308714 4285754143
-0.0061463863 -0.028862845 0.046529029 4285688354
-0.040635005 -0.0112493 0.029516678 4285164328
-0.039027661 -0.0090335421 0.026893083 4285558559
-0.03707058 -0.0088964812 0.026458304 4285624094
-0.035486728 -0.0066822395 0.023840107 4285689628
-0.033410057 -0.007237684 0.024134368 4285820953
-0.031198025 -0.0084846206 0.025154099 4285755419
-0.0285777 -0.011806142 0.028349657 4285623838
-0.026606239 -0.011667613 0.027912013 4285624093
-0.024496756 -0.012220446 0.028199296 4285558814
-0.022662722 -0.011390258 0.027036805 4285689629
-0.020976968 -0.0098693408 0.025151882 4285886744
-0.01930169 -0.0083490573 0.023269363 4285689119
-0.017339975 -0.0082107745 0.022834212 4285689119
-0.014773563 -0.01083428 0.025286723 4285688863
-0.011724271 -0.015527118 0.029898569 4286344979
-0.0076987185 -0.024357874 0.038826551 4286082073
-0.041353174 -0.009409871 0.024709951 4285427489
-0.039639719 -0.0078834035 0.022821464 4285624093
-0.037450112 -0.0091366805 0.023842741 4285623839
-0.035498239 -0.0089999251 0.023409162 4285623583
-0.033419199 -0.0095574595 0.023701239 4285624094
-0.031464241 -0.0094203167 0.023267101 4285624094
-0.02924449 -0.010671128 0.024281953 4285558813
-0.027148835 -0.011227224 0.024570543 4285624604
-0.025185287 -0.011089209 0.024134699 4285558813
-0.023361824 -0.010257635 0.022976182 4285558813
-0.021686487 -0.008733023 0.021096747 4285821463
-0.020021595 -0.0072090961 0.019219756 4285952789
-0.017922372 -0.0077644773 0.0195079 4285952789
-0.015364841 -0.010397505 0.021955896 4286148628
-0.012171347 -0.015798997 0.027278181 4285819933
-0.0076848567 -0.026735965 0.038344231 4285754398
-0.041604899 -0.010337438 0.022824969 4285624093
-0.039656252 -0.01020113 0.022391941 4285820953
-0.037585929 -0.010761689 0.022684179 4285886743
-0.03526181 -0.012715388 0.024424601 4285952534
-0.033175074 -0.013274629 0.024713319 4285689883
-0.031341679 -0.012440566 0.023553919 4285624349
-0.02938129 -0.012302984 0.023118619 4285624604
-0.027690262 -0.010773178 0.021238707 4285624604
-0.025734819 -0.010635775 0.020804629 4285624349
-0.023779184 -0.010498267 0.020370577 4285558559
-0.02196613 -0.0096651651 0.019216046 4285558048
-0.020158231 -0.0088323243 0.018062726 4285689373
-0.018059321 -0.0093899556 0.018349294 4285689373
-0.015502647 -0.012031909 0.020790968 4285426468
-0.012157355 -0.0181459 0.026818771 4285557793
-0.00720305 -0.031201858 0.040011656 4285755419
-0.043801822 -0.011396196 0.021375749 4285361188
-0.042204008 -0.009161558 0.018768732 4285755674
-0.040384725 -0.0083266757 0.017613806 4285820699
-0.038085461 -0.010288831 0.019354735 4285755419
-0.035769999 -0.012249779 0.021092188 4285952534
-0.033564962 -0.013510671 0.02210357 4285689883
-0.031607561 -0.013373438 0.021668829 4285624349
-0.029649965 -0.013236102 0.02123411 4285624349
-0.027826749 -0.0124004 0.020078704 4285624348
-0.026145905 -0.010866899 0.018204387 4285689628
-0.024475537 -0.0093339942 0.016332421 4285886489
-0.022530504 -0.0091971569 0.015900772 4285755419
-0.020294823 -0.010455284 0.016905878 4285689374
-0.018048301 -0.011712495 0.017908614 4285624094
-0.01533924 -0.015060287 0.02106056 4285558559
-0.011530735 -0.023284767 0.029222716 4285624348
-0.0062549636 -0.037775446 0.043814588 4285623839
-0.044162974 -0.011612151 0.018773001 4285558813
-0.042570032 -0.0093712397 0.016171858 4285689628
-0.040755995 -0.0085345693 0.015019681 4285492258
-0.038704894 -0.009100955 0.015312884 4285492258
-0.036400758 -0.011069376 0.017047945 4285689373
-0.034080431 -0.01303656 0.018779483 4285755929
-0.031872995 -0.014301639 0.019787133 4285624093
-0.029918179 -0.014164526 0.019353006 4285558813
-0.028231941 -0.012626369 0.017480638 4285689883
-0.026556186 -0.011088815 0.01561062 4285821208
-0.024751179 -0.01025204 0.014460985 4285952279
-0.022808924 -0.010115441 0.014029931 4285886743
-0.020431325 -0.012077939 0.015749242 4285952534
-0.017889865 -0.014738742 0.018181209 4285689628
-0.01487577 -0.019495983 0.022755232 4285624349
-0.011058956 -0.027746353 0.030896064 4285755929
-0.0054651499 -0.043680865 0.046881247 4285689119
-0.044862032 -0.0097063743 0.014009867 4285624604
-0.043166399 -0.0081638433 0.012138151 4285821718
-0.041481175 -0.0066219084 0.010268761 4285821464
-0.039322771 -0.0078951754 0.011283878 4285821464
-0.036906399 -0.010574412 0.013736442 4285887508
-0.034594722 -0.012548845 0.01546501 4285689884
-0.032395765 -0.013818953 0.016471274 4285624348
-0.030712143 -0.012276713 0.014602635 4285624349
-0.028904766 -0.011437785 0.013453931 4285755164
-0.027239412 -0.009896595 0.011589438 4285820698
-0.025444977 -0.0090583973 0.010443749 4285623329
-0.023229107 -0.010326881 0.011446651 4285623328
-0.020567775 -0.013700332 0.014592774 4285820698
-0.017732114 -0.017773535 0.018447626 4285689628
-0.014714118 -0.022545997 0.023009453 4285755419
-0.010588616 -0.032225382 0.03255697 4285820443
-0.0054551736 -0.046106551 0.046364952 4285622309
-0.046811938 -0.012151171 0.014015917 4285361698
-0.045108281 -0.010603797 0.012145568 4285427999
-0.043415032 -0.0090570189 0.010277543 4285624604
-0.041378051 -0.0096290372 0.01057055 4285624348
-0.039456233 -0.0094947033 0.010143418 4285624349
-0.037164085 -0.011477213 0.011871312 4285558813
-0.035233863 -0.01134209 0.011442456 4285558813
-0.033174746 -0.011912141 0.011730775 4285558813
-0.03137283 -0.011071537 0.010584813 4285624349
-0.029576041 -0.010231201 0.0094400533 4285821463
-0.027784385 -0.0093911253 0.0082965028 4285886744
-0.025997877 -0.0085513033 0.0071541779 4285623838
-0.023932494 -0.0091204382 0.0074414592 4285623583
-0.021427572 -0.011801597 0.0098684486 4285755419
-0.018311799 -0.017297018 0.015142802 4286017813
-0.014853176 -0.024196964 0.021832671 4285754908
-0.010425068 -0.035314593 0.032781757 4285754398
-0.047055319 -0.013048064 0.012151223 4285624349
-0.045354068 -0.01149651 0.010284599 4285493278
-0.043432809 -0.011362437 0.0098574292 4285624859
-0.041393466 -0.011936482 0.010148222 4285559069
-0.039469115 -0.011802014 0.0097204894 4285493278
-0.037421338 -0.012375284 0.010009548 4285558559
-0.035619743 -0.011532728 0.0088651069 4285493023
-0.033823296 -0.010690439 0.007721873 4285558559
-0.032163136 -0.0091410689 0.0058648232 4285558558
-0.030379601 -0.0082994811 0.0047246087 4285558558
-0.028601192 -0.007458169 0.0035855938 4285690393
-0.026827961 -0.0066170767 0.0024477653 4285821463
-0.024634361 -0.0078960024 0.0034490786 4285886999
-0.022140957 -0.010586802 0.0058721304 4285755673
-0.018743113 -0.017513145 0.012559131 4285558303
-0.014842357 -0.026553642 0.021366928 4285689118
-0.010414697 -0.037706587 0.032290157 4285688353
-0.046749771 -0.01749536 0.013880577 4285294379
-0.045037612 -0.015938636 0.012014702 4285426723
-0.043105826 -0.01580387 0.011585157 4285492259
-0.041173816 -0.015668999 0.011155631 4285492769
-0.039241582 -0.015533995 0.010726135 4285624349
-0.037555158 -0.013978753 0.0088662878 4285492513
-0.036004841 -0.011714187 0.0062942114 4285492769
-0.034085304 -0.0115798 0.0058677401 4285493023
-0.032296561 -0.010735791 0.0047278907 4285427234
-0.030245654 -0.011310708 0.0050148666 4285558814
-0.028598182 -0.0097577088 0.0031640381 4285558814
-0.026822187 -0.0089142881 0.0020272397 4285558813
-0.024909735 -0.0087799095 0.0016026963 4285558814
-0.022419855 -0.011479806 0.0040200185 4285558558
-0.019173644 -0.017720077 0.0099819358 4285558304
-0.015131131 -0.027498048 0.019479696 4285492514
-0.011013851 -0.037270594 0.028960917 4285359658
-0.046555117 -0.021246817 0.014880896 4285228844
-0.044834718 -0.019685198 0.01301644 4285426469
-0.042780228 -0.020262774 0.01330049 4285492004
-0.040955208 -0.01941454 0.012153812 4285558303
-0.039015099 -0.019279029 0.011722535 4285558303
-0.037320428 -0.01771884 0.0098640714 4285558049
-0.035636202 -0.01615924 0.0080079604 4285492513
-0.033706143 -0.016024146 0.0075791217 4285624348
-0.032037504 -0.014465485 0.0057266597 4285558558
-0.029978909 -0.015042108 0.006010294 4285624093
-0.028187059 -0.014195498 0.0048714932 4285558303
-0.026400357 -0.013349149 0.0037339162 4285624859
-0.024618834 -0.012503047 0.0025975034 4285559069
-0.022410087 -0.013789665 0.0035890155 4285558814
-0.019162998 -0.020049769 0.0095361732 4285492768
-0.015120566 -0.029858556 0.019011207 4285426469
-0.046580158 -0.023580436 0.014442012 4285229099
-0.044744864 -0.022729468 0.013294458 4285426468
-0.042685345 -0.023308966 0.013575789 4285492004
-0.04050298 -0.024602827 0.014569119 4285492004
-0.038669668 -0.023751747 0.013422269 4285492259
-0.036964118 -0.022186395 0.011564549 4285492259
-0.035268992 -0.020621713 0.0097092725 4285492258
-0.033456363 -0.019771788 0.0085672271 4285492513
-0.031648859 -0.018922117 0.0074264016 4285558049
-0.029579915 -0.019500244 0.0077060908 4285558048
-0.027641408 -0.019364294 0.0072755758 4285492004
-0.025979966 -0.01780143 0.0054281037 4285426469
-0.024187706 -0.016952436 0.0042909514 4285426468
-0.021968804 -0.018242773 0.0052769501 4285492003
-0.018859483 -0.023809221 0.010500805 4285491493
-0.014961049 -0.032935839 0.019245874 4285425958
-0.046714649 -0.025200505 0.013286721 4285294888
-0.044655666 -0.025782328 0.013566408 4285426214
-0.042591132 -0.026363689 0.013844926 4285426469
-0.040521063 -0.026944559 0.014122289 4285426468
-0.038565233 -0.026808035 0.013687458 4285426468
-0.036731653 -0.02595469 0.012542199 4285492258
-0.034903184 -0.025101598 0.011398155 4285492258
-0.033207618 -0.023532357 0.0095460303 4285492514
-0.031522512 -0.021963809 0.0076963343 4285558303
-0.029581651 -0.021827828 0.0072651971 4285492513
-0.027504846 -0.022407535 0.0075415727 4285492514
-0.025837816 -0.020839941 0.0056961235 4285492514
-0.023899101 -0.020703804 0.0052656867 4285492259
-0.021672696 -0.021998007 0.0062467139 4285492004
-0.018410593 -0.028296735 0.012161341 4285557029
-0.014951296 -0.035306808 0.018769909 4285490984
-0.046304241 -0.030419644 0.015690777 4285228844
-0.044455498 -0.029563453 0.014543463 4285295144
-0.042611867 -0.028707493 0.013397302 4285426469
-0.040539429 -0.029290479 0.013672534 4285492259
-0.038700685 -0.02843466 0.012527611 4285492259
-0.036744773 -0.028298061 0.012092803 4285492259
-0.034913585 -0.027442615 0.010949742 4285492258
-0.033087514 -0.026587408 0.0098079126 4285492258
-0.031396836 -0.025014061 0.00796015 4285558303
-0.029583693 -0.024159562 0.0068213325 4285492514
-0.027775697 -0.023305323 0.0056837369 4285492513
-0.025834613 -0.023169156 0.0052526742 4285492513
-0.024034254 -0.022315253 0.0041169226 4285492513
-0.021521226 -0.025048841 0.0065031182 4285426724
-0.018401824 -0.030649852 0.011698786 4285426214
-0.015239641 -0.036247771 0.016885087 4285885723
-0.041948281 -0.035385717 0.017201185 4285229354
-0.040207826 -0.033805024 0.015345197 4285360934
-0.038358361 -0.03294633 0.014199533 4285295398
-0.036514007 -0.032087889 0.013055075 4285360934
-0.034674786 -0.031229723 0.011911817 4285360933
-0.032840669 -0.030371796 0.010769786 4285426723
-0.031141758 -0.028793488 0.008923417 4285492513
-0.02932059 -0.027936269 0.0077844076 4285492768
-0.027775325 -0.025638815 0.0052379183 4285492514
-0.025831707 -0.025502499 0.0048062727 4285492259
-0.023887917 -0.025366072 0.004374668 4285360933
-0.02151382 -0.027388524 0.0060508195 4285360933
-0.018685453 -0.031568136 0.0098293573 4285360423
-0.015973695 -0.035026107 0.012899484 4285950493
-0.035918601 -0.038060796 0.016125198 4285163818
-0.034312464 -0.035752978 0.013569739 4285294888
-0.032722108 -0.033446122 0.011017833 4285360679
-0.031017631 -0.031863097 0.0091734864 4285426468
-0.029323615 -0.030280676 0.0073314849 4285426724
-0.027640052 -0.028698917 0.0054919366 4285426468
-0.025829121 -0.02783997 0.0043569226 4285426469
-0.023882799 -0.027703393 0.0039247312 4285295143
-0.021506734 -0.029732328 0.0055955704 4285295144
-0.019114524 -0.031760033 0.0072629079 4285228844
-0.016409144 -0.035229471 0.010326337 4286408984
-0.0021953583 -0.032090019 -0.011595536 4284900913
-8.7533146e-05 -0.032685857 -0.011339448 4284900914
0.00012380257 -0.03576288 -0.011118772 4284966703
0.0057672858 -0.034614664 -0.013089791 4284966958
0.0077065229 -0.034476709 -0.013519026 4284967213
0.0096458197 -0.03433862 -0.013948184 4285032239
0.011774983 -0.034934353 -0.013697933 4285097774
0.013909519 -0.03552958 -0.013448779 4285097518
0.015463948 -0.033923578 -0.015235152 4285098029
0.00033442676 -0.038848426 -0.010904175 4284900914
0.0021049865 -0.037973192 -0.012016085 4284900913
0.0040492713 -0.037835117 -0.012446624 4284966449
0.005993627 -0.037696939 -0.012877089 4285031984
0.007938046 -0.037558597 -0.013307463 4285031984
0.010069489 -0.038156491 -0.013059427 4285031983
0.012206323 -0.038753938 -0.012812459 4285032238
0.0141562 -0.03861485 -0.013243777 4284966703
0.015716176 -0.03700402 -0.015028182 4285163563
0.017067902 -0.034658264 -0.017486088 4285032494
0.018804237 -0.033784289 -0.018589627 4284966449
0.024728505 -0.040857594 -0.012702153 4285098028
0.029813485 -0.05173957 -0.0030307937 4285032494
0.00037088245 -0.041203018 -0.011375328 4284966959
0.0021441281 -0.04032537 -0.012486261 4284900913
0.004090935 -0.040187132 -0.012917359 4285032494
0.0060378015 -0.040048759 -0.013348383 4285031984
0.0079847202 -0.039910283 -0.013779339 4284966448
0.010118499 -0.040510241 -0.013533388 4285031984
0.01206819 -0.04037131 -0.013964769 4285031984
0.014017917 -0.04023223 -0.014396054 4285031983
0.015578117 -0.038616981 -0.016177271 4285031983
0.017127698 -0.037002426 -0.017956018 4285031983
0.018866751 -0.036126103 -0.019058507 4285097773
0.021006031 -0.036724892 -0.01881326 4285163819
0.024794132 -0.043221105 -0.013187917 4285098539
0.029670669 -0.053399008 -0.0042127725 4284967213
-0.0015448406 -0.043700043 -0.011417058 4284900914
0.00023370236 -0.042819981 -0.01252759 4284966958
0.0020069852 -0.041940149 -0.013636929 4285097773
0.0039536282 -0.041801911 -0.014067993 4285097518
0.0060816333 -0.042404767 -0.01382259 4284966448
0.0078471154 -0.041525092 -0.014929906 4284966448
0.0096073449 -0.040645715 -0.016035933 4284966449
0.015440084 -0.040229645 -0.01732615 4284966449
0.01679264 -0.037870672 -0.019774549 4285163308
0.018529054 -0.036992308 -0.020874877 4285163308
0.02086792 -0.038333174 -0.019958891 4285163819
0.025064638 -0.046328168 -0.013005549 4285098539
0.029735789 -0.055797365 -0.0047240425 4284967469
