# .PCD v0.7 - Point Cloud Data file format
VERSION 0.7
FIELDS x y z rgba
SIZE 4 4 4 4
TYPE F F F U
COUNT 1 1 1 1
WIDTH 937
HEIGHT 1
VIEWPOINT 0 0 0 1 0 0 0
POINTS 937
DATA ascii
0.019204022 0.013412036 0.0519659 4289472809
0.014886752 0.020270113 0.041611023 4289735459
0.016747575 0.021065928 0.040483765 4289670688
0.019447643 0.018520359 0.043019213 4289473574
0.023198815 0.011967897 0.049941249 4289277223
0.01102211 0.016998909 0.042663902 4287181124
0.012090158 0.02115212 0.037874684 4288882993
0.013289437 0.024632625 0.033823527 4290390298
0.014960106 0.026099738 0.03197135 4289539364
0.017463803 0.024214003 0.033774942 4288885033
0.020840801 0.018978018 0.03922645 4289081129
0.024783129 0.01173456 0.046858653 4289800739
0.028961362 0.0038249344 0.055208623 4290585629
0.0068461113 0.023948383 0.032342181 4289406764
0.0094745383 0.021380275 0.034878299 4289342759
0.011161409 0.022852581 0.033026114 4290325274
0.012511209 0.025670324 0.029715708 4290586904
0.014005478 0.027813997 0.02713917 4290847769
0.016326576 0.026593402 0.028211499 4290520603
0.019343484 0.022683658 0.032196186 4290324508
0.02291449 0.016759057 0.038358934 4290847514
0.026003968 0.012854047 0.042329624 4289735204
0.029125692 0.0089511648 0.04629413 4289538853
0.032461658 0.0043785647 0.050978981 4289211689
0.0015307777 0.027457129 0.02608653 4286985793
0.0032015033 0.028932605 0.024240488 4289995304
0.0054815225 0.027704574 0.025317235 4290322724
0.0085606985 0.023099598 0.030040028 4290716444
0.010555077 0.023224737 0.029651849 4289539873
0.012060419 0.025375601 0.027077945 4290062624
0.01354973 0.027525533 0.024507282 4289800994
0.015865002 0.026300196 0.025577443 4289670179
0.018875439 0.022376742 0.02955368 4289997089
0.022265662 0.017106403 0.034976639 4290062624
0.024287213 0.017233774 0.034583561 4289670179
0.026487939 0.016687054 0.034915991 4289800994
0.028875882 0.015466698 0.035972394 4289538598
0.032381654 0.010203958 0.041373201 4289995813
0.037240766 0.00022821128 0.051832892 4290060839
0.00016635656 0.022309888 0.028950969 4289995304
0.00066039711 0.029217031 0.021267572 4289865254
0.0023179464 0.030696031 0.01942738 4289603879
0.0045840964 0.029462736 0.020503515 4290323999
0.0079635754 0.023485828 0.026673896 4290847514
0.010270171 0.022255208 0.027742339 4289669668
0.012098961 0.023057666 0.026627755 4289866274
0.01375689 0.02453718 0.024787771 4290193439
0.016077101 0.023307677 0.025853759 4289997599
0.018749934 0.020725127 0.028368557 4289735713
0.021270674 0.018820811 0.030154293 4290063134
0.023102406 0.019623902 0.02903947 4289735969
0.024749819 0.021103162 0.027201911 4290062368
0.026568161 0.021905627 0.026089774 4289800483
0.029302876 0.019327428 0.028592872 4289996324
0.033181235 0.012695238 0.035425603 4289603624
0.038251579 0.0020120814 0.046578638 4289799718
-0.0020896718 0.021224197 0.027430573 4288098104
-0.00083703175 0.02475157 0.023401054 4289472554
0.0002395995 0.02895784 0.018648805 4289669669
0.0017400309 0.03112125 0.016085317 4289080873
0.0041523427 0.029202823 0.017886857 4289342759
0.0073675103 0.023885578 0.023317536 4289866019
0.0098256059 0.021970231 0.025110243 4290389279
0.011974495 0.02141523 0.025449133 4289931553
0.013798036 0.022219677 0.024337208 4289866273
0.015784331 0.022344548 0.023950776 4289801249
0.018112198 0.021111216 0.025012096 4289670433
0.020277396 0.020557638 0.025348036 4289605154
0.021919642 0.022040889 0.023514649 4289801248
0.02337236 0.024202213 0.020961111 4290651419
0.024627503 0.027041081 0.01768904 4290323999
0.026966244 0.025808875 0.018748576 4289015593
0.030250005 0.021186881 0.023409573 4288753453
0.034708615 0.012499578 0.032384448 4288884268
0.039044775 0.0044946 0.040626146 4289211179
-0.0044806786 0.020826843 0.025184577 4288752178
-0.0029318854 0.022999611 0.022616325 4289015594
-0.0013990737 0.025171433 0.020051299 4289538853
-3.1366944e-05 0.028025072 0.016762992 4290258463
0.0014667623 0.030194938 0.014204802 4290454814
0.0038757846 0.028269667 0.016002102 4290650909
0.0069296397 0.023616731 0.020695699 4290781724
0.0097014606 0.020330299 0.023933386 4290651163
0.011524994 0.021136805 0.022823049 4289931810
0.0130128 0.023306452 0.020267261 4289997088
0.014988251 0.023430623 0.019882927 4289670179
0.017134339 0.022873547 0.020220889 4289735969
0.0194591 0.021635722 0.021279579 4289670434
0.021090832 0.023122717 0.019451486 4289604643
0.022354573 0.025970835 0.016184153 4290258463
0.023596853 0.02881771 0.012921067 4290520093
0.02573771 0.028260775 0.013260392 4290454814
0.029004082 0.023622189 0.017913451 4290127648
0.033065513 0.016265426 0.025433606 4290062113
0.036993936 0.0095924735 0.03222429 4289408039
0.042728707 -0.0031954572 0.045462579 4289080873
-0.0047445521 0.01987721 0.023284646 4287509819
-0.0031980574 0.022056416 0.02072168 4288753454
-0.0018138103 0.0249198 0.017436558 4289604389
-0.00074880943 0.029151764 0.012706017 4289669668
0.0010422468 0.029958058 0.011603346 4289538598
0.0034452751 0.02802581 0.013396883 4289997089
0.0066494867 0.022672568 0.018803706 4290389534
0.0090983063 0.020743333 0.020588508 4290193183
0.010751478 0.022235651 0.018759092 4289931809
0.012228932 0.024411242 0.016210167 4289735458
0.014193539 0.024534721 0.015827937 4290847769
0.016499016 0.023291178 0.016887063 4290716953
0.018815283 0.022048358 0.0179442 4290847769
0.020439174 0.023539308 0.016120831 4290193183
0.021873891 0.025712721 0.013580518 4289931553
0.02347368 0.027202297 0.011762017 4289996578
0.025981931 0.025277656 0.013535881 4289604389
0.02906584 0.021306481 0.017459234 4289669669
0.032938778 0.014607884 0.024244418 4289604389
0.036673501 0.0085949823 0.030302757 4289146409
0.042402245 -0.0042352155 0.043511391 4288950058
-0.0041636601 0.014806449 0.025736919 4287771704
-0.002890192 0.018368039 0.021727564 4287968054
-0.0016434379 0.021928053 0.017723484 4288754220
-0.00057218969 0.026173647 0.013001395 4289342503
0.0010728277 0.027669426 0.011176566 4289604389
0.0033237822 0.026417468 0.012242632 4290193184
0.0060560405 0.023106378 0.015471702 4290258718
0.0083366819 0.021856423 0.01653217 4290193439
0.00997933 0.023352478 0.014708033 4290127903
0.011611324 0.024847899 0.012886079 4289735459
0.013567757 0.024970863 0.012505436 4290193184
0.016034987 0.023036543 0.014282057 4289604389
0.018345427 0.021788996 0.015337048 4290781723
0.020139795 0.022598524 0.014235957 4290127649
0.021928823 0.023407828 0.013135986 4289996578
0.024255443 0.022161581 0.014188031 4289865763
0.026960149 0.019546211 0.016671 4289865763
0.030059038 0.015562739 0.020581698 4289865763
0.033379167 0.01089678 0.025201665 4289604134
0.037503734 0.0034956113 0.03267394 4288818989
0.043242551 -0.0093758479 0.045849785 4287837748
-0.0037249401 0.01040367 0.02745028 4287902519
-0.0025832728 0.014666684 0.022724057 4288033589
-0.0011818223 0.017548699 0.019448576 4288034608
-0.00024756789 0.022497576 0.014012305 4289081383
0.0014057122 0.023998253 0.012189088 4289735714
0.0028943643 0.026187401 0.0096473712 4289931809
0.0051503219 0.024931427 0.010709276 4289997088
0.0070983954 0.025053579 0.010330046 4290063134
0.0090465434 0.025175799 0.0099508557 4290258718
0.010830048 0.02598647 0.0088532213 4290127648
0.012775626 0.026108745 0.0084746871 4289342759
0.015231505 0.024167079 0.010248639 4289015594
0.017703511 0.022226576 0.012019483 4289538853
0.019840775 0.021662463 0.012354465 4290062113
0.021983426 0.021098822 0.01268843 4289996834
0.024673913 0.018473629 0.0151676 4289800484
0.027936367 0.013788447 0.019787224 4289996835
0.031236412 0.0091056898 0.02439967 4289407783
0.034385152 0.0051122531 0.028291034 4288099378
0.038332283 -0.0016256273 0.035029426 4287380024
0.043886945 -0.013851851 0.047459744 4286856509
-0.0035683028 0.0073675886 0.027707821 4287116864
-0.0022773109 0.010952257 0.023711232 4287771959
-0.00072150677 0.013151929 0.021161081 4287838259
0.00066987425 0.016042188 0.017894095 4288296493
0.0020398833 0.01893127 0.01463131 4289801248
0.0032347254 0.022510331 0.010653751 4290324764
0.0047157966 0.024705704 0.0081184376 4289474339
0.0066583864 0.024827477 0.0077402554 4290324764
0.0084391944 0.02564007 0.0066446867 4290259228
0.010050144 0.02714302 0.0048332643 4290847514
0.011984874 0.027264591 0.0044568218 4290389533
0.01442939 0.025315601 0.006228121 4290193184
0.017235238 0.021987647 0.0094270594 4290323999
0.019892678 0.019351345 0.011906011 4290258463
0.022749569 0.016026806 0.015095172 4289604389
0.025813961 0.012014523 0.018992966 4289538598
0.028910581 0.0080043226 0.02288462 4288164658
0.032039404 0.0039963201 0.02677005 4287510839
0.035200421 -9.5516443e-06 0.030649299 4287052603
0.039159153 -0.0067687482 0.037369229 4286725438
0.044724055 -0.019033998 0.049768351 4286594623
-0.0036927424 0.005711481 0.026519129 4287182909
-0.0021152012 0.007918939 0.023969559 4287837493
-0.00040806457 0.0094316155 0.022142122 4288165679
0.0011401772 0.011637494 0.019598363 4288165934
0.0026724413 0.013842434 0.017057842 4289278498
0.003727749 0.018126842 0.012368156 4289933084
0.0050636195 0.021022722 0.0091186725 4289802269
0.006378103 0.023917425 0.0058733951 4289736224
0.0079945698 0.025425017 0.0040640607 4289932063
0.0094360039 0.02762476 0.0015415847 4290193184
0.011696678 0.026360627 0.0025963504 4290062114
0.014137886 0.024404813 0.0043634195 4289996834
0.017284937 0.019681077 0.0089824758 4290258464
0.020119373 0.016344003 0.012167824 4290192929
0.023336258 0.011624843 0.016773498 4289669413
0.026410248 0.0075999349 0.020659702 4289080619
0.029699624 0.0028855428 0.025251435 4287903028
0.032654878 -0.00044350326 0.028413596 4287052859
0.035636965 -0.0037707463 0.031570613 4286660159
0.039410718 -0.0098605081 0.037563004 4286529344
0.044590008 -0.020783447 0.048513286 4286463808
-0.0038171299 0.0040556714 0.02533065 4287903029
-0.0020964742 0.0055734217 0.023503767 4287772724
-0.00024100766 0.0063944608 0.02239644 4287904304
0.0014610924 0.0079113096 0.020573286 4288100654
0.0030017719 0.010123402 0.018035928 4289278754
0.0042194948 0.013725892 0.014070095 4289671199
0.0055666305 0.016631328 0.010824857 4290063898
0.0070512407 0.018840175 0.0082986858 4290717719
0.0083582848 0.021743294 0.0050613899 4290521369
0.00997236 0.023255195 0.0032558795 4289866273
0.012076419 0.022682097 0.0035921726 4289996833
0.014694627 0.020025484 0.0060656238 4290323744
0.017678849 0.015981402 0.0099593289 4289669669
0.020695308 0.011939451 0.013846835 4289734949
0.02392162 0.007205449 0.018439325 4288753453
0.027005211 0.0031679198 0.022313932 4287706933
0.029938016 -0.00017367303 0.025472263 4287117883
0.03271199 -0.0028198361 0.027915897 4286725694
0.035507433 -0.0054645389 0.030355426 4286398529
0.03889744 -0.010187618 0.034916453 4286333249
0.043874815 -0.020453237 0.045134448 4286332738
-0.00036508963 0.0047455132 0.02121293 4288036904
0.0014851578 0.0055685639 0.020108255 4288166699
0.0030288957 0.0077873915 0.017575191 4289409569
0.0044033192 0.010703236 0.014331037 4289933339
0.0056003742 0.014315531 0.010377392 4290325783
0.0070880353 0.016531207 0.0078554451 4290391319
0.0085596666 0.018745977 0.0053366777 4290325783
0.010507394 0.018868241 0.0049576163 4290586904
0.012621906 0.018293548 0.0052902959 4290062879
0.015250038 0.015628789 0.0077552833 4289408293
0.018415958 0.010875359 0.012348013 4289015593
0.021269921 0.0075174496 0.015513333 4288753963
0.024150744 0.0041613653 0.018673519 4287183673
0.026698144 0.0021993965 0.020410495 4287052860
0.029627299 -0.0011534318 0.023561435 4286921789
0.032212283 -0.0031127855 0.025291281 4286790974
0.035001535 -0.0057666525 0.02772549 4286464063
0.038194004 -0.0098101199 0.031569578 4286464574
0.043354191 -0.020804748 0.042471707 4286268224
-0.00077933446 0.0044980496 0.01860114 4287775783
0.0009178184 0.0060233176 0.016785452 4288822304
0.0026043393 0.007548064 0.014971869 4289606428
0.0044333674 0.008372128 0.013873132 4289933594
0.0057896413 0.011295721 0.010639057 4290064408
0.0077585652 0.011419095 0.010255702 4290129689
0.0092439875 0.013641335 0.0077391118 4290652948
0.011041131 0.01446382 0.0066468902 4290587158
0.01316607 0.013887614 0.0069758687 4290521113
0.015973389 0.010515511 0.010142045 4290062878
0.019151408 0.0057474598 0.01472103 4288492589
0.022017814 0.002379328 0.017875822 4288558124
0.024379227 0.0011086762 0.018901603 4287052858
0.026751377 -0.00016115606 0.019925328 4286921788
0.029134277 -0.0014301986 0.020947045 4286856509
0.031898584 -0.0040945932 0.023379596 4286529088
0.034496345 -0.0060596466 0.025102174 4286464574
0.0023307912 0.0066153705 0.013086723 4288889113
0.0043101572 0.0067391694 0.012701178 4289673238
0.0059782863 0.0082673132 0.010894602 4290130709
0.0076357611 0.0097949505 0.0090901386 4290457873
0.0092825852 0.011321977 0.0072878636 4290064664
0.010918736 0.012848489 0.0054877102 4290587669
0.013209771 0.011568561 0.0065236129 4290390553
0.015849728 0.0088868588 0.0089733731 4289735713
0.019198192 0.0034021884 0.014248675 4288231214
0.021891873 0.00072409958 0.016688144 4288230958
0.024252821 -0.00055098534 0.01771077 4287314743
0.026444701 -0.0011246651 0.01802549 4286856763
0.028641965 -0.0016978681 0.018339263 4286988088
0.0061662942 0.005230397 0.011143966 4289869334
0.00814569 0.0053544044 0.010758566 4290261779
0.0096425861 0.0075905472 0.008249443 4290195734
0.01112346 0.0098257512 0.0057435594 4289998618
0.013419382 0.0085417628 0.0067752264 4290586904
0.016063899 0.005851537 0.0092176124 4289735969
0.019416258 0.00034946203 0.014479237 4288034864
0.022114508 -0.0023371726 0.016911326 4287707443
0.024480332 -0.0036163181 0.017929712 4288165423
0.026497647 -0.0034890473 0.017537581 4287380788
0.028697286 -0.004064329 0.017849253 4286726969
0.0077062771 0.005134739 0.0081733651 4290069509
0.0093588606 0.0066709593 0.0063763969 4290589199
0.011000793 0.0082065612 0.0045816153 4290457363
0.013296247 0.0069181398 0.0056101307 4290193438
0.01593997 0.0042190552 0.0080461837 4290389788
0.019119438 -0.00059520453 0.012590891 4287707699
0.021640077 -0.0025854558 0.014313424 4287184438
0.024176857 -0.0045746192 0.016032944 4287512114
0.0090755187 0.0057560951 0.0045067333 4290133258
0.011041366 0.005879432 0.0041241031 4290000403
0.013504926 0.0038786083 0.0058526695 4290587923
0.016321763 0.00046308339 0.008984521 4289015848
0.019165464 -0.0029506236 0.012111245 4287380024
0.021688147 -0.0049473643 0.01382851 4286790973
0.024050357 -0.0062355921 0.014841171 4286398784
0.013215803 0.0029615164 0.0039826818 4290000659
0.016197387 -0.0011754185 0.0078087728 4288493098
0.018869031 -0.0038902611 0.010226512 4286857019
0.005661279 -0.0051458254 -0.0064874571 4288952354
0.003583163 -0.0068799555 -0.0072630942 4290195734
0.00553957 -0.0067575201 -0.0076441206 4289802014
0.0074960478 -0.0066349506 -0.0080250595 4288756513
0.0034616366 -0.0084912926 -0.0084195416 4289803033
0.0055740662 -0.009099558 -0.0081111398 4289736478
0.007691931 -0.0097073913 -0.0078036543 4289605919
0.010138266 -0.011775419 -0.0061204694 4289999894
0.0007815212 -0.0072917044 -0.011950241 4289805074
0.0034934692 -0.010835387 -0.0088874344 4289736734
0.0059202723 -0.012911528 -0.0072054351 4289343523
0.0083632246 -0.014986522 -0.0055264803 4289278499
0.01066095 -0.016327783 -0.0045373943 4287708718
0.0036781617 -0.013918906 -0.0086714802 4289801759
0.0064213499 -0.017471507 -0.005622766 4289408294
0.0090328828 -0.020287402 -0.0032649152 4289081384
0.01134352 -0.021632262 -0.0022815876 4287708208
0.004168205 -0.018485844 -0.0070912754 4288231979
0.0069211274 -0.022048816 -0.0040525347 4287249463
0.0095425621 -0.024872884 -0.0017030835 4287314998
0.011541374 -0.024747565 -0.0020921975 4287708209
0.0045041218 -0.022330403 -0.0062071523 4286923064
0.0071085952 -0.02516444 -0.0038609505 4286660668
0.0095763877 -0.027257651 -0.0022013858 4286857274
0.011255998 -0.025653854 -0.0039550588 4287577393
0.0023988783 -0.024086118 -0.0069921464 4287119413
0.004839085 -0.026187912 -0.0053322464 4286725694
0.0072954372 -0.028288558 -0.0036753975 4286529343
0.009451896 -0.02890496 -0.003383588 4286464064
0.011131678 -0.027296767 -0.0051340722 4286791993
0.00029404834 -0.02584137 -0.0077768974 4287447344
0.0025756769 -0.027206168 -0.0068011805 4287642419
0.0050205849 -0.02931428 -0.0051470622 4286856253
0.0070161261 -0.029189438 -0.0055357367 4286594368
0.0090117343 -0.029064462 -0.0059243403 4286398528
-0.0019546337 -0.026849329 -0.0092417933 4286858038
0.00031837821 -0.028219223 -0.0082677454 4286726713
0.0026021972 -0.029588237 -0.0072957277 4287445558
0.0048968084 -0.030956522 -0.0063257031 4287510329
0.0068921894 -0.03083168 -0.0067143477 4286921534
0.0087299459 -0.029960737 -0.007780768 4286333758
-0.0040557645 -0.028601252 -0.01002498 4286464574
-0.0019327998 -0.029226989 -0.009731967 4286399038
0.00034241378 -0.030601114 -0.0087615773 4286529853
0.0023294576 -0.030477077 -0.0091487989 4286530363
0.0046208911 -0.031849891 -0.0081814155 4287119413
-0.004036583 -0.030980945 -0.010516021 4286661433
-0.0020552203 -0.030857518 -0.010902327 4286594878
-7.3771924e-05 -0.030733988 -0.011288572 4286595389
-0.011299614 -0.026193857 -0.016626745 4287642418
-0.0089355111 -0.028334081 -0.014976807 4287314488
-0.0066936761 -0.029719472 -0.014006656 4287510838
-0.0044410415 -0.031103998 -0.01303855 4287053624
-0.0024651922 -0.03098096 -0.013423812 4286857784
-0.000489261 -0.030857772 -0.013808981 4286661688
-0.013376404 -0.027925223 -0.017400675 4287512623
-0.011419866 -0.027803883 -0.017782532 4287707443
-0.0090563968 -0.029950738 -0.016137317 4287445048
-0.006815061 -0.031340547 -0.015170302 4287118139
-0.0045629106 -0.032729506 -0.014205344 4287118648
-0.0027308464 -0.031850874 -0.015264656 4286988853
-0.015580159 -0.028897323 -0.018849999 4287380534
-0.013496485 -0.029534936 -0.018556274 4288165423
-0.011407312 -0.03017211 -0.018263467 4287642418
-0.0091772676 -0.031567097 -0.017297611 4287053623
-0.0069364011 -0.032961316 -0.016333733 4286923063
-0.015572641 -0.031265512 -0.019329771 4287706679
-0.013616499 -0.031144321 -0.019711643 4287576374
-0.011527654 -0.031783745 -0.019420415 4287380024
-0.0092980936 -0.033183128 -0.018457685 4286988343
-0.0070577115 -0.03458178 -0.017496951 4286595899
-0.013476986 -0.03427957 -0.019522872 4286921788
-0.011515539 -0.034157932 -0.019905701 4287052859
-0.0092837885 -0.035561576 -0.01894664 4287053879
-0.0040813684 0.003098838 0.023425499 4283460928
-0.0043452233 0.0021467209 0.021523731 4282675783
-0.0024871044 0.0029721856 0.020419018 4283789113
-0.0044691265 0.00049620122 0.020339021 4282024258
-0.0028954707 0.0027298108 0.017809549 4282089539
-0.0011928603 0.0042596906 0.015995944 4283004224
0.0006467402 0.0050864369 0.014896559 4283986483
0.037742868 -0.012513958 0.028423825 4283394119
0.043281116 -0.024979122 0.040682256 4282674764
-0.0045929924 -0.0011540279 0.019154521 4282351423
-0.0028768815 0.00038102269 0.017341392 4282155073
-0.0016056783 0.0040305108 0.013397267 4282548028
0.00022860244 0.00485906 0.01230056 4282548538
0.033863407 -0.0080228001 0.021280611 4283197768
0.037612766 -0.014213167 0.027204776 4282478158
0.04295478 -0.026016198 0.03873302 4282347598
-0.00562438 -0.0085902438 0.024048479 4283000908
-0.0047167838 -0.0028039366 0.017970232 4282351679
-0.0030004792 -0.0012645125 0.016160281 4282156093
-0.001583986 0.0016888082 0.012933573 4282026553
0.00025300309 0.002519697 0.011837935 4282288183
0.0019347891 0.0040572658 0.01003501 4283267384
0.0039112009 0.0041808486 0.0096500125 4282549303
0.030959692 -0.0070118085 0.017664978 4282348109
0.033547457 -0.0089972541 0.019374879 4282282574
0.037672885 -0.016616486 0.026686573 4282151248
0.042821668 -0.027752735 0.037487231 4282021199
-0.0057493262 -0.010257535 0.022851685 4282740044
-0.0047014803 -0.0051633492 0.017495053 4282286398
-0.0032657944 -0.0022001639 0.014270982 4282288438
-0.0018514432 0.00076180696 0.01105115 4282158898
-0.00016420707 0.0023039877 0.0092503037 4281963059
0.0016621947 0.0031365156 0.0081584249 4281962548
0.0036357939 0.0032598972 0.0077739619 4282093874
0.0056094825 0.0033834279 0.007389579 4283071798
0.028625011 -0.0081025362 0.016159812 4282543948
0.031201418 -0.010095462 0.017867019 4282152269
0.033793915 -0.012087256 0.019571187 4282086479
0.037922692 -0.019730426 0.026864374 4281889873
0.042881288 -0.030195341 0.03694015 4281890384
-0.0066915639 -0.007651642 0.017407944 4283134529
-0.0052420683 -0.0046789348 0.014187561 4282353973
-0.0038139001 -0.0017074347 0.010971421 4282354993
-0.0021185242 -0.0001604706 0.0091721285 4282095914
-0.0004337728 0.0013859421 0.0073749851 4282289713
0.0013899766 0.0022205412 0.0062851924 4281898544
0.0033607595 0.0023437589 0.0059012789 4281897269
0.0050216466 0.0038889796 0.0041090213 4282288438
0.0069872327 0.0040120929 0.0037262831 4282614839
0.02339454 -0.0057673603 0.011549516 4282217803
0.025938096 -0.0077691898 0.013258083 4282282574
0.028497752 -0.009769842 0.014963558 4282151759
0.031073511 -0.011769406 0.016666042 4282085969
0.034039706 -0.015185714 0.019761344 4282216784
0.037981987 -0.022144116 0.026338661 4282478924
0.042362973 -0.03051623 0.03429947 4282675273
-0.0039366931 -0.0033432245 0.0097972844 4283335724
-0.0023852289 -0.0010780245 0.0072964784 4282878254
-0.00070297346 0.00047266483 0.0055030063 4282290479
0.001118131 0.0013092309 0.0044153798 4281963823
0.0030860975 0.00143224 0.0040319916 4282224944
0.0047445111 0.0029817373 0.0022434648 4282159409
0.0065497607 0.0038176924 0.0011591278 4282093108
0.0083497316 0.0046534017 7.5954944e-05 4282158389
0.01047013 0.0040635392 0.00039597601 4282615348
0.0130926 0.0013365746 0.0028166343 4283008814
0.018914782 -0.0062495023 0.009744117 4283852354
0.021088995 -0.0068355352 0.010054005 4282609483
0.022916045 -0.0059974343 0.0089660678 4281760334
0.025632553 -0.008717902 0.011368858 4282152013
0.028188877 -0.010725357 0.013070131 4282217548
0.031129945 -0.014154382 0.016162144 4282086223
0.034097835 -0.01758159 0.019249024 4282478669
0.038040973 -0.024561964 0.025810027 4282937158
0.042037725 -0.031538777 0.032360658 4283787329
-0.002507627 -0.0027069002 0.006127337 4283205163
-0.00082517043 -0.0011518151 0.00433705 4282943279
0.0011452548 -0.0010287762 0.0039530974 4282225454
0.0028118193 0.00052548945 0.0021661166 4281964589
0.0046223961 0.0013638139 0.0010823179 4282224944
0.0062703416 0.0029171854 -0.00070091151 4282288948
0.0080676563 0.0037549138 -0.0017819591 4281441073
0.010022368 0.0038775355 -0.0021624379 4281636659
0.012638666 0.0011413768 0.0002529379 4281962548
0.015612591 -0.0030224025 0.0040610414 4282545478
0.018447984 -0.0064696595 0.0071650762 4282414153
0.020789962 -0.0077724978 0.0081718527 4282218059
0.022966575 -0.0083604604 0.0084797386 4281826379
0.025327357 -0.009661831 0.0094829965 4282152779
0.028061826 -0.012389854 0.0118759 4282283594
0.030817766 -0.015116386 0.014264734 4282348363
0.033781979 -0.018554822 0.017344238 4282938179
0.037720591 -0.025557451 0.023889886 4283918909
0.0010229573 -0.0026529878 0.0027873684 4283334193
0.0028415173 -0.0018120855 0.001703538 4283073584
0.0046548061 -0.00097139925 0.00062082149 4282225199
0.0063056201 0.00058653951 -0.0011597481 4282093874
0.0081056505 0.0014266372 -0.0022397023 4281898033
0.010062907 0.0015494004 -0.0026206877 4281571379
0.012515862 -0.00047852844 -0.00090950541 4281568319
0.015488643 -0.0046555698 0.0028891079 4282153543
0.018323053 -0.0081139058 0.0059852339 4282153289
0.02066455 -0.0094211772 0.0069888663 4281956684
0.023192724 -0.011443853 0.0086857248 4281696583
0.025558403 -0.012749352 0.0096848384 4282022984
0.028297421 -0.015485883 0.012070386 4282545479
0.030873902 -0.017505161 0.01375811 4283265599
0.0027192794 -0.0034337938 0.00053963251 4283923753
0.0045326017 -0.0025909096 -0.00054147653 4282682414
0.0063406192 -0.0017482489 -0.0016214792 4282094383
0.0081433468 -0.00090575218 -0.0027003977 4281703214
0.010265518 -0.0015021935 -0.002385566 4281701429
0.012723181 -0.0035363734 -0.00068019517 4281634873
0.015364718 -0.0062884316 0.0017174017 4282284359
0.017857339 -0.0083202273 0.0034161843 4282152524
0.020366076 -0.010350898 0.0051119197 4281956683
0.023066694 -0.013098851 0.0074982364 4281827654
0.025610339 -0.015127063 0.009187365 4282219844
0.028351216 -0.017872281 0.011566071 4283395903
0.0059047937 -0.0019215494 -0.0041734986 4283859239
0.0078617111 -0.0017989203 -0.0045545008 4282486319
0.0099808797 -0.0023976937 -0.0042407382 4281963059
0.012600102 -0.0051600784 -0.0018453654 4281895993
0.015408386 -0.0086421669 0.0012395699 4282218568
0.017903041 -0.010680437 0.002933098 4282349384
0.020413812 -0.012717575 0.0046235714 4282415174
0.022940682 -0.01475352 0.0063109752 4283921714
0.025840249 -0.018229395 0.009378504 4284639539
0.0077397935 -0.0034112334 -0.0057115722 4283205419
0.010020684 -0.0047360063 -0.0047062244 4282550833
0.01280649 -0.0082306117 -0.0016250871 4281962039
0.015451755 -0.011000045 0.0007588286 4282414919
0.01794843 -0.013044745 0.0024470668 4282480454
0.020288479 -0.014365308 0.0034412611 4283003714
0.022814704 -0.016407914 0.0051239263 4284116789
0.012518596 -0.0091323555 -0.0034839977 4283987759
0.01549482 -0.013361968 0.00027511455 4283396414
0.018163431 -0.016138613 0.0026480909 4284640049
0.015537567 -0.015728019 -0.00021156855 4284442169
0.024501348 -0.036633216 0.0075407028 4283656768
0.020956166 -0.032537058 0.0012910292 4283527483
0.024373202 -0.038316227 0.006333109 4282871369
0.027656211 -0.043354452 0.01068808 4282935119
0.014957417 -0.026305079 -0.0065903515 4284377653
0.017794359 -0.029884115 -0.0035836697 4282544459
0.020829547 -0.034202076 9.630248e-05 4282347088
0.024070993 -0.039258376 0.0044479072 4282412368
0.012839902 -0.028070688 -0.0073796809 4284181303
0.015330646 -0.030175261 -0.0057340041 4283004988
0.018006068 -0.033021756 -0.0034140535 4282479178
0.0208742 -0.036609679 -0.00042141601 4282347088
0.023769146 -0.040195808 0.002566101 4282411858
0.012878697 -0.030456439 -0.0078798309 4282217038
0.015205741 -0.031821974 -0.0069156587 4281955409
0.017711937 -0.03393203 -0.0052777342 4281889618
0.020405307 -0.03678602 -0.0029677004 4282281043
0.023293909 -0.040383533 1.3021752e-05 4282607188
0.0082910135 -0.03010419 -0.010309998 4283721794
0.010598715 -0.031475589 -0.0093454942 4282544968
0.012917187 -0.032846242 -0.0083829612 4282085713
0.015411962 -0.034963697 -0.0067477981 4281955154
0.017586395 -0.035585061 -0.0064639011 4281824084
0.019937124 -0.036953256 -0.0055073919 4282411348
0.0060257129 -0.031113103 -0.011771601 4283328074
0.0081674792 -0.03173922 -0.011483401 4282218824
0.010474686 -0.033115059 -0.010522034 4281957703
0.012792662 -0.034490138 -0.0095626386 4281955153
0.014790628 -0.034364626 -0.0099514099 4281954643
0.017124753 -0.035738371 -0.0089949938 4282280789
0.019298887 -0.036361799 -0.0087126093 4282541653
0.0034628548 -0.030610949 -0.014579065 4283066188
0.0054390095 -0.030487373 -0.014963999 4282217038
0.0078867897 -0.032621369 -0.013329629 4281955919
0.010190826 -0.03400179 -0.012370877 4281564494
0.01266817 -0.036133677 -0.010742065 4281889873
0.014665972 -0.036008194 -0.011130818 4282149719
0.00091746077 -0.030094139 -0.017379943 4282935629
0.0030370355 -0.030726328 -0.01709079 4282412879
0.0054706968 -0.032867879 -0.015458651 4282086734
0.0077634752 -0.034253582 -0.014501005 4281955663
0.01006702 -0.035638399 -0.013545368 4282217038
0.012056578 -0.035513602 -0.013932634 4282085204
0.013881143 -0.034634367 -0.014989704 4281822043
-0.0014642961 -0.030320287 -0.019502174 4282349128
0.00064682961 -0.0309553 -0.019213147 4282413898
0.0029148981 -0.032347187 -0.018254094 4282283594
0.0051937327 -0.033738211 -0.017297085 4282347854
0.0073264875 -0.034371465 -0.017011974 4282543184
-0.0034043714 -0.032816499 -0.019607164 4282678589
-0.0015855841 -0.031934202 -0.020660572 4282218313
0.00067387521 -0.033331096 -0.019703217 4282414154
0.0030954517 -0.035486728 -0.018078461 4282282828
0.0050711334 -0.035363182 -0.018463299 4282347088
-0.0053496882 -0.035316996 -0.01971402 4282676038
-0.0036687665 -0.033670098 -0.021436296 4282022474
-0.0017068423 -0.033547804 -0.021818757 4282219334
0.00055212528 -0.034949116 -0.020864524 4282087754
0.0029730462 -0.037111372 -0.019244477 4282152269
-0.007713113 -0.035527542 -0.021829192 4282935118
-0.0057515167 -0.035405532 -0.022211783 4282479944
-0.0037898459 -0.035283387 -0.022594295 4282153799
-0.0016824305 -0.035925344 -0.022309482 4282545224
0.000133764 -0.035038695 -0.023359071 4282151503
0.0023976751 -0.036443934 -0.022408925 4282214488
-0.0060125329 -0.036251739 -0.024036303 4282739789
-0.0040536933 -0.036129788 -0.024418272 4282153033
-0.0019492768 -0.036774114 -0.024134472 4282152013
0.022983469 -0.043465897 -0.013562711 4282733414
-0.0054657198 -0.044269197 -0.035126481 4282798439
-0.0057272278 -0.045084737 -0.036928318 4282535278
-0.019197788 -0.0031897426 0.017379357 4285229099
-0.015607972 -0.012306437 0.026247473 4285426468
-0.025826555 0.010618106 0.0013127271 4285360934
-0.024129901 0.012164071 -0.00048760325 4285754909
-0.021722939 0.0094306618 0.0019802041 4285820698
-0.018680263 0.0031337962 0.0079962425 4285885978
-0.015212703 -0.0052983761 0.016132744 4285820189
-0.011552483 -0.014439128 0.024966216 4285229099
-0.02947953 0.0066381991 0.0030578971 4285295908
-0.028435919 0.01248464 -0.0030089188 4285624094
-0.026976507 0.015465789 -0.0062254816 4285623839
-0.025069159 0.015583634 -0.0065980721 4285623838
-0.022801716 0.013555542 -0.0048423437 4285689374
-0.020518024 0.011528522 -0.0030897297 4285820953
-0.017842103 0.0073575974 0.00078488141 4285689373
-0.015133891 0.0031887814 0.0046532564 4285558303
-0.012524065 -0.00026324391 0.007808106 4285295654
-0.010020662 -0.0029989854 0.010250973 4286084114
-0.0077678263 -0.0043045878 0.011277182 4287131144
-0.0057815984 -0.0041809902 0.010889838 4284904739
-0.030579973 0.011502504 -0.0044800043 4285493279
-0.029112164 0.014492847 -0.0076918267 4285755163
-0.027551163 0.016764086 -0.010190561 4285820954
-0.025771778 0.017598972 -0.011269384 4285689374
-0.02375799 0.016998526 -0.010931479 4285755419
-0.02149367 0.014963686 -0.0091799553 4285755673
-0.019213136 0.012929969 -0.0074315164 4285690138
-0.017044242 0.011614472 -0.0063924529 4285493279
-0.014733952 0.0095828027 -0.0046496689 4285493279
-0.012274239 0.0068355352 -0.0022047628 4285426214
-0.0046244562 -0.0021138042 0.0058088321 4285688864
-0.032930378 0.011966825 -0.0073664747 4285558814
-0.031132724 0.012804694 -0.0084474962 4285624349
-0.02956349 0.015082911 -0.010943076 4285624094
-0.027895864 0.016640104 -0.012728158 4285755673
-0.026121799 0.017476823 -0.01380435 4285886999
-0.024113644 0.016873814 -0.013466975 4285821463
-0.021977652 0.01555163 -0.012424903 4285755928
-0.019705784 0.013510749 -0.010679645 4285624350
-0.017800752 0.013628826 -0.011051508 4285624349
-0.015895579 0.013747022 -0.011423316 4285689628
-0.013857234 0.013146386 -0.01109146 4285623838
-0.011270516 0.0096711069 -0.0079481639 4285558303
-0.0082416497 0.0040417537 -0.0027022865 4285688864
-0.0053108595 -0.00086637586 0.0018332284 4286343448
-0.00094733015 -0.0027759969 0.003171308 4286082073
-0.037463512 0.014498547 -0.01200006 4285688863
-0.035573479 0.014614761 -0.012369683 4285820443
-0.033364993 0.012562625 -0.010617448 4285755164
-0.031575363 0.013402209 -0.011695355 4285624093
-0.02990232 0.014964022 -0.013478344 4285624094
-0.028011594 0.015080653 -0.013847819 4285624094
-0.026120681 0.015197411 -0.014217249 4285624093
-0.024110135 0.01459232 -0.013881984 4285624094
-0.021971922 0.013265811 -0.012843551 4285624349
-0.019697998 0.011218473 -0.011103611 4285624349
-0.018045474 0.012779646 -0.012882136 4285690139
-0.01666392 0.015782915 -0.016063675 4285820953
-0.01503792 0.017342646 -0.017836867 4285820698
-0.01260915 0.014575973 -0.015398858 4285885978
-0.0097440965 0.0096482262 -0.010861943 4285885468
-0.0065595731 0.0032816455 -0.0049313614 4285819679
-0.0040447004 0.00052063167 -0.0025098491 4286146844
0.00060277805 -0.0028365925 0.00022407062 4285100069
-0.03946827 0.012823522 -0.012749881 4285754654
-0.037880298 0.015115626 -0.015239751 4285820188
-0.035998423 0.015231282 -0.015607815 4285885978
-0.033904504 0.013897009 -0.014564432 4285952278
-0.032016929 0.014013223 -0.014933463 4285755419
-0.030129161 0.014129549 -0.015302449 4285624094
-0.028013293 0.012796983 -0.014263177 4285624349
-0.026119839 0.012913868 -0.014633125 4285558814
-0.024106923 0.01230669 -0.014299957 4285558813
-0.022210475 0.012423977 -0.014670337 4285624349
-0.020189207 0.011817485 -0.014338601 4285624348
-0.018544521 0.013382569 -0.016112426 4285690139
-0.01704045 0.015670594 -0.018585028 4285821209
-0.015552316 0.017957784 -0.021054475 4285689629
-0.013267782 0.015904881 -0.019321119 4285755419
-0.01069089 0.012407064 -0.016192032 4285886488
-0.0076648295 0.0067424849 -0.010971484 4285754909
-0.0051695295 0.0039714277 -0.0085526546 4285558049
-0.0025065653 0.0004793033 -0.0054401094 4285754909
0.0022941418 -0.003610827 -0.0020176377 4287587849
0.0041021109 -0.0027660578 -0.0030961428 4285297694
-0.043084573 0.0088490099 -0.01100957 4285493024
-0.041567598 0.011876822 -0.014205659 4285689628
-0.039974105 0.014175728 -0.016691862 4285623839
-0.038296048 0.015746154 -0.01846971 4285557793
-0.036422331 0.015861303 -0.018836191 4285623584
-0.034336891 0.014522128 -0.017794451 4285689374
-0.032349017 0.013910763 -0.017458335 4285755673
-0.030355614 0.0132998 -0.017123181 4285624093
-0.02812909 0.011235878 -0.015384031 4285624349
-0.026002806 0.0098995864 -0.014349932 4285624603
-0.023984808 0.0092905164 -0.014019391 4285624604
-0.022448655 0.0115868 -0.016493706 4285624348
-0.020679396 0.012430064 -0.017563922 4285624349
-0.019169744 0.01472494 -0.020032901 4285821208
-0.017546158 0.016293168 -0.021799257 4285755419
-0.015800592 0.017135285 -0.022864608 4285557793
-0.013654601 0.015801009 -0.02183385 4285558048
-0.011221942 0.013017021 -0.019409448 4285623838
-0.008486554 0.0087843612 -0.015594583 4285755418
-0.0062919855 0.0074533969 -0.014573008 4285624348
-0.0033568554 0.0024995878 -0.010072221 4285493023
-0.00068137422 -0.0010026395 -0.0069701215 4285426724
0.0018696934 -0.0037786886 -0.0045683943 4285687843
0.0057830177 -0.0035338476 -0.0053305905 4285687333
0.025713272 -0.019894809 0.0081835762 4285032493
-0.045096528 0.0071679503 -0.011762091 4284900913
-0.043660756 0.010935359 -0.015659077 4285558558
-0.041871931 0.011780903 -0.016732404 4285755674
-0.040185835 0.013356104 -0.018508686 4285821209
-0.038610514 0.015660543 -0.020986434 4285820954
-0.036742281 0.015775327 -0.021351853 4285755418
-0.034768242 0.015160739 -0.021014705 4285952789
-0.032355558 0.011629574 -0.017870625 4285755674
-0.030581687 0.012474798 -0.018940585 4285624093
-0.028358448 0.010404021 -0.017205615 4285624349
-0.026584249 0.011249453 -0.018275432 4285624348
-0.024815265 0.012094654 -0.01934416 4285624603
-0.023294803 0.014396556 -0.021810563 4285624349
-0.021417234 0.014512733 -0.02217721 4285624094
-0.019666549 0.015357129 -0.023242122 4285821208
-0.017791387 0.015473381 -0.023608133 4285953044
-0.016180884 0.017045312 -0.025368689 4285886744
-0.013905626 0.014978617 -0.02364324 4285886744
-0.011751939 0.013640523 -0.022617143 4285887508
-0.009166155 0.01012136 -0.019505912 4285690139
-0.0066965744 0.0073310882 -0.017095027 4285558813
-0.0036223121 0.0016344786 -0.01190957 4285559069
-0.00080201775 -0.0026057363 -0.0081207175 4285427233
0.0017482378 -0.0053906217 -0.0057252999 4285623073
0.0098983236 -0.0063524246 -0.0058662128 4285884193
0.023039294 -0.019512154 0.005315017 4285032494
0.025764287 -0.02228488 0.0076773055 4285229354
0.028510734 -0.025056109 0.010035533 4284966704
-0.045211416 0.0056033432 -0.012885748 4285163563
-0.043867011 0.010114245 -0.017478393 4285361699
-0.04217555 0.011694029 -0.019252585 4285558814
-0.040494602 0.013273284 -0.021024641 4285690394
-0.038724083 0.01412008 -0.02209264 4285755928
-0.036753211 0.013502978 -0.021756586 4285755928
-0.034776796 0.012886368 -0.021421572 4285690139
-0.032578614 0.010807253 -0.019686775 4285624349
-0.030807387 0.011654459 -0.020754574 4285624093
-0.029041346 0.012501433 -0.021821281 4285755163
-0.027396653 0.014079183 -0.023585716 4285820954
-0.025406022 0.013463981 -0.023253093 4285820954
-0.023531411 0.013579838 -0.023619257 4285755164
-0.021656651 0.013695829 -0.023985365 4285624093
-0.01978175 0.013811924 -0.024351425 4285558558
-0.018165816 0.015388474 -0.026109893 4285690139
-0.01629601 0.015504491 -0.026474789 4285690138
-0.014156293 0.014160946 -0.025449255 4285690138
-0.011868168 0.012088597 -0.023731144 4285624604
-0.0090028234 0.0070993751 -0.019239537 4285493278
-0.0063857473 0.0035712793 -0.016142413 4285493279
-0.0035961643 -0.00068417192 -0.012357377 4285493024
-0.0010709204 -0.0034795552 -0.0099636558 4285425959
0.020900002 -0.021297164 0.0045166686 4284901169
0.02326322 -0.022624895 0.0054999366 4284966448
0.025814975 -0.024678975 0.0071680769 4285164329
0.028743735 -0.028185859 0.010205764 4284901423
-0.043705273 0.0063591227 -0.016486434 4285427233
-0.042100165 0.0086783022 -0.018960504 4285426978
-0.040413674 0.010262281 -0.020730425 4285493279
-0.038837623 0.012579896 -0.023198653 4285559069
-0.036969621 0.012694605 -0.023564078 4285559069
-0.03510147 0.012809411 -0.023929466 4285558814
-0.032801297 0.0099896193 -0.021499505 4285558558
-0.031143334 0.011572339 -0.023263471 4285690139
-0.02938262 0.012421161 -0.024327544 4285820953
-0.027975064 0.015469354 -0.027482284 4285952533
-0.025995437 0.014851242 -0.027149152 4285952534
-0.023888987 0.01350072 -0.026120819 4286018324
-0.021771666 0.012150943 -0.025094477 4285689884
-0.019896898 0.012267031 -0.025460515 4285624349
-0.018151391 0.01311557 -0.026521137 4285558814
-0.016411107 0.013963953 -0.027580686 4285558813
-0.014137123 0.011883952 -0.025864726 4285559068
-0.011572119 0.0083413944 -0.022765703 4285493534
-0.0084198602 0.001873821 -0.016901664 4285559324
-0.0056475811 -0.0023960099 -0.013123047 4285558558
-0.0031339489 -0.0052010417 -0.010733619 4285360934
0.020946164 -0.023684651 0.0040133893 4284966449
0.023661444 -0.026475683 0.0063645504 4284966703
0.026220579 -0.028535903 0.0080263987 4285098283
-0.043177504 -0.00035645813 -0.012702268 4285098028
-0.041647729 0.002707161 -0.01587509 4285228844
-0.040236238 0.0065061375 -0.019742999 4285294889
-0.038651798 0.0088308305 -0.022208039 4285229608
-0.036980782 0.0104184 -0.023971582 4285493534
-0.035215195 0.011269443 -0.025035273 4285559324
-0.033239175 0.010648414 -0.024703335 4285559068
-0.031368103 0.010763593 -0.025069149 4285624603
-0.029836323 0.013085581 -0.027523499 4285689628
-0.028320458 0.015406687 -0.029974673 4285557793
-0.026227985 0.014050752 -0.028946882 4285558048
-0.024003487 0.011960581 -0.027226564 4285755163
-0.022010501 0.011341251 -0.026897468 4285624348
-0.020138551 0.01145713 -0.027262986 4285624348
-0.018008035 0.01010403 -0.026242342 4285624603
-0.015998598 0.0094861016 -0.025916258 4285493534
-0.013445381 0.0059316829 -0.02282312 4285427998
-0.010728035 0.0016449466 -0.01904363 4285559069
-0.0075586326 -0.0048413277 -0.013197483 4285492514
-0.0050539561 -0.0076557696 -0.010812907 4285294634
-0.0032541715 -0.0068009794 -0.011881998 4285097519
0.020647855 -0.024612464 0.0021378063 4285031983
0.023883913 -0.029607639 0.0065356903 4285032494
0.026980083 -0.033868805 0.010242771 4284967213
-0.042835105 -0.0056244433 -0.01033769 4284901679
-0.041197177 -0.0032901168 -0.012808522 4285163309
-0.039865877 0.0012595654 -0.017369393 4285228589
-0.038566504 0.0058074519 -0.021923976 4285163053
-0.036992218 0.0081381351 -0.024382086 4285361698
-0.035538767 0.011206247 -0.027533222 4285493278
-0.033568408 0.0105827 -0.027201859 4285559069
-0.031813126 0.011435449 -0.028261729 4285756183
-0.03017604 0.013025776 -0.030015152 4285821464
-0.028780814 0.01609068 -0.033154551 4285623838
-0.026696857 0.01472985 -0.03212839 4285689373
-0.024480995 0.012632489 -0.030411208 4285755418
-0.022125255 0.0097991601 -0.028004587 4285755673
-0.020127077 0.0091780797 -0.027678104 4285558813
-0.01773626 0.0063471571 -0.025278172 4285558814
-0.015455622 0.004254289 -0.023573354 4285493278
-0.01262119 -0.00078325719 -0.019109864 4285624603
-0.010023296 -0.0043457747 -0.016033443 4285624094
-0.0071189888 -0.0093786716 -0.011583442 4285360679
-0.0048892759 -0.010729507 -0.010584945 4285228843
-0.0030841045 -0.0098721758 -0.011653461 4285031983
0.024280341 -0.033482045 0.007383354 4284966449
-0.042677101 -0.0094316006 -0.0093831941 4284966959
-0.041030776 -0.0070902407 -0.011850804 4285163308
-0.039497089 -0.0040087625 -0.015011419 4285228844
-0.037984606 -0.00092847645 -0.018167816 4285228589
-0.036595467 0.0028912425 -0.02201508 4285426214
-0.03533769 0.0074498728 -0.026551666 4285361443
-0.033789452 0.0097857863 -0.028999727 4285493278
-0.032257121 0.012120821 -0.031444609 4285624604
-0.030740675 0.014454946 -0.033886258 4285887509
-0.029355641 0.017528053 -0.037017249 4285821974
-0.027282845 0.016162101 -0.035992164 4285821718
-0.024715785 0.011839055 -0.032203279 4285756183
-0.022116449 0.0075180754 -0.028420575 4285624603
-0.019863483 0.005416669 -0.026715379 4285559069
-0.017336551 0.0018384159 -0.023633461 4285493024
-0.014782701 -0.0017381087 -0.020556672 4285492514
-0.011933487 -0.0067900643 -0.01610742 4285359913
-0.0093205012 -0.010362655 -0.013042049 4285294123
-0.0069598071 -0.012456827 -0.011357399 4285360678
-0.0047252178 -0.013811693 -0.01036312 4285294634
-0.041053165 -0.0094166473 -0.012292618 4285163309
-0.03941967 -0.0070693642 -0.014752856 4285228843
-0.037802044 -0.0047229901 -0.017209858 4285228588
-0.03630225 -0.0016346276 -0.020357251 4285228588
-0.035032924 0.0029379278 -0.024886448 4285359913
-0.033795539 0.0075085536 -0.029409286 4285360933
-0.032480117 0.011335015 -0.033233836 4285493023
-0.03096601 0.013675608 -0.035670243 4285493278
-0.029583123 0.016757283 -0.038794331 4285624859
-0.027513463 0.015386749 -0.037771866 4285624859
-0.024950188 0.011050269 -0.033991955 4285559068
-0.021984573 0.0044913515 -0.02815019 4285493534
-0.019474786 0.00090093166 -0.025073089 4285493279
-0.016938102 -0.0026877224 -0.02200117 4285492513
-0.014243115 -0.0070156306 -0.0182466 4285360424
-0.011649955 -0.010600537 -0.015185518 4285294379
-0.0093034245 -0.012702279 -0.013503103 4285228844
-0.0070801191 -0.014062427 -0.012509915 4285228843
-0.0047039054 -0.016162053 -0.010833095 4285360423
-0.0024562962 -0.017520443 -0.0098444587 4285294378
-0.040888298 -0.013238236 -0.011350333 4285163054
-0.039246421 -0.010883883 -0.013807373 4285228843
-0.037422184 -0.010020822 -0.014876265 4285228844
-0.035908472 -0.0069228262 -0.018019922 4285294378
-0.034416009 -0.003826052 -0.021159358 4285359914
-0.033266205 0.0015036836 -0.026367277 4285426468
-0.032043856 0.006086655 -0.030877419 4285426469
-0.030740988 0.0099233985 -0.034691382 4285493023
-0.029349562 0.013014399 -0.037810735 4285493534
-0.027154464 0.010895848 -0.03610415 4285493533
-0.024581615 0.0065467954 -0.032335795 4285559069
-0.021730091 0.00071236491 -0.027198121 4285559323
-0.018961493 -0.0043757111 -0.022756031 4285690904
-0.016540926 -0.0072311834 -0.020381328 4285294633
-0.013967607 -0.010828435 -0.017324554 4285294379
-0.011501301 -0.01368086 -0.014958613 4285294379
-0.009150032 -0.015788928 -0.013281918 4285228843
-0.0069218576 -0.017153129 -0.012292969 4285228844
-0.037538651 -0.01160337 -0.016012747 4285163054
-0.035719547 -0.010738306 -0.017078996 4285229099
-0.034114238 -0.0083793551 -0.019523785 4285294378
-0.032524791 -0.0060212091 -0.021965412 4285294634
-0.031389859 -0.0006769821 -0.027159015 4285360423
-0.030179914 0.0039185286 -0.031657018 4285426469
-0.028886911 0.0077657253 -0.035460904 4285426978
-0.026679073 0.0056413487 -0.033761673 4285361699
-0.023973588 0.0005337894 -0.029318724 4285427489
-0.021107454 -0.0053173006 -0.024196828 4285426468
-0.018575501 -0.0089283362 -0.02114024 4285229098
-0.016273428 -0.011046417 -0.019459061 4285228843
-0.013824102 -0.013908803 -0.017096365 4285228844
-0.011353243 -0.016769715 -0.014737773 4285229099
-0.008997269 -0.01888407 -0.013066906 4285294633
-0.0066251121 -0.020997301 -0.011399045 4285228844
-0.035633016 -0.01381731 -0.016836084 4285163309
-0.033917855 -0.012200668 -0.018588949 4285228843
-0.03221323 -0.010584608 -0.020339625 4285360424
-0.030847605 -0.0067221969 -0.024149807 4285360169
-0.029732924 -0.0013637394 -0.029328134 4285360678
-0.028425861 0.0024952888 -0.033126704 4285360934
-0.026087742 -0.00038333237 -0.030749172 4285426978
-0.023487676 -0.0047570765 -0.02700554 4285426724
-0.020732488 -0.0098768771 -0.022583496 4285294888
-0.018441889 -0.012002409 -0.020905035 4285228843
-0.016263332 -0.013378963 -0.019913232 4285163053
-0.013943035 -0.015502386 -0.018240375 4285163309
-0.011339393 -0.019119598 -0.015205595 4285228843
-0.0087088682 -0.022735015 -0.012175969 4285294379
-0.0063293278 -0.024854399 -0.010514405 4285294123
-0.032329526 -0.012160055 -0.021470916 4285228844
-0.030963223 -0.0082866624 -0.025273185 4285294888
-0.029511515 -0.0051657781 -0.028385064 4285294888
-0.028195757 -0.0012952685 -0.032177277 4285360933
-0.025850404 -0.0041822493 -0.029807638 4285360934
-0.02336346 -0.0078182518 -0.026758591 4285295143
-0.020604219 -0.012953117 -0.02234868 4285360423
-0.018434282 -0.014334783 -0.021358477 4285360424
-0.016253512 -0.015715599 -0.020370329 4285294634
-0.032232795 -0.015242241 -0.021232883 4285031984
-0.030860472 -0.011357531 -0.025028268 4285294889
-0.02929106 -0.0089807659 -0.02745129 4285294888
-0.027852077 -0.0058517754 -0.030554159 4285295143
-0.025614012 -0.0079940259 -0.028875424 4285294889
-0.02311999 -0.011640608 -0.025835788 4285295144
-0.020476546 -0.016037911 -0.022119937 4285360678
-0.018176522 -0.018176034 -0.020453021 4285294379
-0.01598819 -0.019560784 -0.019469593 4285228843
-0.029071543 -0.012808591 -0.026526833 4285032494
-0.02762403 -0.009670347 -0.029624924 4285163563
-0.025378544 -0.011818774 -0.027952457 4285229098
-0.022877473 -0.015475877 -0.024922322 4285295143
-0.020349506 -0.019131184 -0.021897357 4285229099
-0.027168524 -0.015016779 -0.027345235 4285032494
-0.025027175 -0.016413718 -0.026359465 4285228843
-0.022516366 -0.020081177 -0.023339301 4285228844
-0.019856434 -0.024503775 -0.019646037 4285163054
-0.024326954 -0.023304388 -0.022745673 4284901169
-0.021917757 -0.026222393 -0.020414308 4285163054
