# .PCD v0.7 - Point Cloud Data file format
VERSION 0.7
FIELDS x y z rgba
SIZE 4 4 4 4
TYPE F F F U
COUNT 1 1 1 1
WIDTH 489
HEIGHT 1
VIEWPOINT 0 0 0 1 0 0 0
POINTS 489
DATA ascii
0.0086798891 -0.0011562482 0.046581499 4286724163
0.011225984 -0.0030959845 0.048278265 4288620598
0.01486218 -0.0098995119 0.05499544 4288686134
0.0022548661 -0.0033328161 0.046714328 4288556083
0.0032075122 0.0023963526 0.040508449 4289930789
0.0045534 0.0060293302 0.036465578 4289603113
0.0066122711 0.0061726049 0.036015011 4290061093
0.0094241425 0.0028289557 0.039147995 4289930278
0.012722552 -0.0026043877 0.044423573 4290322468
0.016687401 -0.010822795 0.052551992 4289472044
-0.0098686814 0.0026179031 0.039119937 4289076794
-0.0076795295 0.0020594224 0.039388336 4291433248
-0.005221419 9.9606812e-05 0.041093998 4290648869
-0.0030158609 -0.00045757741 0.041359 4289930024
-0.0013529807 0.0017879605 0.038750641 4289146664
0.00029408932 0.004032515 0.036145836 4289474084
0.0016405806 0.0076764151 0.032110833 4289800484
0.0029605851 0.011318557 0.028081702 4290061858
0.0048449561 0.012159728 0.026921274 4288884524
0.0077768117 0.0081033036 0.03076789 4289211433
0.011353031 0.001251474 0.037465706 4289210923
0.014982767 -0.0055965632 0.044151947 4289014319
0.018824361 -0.013139777 0.051539876 4289144879
-0.014733933 0.0041402057 0.035200566 4289340464
-0.013181865 0.0070963427 0.031874567 4288686898
-0.011272296 0.0079406723 0.030709581 4289995304
-0.0092389733 0.008081384 0.030264033 4289407019
-0.0068108588 0.006112799 0.031971417 4290716699
-0.0045007244 0.0048484206 0.032958247 4289538853
-0.0025903434 0.00569316 0.031793416 4289342759
-0.00068511069 0.0065376461 0.030629801 4289669668
0.0006461814 0.010191455 0.026606204 4290323998
0.0020958409 0.013141342 0.023303194 4290651164
0.0041144565 0.013281748 0.022861386 4289538854
0.0068842173 0.0099130794 0.025987322 4290258464
0.010292277 0.0037397593 0.031959288 4290127139
0.013748474 -0.0024300814 0.037920818 4290127649
0.017569229 -0.0099990144 0.045295455 4289341484
-0.017038167 0.0030043945 0.033715889 4287443774
-0.015719116 0.0073819607 0.028957659 4289407784
-0.013938382 0.0089338273 0.027077651 4289015849
-0.012168095 0.010485105 0.025199959 4288688683
-0.010022193 0.0099191591 0.025474539 4288623148
-0.0078707635 0.0093536302 0.025748009 4288950313
-0.0054457709 0.0073783174 0.027451215 4290258463
-0.0032779723 0.0068141893 0.027721217 4289342759
-0.0013833344 0.0076601133 0.026561515 4289343013
0.00022211671 0.0099149719 0.023975613 4289604389
0.0018117279 0.012168884 0.021393212 4290193184
0.0038275458 0.012309074 0.020951996 4289538854
0.0062935837 0.010337196 0.022646727 4289865763
0.0093864612 0.0055511072 0.02718346 4289407528
0.012672193 6.4022839e-05 0.032422893 4289472554
0.016632788 -0.0082339123 0.040493838 4289341228
0.020818211 -0.0172306 0.049260497 4289471789
-0.016460642 0.0092384294 0.024170669 4289408293
-0.014692985 0.010793805 0.022296691 4290193183
-0.012935773 0.012348503 0.02042512 4290193183
-0.010803506 0.011779353 0.02070103 4289866019
-0.0084033757 0.0097955391 0.022404762 4290651164
-0.0059870481 0.0078129396 0.024105022 4289866018
-0.0038275495 0.0072459877 0.024375187 4289342759
-0.0019408762 0.0080935135 0.02321882 4289473829
8.2492828e-05 0.0082339868 0.022775779 4289408549
0.0019615218 0.0090812445 0.021621199 4289669668
0.0039825514 0.0092217624 0.021178821 4289408038
0.0061535649 0.008656092 0.0214469 4289277223
0.008635059 0.0066787973 0.023133388 4289604389
0.011443004 0.0032909289 0.026234875 4289145388
0.015382584 -0.0050349459 0.034291007 4289014573
0.019867785 -0.015472785 0.044457301 4289014063
-0.016839296 0.0089858025 0.021545293 4288426034
-0.015199699 0.011255465 0.018961066 4289866019
-0.013324589 0.012103863 0.017808454 4289473574
-0.011197962 0.011532083 0.018083954 4289342759
-0.0090658069 0.010960788 0.018358314 4289866019
-0.0065271705 0.0082611889 0.020768458 4289538853
-0.004239656 0.0069820285 0.021750512 4289342759
-0.0022192821 0.007122159 0.021308029 4289212199
-0.00034035742 0.0079714209 0.020155037 4289474084
0.0018220246 0.0074027479 0.020423157 4289669923
0.0036959425 0.0082518756 0.019271413 4289735204
0.0057143345 0.0083923042 0.018829683 4290192928
0.0078851804 0.0078245476 0.019096201 4290847259
0.010526434 0.0051329285 0.021484496 4290585119
0.014135018 -0.0018046349 0.028110472 4290453793
0.018278025 -0.010861591 0.036844224 4289733929
0.022164539 -0.018498465 0.044151135 4289210159
-0.016856693 0.0066040978 0.021067439 4288033590
-0.015336841 0.0095931068 0.017774278 4289865764
-0.013587125 0.011156067 0.015910739 4289604389
-0.011591621 0.011294022 0.015473368 4289669668
-0.0094650984 0.010720059 0.015747355 4290258463
-0.006932646 0.0080112368 0.01815231 4289800739
-0.0047870874 0.0074388161 0.0184223 4289866019
-0.0027748272 0.0075783283 0.017981553 4289473828
-0.00076238811 0.0077179819 0.017540859 4289604899
0.0012502074 0.0078577399 0.017100206 4289474084
0.0031161606 0.0087085366 0.015951762 4289866273
0.0049769692 0.0095590502 0.014804574 4289866019
0.0071368292 0.0089883059 0.01507186 4290520093
0.0097665414 0.0062870532 0.017456191 4289735203
0.012732655 0.0021671057 0.02124686 4290585118
0.016691644 -0.0062101707 0.029259844 4290716188
0.020551987 -0.013873123 0.036554642 4288752944
0.023974717 -0.019403055 0.041725449 4289013809
-0.015228644 0.0065015405 0.018010611 4289473319
-0.013598666 0.0087837726 0.015438216 4289538853
-0.011856519 0.010350667 0.013579627 4289473828
-0.0098635852 0.01048851 0.013142871 4290912794
-0.0074706078 0.0084844083 0.014833594 4290782233
-0.0051974207 0.0071953684 0.01581225 4290978584
-0.0033292398 0.0080481246 0.014664719 4289539620
-0.0014662072 0.0089006424 0.01351841 4289539620
0.00053560734 0.0090396255 0.0130801 4289866528
0.0025375709 0.0091787353 0.012641834 4290062623
0.004390426 0.010030866 0.011497984 4290847259
0.0063900203 0.010170028 0.011060406 4289211944
0.009008199 0.0074592009 0.013440726 4288688684
0.011647835 0.004749909 0.015816456 4289081128
0.014948707 -0.00080642104 0.021000819 4289603878
0.018942811 -0.0092076138 0.028986787 4289669668
0.023001011 -0.017604128 0.036958784 4289866274
-0.015243568 0.0041183978 0.017530946 4288491824
-0.013860703 0.0078410134 0.013544073 4289277224
-0.012120984 0.0094120651 0.011689262 4289539109
-0.010261282 0.010266095 0.010544965 4289604388
-0.0081405267 0.0096874088 0.010816963 4289408549
-0.0058784783 0.0083931834 0.011794807 4289800993
-0.0038824752 0.0085315257 0.0113576 4289801249
-0.0020273849 0.0093856603 0.010214612 4289604643
-0.00017747283 0.010239542 0.0090728458 4289800738
0.0016672909 0.011093169 0.0079322886 4289735458
0.003655944 0.011231437 0.0074970014 4290454814
0.0056447349 0.011369824 0.0070617609 4290193184
0.0082513765 0.0086493194 0.0094381496 4289931554
0.010408208 0.0080741197 0.0097029787 4289996323
0.013369262 0.0039275289 0.013475327 4289668648
0.017012157 -0.0030735061 0.02004529 4289342759
0.021368846 -0.01292672 0.02940592 4288752688
-0.015381031 0.0024503171 0.016340023 4287314489
-0.014122315 0.0069029331 0.011653328 4289211433
-0.012640201 0.0099158287 0.0083879344 4289997089
-0.010918684 0.011490084 0.0065404102 4289212198
-0.0089418069 0.011626862 0.0061072093 4289212199
-0.0066936091 0.010327242 0.0070848148 4289604898
-0.0045728013 0.0097465068 0.0073553696 4290455323
-0.0025874078 0.0098842084 0.0069205407 4289800993
-0.00074543804 0.010739751 0.0057820678 4289604644
0.001091361 0.011594996 0.0046448577 4289669668
0.0030718781 0.011732675 0.0042113289 4289866018
0.0050525479 0.011870474 0.0037778541 4289342503
0.0074960776 0.0098574758 0.0054483768 4289081129
0.009955734 0.0078457743 0.0071154274 4288819499
0.01243151 0.0058352426 0.0087790545 4289081128
0.015734583 0.00024391711 0.013937062 4288753199
0.019904979 -0.0089254007 0.022580704 4288425779
0.024312377 -0.018805772 0.031907633 4287836728
-0.014757723 0.0081332102 0.0076474529 4289472809
-0.013285667 0.01115419 0.0043907333 4289865763
-0.011704654 0.013452925 0.00184373 4290193184
-0.0096084848 0.012868106 0.0021178517 4289670178
-0.0076422244 0.013004199 0.0016870201 4290586394
-0.0052615926 0.010979563 0.0033659525 4289539363
-0.0032870099 0.01111646 0.0029334649 4289408549
-0.0011688396 0.010533594 0.0032030828 4289408549
0.000954777 0.0099511966 0.003471572 4289800738
0.0027864426 0.010808378 0.0023371708 4289604133
0.004764311 0.010945961 0.0019042902 4289146408
0.0072044805 0.0089261159 0.0035706796 4288819498
0.00950405 0.0076265335 0.0045344345 4288557868
0.012133181 0.0048901737 0.0068930797 4288753708
0.01526992 -4.1723251e-07 0.011341034 4288295474
0.019432425 -0.0091988891 0.019965338 4288164148
0.02366437 -0.018392399 0.028574536 4288033078
-0.014893368 0.0064877942 0.0064727329 4289472809
-0.013675153 0.010964036 0.001814371 4290127394
-0.01209905 0.013269037 -0.00072677061 4289146408
-0.01014109 0.013404444 -0.0011558756 4289081384
-0.0080477297 0.012817264 -0.00088266283 4289539363
-0.0056731105 0.010785609 0.00079266727 4289343013
-0.0034228861 0.0094774663 0.0017635264 4289146663
-0.0013050586 0.0088923424 0.0020315759 4289212199
0.00081825256 0.0083077028 0.002298506 4289539108
0.0026499555 0.0091670603 0.0011656843 4289474083
0.0049300939 0.0078614727 0.0021302719 4289539619
0.0072210394 0.006556727 0.0030926429 4289474594
0.0096792877 0.0045316592 0.0047502294 4289016869
0.012312878 0.0017867982 0.0071014091 4288231469
0.015453532 -0.0031189471 0.011537222 4287904304
0.019289739 -0.010904536 0.018748173 4287708210
0.023184728 -0.018685922 0.025946418 4286462788
-0.015153334 0.0055682957 0.0045952275 4287641654
-0.01393681 0.010057583 -5.3079799e-05 4288950314
-0.012103528 0.010918461 -0.001185203 4288820009
-0.010010675 0.010328941 -0.00091364793 4288820008
-0.0079123154 0.0097399056 -0.00064321607 4288951334
-0.0056707561 0.0084266663 0.00032616034 4289147683
-0.0035587251 0.0078387707 0.00059380755 4288951333
-0.0015842393 0.0079757273 0.00016137585 4288820518
0.00053608418 0.0073886588 0.00042732246 4289540384
0.0026618838 0.0068020821 0.00069215149 4289605663
0.0050952099 0.0047684088 0.0023502093 4289736734
0.0073909611 0.0034596175 0.003308218 4289605663
0.0096975118 0.0021516383 0.0042639859 4289082148
0.012173858 0.00012135506 0.0059128478 4288362794
0.015474752 -0.0055229515 0.011032447 4287773489
0.01931145 -0.013332717 0.018225471 4287510839
-0.015164472 0.0031978786 0.0041239094 4287969073
-0.013944328 0.0077005625 -0.00051550008 4289146919
-0.011849299 0.0071088672 -0.00024613738 4289867038
-0.0097487569 0.0065176487 2.2087246e-05 4289802269
-0.0076427162 0.0059268773 0.00028924271 4289082659
-0.0056686923 0.0060635656 -0.00014325604 4288821028
-0.0035543293 0.0054736435 0.00012219325 4288820773
-0.0015773177 0.0056107566 -0.00031079724 4289017378
0.00039984286 0.0057479888 -0.00074374303 4289540893
0.0025253147 0.0051591769 -0.0004804749 4289933594
0.0051087812 0.0023928583 0.0018684343 4289933594
0.0074066967 0.0010797754 0.0028227121 4289671964
0.0098715648 -0.00095807016 0.0044691786 4289344288
0.012034882 -0.0015437901 0.0047245063 4288821284
0.015334144 -0.0072058141 0.0098314937 4288100908
0.019004494 -0.014314845 0.016314527 4287772724
-0.015299931 0.0015533864 0.0029498097 4287315509
-0.013952151 0.0053394288 -0.00098088011 4289343524
-0.011854768 0.0047456622 -0.00071367435 4289933339
-0.0096198842 0.0034228414 0.00025052577 4290064408
-0.0075088292 0.0028302446 0.00051490217 4289868059
-0.0056669489 0.0036963895 -0.00061566383 4289082913
-0.0036902279 0.0038333535 -0.0010486897 4288625189
-0.0017133579 0.0039704368 -0.0014816672 4288690724
0.00026366115 0.0041076466 -0.0019145906 4289476124
0.0026848018 0.0020597652 -0.0002636984 4289410589
0.0049713925 0.00074137747 0.00068971887 4289410589
0.0072688013 -0.00057613105 0.0016408712 4290130199
0.0092650205 -0.00043711811 0.0012040921 4289606173
0.011578657 -0.0017533228 0.0021518916 4289017379
0.014870975 -0.0074334294 0.0072474461 4288558634
0.01869797 -0.015292242 0.014406977 4287969074
-0.015435338 -9.0815127e-05 0.0017759148 4286726969
-0.014086775 0.0037062466 -0.0021468718 4289016614
-0.012118869 0.0038421154 -0.0025783181 4289213474
-0.0098871365 0.0025146753 -0.0016166717 4289802779
-0.0077790767 0.0019196421 -0.0013532788 4289541148
-0.0058026761 0.0020564348 -0.0017863438 4289148704
-0.0038260892 0.002193369 -0.0022193491 4288887074
-0.0017068833 0.0015994534 -0.0019581504 4288691233
0.00041778386 0.001006037 -0.0016980581 4288822304
0.0025479645 0.00041306764 -0.0014390424 4289672728
0.0046835802 -0.00017935783 -0.0011811741 4289672728
0.0069778115 -0.0015015155 -0.00023259223 4289934613
0.0088154227 -0.0006326735 -0.0013600215 4289540894
0.011123218 -0.0019536316 -0.00041421503 4288559653
0.014408559 -0.0076518431 0.0046698879 4288363814
0.018391851 -0.016264886 0.012502795 4288363048
-0.015570685 -0.0017347187 0.00060222857 4286530618
-0.014095038 0.0013390779 -0.0026165713 4289082404
-0.012382552 0.0029433072 -0.0044396017 4289082658
-0.010153979 0.0016112626 -0.0034805592 4289999639
-0.0080488995 0.0010137707 -0.0032181032 4289868823
-0.0059383363 0.00041679293 -0.0029568076 4288822304
-0.0039618909 0.0005536899 -0.003389813 4288299044
-0.0018430054 -4.2468309e-05 -0.0031301714 4288431134
-0.014481992 0.0011772811 -0.00517275 4288951843
-0.012517013 0.0013128817 -0.0056035966 4289540894
-0.010420404 0.00071254373 -0.0053410344 4289737244
-0.008318305 0.00011265278 -0.005079601 4288887328
-0.0063475072 0.0002490133 -0.0055114701 4288234019
-0.014742203 0.00028591603 -0.0070294812 4288494628
-0.012908652 0.0011598468 -0.0081520677 4288757024
-0.010817684 0.00055685639 -0.007889919 4288888603
0.0080553852 0.00064546615 -0.005296994 4283463988
0.010510277 -0.0014128014 -0.0036628656 4282810424
0.013786003 -0.0071292073 0.001410367 4282678589
0.017922543 -0.016501054 0.0099140387 4282742594
0.0016847029 6.0677528e-05 -0.0065485351 4283332409
0.0036589131 0.00019788742 -0.0069807023 4283005753
0.0054804794 0.0010698885 -0.0081015453 4282287418
0.0074522831 0.0012071431 -0.0085330307 4281374519
0.0098984875 -0.00085832924 -0.006901864 4281242938
0.01316461 -0.0065930411 -0.0018394385 4281504824
0.017127153 -0.015260264 0.0059591103 4281960254
0.020655513 -0.021721736 0.011686472 4282154309
-0.0067559034 9.034574e-05 -0.0080595538 4282547518
-0.0047903955 0.00022642314 -0.0084901974 4282286654
-0.0028247461 0.00036264956 -0.0089207739 4281764158
-0.00085894763 0.00049901009 -0.0093512945 4281634364
0.0011069849 0.00063547492 -0.0097817741 4281700154
0.0030730516 0.00077208877 -0.010212176 4281308218
0.0047340952 0.0023825318 -0.012016736 4280656184
0.0066951029 0.0025190264 -0.012445867 4280590394
0.0091299415 0.00044620037 -0.010817114 4280591669
0.012383766 -0.0053069592 -0.005764951 4278637858
0.01600682 -0.012529224 0.0006475132 4281176893
0.019683264 -0.019747645 0.0070483703 4281565768
-0.01634568 -0.0044412911 -0.0049933987 4282675274
-0.015127786 0.00014023483 -0.0095742382 4282482749
-0.013171077 0.00027522445 -0.010003306 4282286908
-0.011345275 0.0011509135 -0.011122514 4282221628
-0.009390898 0.0012859777 -0.011550896 4281113653
-0.0075727552 0.0021613538 -0.012668248 4280851768
-0.005342558 0.00081652403 -0.011719067 4281113654
-0.0033850521 0.0009521693 -0.012147877 4281502783
-0.0014273748 0.0010879338 -0.012576636 4281438013
0.00067749619 0.00048435479 -0.0123186 4281438523
0.0026380867 0.00062056631 -0.012747824 4280852278
0.0044464171 0.0014960095 -0.013862558 4281112379
0.006249547 0.0023711696 -0.014976021 4281502528
0.0085206293 0.0010299608 -0.014035139 4281372989
0.011604454 -0.0040028915 -0.0096776234 4281241918
0.014888734 -0.0097713694 -0.0046449685 4280849984
0.0185472 -0.017013028 0.0017436575 4281175108
0.021585502 -0.02129896 0.0053925458 4282738513
-0.016603187 -0.0053339899 -0.0068519125 4282347853
-0.015386991 -0.00073949248 -0.011422671 4281763648
-0.013561338 0.00013824552 -0.012540329 4281438268
-0.011740819 0.0010157377 -0.013656773 4280656183
-0.010192618 0.0033781528 -0.016148105 4280460088
-0.008251518 0.00351239 -0.016573519 4280461618
-0.0061713755 0.002904579 -0.016311996 4279158568
-0.0038026273 0.00081319362 -0.014678981 4281307708
-0.0017062202 0.00020673871 -0.014420852 4281372989
0.00024876744 0.00034242123 -0.014848951 4281307964
0.0022038966 0.00047823787 -0.015276987 4280460598
0.0038547367 0.0020967126 -0.017072871 4280330294
0.0058047697 0.0022324175 -0.017499615 4281111103
0.0082275569 0.00014556199 -0.015877943 4281111104
0.010986853 -0.003421545 -0.012895264 4280133179
0.013772912 -0.0069867 -0.0099183107 4280850238
0.017247833 -0.013511166 -0.0042229909 4281110849
0.020434432 -0.018551901 0.00010103919 4281109318
0.02365841 -0.023589835 0.0044169556 4282476883
-0.01661478 -0.0077130795 -0.0073294127 4281954898
-0.015645787 -0.0016144961 -0.013267737 4281175363
-0.01407887 0.00075556338 -0.015758503 4280524093
-0.012266301 0.0016346723 -0.016871613 4281045824
-0.010592289 0.0032583103 -0.018669959 4281371713
-0.0086566582 0.0033921599 -0.019094177 4281176384
-0.0067208856 0.0035261437 -0.019518334 4280980543
-0.0043608248 0.0014276057 -0.01788833 4280720699
-0.002128683 7.4282289e-05 -0.016945835 4280981054
-0.00017915666 0.00020958483 -0.017372742 4281111613
0.0016211122 0.0010886937 -0.018482596 4281241918
0.0034162067 0.0019675493 -0.019591179 4280590138
0.005360771 0.0021028519 -0.02001673 4280785214
0.0076201856 0.0007520169 -0.019079778 4280654398
0.010210399 -0.002083756 -0.016783819 4280784703
0.012822013 -0.0049178749 -0.014492494 4281110339
0.015951112 -0.0099781454 -0.010167324 4281110084
0.019621648 -0.017262742 -0.0038135778 4281239113
-0.016626701 -0.010096237 -0.0078098932 4282346069
-0.015778959 -0.0032323003 -0.014422808 4281240133
-0.014339522 -0.00010831654 -0.017594881 4280849474
-0.01279065 0.0022671595 -0.020076785 4280068409
-0.01112441 0.0038946271 -0.021870211 4280589628
-0.0091969073 0.004027918 -0.022292655 4280785214
-0.0071307272 0.0034147128 -0.02203133 4279937593
-0.0046354756 0.0005626753 -0.019721687 4280654908
-0.0026942268 0.00069727004 -0.020146884 4281111104
-0.00060632825 8.5905194e-05 -0.019890066 4281110848
0.0011886656 0.00096680969 -0.020997111 4281241665
0.0029784665 0.0018474683 -0.022102918 4281241664
0.0050720647 0.0012368858 -0.021847077 4281567554
0.0073282868 -0.00011850893 -0.020912692 4281567298
0.0095952787 -0.0014730841 -0.019980535 4281436994
0.012035523 -0.0035717338 -0.018372186 4281045314
0.015152503 -0.0086481422 -0.014055696 4281110338
0.018978208 -0.016700163 -0.007038055 4281174343
0.02252163 -0.023259163 -0.0013865922 4282607189
-0.01676131 -0.011733584 -0.0089789601 4282541653
-0.015787035 -0.0055995584 -0.01489262 4282021199
-0.014599741 -0.00096748024 -0.019427907 4281108808
-0.01331386 0.0029131398 -0.023272261 4281111104
-0.011389315 0.0030460879 -0.02369415 4280915008
-0.0094646215 0.0031791553 -0.024115995 4280915009
-0.0072630793 0.0018147156 -0.023173504 4281045058
-0.0050507337 0.0004510954 -0.022233248 4281175365
-0.0029712915 -0.00016316772 -0.021976296 4281240389
-0.00074003637 -0.0015251935 -0.021040045 4281174853
0.0012039989 -0.001390174 -0.021465681 4281436484
0.0031481571 -0.0012550503 -0.021891259 4281502019
0.0052467436 -0.0018675029 -0.021638136 4281371714
0.0073507875 -0.0024794787 -0.021386057 4281371203
0.0094602667 -0.0030909181 -0.021135133 4281370949
0.011737481 -0.0044490024 -0.020208396 4281501508
0.014685385 -0.0087941736 -0.016578613 4281631304
0.018168285 -0.015377298 -0.010928562 4281695053
-0.015670553 -0.0087229013 -0.014681851 4282476373
-0.01473204 -0.0025736988 -0.020574678 4281695819
-0.013575569 0.002069518 -0.025093447 4280979524
-0.011786684 0.0029536933 -0.026196498 4281305668
-0.0097319409 0.0023351088 -0.025935974 4281239878
-0.0073953941 0.00021502376 -0.024315462 4281044293
-0.0051835701 -0.0011530295 -0.023378339 4280978758
-0.0029609576 -0.0025201812 -0.022443533 4280913224
-0.00087371469 -0.0031359941 -0.022189822 4280587334
0.0012189895 -0.0037512928 -0.021937203 4281044038
0.0033171475 -0.0043661445 -0.021685649 4281044549
0.0052665994 -0.0042305291 -0.022112302 4281370949
0.0075297728 -0.0055942237 -0.021185908 4281370949
0.0094847605 -0.0054579899 -0.021613605 4281435973
0.011601985 -0.0060709715 -0.021365907 4281566024
0.014548637 -0.010429367 -0.017745523 4281630794
0.017862245 -0.016283378 -0.012783812 4281694798
-0.014736965 -0.0049335659 -0.021039903 4282346323
-0.01357688 -0.00027696043 -0.025549784 4281108809
-0.011652619 -0.00014407933 -0.025971644 4281174088
-0.0095928833 -0.00076445937 -0.025713865 4280652613
-0.0072517097 -0.00289087 -0.02409919 4280848709
-0.0051757097 -0.0035099089 -0.023844812 4280913223
-0.0030942559 -0.0041284338 -0.023591533 4280977993
-0.0010073334 -0.0047464669 -0.023339372 4281108299
0.0010850281 -0.0053640157 -0.023088302 4281173324
0.0031828582 -0.0059810728 -0.022838298 4281238603
0.0052861087 -0.0065976083 -0.022589438 4281173323
0.0073947981 -0.0072136298 -0.022341665 4281369674
0.0095089227 -0.007829152 -0.022095 4281369673
0.011628497 -0.0084442049 -0.021849388 4281238603
0.014576524 -0.012815669 -0.018239064 4281434444
0.017556619 -0.017184734 -0.01463565 4281432658
-0.014869355 -0.0065414011 -0.022187844 4282411859
-0.013448693 -0.003383562 -0.025329914 4281566279
-0.011784211 -0.0017387122 -0.027110081 4281239113
-0.0094545186 -0.0038725734 -0.025497865 4281043784
-0.0072465092 -0.0052498206 -0.024566479 4280847943
-0.0050277263 -0.0066261441 -0.023637395 4281043529
-0.0032275096 -0.0057363957 -0.024739325 4281108554
-0.0011409372 -0.0063566566 -0.024488714 4281108044
0.00080265105 -0.0062217116 -0.024914272 4281238604
0.0030485988 -0.0075957179 -0.023990739 4281238348
0.005151514 -0.0082144812 -0.023743434 4281173324
0.0074163154 -0.0095868632 -0.022823872 4281238858
0.0093736574 -0.0094504803 -0.02325209 4281369674
0.011492882 -0.010067776 -0.023008032 4281499724
0.01427523 -0.013698891 -0.020078702 4281433933
0.017585576 -0.019588187 -0.015142107 4281300823
-0.014874741 -0.0089073032 -0.022657389 4282281298
-0.013450831 -0.0057404786 -0.025793724 4281760844
-0.011783458 -0.0040910691 -0.027571309 4281434699
-0.0097217113 -0.0047157258 -0.027317218 4281305159
-0.0073792562 -0.0068552196 -0.025712524 4281044294
-0.0051609725 -0.0082360059 -0.024786584 4281109064
-0.0030748546 -0.0088586062 -0.024537563 4281239369
-0.0011288822 -0.0087236315 -0.024963755 4281108044
0.00066894293 -0.0078316331 -0.026063386 4281107789
0.0029143766 -0.009210065 -0.025142977 4281238093
0.0051705465 -0.010587581 -0.024224872 4281107533
0.0072812438 -0.011207864 -0.023980776 4281173833
0.0092384219 -0.011071503 -0.024408964 4280977993
0.011195719 -0.010934986 -0.024837075 4281237328
0.013810098 -0.013821527 -0.022585014 4281366358
-0.01670111 -0.012172192 -0.022026097 4282476374
-0.015007243 -0.010516748 -0.023806481 4282216784
-0.013323829 -0.008861959 -0.025584426 4281500999
-0.011783034 -0.0064475536 -0.028035477 4281567044
-0.0097189471 -0.0070742592 -0.027783528 4281239368
-0.0075119659 -0.0084603578 -0.026858386 4281174088
-0.0052941889 -0.0098455399 -0.025935547 4281109829
-0.0032084063 -0.01047039 -0.025688095 4281239368
-0.0014079958 -0.0095761567 -0.026786776 4281173069
0.00038720667 -0.0086821392 -0.027884223 4281041998
0.002478689 -0.0093062073 -0.027637737 4280911438
0.00472904 -0.010688573 -0.026721546 4281238094
0.0069901273 -0.01207 -0.025807647 4281172813
0.0086270422 -0.010417104 -0.027574426 4281040469
0.010737579 -0.011039361 -0.027331753 4281561178
-0.015013084 -0.012888685 -0.02428033 4282281808
-0.013326801 -0.011229336 -0.026055703 4281500233
-0.011519067 -0.010333009 -0.027154827 4281238858
-0.009581916 -0.010199167 -0.027579462 4281370694
-0.0073701292 -0.011589289 -0.026658649 4281370438
-0.005287461 -0.012216657 -0.026412209 4281370694
-0.0031993315 -0.012843594 -0.02616684 4281108043
-0.001686722 -0.010423951 -0.028606433 4281106769
0.0001058504 -0.0095279366 -0.029701699 4280779858
0.0023449063 -0.010915563 -0.028786402 4281040979
0.0044414997 -0.011541337 -0.02854256 4282150228
-0.015272126 -0.013734788 -0.026104065 4282019158
-0.013330087 -0.013600826 -0.026529932 4281302863
-0.011519656 -0.012702122 -0.027628029 4281238603
-0.0095800012 -0.012568124 -0.028053226 4281237073
-0.0075031221 -0.013198227 -0.02780723 4281104218
-0.0055605173 -0.013063759 -0.028232882 4282017629
-0.01553075 -0.014576167 -0.02792442 4282018649
-0.01359152 -0.014442429 -0.028349688 4281561689
-0.011783719 -0.013541736 -0.029445624 4282018139
-0.012231015 -0.020755306 -0.046072666 4282863974
0.0062283799 -0.00022479892 -0.0041734874 4286279699
