# .PCD v0.7 - Point Cloud Data file format
VERSION 0.7
FIELDS x y z rgba
SIZE 4 4 4 4
TYPE F F F U
COUNT 1 1 1 1
WIDTH 661
HEIGHT 1
VIEWPOINT 0 0 0 1 0 0 0
POINTS 661
DATA ascii
-0.011263642 0.002499029 0.015478071 4284640558
-0.0081251636 0.0069425553 0.01041862 4283922478
-0.0056664459 0.0049747378 0.012170069 4283988269
-0.0030365996 0.0023101345 0.014630716 4284446504
0.011806086 0.00041933358 0.014734607 4283465009
0.014720133 -0.002934128 0.017883137 4283790644
-0.013690334 0.0021201372 0.013231207 4282545733
-0.013406415 0.010655761 0.0042899475 4281699134
-0.011719648 0.012181588 0.0024829283 4279679789
-0.0098941214 0.013006501 0.0013896339 4280003128
-0.00716139 0.0096296892 0.004564248 4279874863
-0.0044017248 0.0062546209 0.0077337772 4280528939
-0.0019300543 0.0042812452 0.0094779357 4281765688
0.00039767846 0.0030086711 0.010509524 4281765944
0.002410572 0.0031360239 0.010120951 4281961784
0.0037615336 0.0060610771 0.0068982765 4282026808
0.004754696 0.01038333 0.0022637397 4281504058
0.0067409016 0.01050929 0.0018805414 4281180464
0.0099420026 0.0057431832 0.0064463615 4280920108
0.013533169 -0.00041785836 0.012417927 4281442094
0.018067267 -0.010068424 0.021910001 4282549559
0.023766147 -0.023904294 0.03562028 4283072053
-0.015227985 0.0075023249 0.004908137 4282349893
-0.014825132 0.015359607 -0.003297504 4281241918
-0.013162296 0.016888291 -0.0050966348 4281632833
-0.011360876 0.017713841 -0.0061836448 4281698113
-0.0088051632 0.015026927 -0.0037219096 4280525623
-0.006073311 0.011639208 -0.00055526942 4281047354
-0.0034718178 0.0089553818 0.0018977746 4280786488
-0.0013286807 0.0083788112 0.0022228062 4280916538
0.00033196807 0.0099079758 0.00042456388 4281178169
0.0014859401 0.01354133 -0.0034923628 4281177913
0.0027811415 0.016471673 -0.0066976491 4280006444
0.0049083903 0.015894521 -0.006369235 4281178679
0.0080813393 0.011111304 -0.0018094853 4280918834
0.0121722 0.0028260574 0.0062673502 4280530214
0.017399995 -0.0096594691 0.018557925 4281310514
0.023631589 -0.025641575 0.034349084 4281829693
-0.016762219 0.012928694 -0.0033825133 4281371458
-0.015809696 0.017987862 -0.0087273736 4279872569
-0.014016367 0.018814933 -0.0098112244 4280524603
-0.012228314 0.019641813 -0.010894025 4280525369
-0.0096868239 0.016945232 -0.0084361173 4280069429
-0.0068149269 0.012841187 -0.0045675356 4279613233
-0.0046962947 0.012260742 -0.0042394362 4280916028
-0.0028918199 0.013089053 -0.0053251144 4281046589
-0.0014175884 0.015325006 -0.007821301 4280916284
0.00037091225 0.016152479 -0.0089036897 4280135474
0.0018184036 0.018386979 -0.011394611 4281438015
0.0041024685 0.017103318 -0.010360917 4281828929
0.0067437254 0.014413849 -0.0079216715 4281437760
0.010813642 0.0061009899 0.00013954937 4281371968
0.016733777 -0.0092370808 0.015215751 4281372479
0.023678314 -0.028081313 0.033780321 4281111103
-0.017588843 0.014861755 -0.0080988873 4281045313
-0.016361628 0.018520769 -0.012014179 4280719424
-0.014576297 0.019349515 -0.013094852 4280002873
-0.012498468 0.018764026 -0.012760805 4279872823
-0.0099604502 0.016058456 -0.010308808 4279612724
-0.0074008889 0.013354342 -0.0078609008 4280850493
-0.0052906089 0.012771197 -0.0075329002 4280981054
-0.0036537573 0.014307469 -0.0093200859 4281046079
-0.0020275824 0.015843205 -0.011105178 4280981053
-0.00024708733 0.016672354 -0.012184383 4279614253
0.001528088 0.017501265 -0.01326249 4279874354
0.0036386438 0.016918667 -0.012934146 4280134964
0.0062737279 0.014220055 -0.010500273 4280004150
0.010160385 0.0065857917 -0.003158981 4280329018
0.016425407 -0.010211423 0.013285652 4280329018
0.023362538 -0.029115215 0.031807378 4280589118
-0.018413011 0.0067574531 -0.0025234856 4282934864
-0.01813237 0.015397631 -0.011385413 4281110083
-0.016769141 0.018357575 -0.014584849 4280980544
-0.014989149 0.019188188 -0.015662912 4281175874
-0.012619521 0.017181706 -0.013918974 4281241409
-0.010082304 0.014467318 -0.011473397 4281110848
-0.0076776259 0.012463249 -0.0097360816 4280980289
-0.0057270974 0.012586415 -0.0101128 4280784703
-0.0039359592 0.013418242 -0.011192625 4281045313
-0.002312243 0.014958158 -0.012973921 4281176128
-0.00053439662 0.0157893 -0.014050992 4281176383
0.0012381338 0.016620226 -0.015126945 4281111869
0.0031755269 0.016743075 -0.015500741 4281111869
0.005631566 0.014743034 -0.013772827 4281111103
0.0093326159 0.0077915713 -0.0071476754 4281177404
0.016117411 -0.011181101 0.011359014 4281177404
0.023228047 -0.030851573 0.03053686 4281242429
-0.018673688 0.0058568418 -0.0044096727 4282934864
-0.018112827 0.013099395 -0.011841465 4280915008
-0.016889561 0.016779989 -0.015739616 4280524859
-0.015109528 0.01761277 -0.016816063 4279090483
-0.012889083 0.016311072 -0.015780527 4279221809
-0.01035535 0.013587706 -0.013340855 4280654653
-0.008107923 0.012287952 -0.01231043 4281045824
-0.0060062818 0.011699878 -0.011984048 4281046079
-0.0042177774 0.012533665 -0.013061699 4280915518
-0.0024345703 0.013367236 -0.014138237 4281045313
-0.00098599494 0.015621357 -0.016614696 4281176129
0.000781212 0.016454127 -0.017687989 4281176638
0.0028831288 0.015866589 -0.017361272 4281502528
0.0055085532 0.013149869 -0.014938662 4281306433
0.009207774 0.0061764121 -0.0083295722 4281503549
0.015987849 -0.012855589 0.010133732 4281503549
0.023093579 -0.032587625 0.029266566 4281307454
-0.019209288 0.0063894764 -0.007700609 4282739789
-0.018374253 0.012225233 -0.013707628 4281046334
-0.017152969 0.015916668 -0.017597245 4278960944
-0.015521273 0.017465156 -0.01937402 4279352115
-0.013455052 0.016872328 -0.019042691 4278960944
-0.010779101 0.013426222 -0.01590641 4278374189
-0.0083837397 0.011408426 -0.014177151 4280980289
-0.0064415149 0.01153104 -0.014552278 4280980798
-0.0044992268 0.011653766 -0.014927348 4280981053
-0.0028804652 0.013202075 -0.016701145 4280915008
-0.0016013533 0.016175009 -0.019870607 4280394299
-9.3318522e-06 0.017721895 -0.021639124 4279417393
0.0020815544 0.01713147 -0.02131192 4279026224
0.0050405003 0.012981094 -0.017498955 4278634544
0.0092581809 0.0038496032 -0.0088144112 4281046844
0.016392004 -0.016665012 0.010997579 4281046844
0.023320306 -0.035746485 0.029388107 4281046844
-0.020018835 0.0083684921 -0.012386613 4281567043
-0.019055821 0.013504654 -0.017676221 4280719423
-0.017558839 0.015774086 -0.020152837 4280980289
-0.015932299 0.017326616 -0.021925345 4281305923
-0.014019959 0.017447006 -0.022294957 4280589628
-0.011503931 0.014705047 -0.019865055 4280849983
-0.0089663565 0.011964522 -0.017439179 4280719679
-0.0067197792 0.010656007 -0.016415047 4281111358
-0.0049392469 0.011493653 -0.017487884 4280981053
-0.0031640269 0.012331106 -0.018559668 4280719933
-0.001887057 0.015312634 -0.021722162 4280915518
-0.00046449155 0.017578281 -0.024183642 4281305923
0.0016207248 0.016985316 -0.023856979 4280915008
0.0049178787 0.011392884 -0.018661166 4279155764
0.009658346 9.0561807e-05 -0.007911887 4281111103
0.016795157 -0.020487249 0.01185197 4281111103
0.023185544 -0.037486307 0.028115053 4281111103
-0.020963978 0.011088431 -0.017757166 4281566534
-0.019876007 0.015520446 -0.022332072 4280133434
-0.017963998 0.015640594 -0.022701787 4280719679
-0.01619726 0.016479038 -0.023770781 4280980288
-0.014139671 0.015881225 -0.023441039 4280719678
-0.011925913 0.01456609 -0.022414055 4279807288
-0.009547919 0.012534045 -0.020691311 4280980799
-0.0076220557 0.012655601 -0.021063298 4281046333
-0.0056961216 0.012777269 -0.021435224 4280980798
-0.0039316006 0.013616234 -0.022503298 4280459069
-0.0025006644 0.015888847 -0.024961565 4280980289
-0.0010857843 0.0181606 -0.027416689 4281436484
0.001160603 0.016848233 -0.026395399 4281175619
0.0041065142 0.012670837 -0.022599651 4281176384
0.0095329005 -0.001532495 -0.0090995636 4280654909
0.016842216 -0.022890165 0.011310823 4280654909
0.022870559 -0.038509801 0.026149653 4280654909
0.026456032 -0.044100925 0.031277105 4281305413
0.028413963 -0.043248698 0.030172534 4282411093
-0.021632757 0.012393303 -0.021709748 4281369928
-0.020274971 0.015396416 -0.024875483 4281240643
-0.018510971 0.016236715 -0.025942354 4280654399
-0.016461834 0.015636098 -0.025612758 4280524093
-0.014407236 0.015035935 -0.025284132 4280524093
-0.01234718 0.01443617 -0.024956448 4280262718
-0.010128446 0.013117082 -0.023933627 4280718658
-0.0082107596 0.013238102 -0.024304055 4280849728
-0.0066102296 0.014798257 -0.026064584 4280915518
-0.0046977773 0.014919158 -0.026433837 4280459068
-0.0031132363 0.016478561 -0.028191166 4278438958
-0.0013727061 0.017318353 -0.029252769 4280394044
0.00070117041 0.016720261 -0.028927227 4280458558
0.003640566 0.012529343 -0.02514006 4280263484
0.0088833719 -0.00099981576 -0.012362992 4280458813
0.016179392 -0.022423841 0.008000724 4280458813
0.022195812 -0.038092345 0.022805836 4280849984
0.025588961 -0.042983554 0.027231518 4281240899
0.027721619 -0.042847618 0.026820581 4282476883
-0.02188918 0.01154685 -0.023556314 4282152779
-0.020393874 0.01383568 -0.026017977 4282152778
-0.018487487 0.013955437 -0.02638663 4282154053
-0.016435962 0.013352759 -0.026059149 4281957959
-0.014231265 0.012028143 -0.025037028 4281174344
-0.012466945 0.012870952 -0.026102092 4280782408
-0.010401759 0.012269475 -0.025777001 4281305413
-0.0086426474 0.01311218 -0.026840892 4281175363
-0.0068888478 0.013954706 -0.027903715 4281175874
-0.0053014643 0.015518479 -0.029658368 4281045313
-0.0035609491 0.016360335 -0.030718422 4280914753
-0.0016592592 0.016480789 -0.031085424 4280914753
0.00058080256 0.015159313 -0.030069521 4281110595
0.0031753406 0.012396894 -0.027673773 4281111103
0.0085839443 -0.0018949658 -0.014235834 4281176384
0.015872054 -0.02338507 0.0060802735 4281176384
0.021881904 -0.039102077 0.020850573 4281241153
0.024905875 -0.042568475 0.023887921 4281371204
0.02703033 -0.042433068 0.02347856 4282476883
-0.021597948 0.0078041106 -0.022615358 4281304903
-0.019954715 0.0093748793 -0.024378194 4280848964
-0.018179916 0.010220207 -0.025443889 4281044548
-0.016265519 0.010340557 -0.02581403 4281501764
-0.014351025 0.010461032 -0.026184093 4281827653
-0.012286223 0.009857215 -0.025860664 4281826888
-0.01036888 0.0099780932 -0.026231118 4281958213
-0.008451473 0.010099076 -0.026601501 4281827653
-0.0066922605 0.010944083 -0.027663691 4281566533
-0.0049383566 0.011788853 -0.028724784 4281566788
-0.0031897686 0.012633428 -0.029784808 4281436228
-0.0014464967 0.013477761 -0.030843666 4281566789
0.00062945113 0.01287543 -0.030521804 4281501253
0.0032258667 0.010104395 -0.028132979 4281500743
0.0084592514 -0.0035083368 -0.01541643 4281500744
0.015742123 -0.025064312 0.0048515163 4281500744
0.021208899 -0.038661987 0.017523237 4281499979
0.024406226 -0.042862251 0.021241356 4281565259
0.026340077 -0.042005002 0.020146355 4282476374
-0.022433825 -0.0004381761 -0.017140683 4282542419
-0.02144431 0.0047758967 -0.022378203 4280782409
-0.019656174 0.005624108 -0.023444943 4280718404
-0.017589275 0.0050179064 -0.023123812 4281044804
-0.015806306 0.0058660135 -0.024189387 4281240898
-0.013881225 0.0059871376 -0.024561513 4281305923
-0.011956058 0.0061083809 -0.024933569 4281436994
-0.010183562 0.0069562048 -0.025996912 4281436738
-0.0082609244 0.0070775151 -0.026368313 4281502019
-0.0061801039 0.0064728186 -0.026049323 4281306178
-0.0044154562 0.0073204711 -0.027110906 4281241154
-0.0026561022 0.0081678852 -0.028171323 4281175873
-0.00090206414 0.0090150684 -0.029230628 4281045313
0.0013531335 0.0076858029 -0.028224215 4281045313
0.0037906244 0.0056320727 -0.026532048 4281109574
0.0090313796 -0.0080217049 -0.013848074 4281044038
0.015789101 -0.027468123 0.004309658 4281044038
0.0207165 -0.038933173 0.014891956 4281174854
0.023725051 -0.042422384 0.017915901 4281305159
-0.02115481 0.001009576 -0.02145445 4280978249
-0.019358609 0.0018605068 -0.022521164 4280783684
-0.017567672 0.0027111694 -0.023586739 4280979779
-0.015781991 0.0035616085 -0.024651211 4281176129
-0.014001582 0.0044118315 -0.025714584 4281307199
-0.011776771 0.0030754879 -0.02470617 4281371968
-0.0098462999 0.0031971708 -0.025079176 4281502273
-0.0077605061 0.0025905147 -0.024762928 4281501764
-0.0059851445 0.0034408793 -0.025824979 4281370948
-0.0040544756 0.0035629198 -0.026197765 4281436229
-0.0022870526 0.0044130012 -0.027258113 4281436228
-0.00035896152 0.0045351014 -0.027630229 4281501253
0.0017378293 0.0039297193 -0.027315672 4281435973
0.0043540597 0.0011424646 -0.024943776 4281435719
0.0094281472 -0.011825062 -0.012977904 4281435719
0.015482351 -0.028421827 0.0023947135 4281435719
0.020224802 -0.039195187 0.012267314 4281565769
0.023044912 -0.041969001 0.014600258 4281499978
-0.021138903 -0.0013059154 -0.021922573 4281173833
-0.019340005 -0.00045270473 -0.022988148 4280848198
-0.017546359 0.00040034205 -0.024052661 4281109828
-0.015613612 0.00052180886 -0.024426378 4281175874
-0.013827808 0.0013745427 -0.025489163 4281371714
-0.011598106 3.4078956e-05 -0.02448494 4281436738
-0.0098148324 0.00088692456 -0.02554711 4281436484
-0.0077266507 0.00027819723 -0.025232915 4281436229
-0.0057908185 0.00040043145 -0.025606792 4281370948
-0.0040153861 0.0012531206 -0.026667189 4281436229
-0.0020821244 0.0013754293 -0.027040392 4281435973
-0.00014881417 0.0014978573 -0.027413525 4281436229
0.0019530393 0.0008905679 -0.027101532 4281436229
0.0045738034 -0.0019050911 -0.024737112 4281370439
0.0094762072 -0.014182322 -0.013485102 4281304649
0.015352502 -0.0301001 0.0011666641 4281239369
0.019733815 -0.039448157 0.009649355 4281434699
0.022547726 -0.042231098 0.011976939 4281564239
-0.020987149 -0.0043595061 -0.021704081 4281760078
-0.019321691 -0.0027699471 -0.023458168 4280978249
-0.017666865 -0.0011808947 -0.025210142 4281175364
-0.015590046 -0.0017929971 -0.02489575 4281175108
-0.013801549 -0.00093787163 -0.025957461 4281305923
-0.011569638 -0.0022825673 -0.024956953 4281305923
-0.0096314065 -0.0021604374 -0.025331479 4281566788
-0.0075381882 -0.0027709901 -0.025019947 4281435973
-0.0057547353 -0.0019157752 -0.026080301 4281501254
-0.004136879 -0.00032822788 -0.027824525 4281435719
-0.0022037588 -0.00020594895 -0.028197717 4281435719
-0.00027059019 -8.3528459e-05 -0.028570812 4281370438
0.0018309467 -0.00069303066 -0.02826041 4281435464
0.0044508837 -0.0034974664 -0.025902379 4281239113
0.0091765821 -0.015080355 -0.015359981 4281304393
0.014869934 -0.030315064 -0.0014248714 4281369674
0.019243523 -0.039691977 0.0070380233 4281565003
0.022232968 -0.043215171 0.010041066 4281758549
-0.022517625 -0.0090164393 -0.019737743 4282935374
-0.021243982 -0.0052129626 -0.023555808 4281893189
-0.019442338 -0.0043552294 -0.024618657 4281370948
-0.017504614 -0.0042335913 -0.024993438 4281240134
-0.015278727 -0.0055832416 -0.023995264 4281306179
-0.013335448 -0.0054610297 -0.024370957 4281568064
-0.011392083 -0.0053386912 -0.024746571 4281566278
-0.0096007027 -0.004481025 -0.025806991 4281631813
-0.0076598637 -0.0043585971 -0.026181933 4281827909
-0.0058763884 -0.0035011992 -0.027240658 4281304393
-0.0040982179 -0.0026440248 -0.028298276 4281435719
-0.0019997694 -0.00325609 -0.027989127 4281370949
-6.1389059e-05 -0.0031333715 -0.028363258 4281435973
0.0020451955 -0.0037446842 -0.028055497 4281435464
0.0043279976 -0.0050895438 -0.027067428 4281434953
0.0092243552 -0.017441384 -0.015869942 4281434699
0.014564278 -0.031254612 -0.0033294652 4281434699
0.018575067 -0.039193235 0.0037536807 4281630283
0.021373888 -0.041994542 0.0060710385 4282215763
-0.022505812 -0.011353098 -0.02022077 4283328073
-0.021228787 -0.00753849 -0.024031296 4283005244
-0.019562948 -0.0059402138 -0.025778931 4282352188
-0.017484181 -0.0065566674 -0.025468336 4282025788
-0.015399959 -0.007172659 -0.025158715 4281764669
-0.01331028 -0.0077881888 -0.024850059 4281504313
-0.011364382 -0.0076657012 -0.025226174 4282024514
-0.0095702969 -0.0068056807 -0.026285481 4281893953
-0.0074723437 -0.0074203387 -0.025978159 4281893954
-0.0056834854 -0.0065604374 -0.027036298 4281893699
-0.0040598772 -0.0049638599 -0.028775049 4281763139
-0.0021216832 -0.0048412532 -0.029149221 4281632068
-0.00018344447 -0.0047185272 -0.029523311 4281566534
0.001922816 -0.0053320602 -0.029217139 4281501764
0.0043758154 -0.007417582 -0.027552562 4281501254
0.0090984628 -0.019070439 -0.017062012 4281500234
0.014082961 -0.031453632 -0.005909251 4281434953
0.018265063 -0.040152363 0.0018353686 4281370693
-0.0017561987 -0.0086428151 -0.028270258 4284445484
-0.00014033914 -0.0070421323 -0.030004062 4284313904
0.0019682832 -0.0076577067 -0.029699996 4284053039
0.0044233091 -0.0097496212 -0.028040703 4283922479
0.0087994263 -0.019960962 -0.018931404 4283791153
0.01377821 -0.032381587 -0.0078053605 4283791153
0.017776892 -0.040368937 -0.00075594336 4283660084
-0.0098225884 -0.033224374 -0.023131521 4284248369
-0.00019290671 -0.031087883 -0.026390737 4283918398
0.0016283803 -0.030208103 -0.027441839 4284049723
0.0091242678 -0.036612935 -0.022592351 4284508723
0.0049915798 0.0036624745 0.062093496 4285163308
0.0082385689 -0.00084030628 0.066845864 4285360169
-0.0012166761 0.0096320361 0.052788369 4285493023
0.00025640428 0.012424372 0.049436748 4285624603
0.0023379661 0.012556054 0.049034908 4285755164
0.0050602295 0.01002913 0.051576629 4285886233
0.0081297439 0.0061746612 0.05558496 4285820698
0.01073499 0.0043152869 0.057382613 4285492768
0.013019981 0.0037853494 0.057708517 4285493023
0.014626797 0.0059118122 0.055098206 4285493279
0.01621755 0.0080372915 0.052491099 4285493024
0.01796848 0.0094982088 0.050619863 4285820443
0.020961408 0.0063141808 0.053876549 4285885979
0.024707804 0.0004786849 0.06005504 4285885723
-0.0024120249 0.012586631 0.04638087 4285821209
-0.00095716491 0.015386559 0.043039337 4285755164
0.0012628101 0.014849961 0.043375947 4285623838
0.0036482178 0.013646945 0.044445775 4285689374
0.0065324567 0.010444559 0.047714844 4285755164
0.0087821987 0.0099101067 0.048045836 4285624349
0.011037378 0.0093760416 0.048375882 4285559069
0.012785792 0.010841042 0.046508312 4285624859
0.014523508 0.012305394 0.044642903 4285689884
0.016602715 0.012437448 0.044241913 4285558303
0.019039527 0.011238247 0.045302235 4285426723
0.022394484 0.0067122057 0.050011188 4285689373
0.026892019 -0.0018033981 0.059090555 4285754909
-0.0047648363 0.011423968 0.04480125 4285361699
-0.0031496771 0.013563532 0.04219877 4285624603
-0.001241643 0.014363296 0.04106684 4285952789
0.00081824139 0.01449357 0.040669158 4285886999
0.0031978488 0.013285749 0.041736849 4285887254
0.0059132762 0.010740884 0.04426676 4285755673
0.007824311 0.011541203 0.043134451 4285624348
0.0098979156 0.011672661 0.042734355 4285624349
0.011630457 0.01314098 0.04087317 4285624349
0.013698786 0.013272271 0.040474214 4285887254
0.015767153 0.013403624 0.040075302 4285886998
0.018371401 0.011531405 0.041863553 4285755418
0.021354398 0.0083248764 0.045105748 4285689884
0.025652187 0.00044733286 0.053438738 4285821208
-0.0053418539 0.011740878 0.041358404 4285361699
-0.0035827421 0.013214692 0.039494947 4285558813
-0.0015257411 0.013344675 0.039097741 4285558559
0.00068831816 0.012803316 0.039432131 4285558303
0.0032271296 0.01091978 0.041227631 4285558303
0.0056197904 0.0097084939 0.042289503 4285558303
0.0075282194 0.01051078 0.041159377 4285624349
0.0092636384 0.011983581 0.039300859 4285558813
0.010988357 0.013455831 0.037444428 4285558558
0.013048531 0.013586588 0.037047043 4285624094
0.014932977 0.014387678 0.035921782 4285755674
0.017525874 0.012508146 0.037707269 4285755674
0.020497164 0.0092899054 0.040943496 4285624349
0.02496589 0.00071544945 0.049985632 4285689628
-0.0056203343 0.010722883 0.039388426 4285361698
-0.0038636811 0.012200899 0.037528716 4285624604
-0.0019635595 0.013004519 0.036401577 4285821209
0.00024485216 0.012460575 0.036735393 4285821464
0.0029371604 0.0098965913 0.039256513 4285689883
0.0053266957 0.0086807087 0.040315695 4285558558
0.0072325058 0.0094850063 0.039187707 4285558558
0.008797938 0.011635043 0.036605038 4285559069
0.01034731 0.013784088 0.034025572 4285624349
0.012226408 0.014586993 0.032902889 4285624094
0.01445137 0.014044642 0.033233985 4285623838
0.017038273 0.012158185 0.03501565 4285623838
0.020003242 0.0089285746 0.038244858 4285624094
0.024464274 0.00032511353 0.047267087 4285558814
-0.0060469992 0.010385901 0.036691964 4285427233
-0.0045979805 0.013220385 0.033377752 4285755929
-0.0025546066 0.01334947 0.032983147 4285821208
-0.0001978986 0.012126938 0.034045234 4285952789
0.0026475601 0.0088780969 0.037288763 4285887253
0.0050339811 0.0076575801 0.038345292 4285624348
0.007101845 0.0077885464 0.037946209 4285624349
0.0088350419 0.0092699975 0.036094643 4285559068
0.010387503 0.011425808 0.033519499 4285624349
0.011923892 0.013580732 0.030947492 4285821464
0.013970463 0.0137107 0.030552775 4285952789
0.01655139 0.011817239 0.032330699 4285952789
0.019690819 0.0079019442 0.036276564 4285755673
0.0245138 -0.00207863 0.046724662 4285624603
-0.0070665218 0.012772262 0.031089008 4285558814
-0.005330883 0.014257729 0.029239856 4285624094
-0.0032983534 0.014386106 0.028847329 4285426468
-0.00079637021 0.012480363 0.030635029 4285623839
0.0018809438 0.0098978654 0.03314586 4285689628
0.0042561628 0.0086722821 0.034201205 4285690139
0.0063131861 0.008802563 0.033804215 4285558813
0.0082030669 0.0096102878 0.032682627 4285558813
0.0097478759 0.01177223 0.030113861 4285690139
0.011621742 0.012579128 0.028995499 4285755673
0.013490275 0.013385769 0.027878236 4285557794
0.016243145 0.010808662 0.030374944 4285623838
0.019378759 0.006879963 0.034311667 4285755419
0.024379689 -0.0038101748 0.045457661 4285558558
-0.0092322007 0.010972172 0.030259192 4284967468
-0.0080839843 0.01518536 0.025505528 4285755673
-0.0063642226 0.016674124 0.023662757 4285887254
-0.0038871169 0.014760185 0.025450207 4285821463
-0.0013937987 0.012847304 0.027234629 4285887254
0.001433637 0.009575367 0.030465163 4285887508
0.003641393 0.0090249255 0.030794255 4285690394
0.0056902431 0.0091546848 0.030398838 4285558813
0.0075721387 0.0099640936 0.029280432 4285558813
0.0094487127 0.010773256 0.028163124 4285821464
0.010975163 0.01294069 0.025602892 4285821208
0.013010781 0.013069935 0.025210276 4285492259
0.015579725 0.011162564 0.026980639 4285557793
0.018886605 0.0065414011 0.031629704 4285623839
0.023879332 -0.0041843727 0.042750999 4285624093
-0.0099416375 0.012033448 0.026133616 4285032748
-0.0086551867 0.015576135 0.022116788 4285427999
-0.0066417567 0.015703179 0.021727853 4285558813
-0.0044748075 0.015147693 0.022062976 4285690139
-0.001990173 0.013227712 0.023844082 4285690138
0.00051066279 0.011308812 0.025622178 4285493023
0.0027047098 0.010755301 0.025952265 4285493278
0.0047400296 0.010884173 0.025559444 4285558813
0.0066085532 0.011694923 0.024445254 4285558814
0.008471759 0.012505412 0.023332164 4285624604
0.010157406 0.013997149 0.021499749 4285886743
0.012182169 0.014125708 0.021109223 4285820954
0.014739759 0.012211032 0.02287684 4285886999
0.018214881 0.0068928003 0.028235588 4285690139
0.023562646 -0.005230248 0.040769286 4285623838
-0.0086337738 0.013239697 0.021631617 4285229608
-0.0066177659 0.013366882 0.021242175 4285426724
-0.0044484101 0.012809336 0.021575172 4285493024
-0.0021176524 0.011567563 0.02262906 4285493024
6.5308064e-05 0.011011012 0.022959612 4285361189
0.0020923913 0.011139259 0.022568297 4285295399
0.0041195452 0.011267602 0.022177041 4285361188
0.0058133826 0.012764037 0.020346183 4285558814
0.0078352727 0.012892239 0.019956078 4285493023
0.009685155 0.013704166 0.018847264 4285492769
0.011704441 0.013832383 0.0184578 4285492769
0.01425603 0.011910737 0.020221632 4285558814
0.0177243 0.0065745786 0.025568504 4285493279
0.023246314 -0.0062714443 0.038791001 4285493278
-0.0097608827 0.0066466182 0.025867511 4285491749
-0.0083172023 0.0095243752 0.022587057 4285820443
-0.0059924386 0.0082776025 0.02363871 4285886234
-0.0041161254 0.0090927333 0.022525944 4285886489
-0.0019335337 0.0085339099 0.022854801 4286018323
-6.2413514e-05 0.0093488991 0.021743171 4285886744
0.0018034056 0.010163687 0.020632599 4285820698
0.0036639348 0.0109782 0.019523162 4285689373
0.005685661 0.011106275 0.019133009 4285755674
0.0075382404 0.011920467 0.018025246 4285690139
0.0095573775 0.012048565 0.017635729 4285558558
0.011751115 0.01149109 0.017962918 4285492769
0.014127515 0.010248512 0.019005299 4285427234
0.017414367 0.0055800602 0.023623697 4285427743
0.023112968 -0.0079931319 0.037531212 4285427743
-0.0093090124 0.002219297 0.027529355 4285360168
-0.0077064745 0.0044169053 0.024973534 4285885214
-0.0056692287 0.0045453757 0.024579946 4285951259
-0.0037848093 0.0053632408 0.023467198 4286017049
-0.0017500594 0.0054917559 0.023074247 4286016794
0.00012648851 0.0063092709 0.021963205 4286016794
0.0019977354 0.0071265325 0.020853255 4286016794
0.0038636848 0.0079435632 0.019744404 4286016538
0.0058906674 0.0080719665 0.019353233 4285885468
0.0080867317 0.0075122565 0.019678183 4285885468
0.010116486 0.0076410174 0.01928661 4285885723
0.012320682 0.0070820153 0.019610144 4285885723
0.014530275 0.0065234452 0.019932695 4285819933
0.017644119 0.0025275797 0.023824334 4285820444
0.022614732 -0.008339785 0.034844637 4285820189
-0.0091478452 -0.00084148347 0.027740259 4285491239
-0.0072447918 -2.0474195e-05 0.026625399 4285885214
-0.0053469874 0.00080026686 0.025511667 4286016283
-0.0036072135 0.0023121983 0.023681466 4286016284
-0.001567211 0.0024410263 0.023287479 4286016284
0.0003147535 0.0032610595 0.022177026 4286081819
0.0023522303 0.0033899248 0.021783676 4286081819
0.0042262748 0.0042096823 0.020674847 4286081564
0.0065935478 0.002957359 0.021712121 4286016539
0.0084650293 0.0037771165 0.020603977 4286016539
0.01050273 0.0039063767 0.020210873 4285951004
0.012714688 0.0033456683 0.020531259 4285951258
0.014932046 0.0027853996 0.020850666 4285951258
0.018052792 -0.0012231171 0.024731077 4285820188
0.022664048 -0.010746077 0.034300342 4285885469
-0.0092763677 -0.0025224537 0.026509862 4285491238
-0.0075204782 -0.0010053068 0.024679624 4285884959
-0.0056253187 -0.00018256903 0.02356803 4286016029
-0.0037354231 0.00063993037 0.022457525 4285950493
-0.0016955398 0.000768736 0.022063553 4286146844
0.00034442171 0.00089764595 0.021669641 4286212634
0.0023844652 0.0010266602 0.021275781 4286212379
0.004424572 0.0011557639 0.020881977 4286081563
0.0066307448 0.00059220195 0.021201611 4286015773
0.0086736437 0.00072168559 0.020807415 4286081564
0.010887964 0.00015885383 0.021125633 4285950494
0.013281755 -0.0010958835 0.022154707 4285950493
0.01515607 -0.00027343631 0.021047842 4285950749
0.018101612 -0.0036029071 0.024206795 4286016029
0.022895167 -0.01384829 0.034463339 4285884958
-0.0098379441 -0.0021140948 0.023131929 4285425448
-0.0082369335 0.00010310113 0.020591099 4285819679
-0.0065021925 0.0016233325 0.018768329 4285754399
-0.0043208413 0.001055494 0.019090723 4285688354
-0.0019789264 -0.00020760298 0.020126007 4285885213
5.8237463e-05 -7.8879297e-05 0.019732624 4286015774
0.0022559315 -0.00064539164 0.020052083 4286146843
0.0042959191 -0.00051629543 0.019658301 4286146588
0.0065017976 -0.0010820776 0.019976337 4286080798
0.0083760545 -0.00025779009 0.018870935 4286081053
0.010416195 -0.0001283884 0.018477343 4286146843
0.012804145 -0.0013878196 0.019504223 4285884959
0.015026288 -0.0019521788 0.01981942 4285950494
0.018150128 -0.0059868172 0.023679562 4285884959
0.023307558 -0.017652944 0.035328701 4285884704
-0.00054281577 0.00034468621 0.016375586 4285426978
0.0016465336 -0.0002245456 0.016695004 4285753123
0.0036783479 -9.5978379e-05 0.016302794 4285818913
0.0053788759 0.0014270544 0.014490359 4285884959
0.0070687197 0.0029495656 0.012680028 4285753889
0.009089943 0.0030777678 0.01229009 4285754143
0.023537189 -0.020774394 0.035477616 4285229353
-0.021213897 -0.0098681375 -0.024509797 4285032748
-0.019406851 -0.0090057477 -0.025570445 4285230118
-0.017323032 -0.0096240714 -0.025262475 4285295908
-0.015377454 -0.0095018446 -0.025638705 4285361954
-0.013431791 -0.009379521 -0.026014879 4285361698
-0.011486035 -0.0092570484 -0.026390966 4285165603
-0.0095401928 -0.0091344342 -0.026766971 4285034788
-0.0075942911 -0.0090117231 -0.027142914 4285034788
-0.0054912157 -0.0096281692 -0.026838092 4284970274
-0.021199286 -0.012201898 -0.024991246 4285229098
-0.019251369 -0.012079768 -0.025368106 4285427234
-0.017162513 -0.012699991 -0.025062777 4285427233
-0.01521172 -0.012577437 -0.025440015 4285493024
-0.01326083 -0.012454785 -0.025817195 4285427233
-0.011309866 -0.012332 -0.026194304 4285426979
-0.009510383 -0.011467315 -0.027251411 4285230118
-0.0074076988 -0.012086034 -0.026948281 4285164584
-0.0054565184 -0.011962883 -0.027325161 4285295654
-0.0035052709 -0.011839591 -0.027701955 4285230373
-0.0015539788 -0.011716172 -0.02807866 4285164838
6.7427754e-05 -0.010110728 -0.029810302 4285295654
0.0020134449 -0.0099873915 -0.030185815 4285229864
0.0041298382 -0.010604583 -0.029884748 4285033258
0.0081547219 -0.019365914 -0.022149269 4284967213
0.01329812 -0.032564573 -0.010373494 4284967213
-0.021049652 -0.015284657 -0.024794132 4285295398
-0.019234527 -0.014417425 -0.025853086 4285493024
-0.017143298 -0.01503966 -0.025549836 4285492768
-0.015189972 -0.014916979 -0.025927588 4285492768
-0.013236564 -0.014794171 -0.026305266 4285492513
-0.011431787 -0.01392711 -0.027361862 4285426979
-0.0096322782 -0.013060234 -0.02841733 4285426468
-0.0075299181 -0.013681181 -0.028115787 4285426469
-0.0055788793 -0.013558038 -0.028492641 4285426724
-0.003787227 -0.012691304 -0.029546332 4285361188
-0.0016766377 -0.013311364 -0.029246103 4285426979
0.00027455017 -0.013187833 -0.0296227 4285361188
0.0022257827 -0.013064183 -0.029999223 4285295653
0.0043472089 -0.01368317 -0.029700793 4285295398
0.0080295932 -0.020985238 -0.023334231 4285229863
0.012818739 -0.032738499 -0.012934929 4285098029
0.016980859 -0.041517012 -0.0052453522 4285032238
-0.021035798 -0.017628722 -0.025283195 4285360678
-0.019080132 -0.01750613 -0.025661588 4285492768
-0.017124385 -0.017383434 -0.026039902 4285492513
-0.015025336 -0.018007249 -0.025739715 4285492514
-0.013358455 -0.016391151 -0.027474225 4285558048
-0.011405114 -0.016268231 -0.027851801 4285426723
-0.0094516836 -0.016145177 -0.028229307 4285426468
-0.0073442757 -0.016768001 -0.027930379 4285426468
-0.0057012103 -0.015152901 -0.029659916 4285426724
-0.0037502684 -0.015029624 -0.030036651 4285426724
-0.0017992742 -0.014906235 -0.030413307 4285361443
0.00031639263 -0.015528038 -0.030115608 4285361188
0.0022701584 -0.015404217 -0.030492611 4285295398
0.0045639239 -0.016770229 -0.029523045 4285360933
0.0080771502 -0.023349084 -0.023846246 4285229864
0.012690768 -0.034392603 -0.01414529 4285032494
0.016672658 -0.042452961 -0.0071466304 4284966704
-0.020752251 -0.021475583 -0.02441844 4285360678
-0.018926378 -0.020603336 -0.025476228 4285557794
-0.016965415 -0.020480327 -0.025855567 4285426724
-0.015147384 -0.019608274 -0.026911687 4285426723
-0.013480317 -0.01798781 -0.02864296 4285492514
-0.011378735 -0.01861342 -0.028344732 4285426979
-0.0094227828 -0.018490233 -0.02872273 4285426724
-0.0073130168 -0.019115068 -0.028425895 4285426979
-0.0055106655 -0.018243439 -0.029478483 4285426724
-0.003713619 -0.017372034 -0.030529957 4285426723
-0.0017600991 -0.017248482 -0.030907098 4285361444
0.00035792962 -0.017872311 -0.0306115 4285361188
0.0024813525 -0.018495664 -0.030316822 4285361444
0.0047800094 -0.019865751 -0.029351413 4285295398
0.0082969144 -0.026464008 -0.023690058 4285229353
0.01238763 -0.035299517 -0.016026078 4284900914
-0.020604495 -0.02458372 -0.024239916 4285294888
-0.018635746 -0.024460338 -0.024620857 4285360423
-0.016947255 -0.022834405 -0.026353184 4285492004
-0.014983669 -0.022711135 -0.026732963 4285426468
-0.013311073 -0.02108591 -0.028462082 4285427234
-0.011056226 -0.022464141 -0.027492236 4285427234
-0.0090923905 -0.022340469 -0.027871776 4285361443
-0.006974902 -0.022967003 -0.027578069 4285361444
-0.0053207576 -0.021342508 -0.029303212 4285361443
-0.0033594035 -0.02121859 -0.029681969 4285361444
-0.0015596226 -0.02034466 -0.030732289 4285361443
0.00039914995 -0.02022066 -0.031110361 4285361444
0.0023579635 -0.020096533 -0.031488348 4285360933
0.0046561174 -0.021471009 -0.030526109 4285295399
0.0081713535 -0.028088994 -0.024879156 4285229098
-0.020188052 -0.029207796 -0.022717191 4285229099
-0.018208738 -0.029083759 -0.023100173 4285229098
-0.016509354 -0.027452819 -0.024831371 4285229354
-0.014677893 -0.02657564 -0.025886791 4285163563
-0.012851711 -0.025698625 -0.026941141 4285360934
-0.010586638 -0.027080573 -0.025976559 4285295398
-0.0086122341 -0.026956238 -0.026358141 4285295398
-0.0064843558 -0.027584299 -0.026068082 4285295653
-0.004663229 -0.02670715 -0.027121035 4285295654
-0.0028473996 -0.025830187 -0.028172864 4285295653
0.00093245134 -0.024828739 -0.029603733 4285098539
0.0029018261 -0.024703927 -0.029983757 4285098029
0.0050407238 -0.025330611 -0.02969523 4285097773
