# .PCD v0.7 - Point Cloud Data file format
VERSION 0.7
FIELDS x y z rgba
SIZE 4 4 4 4
TYPE F F F U
COUNT 1 1 1 1
WIDTH 817
HEIGHT 1
VIEWPOINT 0 0 0 1 0 0 0
POINTS 817
DATA ascii
0.012100138 -0.015202463 0.038258679 4289213729
0.0078906342 -0.0079111159 0.028201461 4289149723
0.010109577 -0.008484751 0.028504029 4289475614
0.013121728 -0.01257807 0.032349702 4289406764
0.016166143 -0.016669244 0.036189176 4290910499
0.0046516508 -0.0047978461 0.022424914 4289607959
0.0066967458 -0.0046686083 0.022021793 4289606429
0.0087419152 -0.0045392811 0.021618724 4289930278
0.011416711 -0.007234782 0.024044689 4287706424
0.014113028 -0.0099288002 0.026466493 4289930533
0.017481841 -0.015444957 0.031708859 4290192164
0.020728184 -0.020252496 0.036237173 4289210669
0.0020389631 -0.004487291 0.019494545 4289737499
0.0039265975 -0.0036497787 0.018385731 4289998619
0.0058089644 -0.0028124377 0.017277986 4290128414
0.0078405961 -0.0026839823 0.016877577 4288034609
0.010186754 -0.0039723068 0.017888572 4288165424
0.01270359 -0.005968079 0.019602586 4289538599
0.015724324 -0.010087103 0.023427341 4289604133
0.018281505 -0.012080088 0.025133573 4289538854
0.020518979 -0.01265645 0.025429696 4289147429
-0.00069985911 -0.0034504384 0.015864033 4289740048
0.0014722943 -0.00403402 0.016170681 4289540384
0.0032029152 -0.0024836585 0.014359411 4289867294
0.0050745979 -0.0016448125 0.013255384 4290782489
0.0067866445 -9.5389783e-05 0.011447944 4290324509
0.0091162324 -0.0013891682 0.012458894 4289931553
0.011616349 -0.0033926442 0.014171384 4289931553
0.014295027 -0.0061053187 0.016583771 4290127648
0.016334869 -0.0059758723 0.016182087 4289540384
0.018039241 -0.004426375 0.014376577 4288952354
-0.0032746755 -0.0031079352 0.012947861 4289933849
-0.0014006011 -0.0022671372 0.011844765 4289801503
0.00076053664 -0.0028536394 0.012151949 4289277734
0.0026294589 -0.0020129383 0.011050031 4289801248
0.0044931322 -0.0011724457 0.0099492371 4289735714
0.0061973333 0.00038089603 0.0081465244 4289473828
0.0085184202 -0.00091785192 0.0091559626 4289277224
0.01069073 -0.0015030876 0.0094613582 4289931554
0.013030708 -0.0028003529 0.010467205 4289803034
-0.0056940094 -0.0034669712 0.010742914 4289738009
-0.0038227066 -0.0026242733 0.0096418858 4290456598
-0.0019566528 -0.0017817542 0.0085419342 4290389788
0.00034213066 -0.0030867979 0.0095521733 4290979349
0.0022057332 -0.0022442415 0.0084529109 4290258973
0.0042154193 -0.0021173134 0.0080567226 4289604643
0.0059171356 -0.00055973977 0.0062577277 4289735204
0.0080783442 -0.0011480078 0.0065636002 4289342759
0.010085605 -0.001020886 0.006168142 4289735459
-0.023464605 -0.0091405064 0.015958674 4286071874
-0.022141635 -0.0046953931 0.011315655 4288363303
-0.0081015117 -0.0038159713 0.0085423961 4290001424
-0.0062329881 -0.0029713735 0.0074434429 4289801758
-0.004369691 -0.0021270066 0.0063455887 4290324253
-0.0025116354 -0.0012828633 0.0052488595 4288950313
-0.00022137538 -0.0025927946 0.0062575005 4290062368
0.0022282153 -0.0046197847 0.0079650022 4290978074
0.0040892623 -0.0037750974 0.0068679377 4289539620
0.0059450269 -0.002930589 0.0057719536 4290128159
0.0077955313 -0.0020863265 0.0046771429 4289867040
0.0096407533 -0.0012422875 0.003583448 4290065174
-0.02324906 -0.012975141 0.016880549 4286398783
-0.021800995 -0.0092383772 0.012951147 4287838768
-0.020141773 -0.0069469139 0.010437362 4287970603
-0.018619999 -0.0039346069 0.0072221681 4287775529
-0.010497168 -0.0041550025 0.0063463971 4290198283
-0.0083615519 -0.0047502145 0.0066533908 4290260504
-0.0066332817 -0.0031829402 0.004855141 4290062623
-0.0049156249 -0.001616165 0.0030590221 4289669668
-0.0030655861 -0.00077033788 0.0019654781 4288427054
-0.00078383088 -0.0020852685 0.0029725917 4288884778
0.0018053949 -0.0048393905 0.0053761974 4289539364
0.0038121268 -0.0047126785 0.0049805716 4290128158
0.0055115595 -0.0031465292 0.0031885095 4289736224
0.0072003603 -0.0015809163 0.0013986528 4289738009
-0.023374505 -0.014649548 0.015679359 4286856508
-0.021809712 -0.011625998 0.012461957 4287904303
-0.020028755 -0.010051847 0.010655925 4288035119
-0.018501103 -0.0070303902 0.0074460283 4288035373
-0.016746581 -0.005457662 0.0056453943 4287971878
-0.012880981 -0.0044840202 0.0041548759 4289084954
-0.011018023 -0.0036356226 0.0030600037 4289867804
-0.0091602877 -0.0027874485 0.0019663051 4289867040
-0.0074452311 -0.0012166426 0.0001738742 4289735714
-0.0060210191 0.0017991215 -0.003015019 4290520603
-0.0039040893 0.0012008622 -0.0027057175 4290323999
-0.0016362146 -0.00011933595 -0.0016991608 4289669924
0.0013833083 -0.0050498769 0.0027939938 4290651674
0.0033845305 -0.0049235374 0.0023994297 4289670688
-0.023386687 -0.017050289 0.015181441 4287118393
-0.021818697 -0.014017783 0.011969835 4287772979
-0.020034879 -0.01243902 0.010166422 4287969328
-0.018504024 -0.0094086006 0.0069623441 4288099888
-0.016622737 -0.0085572526 0.0058652423 4288100399
-0.014873229 -0.0069803521 0.0040689036 4288100398
-0.012875788 -0.0068551973 0.0036743842 4288754474
-0.011142053 -0.005279012 0.0018812828 4289147174
-0.0095534995 -0.0029781386 -0.00060836971 4289081639
-0.0079808906 -0.00067812949 -0.0030948464 4289735714
-0.0064242259 0.0016210005 -0.0055780839 4289866273
-0.0044556037 0.0017449334 -0.0059664734 4289800993
-0.0021962263 0.00041973591 -0.0049614608 4289212198
0.00051794201 -0.0030779168 -0.0018700883 4289932319
0.0023549497 -0.0022281855 -0.0029575899 4290783508
-0.023512185 -0.018726267 0.0139791 4287118394
-0.021943666 -0.015684955 0.010773852 4287969073
-0.020041279 -0.014830299 0.0096739754 4288230958
-0.018386163 -0.01251927 0.0071755797 4288165678
-0.016499497 -0.011665411 0.0060790218 4288100399
-0.014618039 -0.010811724 0.0049835294 4288362029
-0.012870878 -0.009230487 0.0031909402 4288885543
-0.01126603 -0.0069221035 0.00070277601 4289081894
-0.0098115578 -0.0038871244 -0.0024793446 4288623913
-0.0082412697 -0.0015807226 -0.0049604792 4288689194
-0.0068267174 0.001451984 -0.0081345551 4289408549
-0.0047211237 0.00084856898 -0.0078262761 4289212199
-0.0027552061 0.00097242743 -0.0082140621 4289343013
-0.00049353763 -0.00035690516 -0.00721265 4291044629
-0.023299053 -0.022595011 0.014876477 4286595389
-0.021721989 -0.0195444 0.011675984 4287707188
-0.02004794 -0.017225735 0.0091786087 4288034608
-0.018389806 -0.014907904 0.0066844039 4288165168
-0.016624011 -0.013321355 0.0048911907 4288230958
-0.014742523 -0.012465484 0.0037972964 4288427309
-0.012737334 -0.012339883 0.0034012217 4288427308
-0.010995187 -0.010754474 0.0016129296 4289016359
-0.0092636123 -0.0091695786 -0.00017316826 4288165678
-0.0078165159 -0.0061261877 -0.0033473019 4288165934
-0.0061114952 -0.0045427009 -0.0051280446 4288165678
-0.0044170432 -0.0029598027 -0.0069065634 4288427309
-0.0028781854 -0.00064839423 -0.0093764327 4288886054
-0.019700781 -0.02182395 0.010771874 4287511348
-0.018031575 -0.019498855 0.0082803182 4287969073
-0.01650168 -0.016442098 0.0050958507 4288165679
-0.014614813 -0.015583761 0.0040025357 4288165679
-0.012861907 -0.01399336 0.0022152197 4288296749
-0.010856722 -0.013867669 0.0018192176 4288950823
-0.0089855008 -0.013009958 0.00072925352 4288034863
-0.007393077 -0.010688998 -0.0017465744 4288362029
-0.0058165938 -0.0083688945 -0.0042192005 4288427564
-0.0042560771 -0.0060496852 -0.0066886116 4288231214
-0.0028563216 -0.0030001178 -0.0098466761 4289018143
-0.016256712 -0.020306163 0.005988989 4287641908
-0.014613613 -0.017975897 0.003507603 4288165679
-0.012857854 -0.016381003 0.001722971 4288362028
-0.011112656 -0.014786594 -5.9520826e-05 4288754729
-0.0091101564 -0.014660947 -0.00045490637 4288165678
-0.0073807538 -0.013067342 -0.0022340696 4288100654
-0.0055226684 -0.012208037 -0.0033196639 4288231214
-0.00395374 -0.0098817125 -0.0057858806 4288230704
-0.0025454387 -0.0068228394 -0.0089391749 4288430114
-0.014361233 -0.02184581 0.0043946393 4287184949
-0.012854084 -0.018772691 0.0012277346 4287904303
-0.011368208 -0.015700787 -0.0019348729 4288493098
-0.0095022917 -0.014839046 -0.003020579 4288231724
-0.0077780858 -0.013241343 -0.0047955345 4288100654
-0.0056470707 -0.013852172 -0.0044988263 4288165679
-0.0040777922 -0.011519238 -0.0069602747 4288296239
-0.0025244951 -0.0091872141 -0.0094184931 4288822559
-0.0098937452 -0.015007935 -0.0055797193 4287643439
-0.0081746802 -0.013406225 -0.0073503908 4287838768
-0.0060493499 -0.014019586 -0.0070542451 4288035118
-0.0043434501 -0.012418441 -0.0088221338 4288165934
-0.0064509213 -0.014177896 -0.0096030626 4287708209
-0.0046087205 -0.013312876 -0.010680655 4288166188
-0.011878178 -0.017514981 -0.0056754071 4282873153
-0.013484091 -0.022256024 -0.0037114937 4283131979
-0.012393802 -0.016928777 -0.00891391 4281894464
-0.01054123 -0.016061328 -0.0099921729 4282872898
-0.0088298395 -0.014451303 -0.011754943 4283460673
-0.013863884 -0.022416681 -0.0062673483 4282609228
-0.012647517 -0.017819665 -0.010772565 4281632324
-0.01093071 -0.01620505 -0.012533275 4281632068
-0.00908871 -0.015335955 -0.013607753 4281958979
-0.0069750249 -0.015956663 -0.013314171 4282155074
-0.0051381439 -0.015087657 -0.014387453 4282351678
-0.0033065192 -0.014218844 -0.015459606 4284054313
-0.001626648 -0.012605935 -0.01721257 4284574514
-0.014115416 -0.023315884 -0.0081326421 4282347854
-0.012900881 -0.018705785 -0.012627868 4281632068
-0.011053622 -0.017834298 -0.013701869 4281566789
-0.0093472041 -0.016215883 -0.015457174 4281632069
-0.0073748045 -0.01609198 -0.0158465 4281697859
-0.0055432655 -0.015221126 -0.016917126 4281763139
-0.0037169904 -0.014350437 -0.017986676 4282223669
-0.0021885931 -0.011987001 -0.020415651 4283269933
-0.01449398 -0.023460455 -0.010677034 4281695054
-0.013023756 -0.020336919 -0.013797851 4281369929
-0.011309251 -0.018713735 -0.015551625 4281435209
-0.009334445 -0.018589832 -0.01594154 4281304649
-0.0074976347 -0.017716579 -0.017011689 4281500998
-0.0055252872 -0.017592564 -0.017400926 4281566534
-0.0038397908 -0.015970655 -0.019148646 4281632578
-0.002164904 -0.014349341 -0.020894146 4281959234
-5.4139644e-05 -0.01497414 -0.020602865 4282155839
0.0020620525 -0.015598446 -0.020312535 4282548793
0.0041836873 -0.01622235 -0.020023165 4283398963
-0.014744587 -0.024347998 -0.012533991 4281235034
-0.013146594 -0.021967761 -0.014967626 4281171538
-0.011166707 -0.021843672 -0.015358651 4281173068
-0.0091866925 -0.021719456 -0.015749602 4281303883
-0.007482484 -0.020092271 -0.017497925 4281500743
-0.0057888739 -0.018465646 -0.019244077 4281500998
-0.0039625689 -0.017590597 -0.020310419 4281762883
-0.0021415092 -0.016715772 -0.021375565 4281762374
-0.00017705187 -0.016591899 -0.021762988 4281827909
0.0016361438 -0.01571732 -0.022826416 4281698113
0.0035980716 -0.015593335 -0.023213139 4282548539
0.005403392 -0.014719009 -0.024274817 4283660084
-0.011289656 -0.023474216 -0.016528176 4281170518
-0.0091746822 -0.024103843 -0.016241392 4281368144
-0.0074676201 -0.022472046 -0.0179871 4281370184
-0.0059116222 -0.020087443 -0.020407217 4281566788
-0.0040852949 -0.019210175 -0.021471938 4281696838
-0.0022642352 -0.018333189 -0.022535501 4281631558
-0.0002999343 -0.018209331 -0.022922894 4281631558
0.0015132725 -0.017332569 -0.02398471 4281566023
0.0033212155 -0.016455993 -0.025045382 4281632069
0.0049673244 -0.014827184 -0.026778432 4281893698
0.00723961 -0.01620803 -0.025817497 4282220863
0.0095226504 -0.017588012 -0.024858629 4282940218
0.011487346 -0.017463349 -0.025245519 4284050233
-0.0078659244 -0.022588529 -0.020505933 4281629263
-0.0063149445 -0.020197608 -0.022920268 4281565769
-0.0043509789 -0.020074017 -0.02330778 4281696839
-0.0023869239 -0.019950323 -0.023695229 4281566278
-0.0004227832 -0.019826464 -0.024082581 4281434953
0.0012394339 -0.018192545 -0.02581572 4281500999
0.0031983778 -0.018068768 -0.026201865 4281435463
0.0050010271 -0.017190181 -0.02725984 4281370949
0.0074345283 -0.019329734 -0.025631228 4281697348
0.0098841488 -0.021468118 -0.024005672 4282221119
0.012349859 -0.023605339 -0.022383256 4282354229
0.014163442 -0.02272556 -0.023442948 4284055843
0.01580197 -0.021092243 -0.025170757 4284638773
-0.0046162866 -0.020933151 -0.025140239 4282280024
-0.0025095828 -0.021567114 -0.024854707 4281759058
-0.00054559484 -0.021443285 -0.025242044 4281434443
0.0012676306 -0.02056215 -0.026300659 4281499978
0.0032290928 -0.020438232 -0.026687315 4281369673
0.0050344393 -0.019557327 -0.027744168 4281500744
0.0074699447 -0.021703273 -0.026120814 4281369928
0.010083109 -0.024604611 -0.023831261 4282285124
0.01321039 -0.029773496 -0.019539684 4282219588
0.015373819 -0.030402824 -0.01926456 4282350658
-0.00081637502 -0.022300273 -0.027071605 4281824848
0.0011448525 -0.022176489 -0.027458305 4281630029
0.0029528141 -0.021293372 -0.028514171 4281566024
0.0049115121 -0.021169499 -0.028900186 4281501254
0.0073463544 -0.023322083 -0.027281547 4281304393
0.010120057 -0.026990928 -0.024330622 4282022473
0.013084624 -0.031416543 -0.020717725 4282414663
0.015247721 -0.032048091 -0.020444158 4282871113
-0.00093896315 -0.023914292 -0.028229071 4282410839
0.002676893 -0.022143781 -0.030337708 4282019669
0.0046327598 -0.022020072 -0.030723156 4281956174
0.007222794 -0.024940543 -0.028442046 4281759823
0.0098342896 -0.027859531 -0.026165074 4282348364
0.012467247 -0.030777015 -0.023892224 4282935373
0.024936605 -0.032296471 -0.024252187 4283262793
0.0067825429 -0.025032192 -0.030932402 4282085203
0.0090657845 -0.026434086 -0.029989699 4282673488
-0.018097572 0.017313786 0.044232689 4284966449
-0.016296931 0.018797413 0.042355269 4285623328
-0.013382852 0.014183626 0.047107056 4285819933
-0.020970121 0.019575089 0.039005309 4285427489
-0.01941888 0.022422336 0.035661504 4285558559
-0.017644808 0.02390866 0.033792552 4285624093
-0.015008263 0.020636901 0.037069 4285689374
-0.011962518 0.015328474 0.042542882 4285754908
-0.0082233176 0.0066263378 0.051676765 4285754908
-0.023580357 0.020500414 0.035261419 4285032494
-0.022028744 0.023356363 0.031923942 4285624348
-0.020140804 0.024164468 0.03079341 4285755674
-0.018379919 0.025654335 0.028930269 4285755164
-0.016006812 0.023734353 0.030735049 4285755163
-0.013490222 0.021133766 0.033269357 4285820954
-0.010432348 0.015808508 0.038727909 4285689884
-0.007596612 0.011848778 0.042714842 4285493279
-0.0051343665 0.0099347085 0.044502333 4285427743
-0.0023799799 0.0066597462 0.047747716 4285361444
0.00054201484 0.0027057379 0.05171784 4285033258
-0.02627831 0.022130176 0.030792028 4284966959
-0.024501696 0.02362515 0.028928813 4285493278
-0.022386566 0.02306582 0.029267188 4285624349
-0.020503931 0.023875743 0.028139289 4285755929
-0.018626466 0.024685428 0.027012479 4285886999
-0.016505405 0.024126738 0.027349886 4285886999
-0.013997629 0.021516718 0.029879414 4285755929
-0.011338498 0.018224418 0.033135258 4285624349
-0.0090496764 0.016984642 0.034195855 4285558813
-0.0074255019 0.019162685 0.031607091 4285624604
-0.0054038987 0.01929006 0.031208329 4285821209
-0.0028202683 0.016685285 0.033723231 4285886233
0.00064383075 0.0099845827 0.040601179 4285951258
0.0045991912 0.0012391582 0.049650639 4285951004
-0.028947316 0.023784243 0.026333455 4285361188
-0.027067907 0.024595864 0.025207594 4285623584
-0.025080137 0.024720296 0.024814904 4285689629
-0.02274365 0.022784404 0.026616972 4285624094
-0.020866312 0.023596197 0.02549167 4285624093
-0.018872611 0.023721255 0.025098 4285689884
-0.016878732 0.023846425 0.024704363 4285624093
-0.014503993 0.02191329 0.026499141 4285558558
-0.012112997 0.019981258 0.028290778 4285624349
-0.0099702775 0.019421965 0.02862246 4285624348
-0.008631669 0.022976801 0.024585899 4285689629
-0.0067692548 0.023788244 0.023464043 4285886489
-0.0044911504 0.022543624 0.024523698 4285820444
-0.0014872923 0.017874226 0.029212706 4285885724
0.0018455759 0.011837378 0.035345878 4285885978
0.005523514 0.0044341013 0.042920075 4285623329
-0.029502876 0.024896588 0.022226628 4285885978
-0.027412802 0.024331026 0.022566531 4286017049
-0.024977192 0.021698326 0.025096945 4285952278
-0.022867963 0.021134101 0.025433239 4285689628
-0.020871885 0.021259189 0.025039006 4285624349
-0.018875621 0.021384366 0.0246448 4285624349
-0.016879171 0.02150964 0.024250619 4285624349
-0.014629096 0.020258352 0.025312193 4285624349
-0.012626946 0.020384185 0.024917033 4285624348
-0.01062464 0.020510107 0.024521902 4285689629
-0.0090264902 0.022699662 0.02194795 4285952534
-0.0073068216 0.024200618 0.020103008 4285689119
-0.0051773563 0.023638509 0.020435851 4285558048
-0.0026139319 0.021014854 0.022941791 4285623583
0.00026202574 0.017018341 0.026891857 4285689373
0.0033184662 0.012336947 0.031559307 4285689629
0.00746857 0.0028502792 0.041281141 4285361443
-0.033378869 0.021628693 0.023297112 4285361443
-0.031920277 0.025212049 0.0192523 4285689373
-0.029949211 0.025335167 0.018862721 4285557793
-0.027756982 0.02407527 0.019932047 4285557793
-0.025327496 0.021433339 0.022457168 4285755164
-0.023108065 0.020175323 0.023521259 4285755419
-0.021114781 0.020300187 0.023127545 4285624349
-0.019121297 0.020425156 0.022733863 4285624349
-0.017127655 0.020550236 0.022340216 4285624348
-0.015386939 0.022056505 0.020494055 4285624349
-0.013527557 0.02287183 0.019375797 4285624094
-0.011541434 0.022996709 0.018983837 4285624094
-0.0096897855 0.023811765 0.017867196 4285755418
-0.007843338 0.024626561 0.016751692 4285952789
-0.0057221949 0.024061695 0.017084543 4285886999
-0.0031676143 0.021428637 0.01958571 4285821208
-0.00044615194 0.01810766 0.02280527 4285755673
0.0025982745 0.013410047 0.027463719 4285493024
0.0067351684 0.0038916767 0.037165441 4285361954
-0.035485737 0.019864321 0.022512414 4285230118
-0.033910982 0.02276516 0.019202314 4285493023
-0.032147482 0.024276547 0.017354298 4285821208
-0.030286856 0.025093403 0.016236857 4285755419
-0.028100416 0.023828641 0.017304104 4285755419
-0.025790058 0.021871105 0.019096535 4285820953
-0.023463435 0.019914642 0.020885874 4285821463
-0.021357261 0.019345857 0.021219485 4285624093
-0.019366585 0.019470602 0.020826325 4285689884
-0.017623149 0.020981342 0.018982783 4285689884
-0.01589027 0.02249153 0.017141335 4285755419
-0.014038861 0.023308523 0.016026244 4285689628
-0.01206091 0.023432866 0.015635882 4285624093
-0.0099483728 0.022865027 0.015968643 4285623839
-0.0079674423 0.022989765 0.015577834 4285624094
-0.0058465824 0.022422642 0.015909098 4285558558
-0.003435269 0.020472437 0.017682411 4285558814
-0.00042712688 0.01575698 0.022336565 4285493278
0.0029143579 0.0096611753 0.028424282 4285427489
0.0073578358 -0.0012702346 0.039542019 4285427488
-0.036006279 0.021010637 0.018422052 4285427233
-0.034237437 0.022526644 0.016576126 4285427744
-0.032479078 0.024042025 0.014732365 4285624604
-0.030623741 0.024860695 0.013617557 4285690394
-0.028553262 0.024287172 0.013956364 4285755674
-0.026251547 0.022322401 0.01574567 4285690139
-0.023933575 0.020358771 0.017531775 4285624349
-0.021835715 0.01978723 0.017865382 4285624349
-0.019974068 0.020606749 0.016749647 4285689883
-0.01824113 0.022121198 0.014911395 4285821209
-0.016518749 0.023635127 0.013075259 4285886489
-0.014678016 0.02445361 0.01196387 4285952278
-0.012447707 0.023187906 0.013019726 4285886999
-0.010340821 0.022617497 0.013351962 4285624348
-0.0082284436 0.022047527 0.013683181 4285624349
-0.0059709251 0.020783871 0.014733847 4285559068
-0.0031333193 0.016745031 0.018662203 4285559068
2.6553869e-05 0.011320792 0.024023011 4285493023
0.0036724657 0.0038184077 0.031532094 4285493278
0.007978864 -0.0064539835 0.041902937 4285624093
-0.035731211 0.016583934 0.020159058 4285558558
-0.034053393 0.018803671 0.0175879 4285559068
-0.032286778 0.02032394 0.015745729 4285493278
-0.030530676 0.021843679 0.013905652 4285493279
-0.028785065 0.023362823 0.012067758 4285558814
-0.026599325 0.022089273 0.013128627 4285559068
-0.024402656 0.020816445 0.014187444 4285624349
-0.022313125 0.020242147 0.014521044 4285624349
-0.020459436 0.021063335 0.013408486 4285755673
-0.018734343 0.022581704 0.011574954 4285689628
-0.016767651 0.022705071 0.011186618 4285558048
-0.014800817 0.022828542 0.010798324 4285623584
-0.012439564 0.020861521 0.012571461 4285755419
-0.010196179 0.019592337 0.013621498 4285755419
-0.0080787092 0.019020461 0.013950083 4285624348
-0.0056768209 0.017056286 0.01571542 4285624348
-0.0025480315 0.011612289 0.021069344 4285624348
0.00076860934 0.005475089 0.027132656 4285689629
0.0042811111 -0.0013547912 0.033903785 4286083859
0.0082978979 -0.010268226 0.042814694 4285687844
-0.035457388 0.012139782 0.021883532 4285294888
-0.033768468 0.014366776 0.019315012 4285492513
-0.032095417 0.016592868 0.016749687 4285558558
-0.030223906 0.017416887 0.015634857 4285558814
-0.028577194 0.019641519 0.013074882 4285558814
-0.026721358 0.020464726 0.011963286 4285559069
-0.024870679 0.021287702 0.010852773 4285558813
-0.023025155 0.022110462 0.0097433589 4285624604
-0.021184832 0.022933029 0.0086349919 4285755929
-0.019472905 0.024454884 0.0068073161 4285821464
-0.017519735 0.024577379 0.0064216293 4285689629
-0.015566409 0.024699979 0.0060359873 4285689884
-0.012956679 0.021327287 0.0092447214 4285821464
-0.010453925 0.018655308 0.011729889 4285755419
-0.0077929869 0.015286051 0.014928672 4285689629
-0.0051050968 0.011918575 0.018122211 4285689374
-0.0019643717 0.006457679 0.023460798 4285623074
0.0012193695 0.00099959224 0.028790969 4286344469
0.0042987801 -0.0037575737 0.033397011 4286015264
-0.035085864 0.0069749355 0.024319135 4285228843
-0.033281565 0.0085062236 0.022475809 4285360933
-0.031696342 0.01144287 0.019189499 4285426214
-0.02981142 0.012269869 0.018073604 4285426213
-0.028260589 0.015204556 0.01479423 4285426213
-0.026730977 0.018138014 0.011519119 4285426723
-0.025107585 0.020367913 0.0089687705 4285492769
-0.02338241 0.021894827 0.0071415007 4285558814
-0.021547385 0.02271919 0.0060358234 4285558814
-0.019963637 0.024946939 0.0034934822 4285690138
-0.018018633 0.025068875 0.0031093825 4285821463
-0.015816659 0.023787983 0.0041609611 4285821464
-0.013210565 0.020404033 0.0073622987 4285690139
-0.010443762 0.016320758 0.011275128 4285623838
-0.0075082034 0.011538625 0.015897926 4285689374
-0.0045350082 0.0067590028 0.020513326 4285951514
-0.0016659535 0.0026824325 0.024406262 4286344468
0.0010909066 -0.00069151819 0.027578227 4286277658
-0.035111055 0.0046102852 0.023850847 4285229099
-0.033202395 0.0054407418 0.022731714 4285360678
-0.031507142 0.0076813549 0.020171661 4285360933
-0.029720932 0.009216018 0.018335309 4285360679
-0.028054729 0.011454999 0.015781142 4285360934
-0.026516542 0.014397778 0.012510791 4285492259
-0.024769895 0.015930258 0.010682471 4285558559
-0.023151308 0.018166564 0.008137919 4285492769
-0.021548614 0.020401977 0.0055966005 4285558814
-0.020207569 0.024044476 0.0016239304 4285558814
-0.018265359 0.024166226 0.0012403671 4285558558
-0.016066529 0.022880703 0.0022893138 4285624349
-0.013202235 0.018078484 0.0069146156 4285624349
-0.010300279 0.0132787 0.011532605 4285689629
-0.0070881099 0.0070750564 0.017572496 4285886234
-0.0042444505 0.0029835925 0.021460578 4286277404
-0.0017933957 0.001002714 0.023201659 4286473754
-0.035037868 0.0015338063 0.024100035 4285228843
-0.033123836 0.0023667365 0.02298142 4285360679
-0.031422853 0.0046142787 0.020425074 4285361188
-0.029737711 0.0068608671 0.017871961 4285360933
-0.028068446 0.0091066286 0.015322022 4285361188
-0.026303045 0.010644548 0.013493136 4285426723
-0.024433479 0.011475243 0.012383625 4285492514
-0.022686437 0.013012238 0.01055852 4285492004
-0.02119001 0.015961446 0.0073030889 4285492259
-0.019714817 0.018909447 0.0040519331 4285492513
-0.018010125 0.020444073 0.002235407 4285558814
-0.015675642 0.018448763 0.0039941799 4285558813
-0.012932666 0.014337368 0.00789221 4285689629
-0.009890534 0.0088170245 0.013211079 4285689373
-0.0070776194 0.004710272 0.017095413 4286344979
-0.0043712072 0.0013108552 0.020260938 4286343448
-0.03314697 -6.0424209e-06 0.022506654 4285294634
-0.031339124 0.0015386045 0.020672366 4285426979
-0.029648267 0.0037921518 0.018122915 4285361189
-0.027973257 0.0060447827 0.015576705 4285426724
-0.026314132 0.0082965642 0.013033673 4285426469
-0.02432733 0.0084206238 0.012640953 4285492259
-0.022457547 0.0092535689 0.011533115 4285360934
-0.020592935 0.01008632 0.010426331 4285492514
-0.019101128 0.013044097 0.007178396 4285623838
-0.017505392 0.015292414 0.0046482533 4285623838
-0.01541394 0.014707439 0.0049735419 4285820954
-0.012794659 0.011291198 0.0081479102 4285623328
-0.0096153654 0.005045712 0.014165021 4286082328
-0.0070674308 0.0023413226 0.01661535 4286409494
-0.0044979192 -0.00036159158 0.019061498 4286474009
-0.029346779 -0.00070843101 0.019799136 4285229099
-0.027769692 0.0022629648 0.016540371 4285426213
-0.026102163 0.0045217946 0.014000542 4285360934
-0.024336137 0.0060686395 0.012177989 4285426468
-0.022463627 0.0069039166 0.011071209 4285492259
-0.020356894 0.0063173696 0.011391617 4285492259
-0.018611789 0.0078631714 0.0095734634 4285492258
-0.017127328 0.010829397 0.0063334517 4285689119
-0.015025452 0.010242842 0.0066550411 4285885213
-0.012657233 0.0082364604 0.0083975308 4285884958
-0.0097404309 0.0033913329 0.012978472 4286212123
-0.0073290542 0.0013878569 0.014712587 4286473754
-0.027240582 -0.0036729053 0.019635484 4285360424
-0.02577962 2.0585954e-05 0.0156711 4285360679
-0.024116851 0.002285786 0.013137136 4285360933
-0.022353135 0.0038369671 0.011318333 4285426468
-0.02036088 0.003961511 0.01092463 4285492259
-0.018612869 0.0055118799 0.009109132 4285492258
-0.01700031 0.0077743903 0.0065853335 4285557793
-0.014765806 0.0064733773 0.0076142028 4285688609
-0.012259938 0.003748484 0.010059681 4285818913
-0.0094666407 -0.00039930642 0.013918605 4286343193
-0.0071834885 -0.0016968921 0.014938064 4286670359
0.022108458 -0.004167594 0.013575677 4285295144
0.025197972 -0.0082948506 0.017377552 4285163309
0.029212123 -0.015966415 0.024672396 4285885213
-0.023898512 -0.0015099868 0.014086924 4285491494
-0.022243239 0.00076141953 0.011559345 4285491748
-0.0204845 0.0023167431 0.0097448006 4285360678
-0.01861424 0.0031564385 0.0086418167 4285426213
-0.016873911 0.004710786 0.006831117 4285557539
-0.014634512 0.0034057051 0.0078557171 4285754399
-0.012124091 0.00067225844 0.010293804 4285884193
-0.0095920861 -0.0020597056 0.012727723 4286473754
0.016402263 0.00030495226 0.0068698898 4285623073
0.017731473 0.0032808259 0.0036748052 4285886234
0.02007702 0.0019843504 0.0046798773 4285951258
0.022784617 -0.00073470175 0.007080514 4285951003
0.026405275 -0.0070098117 0.012968313 4285951514
0.029712196 -0.011859052 0.017451204 4285557538
0.033424027 -0.018128112 0.023321241 4285032238
-0.020488851 -4.517287e-05 0.0092735216 4285425704
-0.018737763 0.0015141666 0.0074638017 4285360424
-0.016872674 0.0023557991 0.0063635036 4285557538
-0.014631055 0.0010464266 0.007384412 4285623329
-0.012248673 -0.00097896159 0.0091094598 4285884448
0.015270643 0.0029331967 0.0014882833 4285820699
0.016584311 0.0059168935 -0.0016972683 4285623328
0.018567726 0.006043084 -0.0020876043 4285492004
0.021077588 0.0040276796 -0.00038625672 4285557539
0.0244943 -0.001555182 0.0047953725 4285623583
0.027411431 -0.0049945191 0.0078802034 4285492768
0.030905908 -0.01057218 0.013046712 4285230118
0.034070894 -0.014720537 0.016814679 4285032494
-0.016871713 -3.3155084e-06 0.0058929138 4285490728
-0.014754973 -0.00059784204 0.0062050186 4285557029
0.011156887 0.0010354742 0.0010943711 4285622819
0.012821581 0.0025955215 -0.00069371983 4285624348
0.014308348 0.0048716292 -0.0031768605 4285952534
0.015609153 0.007863313 -0.0063534044 4286018068
0.017751653 0.0072723106 -0.0060449094 4285754908
0.020074839 0.005965732 -0.0050418265 4285755164
0.02329867 0.0010802373 -0.00056528673 4285821209
0.026198726 -0.0023711845 0.0025148094 4285624603
0.02894224 -0.0051051602 0.0048956499 4285558813
0.031149171 -0.0056914464 0.0051919073 4285558814
0.032984041 -0.0048467144 0.004101174 4285493024
0.035579078 -0.0068625733 0.0057814382 4285361443
0.039354533 -0.013166673 0.011610202 4285229354
0.0087194629 0.00070349872 -0.0010862648 4285622054
0.010222558 0.0029870197 -0.0035679378 4285623583
0.01187405 0.0045505986 -0.005350206 4285624349
0.014016144 0.0039571896 -0.0050434619 4285689629
0.015314799 0.0069575235 -0.0082131177 4285689373
0.017281853 0.0070826411 -0.008600248 4285820698
0.019599203 0.0057712495 -0.0075992048 4285755419
0.02281633 0.00086996704 -0.0031327307 4285624349
0.025349058 -0.0011569336 -0.0014454126 4285558558
0.027714696 -0.0024648607 -0.00045365654 4285624348
0.029161833 -0.00018385798 -0.0029234774 4285689883
0.030781403 0.0013788119 -0.0046987124 4285886489
0.032772675 0.0015063211 -0.0050899927 4285820443
0.036315035 -0.00410299 4.1570514e-05 4285820188
0.040293388 -0.011143304 0.0065444224 4285819933
0.044325307 -0.018180057 0.01303684 4285425959
0.0074821264 0.0041147843 -0.0071311817 4285820698
0.0091283955 0.0056823269 -0.0089092646 4285885978
0.011420958 0.0043645203 -0.0079069734 4285886743
0.01389122 0.0023264512 -0.0062126629 4285689628
0.015699219 0.0031729713 -0.0072954483 4285624094
0.017674167 0.0032986104 -0.0076841265 4285558558
0.019824104 0.0027038381 -0.0073802955 4285624349
0.022334712 0.00066880882 -0.0056935679 4285624348
0.024500776 7.5310469e-05 -0.0053927321 4285624348
0.026306225 0.00092228502 -0.0064745694 4285689884
0.027734959 0.0032087341 -0.0089359805 4285820953
0.029335976 0.004774563 -0.010704286 4285689118
0.031499375 0.0041813776 -0.010402573 4285623584
0.034636699 -7.9646707e-06 -0.0066580307 4285623839
0.037806168 -0.0041951314 -0.0029197074 4285689628
0.041206844 -0.0090991333 0.0015001278 4285427234
0.045048516 -0.015438192 0.0072870478 4285295653
0.0053890049 0.0023663715 -0.0079074875 4285689373
0.0067233332 0.0053860545 -0.011071591 4285820699
0.0085204653 0.0062337443 -0.012150884 4285689374
0.011132654 0.0034641251 -0.0097641964 4285952533
0.013766333 0.00069600344 -0.0073816478 4285886489
0.015743777 0.00082165748 -0.0077709109 4285689884
0.017721258 0.00094746053 -0.0081600901 4285624349
0.019698778 0.0010733679 -0.0085491948 4285559068
0.021853786 0.00047682971 -0.0082479008 4285624603
0.023653885 0.0013255402 -0.0093271565 4285624349
0.025265813 0.0028962418 -0.011094546 4285689629
0.026681513 0.0051884428 -0.013548547 4285886998
0.028269317 0.0067578927 -0.015311062 4285820953
0.030609878 0.0054398924 -0.014320532 4285623584
0.033541773 0.0019581169 -0.011270521 4285623839
0.036696665 -0.0022431761 -0.0075390376 4285755163
0.039883696 -0.0064423308 -0.0038137399 4285623839
0.043707594 -0.01280231 0.0019621197 4285493024
0.0032962859 0.00061842799 -0.0086835399 4285622818
0.0046417825 0.0036474839 -0.011843476 4285755418
0.0062830038 0.0052233562 -0.013614196 4285558048
0.0079135858 0.0067986771 -0.015382737 4285557794
0.010516912 0.0040197521 -0.013000811 4285623838
0.013141729 0.0012422577 -0.010623001 4285689628
0.015618771 -0.0008084625 -0.008939635 4285689883
0.01742417 4.2401254e-05 -0.010018602 4285624349
0.019398861 0.00016812235 -0.010407152 4285624349
0.021018976 0.0017435551 -0.012173137 4285624348
0.022808384 0.0025937483 -0.013248689 4285624093
0.024227116 0.0048926547 -0.015698504 4285624093
0.025815133 0.0064663365 -0.017457874 4285624094
0.027392425 0.0080394372 -0.01921506 4285821208
0.029531077 0.0074402913 -0.018911701 4285755673
0.032448567 0.0039466098 -0.015866946 4285755673
0.035981007 -0.0017159581 -0.010772135 4285624603
0.039357543 -0.0066522136 -0.0063702278 4285493279
0.043577224 -0.014478914 0.00076051243 4285427744
0.00030194595 0.0032430217 -0.013613999 4285558049
0.0022545941 0.0033663809 -0.013998926 4285558814
0.0038959421 0.0049465299 -0.015766531 4285886999
0.0055266395 0.0065261647 -0.017532002 4285689884
0.0073077455 0.0073771998 -0.018604916 4285689884
0.0095747486 0.0060445592 -0.017607316 4285755673
0.012518182 0.0018020347 -0.013854578 4285821719
0.015155617 -0.00098333508 -0.011485633 4285624348
0.017127451 -0.000857912 -0.011873707 4285624348
0.018401518 0.0021762326 -0.015012499 4285690139
0.020008422 0.0037551969 -0.016772665 4285755419
0.021964263 0.0038799718 -0.01715732 4285820953
0.024102595 0.0032782182 -0.016855799 4285755163
0.025875967 0.0041298643 -0.017926389 4285624093
0.027456135 0.0057075545 -0.019680902 4285623839
0.029406626 0.005832471 -0.020064153 4285624349
0.032323118 0.0023277476 -0.01702727 4285558814
0.035854042 -0.0033525154 -0.011945111 4285493278
0.040023476 -0.011206679 -0.0048224162 4285493534
0.044251822 -0.019056939 0.0022888016 4285295653
-0.00027096644 0.0038261861 -0.016840789 4285493024
0.0013678111 0.0054104328 -0.018604759 4285624350
0.0029959604 0.0069941357 -0.020366535 4285624348
0.0049298704 0.0071165338 -0.020747598 4285755929
0.0068638399 0.0072390512 -0.021128591 4285689883
0.0092885643 0.0051716045 -0.019444868 4285755674
0.01222815 0.00091568381 -0.015701123 4285558813
0.014862083 -0.0018787012 -0.013337951 4285558813
0.016487885 -0.00029442459 -0.015098739 4285689883
0.01758017 0.0034773871 -0.018915681 4285755674
0.019176554 0.0050600693 -0.020670548 4285952279
0.02148081 0.0037260875 -0.019682933 4285952278
0.02379578 0.0023929402 -0.018697385 4286018323
0.025936481 0.0017892867 -0.018397842 4285755673
0.027707193 0.002643086 -0.019466203 4285624349
0.029853247 0.0020399913 -0.019167546 4285559069
0.032776784 -0.0014753193 -0.016140092 4285493789
0.036509931 -0.0079006925 -0.010390237 4285493789
0.040688049 -0.015778452 -0.0032870155 4285229864
-9.2811882e-05 0.00075737387 -0.016611449 4285558303
0.0015515052 0.0023463964 -0.018373325 4285558559
0.0028744861 0.0054003373 -0.021509398 4285427234
0.0048082471 0.0055227056 -0.021890441 4285558814
0.0067420825 0.0056452081 -0.02227141 4285558813
0.0090027563 0.0043033734 -0.021279033 4285558814
0.011606358 0.0014981627 -0.018916436 4285558813
0.013893917 0.00015826523 -0.017929178 4285558813
0.015849371 0.00028262287 -0.018314052 4285690139
0.01693432 0.0040649548 -0.022121467 4285755419
0.018699653 0.0049201027 -0.023187522 4285689119
0.020818586 0.0043126121 -0.022885501 4285623583
0.023489326 0.0015124008 -0.020535581 4285820953
0.025627032 0.00090634823 -0.02023707 4285755419
0.028145105 -0.0011606961 -0.018575709 4285624349
0.030489055 -0.0024959967 -0.017598812 4285558813
0.033615164 -0.0067520216 -0.013900501 4285427998
0.036968928 -0.011735991 -0.0095281471 4285427743
0.040954828 -0.018907525 -0.0031236652 4285426724
0.00023454428 -0.0030551776 -0.015700558 4285624094
0.0017345808 -0.00072617829 -0.018147953 4285624348
0.0033738017 0.00086702406 -0.019905517 4285690139
0.005318135 0.00099007785 -0.020288637 4285624349
0.0071019828 0.0018478557 -0.021357276 4285624859
0.0090437606 0.0019709691 -0.021739721 4285559324
0.010819688 0.0028285086 -0.022806596 4285624604
0.012927473 0.0022176132 -0.022504359 4285624603
0.014698125 0.0030750483 -0.023570031 4285624349
0.016289517 0.0046660379 -0.025317494 4285952788
0.01804683 0.0055229068 -0.026380401 4285689374
0.020157414 0.0049126372 -0.026078314 4285623329
0.02263731 0.002836369 -0.02441451 4285689629
0.024948642 0.0014942959 -0.023434576 4285755674
0.027832678 -0.0020456985 -0.020415731 4285558814
0.030933505 -0.0063165948 -0.016722284 4285559069
0.03445185 -0.01205048 -0.01167651 4285493533
0.037817653 -0.017049059 -0.0073178317 4285427489
0.041220944 -0.022045121 -0.0029663537 4285360424
0.00056093559 -0.006880708 -0.014798905 4285623839
0.0023740381 -0.0060192645 -0.015871968 4285492513
0.0041818842 -0.0051580146 -0.016943883 4285492514
0.0056690164 -0.0028229579 -0.019383755 4285492513
0.0071401559 -0.00048880279 -0.021820396 4285558304
0.0087583512 0.0011077896 -0.023570269 4285426979
0.010531619 0.0019673258 -0.024635028 4285493024
0.012299575 0.0028266683 -0.025698636 4285493023
0.013891116 0.0044219717 -0.027443036 4285624348
0.015471987 0.0060166791 -0.029185206 4285821718
0.017218605 0.0068750679 -0.030244393 4285887253
0.01931816 0.0062618852 -0.029941756 4285887254
0.021968493 0.0034428313 -0.027600732 4285755928
0.024640251 0.00062527508 -0.025263894 4285624859
0.028082095 -0.0051313341 -0.020216201 4285427743
0.03137695 -0.010150112 -0.015855018 4285361953
0.035286851 -0.017370686 -0.0094681028 4285229608
0.00043784827 -0.0085000172 -0.015960135 4285558049
0.0024031512 -0.0083759204 -0.016347591 4285492259
0.0043685324 -0.0082516894 -0.016734973 4285492513
0.0060189217 -0.0066489354 -0.018488158 4285426978
0.007658653 -0.005046688 -0.020239197 4285492513
0.0091248639 -0.0027061775 -0.022669878 4285492513
0.010740608 -0.0011051744 -0.024415988 4285755929
0.012177452 0.0012337044 -0.026840717 4285755929
0.013598263 0.0035717785 -0.029262226 4285558813
0.015003033 0.0059089214 -0.031680495 4285558814
0.016920604 0.0060311183 -0.032057725 4285558814
0.019017149 0.005415611 -0.031756144 4285493024
0.021845618 0.0018498078 -0.028742675 4285493278
0.024885178 -0.0024515912 -0.025056742 4285493534
0.028517853 -0.0089628249 -0.01934557 4285361953
0.032009061 -0.014733709 -0.014320405 4285229863
-0.0015036166 -0.010985047 -0.016050167 4285294378
0.00046413392 -0.01086092 -0.016438201 4285361189
0.0024319589 -0.010736667 -0.01682616 4285426723
0.0043998659 -0.010612287 -0.017214049 4285492769
0.0058957562 -0.0082635581 -0.019645922 4285492769
0.0076957121 -0.0073981434 -0.020712938 4285493024
0.0094903857 -0.0065329969 -0.021778781 4285493023
0.011279754 -0.0056680366 -0.022843473 4285493023
0.012391515 -0.0018403679 -0.026624072 4285558304
0.013818033 0.00050462782 -0.029041868 4285492003
0.015228529 0.0028486997 -0.031456366 4285558814
0.016975179 0.0037114695 -0.032512337 4285427489
0.018895302 0.0038339496 -0.032889985 4285361953
0.022085696 -0.0012226179 -0.028531153 4285362208
0.025497725 -0.0070163831 -0.023503531 4285296418
0.029513065 -0.015025847 -0.016457545 4285031983
0.00034094602 -0.012481831 -0.017600585 4285229863
0.002308622 -0.012357578 -0.017988514 4285361443
0.0044309013 -0.012977041 -0.01769603 4285492769
0.0060870051 -0.011365108 -0.019443927 4285493024
0.0077324733 -0.0097537786 -0.021189608 4285558814
0.009367276 -0.0081429407 -0.022933114 4285493024
0.010991435 -0.0065327063 -0.024674408 4285493025
0.012437008 -0.0041800365 -0.027091198 4285426723
0.014037158 -0.0025710687 -0.028827574 4285426469
0.015626613 -0.00096260756 -0.030561786 4285492514
0.017381333 -9.7170472e-05 -0.031617686 4285624348
0.019487947 -0.00071643293 -0.031321317 4285493023
0.02232511 -0.0043035671 -0.028325733 4285361443
0.026108935 -0.011598505 -0.021962734 4285295908
0.029946305 -0.018889807 -0.015610186 4285098028
-8.0194324e-05 -0.012609757 -0.020122288 4284903974
0.0021853223 -0.013978161 -0.019150628 4285165349
0.0043072812 -0.014599852 -0.018859712 4285296418
0.0059635639 -0.012983508 -0.020604411 4285493023
0.0077689141 -0.012113445 -0.021669237 4285493024
0.0092441998 -0.0097525567 -0.024087224 4285493024
0.011198658 -0.0096285492 -0.024472099 4285493023
0.01264995 -0.0072689727 -0.026885141 4285427233
0.014426041 -0.0064001828 -0.027943846 4285426979
0.015850633 -0.004042089 -0.030351464 4285492514
0.017610721 -0.0031741038 -0.031406801 4285426978
0.019900814 -0.0045396835 -0.030439056 4285426978
0.022926133 -0.0088816285 -0.026779478 4285361188
0.026534993 -0.015453793 -0.021107322 4285098028
0.0058401488 -0.01460164 -0.02176469 4285099049
0.0074859783 -0.012981519 -0.023503987 4285295143
0.0092833601 -0.01210957 -0.024565564 4285426979
0.011075448 -0.011237882 -0.025625968 4285493023
0.012862232 -0.010366388 -0.026685229 4285493023
0.014473453 -0.0087479502 -0.02841733 4285426979
0.016246904 -0.007877022 -0.029473826 4285426978
0.018015042 -0.0070063397 -0.030529138 4285426979
0.020490959 -0.0091225281 -0.028893653 4285426978
0.023525812 -0.013477035 -0.02524565 4285361444
0.027143698 -0.02006834 -0.01958978 4285031983
0.0073627755 -0.014594935 -0.024660865 4285033514
0.009322226 -0.014470719 -0.025046805 4285230119
0.011281721 -0.014346398 -0.025432685 4285361189
0.012906466 -0.012722783 -0.027164353 4285426979
0.014690619 -0.01184915 -0.028221393 4285426723
0.016469453 -0.010975733 -0.029277293 4285426979
0.018242951 -0.010102503 -0.030332038 4285492768
0.020723548 -0.012224942 -0.028702376 4285493024
0.023943372 -0.01734107 -0.024394525 4285427234
0.013452083 -0.017338537 -0.025632327 4285032748
0.015077055 -0.015710451 -0.027360672 4285229353
0.016691331 -0.014082871 -0.029086879 4285426468
0.018294945 -0.012455881 -0.030810827 4285492259
0.020777546 -0.01458478 -0.029186415 4285361444
0.023998698 -0.019716181 -0.024890123 4285294633
0.017257404 -0.018705823 -0.027565116 4285164073
0.018696804 -0.016320266 -0.029956216 4285294888
0.021009009 -0.017702043 -0.029005697 4285360679
0.024053711 -0.022095375 -0.025388649 4285228843
