# .PCD v0.7 - Point Cloud Data file format
VERSION 0.7
FIELDS x y z rgba
SIZE 4 4 4 4
TYPE F F F U
COUNT 1 1 1 1
WIDTH 747
HEIGHT 1
VIEWPOINT 0 0 0 1 0 0 0
POINTS 747
DATA ascii
-0.020340346 0.0038750283 0.0021651816 4288493354
-0.020178251 0.00086387247 0.0024131872 4288294964
-0.018520512 0.0024039559 0.00059681572 4288491823
-0.01672269 0.0032383986 -0.00050907023 4288428073
-0.015083469 0.0047774948 -0.0023215655 4288166443
-0.013610855 0.0070206337 -0.0048389453 4287971114
-0.020161942 -0.0014482141 0.0019472148 4288425778
-0.0185013 9.6417964e-05 0.00013352372 4288557103
-0.016700752 0.00093321502 -0.00097128935 4288558379
-0.014905438 0.001769755 -0.002074955 4288493353
-0.013271231 0.0033129789 -0.0038830731 4288363048
-0.011330582 0.0034421496 -0.0042788871 4288297514
-0.0093898401 0.0035714321 -0.0046746414 4288101673
-0.007612884 0.0044071563 -0.0057742652 4287512878
0.029594196 -0.028964803 0.023515731 4287447854
0.033911064 -0.036565214 0.030747741 4288691999
-0.020000961 -0.0044742301 0.0021844096 4288295219
-0.018482387 -0.002215229 -0.00033278763 4288557359
-0.016679112 -0.001376085 -0.0014365241 4288623658
-0.01472808 -0.0012464523 -0.0018346217 4288623658
-0.013088282 0.00030145794 -0.0036405642 4288362029
-0.011142403 0.00043094903 -0.0040374603 4288492843
-0.0091964379 0.00056055933 -0.0044342894 4288231213
-0.0074140877 0.0013988689 -0.0055334214 4288165934
-0.0059697628 0.0036536083 -0.0080348887 4288165933
-0.0043723807 0.0051992387 -0.0098318402 4287969839
-0.0026139095 0.0060362294 -0.010925816 4287381299
-0.00068632886 0.0061651208 -0.011318518 4287185458
0.030460721 -0.034196265 0.025745377 4286922554
0.034992717 -0.042525806 0.033651158 4288231213
-0.01998543 -0.0067967251 0.0017108116 4288099124
-0.018316314 -0.0052428395 -9.807758e-05 4288426544
-0.016357489 -0.005112797 -0.00049785338 4288623658
-0.014551386 -0.0042711645 -0.0016005114 4288492844
-0.012906015 -0.0027185455 -0.0034043211 4288427564
-0.011113077 -0.0018776059 -0.0045040827 4288427564
-0.0091645569 -0.0017478466 -0.004901452 4288689194
-0.0072159544 -0.0016179755 -0.0052987579 4288362029
-0.0054334737 -0.00077741593 -0.0063961465 4288558123
-0.0038251616 0.00077330321 -0.0081920531 4288689193
-0.0018843748 0.00090298057 -0.0085875224 4288492843
-0.0002919957 0.0024528056 -0.010379974 4288296493
0.0021742508 0.00045280904 -0.0086802747 4288231469
0.0059137046 -0.0065138042 -0.0021016151 4287904813
0.010982553 -0.018443123 0.0093444362 4287512624
0.031526461 -0.040157616 0.028652273 4287380279
0.035868555 -0.047804445 0.035843045 4287771959
-0.020259421 -0.0076949596 -0.00017164089 4288164913
-0.018298183 -0.00756488 -0.00057200529 4288361773
-0.016336817 -0.0074347183 -0.00097232498 4288689194
-0.01437534 -0.0073044151 -0.0013725813 4288558123
-0.012879718 -0.0050335601 -0.0038750377 4288362029
-0.011084054 -0.0041902736 -0.0049737245 4288362029
-0.0092936568 -0.0033472478 -0.0060712714 4288492843
-0.0071818419 -0.0039303303 -0.0057694577 4288623658
-0.0052306205 -0.0038001761 -0.0061672162 4288427308
-0.0036167167 -0.0022447705 -0.0079609361 4288950823
-0.0018420964 -0.001402311 -0.009054983 4288492843
-7.276237e-05 -0.000560157 -0.01014783 4288950823
0.0025749095 -0.0032784864 -0.007757606 4289016359
0.0061410666 -0.009554632 -0.0018924903 4288558123
0.011030015 -0.020809285 0.008829888 4288426798
0.015819915 -0.031346604 0.018840216 4288164913
0.019565511 -0.037610397 0.024669044 4286006338
-0.018574581 -0.0084586591 -0.0024504904 4288036649
-0.016616024 -0.0083286837 -0.0028502457 4288232998
-0.014657348 -0.0081985816 -0.0032499377 4288232489
-0.012853727 -0.0073526725 -0.0043487549 4288362538
-0.011213157 -0.0057915598 -0.0061449576 4288427819
-0.0094227158 -0.0049463585 -0.0072408821 4288492844
-0.007637538 -0.0041013807 -0.0083356332 4288492844
-0.005360119 -0.0054015294 -0.0073383991 4288492843
-0.0035774782 -0.0045565143 -0.0084324777 4288492843
-0.0016289316 -0.0044263452 -0.0088295508 4288427308
-2.8081238e-05 -0.002867192 -0.010617213 4288623658
0.0026214197 -0.0055941418 -0.0082339421 4288492844
0.0065469742 -0.013318054 -0.00099531934 4288361518
0.011259057 -0.023893453 0.0090060681 4288099633
0.016051473 -0.034463346 0.018991206 4288034098
-0.015091255 -0.0083699822 -0.0058219861 4287316784
-0.013292927 -0.0075222924 -0.0069180448 4288362539
-0.011342216 -0.0073925331 -0.0073159691 4288493354
-0.0097120441 -0.005827643 -0.0091066901 4288493354
-0.0076035298 -0.0064153597 -0.0088075232 4288754728
-0.0054895841 -0.0070025772 -0.0085093621 4288689194
-0.0035385601 -0.0068723634 -0.008907022 4288427564
-0.0015874654 -0.0067420229 -0.0093046073 4288558379
0.00018998608 -0.0058949664 -0.010395834 4288492843
0.0028439946 -0.0086303651 -0.0080200564 4288558379
0.0067727901 -0.016378067 -0.00080022216 4288427309
0.01166914 -0.027702175 0.0098681264 4288230704
0.016282365 -0.037588581 0.019136038 4288230704
-0.007895451 -0.0072943643 -0.01067096 4287577649
-0.0057844967 -0.0078839883 -0.010373851 4287707953
-0.003668122 -0.0084731281 -0.01007775 4288165934
-0.0018880069 -0.0076238289 -0.011167971 4288754473
-0.00028671324 -0.0060559139 -0.012949159 4288689449
0.0025372878 -0.0095191076 -0.0098871384 4288296493
0.0066401772 -0.018009655 -0.0019933507 4288165678
0.011533532 -0.029368915 0.0086493343 4288165679
0.016144115 -0.039286062 0.017894797 4288100399
-0.0039656311 -0.009352237 -0.011939846 4287905068
-0.002358824 -0.00777971 -0.013718973 4288428074
-0.00041598082 -0.0076498315 -0.014114811 4288559399
0.002583012 -0.011844888 -0.010370802 4288101164
0.0066862945 -0.020361558 -0.0024968386 4288035119
0.011579327 -0.031755783 0.0081196427 4287707953
0.016189935 -0.041703522 0.017342098 4287773489
0.0114436 -0.033424087 0.0068997033 4287578414
0.015867699 -0.04268007 0.015413005 4287578414
-0.0064437538 0.031901684 0.019708943 4281503293
-0.0049946308 0.034025658 0.017107856 4280136748
-0.0016921312 0.028840788 0.022583827 4280266034
0.004070051 0.014360517 0.038319103 4280200243
0.010300824 -0.0014397427 0.055496156 4280004913
0.018398063 -0.0076544657 0.061533175 4283066444
0.018280588 0.00044666231 0.052334264 4284377143
-0.0099799968 0.036170408 0.012326825 4281373498
-0.0090398043 0.040300526 0.0075334869 4281308729
-0.0076304302 0.042428412 0.0049454384 4281829949
-0.0048789382 0.039222859 0.0082196034 4281568319
-0.001238361 0.032687329 0.015147429 4280851513
0.0026310161 0.025489233 0.022795688 4281373244
0.0054925792 0.022291273 0.026047599 4281438523
0.0082005151 0.019761015 0.028563935 4281962038
0.01074676 0.017897956 0.030346278 4282812464
0.012751596 0.018032454 0.029938165 4283989288
-0.012987886 0.038473964 0.00716291 4281241918
-0.011723716 0.04127863 0.0038439669 4279876139
-0.010809343 0.045420192 -0.00093428418 4280005679
-0.0090925023 0.046214975 -0.0020494219 4280461109
-0.0067025982 0.044334449 -0.0002404172 4280656693
-0.0036074929 0.039780803 0.004486125 4278963748
-0.00064973533 0.035898097 0.0084754676 4280785978
0.0018073432 0.034022324 0.010270905 4280981819
0.0042805634 0.032147672 0.012063157 4280916794
0.0062209442 0.032277763 0.011668105 4281112379
0.0079757012 0.033075593 0.01054563 4280788273
0.01085519 0.029868167 0.013785873 4279682084
0.015289709 0.021324065 0.022831809 4281049139
0.020181324 0.011450447 0.033315275 4280268328
0.024367813 0.0042501576 0.040881254 4280593708
0.027817002 -0.00027900934 0.045536347 4281962294
0.031303689 -0.0048055276 0.050183818 4284706603
-0.015337121 0.03811907 0.0049393922 4282219079
-0.014225759 0.041604474 0.00089446642 4281176638
-0.012656968 0.043073662 -0.00095262751 4281177404
-0.011590961 0.046556175 -0.0049882103 4280069938
-0.0097180195 0.046681292 -0.00536987 4279548208
-0.0075062029 0.045464583 -0.004293235 4280069173
-0.0045952462 0.041565537 -0.00030436553 4280590393
-0.0018268302 0.038339324 0.0029499568 4280851003
0.00025866553 0.037796639 0.0032889098 4281046843
0.0025296807 0.036584195 0.0043537207 4280851514
0.0037146248 0.039392903 0.0010579415 4280851513
0.0054346249 0.0401906 -5.5810437e-05 4280461619
0.0075256154 0.039648619 0.00028219633 4280981053
0.011530459 0.032411821 0.0078669414 4280069173
0.016368367 0.022501715 0.018336613 4279678514
0.021090474 0.013266262 0.028066326 4280396594
0.025688736 0.0047048889 0.037057683 4281635893
0.029751966 -0.0018452778 0.043867156 4282551088
0.032234795 -0.0030427799 0.044889398 4283729189
-0.017061964 0.03507708 0.005643595 4282478414
-0.016398653 0.04059682 -0.00058792345 4281307199
-0.01498555 0.042744391 -0.0031621214 4281242173
-0.013104841 0.042869858 -0.003545491 4281242173
-0.011879526 0.045689501 -0.0068433061 4281176639
-0.0096762553 0.04446771 -0.0057682451 4280850238
-0.0076314323 0.043919906 -0.0054228902 4280850748
-0.0047216378 0.040007621 -0.0014436767 4280785468
-0.0026525632 0.03946159 -0.0011031479 4280981054
-0.00075533241 0.039588623 -0.0014895406 4280851003
0.0013219006 0.039043255 -0.0011505093 4280785723
0.0026740097 0.041187435 -0.0037117619 4279808563
0.0043806992 0.041986417 -0.0048211608 4281306688
0.0064580142 0.041441329 -0.0044820178 4281697349
0.0094940402 0.037538044 -0.00052810647 4281632579
0.013335638 0.030950766 0.0063098297 4281241664
0.017818896 0.022353146 0.015303075 4281176639
0.023365369 0.010404322 0.02788987 4281176639
0.028001379 0.001817096 0.036852196 4281502528
0.030666385 -5.7116151e-05 0.038596071 4282352698
0.032520451 0.00075246394 0.037457131 4283985974
-0.018106576 0.037565015 0.00011955574 4281436740
-0.017146703 0.041748732 -0.0046384782 4280134709
-0.015427202 0.042549983 -0.0057494305 4279482164
-0.013229929 0.041323274 -0.0046766177 4278308653
-0.011349224 0.041448802 -0.0050599426 4281111360
-0.0091356896 0.040223286 -0.003990287 4280980798
-0.0069113746 0.038998615 -0.0029228125 4280916029
-0.0045045279 0.037099529 -0.001132071 4280916029
-0.0029536001 0.03857667 -0.0029687192 4280915773
-0.0017675012 0.041402824 -0.006251676 4280981308
-6.3482672e-05 0.042203657 -0.0073590055 4281046334
0.0014527701 0.043678679 -0.0091883726 4280264249
0.0036988333 0.042455941 -0.008124968 4279742773
0.0059556551 0.041233949 -0.0070636589 4279807288
0.0089851506 0.037317079 -0.0031183008 4280067898
0.012239976 0.032728702 0.0015415605 4280133179
0.017099109 0.02275433 0.01195759 4280458814
0.02303125 0.0094185397 0.025956862 4280914753
0.027662136 0.00080248713 0.034898818 4281305413
0.029916041 0.00026756525 0.035200752 4282415938
0.031762153 0.0010787621 0.034065127 4284048959
-0.019825567 0.034524009 0.0008230079 4281435209
-0.018996205 0.039400928 -0.0046573803 4281176129
-0.017737806 0.042240027 -0.0079489667 4280719933
-0.015868112 0.042364635 -0.0083301868 4280263484
-0.01383746 0.041811205 -0.0079853851 4278505259
-0.011474364 0.039902404 -0.0061909091 4280980543
-0.0090950914 0.037994727 -0.0043996256 4280850238
-0.0068685487 0.036765806 -0.0033359099 4280981308
-0.0048027672 0.036215071 -0.002998082 4281046589
-0.0037769377 0.039728038 -0.0070005618 4281047099
-0.0026009306 0.04256222 -0.010274839 4281111103
-0.00090756267 0.043364562 -0.011378406 4281111103
0.0007805042 0.044166595 -0.01248078 4280849984
0.003203027 0.042262368 -0.010697888 4280914753
0.005641643 0.040359341 -0.0089182556 4280979778
0.0088576041 0.0357529 -0.0042620264 4280718914
0.012883022 0.028445285 0.0032641664 4280653123
0.018728405 0.015059721 0.01724812 4280783683
0.024284275 0.0030326508 0.029773697 4280783939
0.027323265 -0.00020747632 0.032948833 4281240644
0.029166788 0.0006057024 0.031815279 4283262538
-0.021997407 0.033517525 -0.00065884739 4282609739
-0.021450829 0.039772794 -0.0075842422 4280394808
-0.019731395 0.040578257 -0.0086920876 4280459834
-0.018172491 0.042064063 -0.010524172 4281371458
-0.016308244 0.042188294 -0.010904292 4281371714
-0.014283251 0.04163231 -0.010560052 4280654909
-0.011599462 0.038356245 -0.0073217098 4280003383
-0.0095528588 0.037801854 -0.0069817565 4281046588
-0.0075008087 0.037247874 -0.0066428035 4281046589
-0.0057860911 0.03805358 -0.0077492651 4281046333
-0.0045988038 0.040897205 -0.01101931 4281242428
-0.0034329034 0.043739513 -0.014284991 4280004150
-0.0013913475 0.043185189 -0.013943705 4280394809
0.00065560266 0.042631321 -0.01360345 4280980544
0.0030774958 0.04072047 -0.011825373 4281110338
0.0055154786 0.038810827 -0.010050552 4281045059
0.0091103241 0.032832298 -0.0039689448 4280783683
0.014295876 0.021431848 0.0078452006 4280784450
0.021136418 0.0046138242 0.025378745 4280784450
0.025732944 -0.0040615872 0.0342848 4281240899
0.027386451 -0.0025679991 0.032434534 4281762374
-0.023585517 0.029781826 0.00076566637 4282283849
-0.023446698 0.038109139 -0.0083282012 4281241919
-0.022323698 0.041649774 -0.012334639 4280981819
-0.020465117 0.041773438 -0.012713747 4279873078
-0.018761549 0.042580053 -0.013816616 4279806778
-0.016747639 0.042021044 -0.013471831 4279808054
-0.014567789 0.040779926 -0.012405351 4278830894
-0.012377147 0.039539654 -0.011341054 4280720188
-0.010341521 0.03898228 -0.011000481 4280981819
-0.0086375177 0.039789379 -0.012103174 4280916284
-0.006767597 0.039914362 -0.012484167 4280720699
-0.0055930987 0.042765923 -0.015745074 4280199733
-0.0039103292 0.043571793 -0.016843222 4279547699
-0.001695171 0.042333603 -0.015783504 4279026224
0.0031365715 0.03849791 -0.012234895 4281045569
0.0059511401 0.035220377 -0.0090308767 4281045568
0.010312103 0.026500404 -9.8494813e-05 4280783683
0.016861632 0.010301273 0.016697671 4280783683
0.023735084 -0.0065692887 0.034183353 4280718403
0.026386818 -0.0084708333 0.035910048 4280849219
0.027047966 -0.0035730451 0.030488148 4282282573
-0.024144121 0.030273896 -0.0025524963 4281891148
-0.023570579 0.036570229 -0.009453861 4281503548
-0.022147596 0.038750961 -0.012005631 4281503803
-0.020283762 0.038874954 -0.012385825 4281240898
-0.018729717 0.040369205 -0.01421041 4281176385
-0.016871028 0.040493011 -0.014589435 4280980033
-0.014851931 0.039932176 -0.014247264 4280980544
-0.0128274 0.039371818 -0.013906193 4280915773
-0.010963086 0.039496258 -0.014286174 4280981054
-0.0090986975 0.039620783 -0.014666108 4280851003
-0.0072342306 0.039745398 -0.015045995 4280394808
-0.0058907904 0.041921567 -0.017580993 4281046078
-0.0043869913 0.043413073 -0.019394796 4281697349
-0.0019986145 0.04148671 -0.017619949 4281501763
0.00058761612 0.038878188 -0.015131551 4280980289
0.0033797249 0.035588108 -0.011931261 4280915518
0.0069470033 0.029568221 -0.005873749 4280850494
0.012460208 0.016724262 0.0073250867 4280980799
0.019807275 -0.002255857 0.026934385 4280980799
0.025548235 -0.015084326 0.040087022 4280980544
0.026445843 -0.010850839 0.035382152 4281240389
-0.022814002 0.030904755 -0.0062459689 4281567808
-0.021225121 0.032405496 -0.0080745164 4281046333
-0.01964682 0.033905588 -0.0099007878 4281046334
-0.017924353 0.034717798 -0.011004252 4281111104
-0.016364597 0.036216859 -0.012826666 4281240898
-0.014655318 0.03702835 -0.013927317 4281111868
-0.012951311 0.037839577 -0.015026828 4281046589
-0.011252571 0.03865055 -0.016125195 4280850749
-0.009727288 0.040147647 -0.017940331 4280980799
-0.0078709647 0.040271707 -0.018318567 4280068918
-0.0063616037 0.041767877 -0.020130277 4280068664
-0.0048629232 0.043263458 -0.021939795 4280654398
-0.0028382689 0.042701375 -0.021599976 4280589628
9.9528581e-05 0.038712367 -0.01768557 4280328764
0.0038064234 0.031984404 -0.010919278 4280198714
0.008688394 0.021149345 0.00012045354 4280849983
0.014983229 0.0055255778 0.01613728 4280849983
0.021978112 -0.012144089 0.034267925 4280980544
0.026188117 -0.019535601 0.041684218 4281045824
0.02610928 -0.011866197 0.033427529 4281957448
-0.022059504 0.025213104 -0.0030572284 4281698113
-0.020305067 0.02602943 -0.0041657165 4281502273
-0.018555865 0.026845492 -0.0052730758 4281175618
-0.016966503 0.028350797 -0.0070983097 4280849729
-0.015545003 0.030544735 -0.0096397065 4281045569
-0.013979543 0.032048613 -0.011459943 4280980799
-0.012587298 0.034240767 -0.01399524 4281241409
-0.011045769 0.035743237 -0.01581046 4281372479
-0.0096828528 0.037933655 -0.01833969 4281306688
-0.0083359219 0.040123038 -0.020865561 4281241663
-0.0068316795 0.041623279 -0.022672988 4280589118
-0.0053380877 0.043122839 -0.024478141 4280458814
-0.0031404011 0.041870363 -0.023424808 4280132158
-2.508238e-05 0.037180249 -0.018805936 4280393533
0.0047842227 0.026305251 -0.0077778585 4280784704
0.010799661 0.011312116 0.0075074621 4280784704
0.017501235 -0.0057344511 0.024904542 4281045568
0.023184225 -0.018650107 0.038006343 4281176129
0.026826575 -0.024004191 0.043268681 4281305669
0.026167978 -0.014250055 0.032896817 4282607189
-0.021746211 0.021571878 -0.0020446479 4281697603
-0.019834615 0.021698896 -0.002434697 4281566788
-0.018074635 0.022517834 -0.0035426319 4281305924
-0.016319908 0.023336556 -0.0046494678 4281240644
-0.014884591 0.025537957 -0.0071887523 4281045059
-0.01314573 0.026355807 -0.0082922205 4281045313
-0.011736996 0.028555609 -0.010825953 4280850494
-0.010344271 0.030754477 -0.013356403 4280850749
-0.0091353282 0.033643138 -0.016598158 4280981309
-0.0079477504 0.036530465 -0.019835498 4281176128
-0.0067815185 0.039416399 -0.023068378 4281306434
-0.0051091798 0.040230334 -0.024157885 4281175619
-0.0030850992 0.039663821 -0.023821253 4280718403
0.00075630099 0.032198962 -0.016366549 4280718659
0.0063115135 0.018530812 -0.0025214441 4280849474
0.013279764 4.324317e-05 0.016277701 4280849474
0.019446542 -0.014987782 0.031496093 4280784194
0.024004018 -0.023808323 0.04030294 4280979523
0.026685271 -0.025734201 0.042003758 4281566279
-0.021580122 0.018612158 -0.0017589759 4281500999
-0.01981217 0.019433707 -0.0028669666 4281435719
-0.018049434 0.020254999 -0.0039738305 4281305668
-0.016291965 0.021076042 -0.0050795432 4281175109
-0.014382828 0.021203119 -0.0054689236 4281110339
-0.012633178 0.022023857 -0.0065729562 4281240644
-0.010888793 0.022844296 -0.0076758005 4281306689
-0.0096445121 0.025743961 -0.010918258 4281240898
-0.008421585 0.028642301 -0.014156295 4281241409
-0.0070496947 0.030846462 -0.016677393 4281111359
-0.005866807 0.033742297 -0.019907139 4280980544
-0.004178308 0.034559455 -0.020998253 4280914754
-0.0021384582 0.033991832 -0.020666532 4281371714
0.001897946 0.025811773 -0.012522474 4281370949
0.0082029961 0.009333171 0.0041257255 4281436229
0.0155685 -0.010595262 0.02429387 4281436229
0.021009831 -0.022906199 0.036635101 4281174344
0.024630312 -0.02829691 0.041875534 4281369418
0.027127212 -0.029537506 0.042861789 4282346579
-0.021560717 0.016340498 -0.0021953359 4281632324
-0.019938719 0.017860819 -0.0040174946 4281370693
-0.018327307 0.019380517 -0.0058374368 4281370184
-0.016418386 0.019507479 -0.0062268488 4281044294
-0.014195897 0.01824278 -0.005189009 4281174598
-0.012281418 0.018370289 -0.0055794232 4281175363
-0.010528937 0.019193429 -0.0066822916 4281305668
-0.0091112591 0.02140706 -0.0092079826 4281306179
-0.007709574 0.023619726 -0.011730328 4281045313
-0.0061537586 0.025136359 -0.013538454 4281175363
-0.0047813989 0.027347252 -0.016054686 4281045059
-0.003249567 0.02886248 -0.017857775 4281045059
-0.0011939369 0.028293718 -0.017530922 4281110084
0.0032179579 0.018699706 -0.0079920217 4281110084
0.0097235367 0.0014756545 0.0093213879 4281240644
0.016735438 -0.017127126 0.028022744 4281240644
0.021247812 -0.026007682 0.036795922 4281371203
0.024680546 -0.030722097 0.041315906 4282152779
0.026791183 -0.030580163 0.040886506 4282672724
-0.021249913 0.012667064 -0.0012063421 4282219078
-0.01976819 0.014890935 -0.0037405957 4281632324
-0.017999977 0.015716918 -0.0048453212 4281304903
-0.016237013 0.016542654 -0.0059488975 4281109574
-0.014009647 0.015273869 -0.0049153715 4281174853
-0.012249153 0.016099624 -0.0060183071 4281305924
-0.01049393 0.016925126 -0.0071200915 4281305924
-0.0092377439 0.019843064 -0.010351844 4281175619
-0.0075011067 0.020667516 -0.011449702 4281110339
-0.0059397034 0.022188935 -0.013255717 4281175363
-0.0042163134 0.023012687 -0.014350735 4281240644
-0.0026735291 0.024533018 -0.016152769 4281175363
-0.00025152788 0.022569448 -0.014414438 4281240644
0.0041738302 0.012945667 -0.0049012639 4281306179
0.010507539 -0.0036359876 0.011662088 4281567554
0.01715585 -0.02090504 0.02890534 4281698113
0.021107722 -0.027725838 0.035539605 4281826633
0.024347704 -0.031759903 0.039343454 4282280788
-0.019301597 0.010510843 -0.0020458605 4283199809
-0.017522626 0.011339713 -0.0031511486 4282416194
-0.015748896 0.012168329 -0.0042552967 4281827653
-0.014136806 0.01369701 -0.0060687289 4281696838
-0.012376253 0.014524944 -0.0071700439 4281501508
-0.010620967 0.015352622 -0.0082702134 4281502273
-0.0088709593 0.016180031 -0.0093692467 4281306179
-0.0072933212 0.017706811 -0.011175357 4281305668
-0.0057263076 0.01923294 -0.012979183 4281175109
-0.0041699596 0.02075848 -0.01478082 4281240644
-0.00244914 0.021584332 -0.015873607 4281240898
-2.2418797e-05 0.01961448 -0.014141125 4281370948
0.0044056512 0.0099602751 -0.0046515968 4281698113
0.010557152 -0.0059753135 0.011167172 4281698113
0.016831877 -0.021902561 0.026960924 4281763394
0.020590635 -0.028047413 0.032875843 4281892934
0.024015233 -0.032792948 0.037374407 4282477393
-0.015262149 0.0077766888 -0.0025743674 4282872898
-0.013795309 0.010012943 -0.0050955266 4282350149
-0.012185548 0.011545882 -0.0069050901 4281894209
-0.010263298 0.011673961 -0.0072970465 4281632323
-0.0083409585 0.011802144 -0.0076889507 4281240388
-0.0069192871 0.014035791 -0.010200605 4281109829
-0.0055136085 0.016268443 -0.012708941 4281370949
-0.004123915 0.018500112 -0.015213881 4281240388
-0.0022254176 0.018627092 -0.015600634 4281436484
0.00038361549 0.015949916 -0.013169646 4281566788
0.0044564977 0.0076672509 -0.0051120054 4281762374
0.010789411 -0.0090194494 0.01137257 4281762374
0.01687959 -0.024296418 0.026425496 4281697094
0.020639287 -0.030460879 0.032325417 4281826888
0.023874167 -0.03452149 0.036110528 4282608464
-0.0079764202 0.008111123 -0.0067269094 4283918143
-0.0067130253 0.011055846 -0.009940343 4282154053
-0.0053015687 0.013295397 -0.012444882 4281698369
-0.0039061271 0.015534036 -0.014946119 4281436738
-0.0020023882 0.015661359 -0.015333947 4281632324
0.0004337281 0.013678987 -0.01361326 4281697348
0.0046871491 0.0046669915 -0.0048731323 4281566533
0.010838199 -0.011369251 0.010870058 4281566533
0.016741501 -0.025991663 0.025185894 4281631558
0.020499455 -0.032175928 0.031071369 4282218824
0.023733124 -0.036249742 0.034846857 4282934864
-0.004920993 0.0096078925 -0.011484269 4282416194
-0.003345184 0.011147782 -0.013279978 4281959744
-0.0014308691 0.011275813 -0.013669961 4281893444
0.001192566 0.0085821003 -0.011255069 4281892423
0.0054569244 -0.00045759231 -0.0025385525 4281828418
0.011069264 -0.014428206 0.011064619 4281828674
0.016603442 -0.027686611 0.023946512 4281958978
0.020359648 -0.033890665 0.029817551 4282611014
0.0055058897 -0.0027739629 -0.0030160416 4283853119
0.010934763 -0.016081072 0.0098559707 4283853120
0.016280295 -0.028674141 0.022009403 4283526719
-0.02233696 -0.011763163 -0.0014262106 4282869328
-0.021094728 -0.0080401748 -0.0053257365 4282872899
-0.019291379 -0.007192485 -0.0064230636 4283788094
-0.022607464 -0.012653716 -0.0033037718 4282283083
-0.021511246 -0.0081992 -0.0078928228 4281698369
-0.019859966 -0.0066290498 -0.0096850302 4281436228
-0.017770968 -0.0072207972 -0.0093839336 4281763138
-0.015980732 -0.0063715875 -0.010476789 4282025023
-0.013731383 -0.007682845 -0.0094807018 4283396923
-0.011786159 -0.0075534657 -0.0098775234 4284639029
-0.022595108 -0.014985867 -0.0037838295 4282282828
-0.021495283 -0.010518029 -0.0083637759 4281502019
-0.019987699 -0.0082205534 -0.010849254 4281240644
-0.018197522 -0.0073692873 -0.011940556 4281370948
-0.016412597 -0.0065182671 -0.013030702 4281698113
-0.014478307 -0.006389752 -0.013425386 4281762374
-0.012229353 -0.0077052563 -0.012432469 4281893189
-0.009969607 -0.0090199858 -0.011441631 4283068230
-0.022724107 -0.016596772 -0.0049623288 4281890384
-0.021623366 -0.012115784 -0.0095326155 4281370949
-0.019822571 -0.011261769 -0.010624541 4281436484
-0.018027008 -0.010407947 -0.011715356 4281371459
-0.016388446 -0.008829765 -0.013498223 4281306434
-0.014451616 -0.0087010935 -0.013893439 4281501508
-0.012357585 -0.0092965662 -0.01359642 4281370693
-0.010417901 -0.0091674775 -0.013992053 4281500998
-0.0084781311 -0.0090382695 -0.014387612 4281567808
-0.0065382905 -0.0089089498 -0.014783106 4281958469
-0.0045983754 -0.0087794885 -0.015178516 4282220609
-0.0026584044 -0.0086499304 -0.015573862 4283266618
-0.022853054 -0.018207364 -0.0061405972 4282152524
-0.021607835 -0.014440604 -0.010007963 4281435463
-0.019511864 -0.015038587 -0.0097133368 4281240133
-0.017857149 -0.013455115 -0.011496324 4281306434
-0.016061436 -0.012599044 -0.012585402 4281306179
-0.014425237 -0.011016525 -0.01436448 4281305669
-0.0126427 -0.010161109 -0.015450719 4281436228
-0.010546226 -0.010758504 -0.015155765 4281175109
-0.0086065941 -0.010629304 -0.0155513 4281174598
-0.0068318509 -0.0097740665 -0.016635694 4281631813
-0.0047271177 -0.010370575 -0.016342171 4281697603
-0.0029575899 -0.0095154643 -0.017425332 4281894209
-0.00084739923 -0.010111369 -0.017132744 4282351168
0.0021464825 -0.014332928 -0.013407446 4282677824
0.0065992177 -0.024352662 -0.0041989423 4283331134
0.011669924 -0.036541767 0.0070513003 4283331133
-0.022981942 -0.019817658 -0.0073186532 4282675528
-0.021592617 -0.016769513 -0.010486314 4281697859
-0.019348226 -0.018098958 -0.0095026363 4281436228
-0.017539211 -0.017239906 -0.010592941 4280979524
-0.015886854 -0.015652128 -0.01237209 4281306179
-0.014091004 -0.014793769 -0.013459492 4281435973
-0.012457177 -0.013206944 -0.01523473 4281435973
-0.010515094 -0.013077714 -0.015630864 4281566534
-0.0088971257 -0.011491753 -0.017402649 4281305669
-0.0069602393 -0.01136265 -0.017797556 4281306179
-0.0051907338 -0.010505475 -0.018879157 4281371203
-0.0032563917 -0.010376304 -0.019273363 4281567043
-0.0011491962 -0.010974608 -0.018981822 4281501509
0.0020162836 -0.015936941 -0.014580447 4281632834
0.0068226866 -0.027441867 -0.0040252078 4281763138
0.012076406 -0.040395029 0.0078807697 4281698113
0.015774904 -0.046799667 0.013615664 4281958469
0.018404476 -0.048840716 0.015243009 4282281554
0.020672414 -0.049427554 0.015502412 4282869839
-0.023110799 -0.021427654 -0.0084965024 4284051508
-0.021434493 -0.019834287 -0.010277532 4282680374
-0.019331131 -0.02043619 -0.0099877231 4281829693
-0.017667957 -0.018843397 -0.011765923 4281502529
-0.015864156 -0.017982475 -0.012853418 4281567300
-0.0142195 -0.016390733 -0.014627632 4281500998
-0.012428869 -0.015530445 -0.015712254 4281566789
-0.010484252 -0.015401058 -0.016108919 4281501509
-0.0087014884 -0.014541022 -0.017191812 4281370949
-0.0069239996 -0.013681248 -0.018273484 4281305668
-0.0051517822 -0.012821712 -0.019354004 4281240388
-0.0035548061 -0.011232466 -0.021117978 4281436228
-0.0012779757 -0.012562923 -0.020143393 4281631813
0.0020614266 -0.018270276 -0.015069649 4281696838
0.007045472 -0.030539513 -0.0038576443 4281630794
0.012120532 -0.042802595 0.0073359422 4281630794
0.015453286 -0.04776869 0.011692073 4281956428
0.017893491 -0.049087599 0.012633849 4282413133
0.020344414 -0.050405681 0.013573535 4283131469
-0.02295889 -0.024505623 -0.0082960632 4284704309
-0.021420058 -0.022173546 -0.010763459 4284705583
-0.019314349 -0.022777483 -0.010475777 4284247348
-0.01764828 -0.02118022 -0.012251278 4282679864
-0.015841782 -0.020316891 -0.013337726 4282221374
-0.014040511 -0.019453831 -0.014422972 4281762883
-0.012244496 -0.018591009 -0.015507055 4281697859
-0.010294672 -0.018461294 -0.01590479 4281566788
-0.0085065141 -0.017598771 -0.016987104 4281240388
-0.0067236386 -0.01673647 -0.018068248 4281175109
-0.0051131435 -0.015142024 -0.019831825 4281174853
-0.003513284 -0.013548218 -0.021593116 4281632068
-0.0014067292 -0.01415094 -0.021304736 4281696838
0.0022813492 -0.021339454 -0.014879949 4281893188
0.0072675832 -0.033645689 -0.0036962479 4281958469
0.011803379 -0.043751329 0.0054264776 4281958724
0.014765756 -0.047270395 0.0084113441 4282283083
0.017383255 -0.049325392 0.010031346 4283328074
-0.011904556 -0.02239535 -0.014623888 4283791664
-0.010105759 -0.021530017 -0.015706874 4282681138
-0.0083122216 -0.020664953 -0.016788647 4281698369
-0.0065239631 -0.019800127 -0.017869258 4281502273
-0.0049078986 -0.018201001 -0.019630656 4281502019
-0.003472086 -0.015868075 -0.022071255 4281763139
-0.0013631769 -0.016472824 -0.021784987 4281827653
0.0021507069 -0.022949114 -0.016057093 4281762119
0.0069561489 -0.034558825 -0.0055803936 4281891913
0.011306314 -0.043961696 0.0028411709 4281891913
0.014445268 -0.048225604 0.0064978562 4282348619
-0.0086027794 -0.021528356 -0.018640704 4283921459
-0.007145308 -0.019187696 -0.021080982 4282417724
-0.0052035823 -0.01905819 -0.021476813 4282025279
-0.0032617897 -0.01892855 -0.021872569 4281959234
-0.0011478439 -0.019535191 -0.021588925 4281631813
0.0021948665 -0.025294647 -0.016555283 4281434953
0.0068225376 -0.036203273 -0.0067829397 4281565514
0.011170229 -0.045634657 0.0016178172 4281630283
-0.0011051185 -0.021867424 -0.022076756 4283269933
0.0020641088 -0.026905872 -0.01773357 4282418998
0.0065116808 -0.037109159 -0.0086618494 4282286654
0.011034178 -0.047307283 0.00039470755 4282481473
0.01417068 -0.051597528 0.0040322058 4283524934
0.0062012225 -0.038010381 -0.010537295 4284443954
0.010718396 -0.048239388 -0.001502594 4284443699
0.011439035 -0.049378097 -0.0089252051 4283983423
0.014016911 -0.051481523 -0.007331552 4283067464
0.01057714 -0.048040785 -0.012807431 4283594804
0.013328029 -0.050900094 -0.010549432 4282936139
0.0075354185 -0.046068735 -0.016935362 4283724598
0.0098982602 -0.047436617 -0.016010689 4281961784
-0.008278314 -0.050283857 -0.013534593 4283328074
0.0074022394 -0.047706269 -0.018132813 4282746419
0.0095831919 -0.048325323 -0.017875616 4281828928
0.0047421716 -0.047210276 -0.020914169 4283460674
0.0069120638 -0.047832407 -0.02065647 4282025279
0.0092685167 -0.049209379 -0.019737072 4281630283
0.019797167 0.0025757141 0.049719937 4285296164
0.022063212 0.0020521432 0.050027318 4285623839
0.025304958 -0.0017846301 0.053978987 4285689119
0.029169114 -0.0076068118 0.060109749 4285820189
0.015510555 0.015505839 0.032444283 4284968743
0.019055802 0.01032028 0.037858076 4284968489
0.023031717 0.0038078316 0.044718087 4284902189
0.026864674 -0.0020361915 0.050840348 4285099304
0.03034737 -0.0065477192 0.055500112 4285296163
0.033665668 -0.010392293 0.059426539 4285296163
0.037016094 -0.014234588 0.063346453 4285296163
0.039569497 -0.015418515 0.064360976 4285098538
0.033805754 -0.005997397 0.051205494 4285165858
0.035697185 -0.0051897466 0.050055683 4285362464
0.037373424 -0.00371629 0.048184425 4285755419
0.039676297 -0.0042411089 0.048481517 4285820699
0.043920796 -0.010756738 0.05527091 4285951514
0.033693701 -0.00089732558 0.04230205 4285428763
0.03513648 0.001247175 0.03971801 4285493024
0.037624557 5.0276518e-05 0.040739365 4285557538
0.040983178 -0.0038174614 0.044638142 4285623328
0.04524447 -0.010353789 0.05140771 4285558048
0.034369122 0.0015617236 0.03631939 4285755673
0.03706082 -0.00031044334 0.03805802 4285820443
0.039983317 -0.0028515235 0.04051172 4285821209
0.044014513 -0.0087406784 0.046549693 4285886744
0.049194589 -0.017975196 0.056163773 4285755163
0.033602867 0.0018896908 0.032930661 4285558558
0.03649779 -0.00066204369 0.035383277 4285689374
0.039628718 -0.0038846433 0.038548321 4285689884
0.044307351 -0.011810154 0.046720646 4285623839
0.034092072 -0.001818046 0.033848472 4285229864
0.036994219 -0.0043780878 0.036293082 4285493789
0.040346585 -0.0082856044 0.04016345 4285493789
0.045467872 -0.017585486 0.049743325 4285493278
0.034371331 -0.0048617274 0.034042336 4285426468
0.037489571 -0.0081071109 0.03719341 4285493789
0.041491512 -0.014057428 0.043192819 4285428254
0.035067275 -0.0092725009 0.035655759 4285360934
0.038617976 -0.013886325 0.040221326 4285558304
0.043062374 -0.021213189 0.047626629 4285493024
0.031209975 -0.0056611598 0.029137552 4285032749
0.034719154 -0.010293193 0.033699974 4285623838
0.039321817 -0.018329144 0.041808635 4285558304
0.04441648 -0.02772285 0.051324718 4285362208
0.030454956 -0.0052938983 0.025775433 4284967213
0.03499645 -0.013360329 0.033876717 4285427233
0.04023524 -0.023472786 0.044092402 4285493023
0.030728461 -0.0083435178 0.025966305 4285229864
0.035689339 -0.017807737 0.035463348 4285427489
0.041779391 -0.030695289 0.048482895 4285295398
0.03161715 -0.01346641 0.028271955 4285689119
0.037004739 -0.024336681 0.039156705 4285426723
0.032093797 -0.017230108 0.029150881 4285949983
0.037486423 -0.028135099 0.040008321 4285949983
0.032159507 -0.019621447 0.028612848 4286015263
0.037759408 -0.031253874 0.040147245 4285949474
0.038510501 -0.038213909 0.041106477 4285687334
-0.02140592 -0.024516888 -0.011252383 4285426469
-0.019443385 -0.024386935 -0.011653166 4285426723
-0.017628912 -0.023521066 -0.012739651 4285426978
-0.015668821 -0.023391031 -0.013139751 4285230374
-0.013708629 -0.023260869 -0.013539787 4285296929
-0.021392107 -0.026864313 -0.011744291 4285360423
-0.019427031 -0.026734188 -0.01214559 4285492514
-0.017609864 -0.025865987 -0.013231013 4285492513
-0.015496537 -0.026473589 -0.01294801 4285361188
-0.013684515 -0.025605477 -0.0140322 4285361189
-0.011721693 -0.02547504 -0.014432691 4285164838
-0.010076225 -0.023869976 -0.016197087 4284903209
-0.022926591 -0.031568058 -0.009784624 4285098028
-0.021378584 -0.029215865 -0.012239154 4285360679
-0.019265812 -0.029825933 -0.011957876 4285492259
-0.017443255 -0.028955199 -0.013042755 4285426723
-0.01547543 -0.028824672 -0.013444457 4285492514
-0.013660707 -0.027954184 -0.014527601 4285426724
-0.011851232 -0.027083971 -0.015609556 4285427234
-0.010364115 -0.024735034 -0.018051144 4285427234
-0.0088929497 -0.022387087 -0.020489343 4285361188
-0.0072738752 -0.02077914 -0.022244949 4285361189
-0.0053322986 -0.020649642 -0.02264075 4285099559
-0.0033906549 -0.020520017 -0.023036476 4284970273
-0.02305609 -0.033187471 -0.010969399 4285294634
-0.021507703 -0.030828737 -0.013419095 4285360678
-0.019250244 -0.032183535 -0.012457887 4285492514
-0.017424997 -0.031310447 -0.013541686 4285426723
-0.015454646 -0.031179793 -0.013943925 4285426723
-0.013637207 -0.030306987 -0.015025941 4285426723
-0.01182504 -0.029434375 -0.016106844 4285361188
-0.010334861 -0.02707877 -0.018544126 4285361189
-0.0088606477 -0.024724044 -0.020978078 4285426979
-0.0072386861 -0.023111589 -0.02273095 4285360934
-0.0051281899 -0.023723036 -0.022450134 4285361444
-0.0031813495 -0.023593076 -0.022846922 4285295909
-0.0010627136 -0.024203733 -0.022567574 4285099304
-0.022767097 -0.037041835 -0.010110905 4284900913
-0.021068178 -0.035420857 -0.011876995 4285229099
-0.019234985 -0.034545228 -0.012960888 4285361189
-0.017407037 -0.0336698 -0.014043606 4285360933
-0.015584331 -0.032794602 -0.015125175 4285426979
-0.013614032 -0.032663815 -0.015527305 4285426979
-0.011799153 -0.031788908 -0.016607098 4285361188
-0.010147735 -0.030170344 -0.018362939 4285361188
-0.0085069276 -0.028552398 -0.020116471 4285361188
-0.0067132115 -0.027678482 -0.021191712 4285361189
-0.0049247742 -0.026804842 -0.02226574 4285361189
-0.0031416155 -0.025931425 -0.02333859 4285360933
-0.0011921972 -0.025801167 -0.023735818 4285360934
0.0018026829 -0.030127384 -0.020089459 4285294888
0.0058911517 -0.038906902 -0.012409294 4285097774
0.010403002 -0.049166776 -0.0033964533 4285032239
-0.019220062 -0.036910973 -0.013466869 4285229354
-0.017389402 -0.036033221 -0.014548519 4285294889
-0.015564002 -0.035155676 -0.015628997 4285360678
-0.01359117 -0.035024732 -0.016031653 4285360934
-0.011928935 -0.033401258 -0.01778648 4285426724
-0.010119304 -0.032524355 -0.018863514 4285361188
-0.0081542432 -0.032393582 -0.019264318 4285361188
-0.0065158345 -0.03077133 -0.021014005 4285295398
-0.0047220178 -0.029895149 -0.022087496 4285295398
-0.0029334947 -0.029019147 -0.023159843 4285361189
-0.0011502616 -0.028143413 -0.024230979 4285361444
0.0018460788 -0.032482676 -0.020594724 4285360934
0.0055814683 -0.039798714 -0.014277859 4285097774
0.009908583 -0.04934489 -0.0059581008 4285032239
-0.012058675 -0.035013311 -0.018965647 4285164329
-0.010091171 -0.034882493 -0.019367039 4285295654
-0.0081235953 -0.034751542 -0.019768357 4285295654
-0.0066454969 -0.032376848 -0.022188276 4285361188
-0.0046858042 -0.03224618 -0.022587806 4285361444
-0.0030631199 -0.030620344 -0.02433088 4285361189
-0.0009374395 -0.03123711 -0.024057839 4285361189
0.0018891431 -0.034841977 -0.021102998 4285295653
0.0054487102 -0.041432813 -0.015472835 4285163563
-0.0099057145 -0.037995063 -0.01920121 4285163308
-0.0079329386 -0.037863776 -0.019603593 4285229098
-0.006286107 -0.036232255 -0.021348456 4285360679
-0.0044842288 -0.03535115 -0.022420364 4285426469
-0.0026876368 -0.034470327 -0.02349106 4285361188
-0.00055427849 -0.035088725 -0.023221275 4285361188
0.0022792742 -0.038704015 -0.020276045 4285295144
0.0053159967 -0.043066576 -0.016667569 4284966703
-0.0094059408 -0.042621277 -0.017699966 4285491748
-0.0074226335 -0.042489298 -0.01810451 4285032749
-0.005927749 -0.040100433 -0.020518044 4285229354
-0.0037868172 -0.040720776 -0.020251637 4285294889
-0.002145011 -0.039085001 -0.021992018 4285360678
-1.296401e-06 -0.039704911 -0.021726003 4285163819
0.0023213439 -0.041075863 -0.020793421 4285229354
