# .PCD v0.7 - Point Cloud Data file format
VERSION 0.7
FIELDS x y z rgba
SIZE 4 4 4 4
TYPE F F F U
COUNT 1 1 1 1
WIDTH 467
HEIGHT 1
VIEWPOINT 0 0 0 1 0 0 0
POINTS 467
DATA ascii
0.00045005977 -0.0071554035 0.051689781 4289797933
0.0036813989 -0.012644127 0.056916267 4290517288
0.0065230876 -0.016015872 0.06000413 4290059819
0.018370233 -0.010878749 0.052983113 4287638593
0.021303721 -0.014243215 0.056051582 4288292923
-0.0053629503 -0.0013924018 0.043510213 4288621363
-0.0037014708 0.00087708235 0.040930323 4289799209
-0.0013625547 -0.00039037317 0.041900553 4289537578
0.0015524998 -0.004484944 0.04570353 4289931044
0.0043557659 -0.0078703165 0.048791409 4290257699
0.0065992624 -0.0084272474 0.049043201 4289146409
0.0086989403 -0.0082772374 0.048586808 4289343013
0.010646768 -0.007420823 0.047424003 4289146919
0.012280099 -0.0051526725 0.044850752 4288754219
0.014212228 -0.0042972267 0.043691564 4289669923
0.016299143 -0.0041477233 0.04323826 4289866018
0.019199535 -0.007525444 0.046305582 4289864998
0.022622727 -0.013016947 0.051477738 4289995304
-0.006174989 0.00045956671 0.03870672 4289668393
-0.0046622083 0.0034442246 0.035426274 4289145644
-0.0024782419 0.0028805733 0.035689034 4288819244
0.00013463199 0.00018986315 0.038072094 4289277224
0.0029128194 -0.0032082051 0.041157078 4289800483
0.0051319897 -0.0037690923 0.041412454 4289669668
0.0070583746 -0.0029121786 0.040255874 4289604899
0.0089796036 -0.0020555779 0.039100535 4289146409
0.010895632 -0.0011992455 0.03794641 4289866019
0.012649342 0.00036485493 0.036089845 4289015339
0.014712118 0.00051261485 0.035641771 4288688174
0.017424919 -0.0021701083 0.038003676 4288819499
0.020819776 -0.0076811165 0.043168686 4289145644
0.025096528 -0.016725309 0.051831163 4288949293
-0.0085062906 -0.00066010654 0.037195385 4286659393
-0.007118009 0.0030456185 0.033212408 4289472299
-0.0056205764 0.0060378313 0.02994192 4290585373
-0.0035912097 0.0061823726 0.029500473 4290323999
-0.0011388287 0.0041928887 0.031175587 4290062113
0.0016169474 0.00078232586 0.034257114 4290586138
0.0039607286 -0.00049324334 0.035219807 4289408549
0.0060174614 -0.00034636259 0.034772709 4289604643
0.0080743507 -0.00019934773 0.034325663 4289670178
0.0098228231 0.0013685971 0.03247346 4290062624
0.011717707 0.0022257119 0.031325608 4290454814
0.01392664 0.0016624033 0.031581916 4289931298
0.016465597 -0.00032003224 0.033238798 4289866019
0.019845456 -0.0058495104 0.038393743 4290193949
0.024273872 -0.015632577 0.04773774 4289801759
-0.0089114383 -0.00091449916 0.034533948 4286855488
-0.0073949173 0.0020875782 0.031265892 4289997089
-0.0060349479 0.0058022067 0.027297441 4289735204
-0.0040110424 0.0059463307 0.026857153 4289080873
-0.0015646815 0.0039499179 0.028528526 4289408293
0.001184687 0.0005280003 0.03160309 4289343013
0.0033765435 -3.9204955e-05 0.031860992 4289735458
0.0052763894 0.0008200556 0.030713499 4289539364
0.0073224679 0.0009662509 0.030268773 4289670178
0.0090605319 0.0025377721 0.028422143 4289473574
0.010944821 0.003396228 0.027278271 4289604643
0.013302162 0.0021177679 0.028235074 4289408549
0.015832424 0.00012812763 0.029888883 4289212198
0.019367382 -0.0061312765 0.035731263 4289539874
0.023620225 -0.015233681 0.044355597 4289082149
-0.0093157813 -0.0011599064 0.031879239 4289145643
-0.0078039542 0.0018505231 0.02861879 4289670179
-0.0063132718 0.0048595518 0.025363013 4289343014
-0.0042921528 0.0050034374 0.024923302 4289212199
-0.0017085895 0.0022844449 0.027292691 4289670434
0.0007532537 0.00028264523 0.028955802 4289604899
0.0029394552 -0.00028714538 0.029213253 4289474084
0.0049825907 -0.00014129281 0.028769061 4289474084
0.0068746507 0.00071965158 0.02762498 4289343269
0.0086076111 0.0022951588 0.025782716 4289343269
0.010486618 0.0031553954 0.024641644 4289539620
0.012997374 0.001157701 0.026294604 4289146919
0.015848063 -0.0022671297 0.029339373 4289277734
0.019219279 -0.0078320354 0.03446956 4289408548
0.023302265 -0.016249061 0.042376362 4289211944
0.027109578 -0.023234107 0.048877567 4288687409
-0.0097192824 -0.0013962835 0.029231217 4288491824
-0.008212164 0.0016224608 0.025978416 4289604899
-0.0065911487 0.0039215237 0.023432091 4290520603
-0.0044350997 0.003347069 0.023694173 4290390044
-0.0019927993 0.0013372153 0.025356442 4290847768
0.00046567619 -0.00067137182 0.027015273 4290128158
0.0026489049 -0.0012435913 0.027271681 4289670178
0.0045408681 -0.00038060546 0.02612919 4289474084
0.0062765926 0.00119932 0.024289556 4289408548
0.0081555247 0.0020615831 0.023150049 4289539620
0.010029249 0.0029235706 0.022011757 4290520859
0.012693003 0.00020232052 0.024357595 4290651418
0.015539944 -0.0032336563 0.027394857 4290323998
0.018906824 -0.0088162422 0.032512616 4290062113
0.022984728 -0.017259762 0.040400594 4288818478
0.026447896 -0.022835232 0.045497678 4288294708
-0.010381006 -0.00018186122 0.025187179 4288754220
-0.0087517425 0.0021241531 0.022643939 4289146918
-0.007138297 0.0044291392 0.020104215 4290258974
-0.0051280931 0.0045721829 0.019666828 4289408548
-0.0026971325 0.0025549904 0.021326564 4290847768
-0.00010716915 -0.00018086284 0.023681283 4289735714
0.0020677373 -0.00075586885 0.023937818 4289997598
0.0039517581 0.00010868162 0.022798687 4289539618
0.0056797415 0.0016923174 0.020964079 4289539620
0.0075507089 0.0025562122 0.019827917 4289343269
0.0095726773 0.0027008131 0.01938853 4290782233
0.012071349 0.00068920106 0.02103411 4289669668
0.014909215 -0.0027583316 0.024064999 4290455069
0.018430628 -0.0090774149 0.029865392 4290323488
0.022667624 -0.018265776 0.038428303 4289146154
0.026126467 -0.023858942 0.043512996 4288621873
-0.011041179 0.0010503456 0.021156322 4288819498
-0.0095541328 0.0040849596 0.017921127 4289996833
-0.0078188926 0.005672805 0.016087767 4289146919
-0.0059568211 0.0065375715 0.014954694 4288885289
-0.0032598972 0.0030682459 0.018007249 4289408804
-0.0006788224 0.00032304972 0.020357233 4290390299
0.0014877692 -0.00025480241 0.020613931 4289670688
0.0032158419 0.0013331026 0.018782489 4289474338
0.0049334094 0.0029203072 0.016953442 4289539363
0.0067937635 0.0037855804 0.015821226 4290128159
0.0089609474 0.0032082126 0.016078126 4289015594
0.011133566 0.0026313812 0.016333885 4288557613
0.013956986 -0.00082805008 0.019359589 4289146409
0.017627224 -0.0078883618 0.025840472 4289146664
0.022184275 -0.018546678 0.035767842 4289146664
0.025805451 -0.024877928 0.041531768 4288883504
-0.013197899 -0.000743635 0.020369705 4286660159
-0.011828907 0.0030255467 0.016440552 4289015339
-0.010222748 0.0053428784 0.013912257 4290063134
-0.0086323991 0.0076591447 0.011387538 4289866529
-0.0066464469 0.0078003854 0.010955369 4289474338
-0.0038214624 0.0035948902 0.014697924 4290521368
-0.0012492687 0.00084032863 0.01704317 4290063644
0.00090899318 0.00025973469 0.01729995 4289670943
0.002481509 0.0025753006 0.014779463 4289670433
0.0041886419 0.004166089 0.012955995 4289670433
0.0061915368 0.0043091774 0.012520641 4290389788
0.0081945658 0.0044523999 0.012085339 4290324509
0.01051468 0.0031494424 0.013033511 4289997344
0.013167873 0.00040143728 0.015361745 4289931554
0.017153025 -0.0081270635 0.0232099 4289997344
0.021368794 -0.017373435 0.031734183 4289015848
0.025315728 -0.025169887 0.038864646 4288556849
-0.01384487 0.00051616132 0.016356386 4287511348
-0.012485735 0.0042954609 0.01243766 4288886818
-0.010889806 0.0066185445 0.0099165589 4290654734
-0.0089068264 0.0067594573 0.0094849449 4289804564
-0.0041025952 0.0026815906 0.012786822 4290916108
-0.0018185303 0.0013710558 0.013738997 4290325783
0.00018645823 0.0015139505 0.013302922 4289868314
0.0017487295 0.0038352683 0.01078962 4290194968
0.0034454539 0.005429633 0.0089717228 4290129689
0.0055905096 0.0048462301 0.0092299506 4289802013
0.0075853877 0.0049888268 0.0087963883 4289802268
0.0098969936 0.0036808699 0.0097431298 4289344544
0.012541275 0.00092356652 0.012066582 4290456598
0.016352385 -0.0069068074 0.019208115 4289867548
0.020721152 -0.016907111 0.02840203 4289213218
0.024826802 -0.02545277 0.036204197 4289539619
0.024169937 -0.024999849 0.032864366 4287841319
-0.019349627 -0.015292369 -0.022593737 4284705328
-0.013794705 0.0068885908 0.0044714026 4285623328
-0.012087971 0.0084915385 0.0026573595 4285886489
-0.010123901 0.0086310357 0.0022298135 4285886233
-0.0077499226 0.0065770224 0.0038767867 4285951768
-0.0052205324 0.0037932098 0.006211279 4286017048
-0.0032372996 0.0039343908 0.0057798065 4285624093
-0.0012539178 0.0040756911 0.00534839 4285558814
0.00058239326 0.0049475655 0.0042278469 4285624349
0.0021136738 0.0072797537 0.001731297 4285689628
0.003934253 0.0081507266 0.00061434507 4285820444
0.0057496317 0.0090214536 -0.00050138682 4285951514
0.0081914291 0.0069730952 0.0011315402 4285885723
0.010970511 0.0034670085 0.0041335914 4285951769
0.014755808 -0.0044129416 0.011244124 4285623583
0.01942946 -0.015934236 0.02176762 4285557793
0.023345672 -0.023804568 0.028849892 4285361188
-0.014575243 0.0089457482 -0.00018357858 4285624348
-0.012881584 0.010552078 -0.001991475 4285689374
-0.01093097 0.0106906 -0.0024161106 4285557283
-0.0085710064 0.0086290464 -0.0007710997 4285689374
-0.0061948895 0.0065687224 0.00087053701 4285820954
-0.0039443448 0.0052427128 0.0018199757 4285755164
-0.001971744 0.0053832158 0.0013908856 4285623838
9.9092722e-07 0.005523853 0.00096184947 4285558558
0.0015247092 0.0078619346 -0.0015280526 4285755164
0.003337346 0.008734487 -0.0026416304 4285689373
0.0049897172 0.010338895 -0.0044398466 4285426213
0.007420145 0.0082832053 -0.0028094435 4285558048
0.010187469 0.0047654137 0.00018684752 4285689628
0.014122929 -0.0038708225 0.0079659764 4285558559
0.018785387 -0.015427642 0.018465318 4285427489
0.022859756 -0.024053745 0.026214492 4285361698
-0.016542695 0.0064693019 -0.00025572255 4285361699
-0.015225634 0.010288872 -0.0041321749 4285821463
-0.013411514 0.011162825 -0.0052450961 4285755163
-0.011602558 0.012036502 -0.0063568121 4285623583
-0.0095263645 0.011438772 -0.0060908245 4285755164
-0.0070280582 0.0086353347 -0.003762898 4285886743
-0.0046498105 0.0065687224 -0.0021266546 4285689628
-0.002688013 0.0067084655 -0.0025534043 4285624349
-0.00087294728 0.0075831488 -0.0036660926 4285624349
0.00078740343 0.0091921687 -0.0054628635 4285821208
0.0027416237 0.0093316957 -0.0058877068 4285821463
0.0046959631 0.0094713196 -0.0063125165 4285623839
0.0069654845 0.0081429556 -0.0053700274 4285624093
0.0097263865 0.004613854 -0.0023806524 4285755929
0.013491236 -0.0033153594 0.0046978053 4285690393
0.018142499 -0.014907658 0.015172955 4285558814
0.022206429 -0.023560546 0.022904459 4285098538
-0.017307036 0.0085585788 -0.004890536 4285426979
-0.016002469 0.012388088 -0.0087559754 4285690138
-0.013940267 0.01178696 -0.0084887808 4285886999
-0.012272596 0.013400152 -0.010284351 4285821208
-0.0099353418 0.011323884 -0.0086443527 4285821463
-0.0075819418 0.0092489347 -0.007007814 4285689883
-0.0050710365 0.0064378008 -0.0046892064 4285624093
-0.0032587275 0.007314302 -0.0057996763 4285624349
-0.0015982911 0.0089275613 -0.0075933049 4285558814
0.00020098686 0.0098033622 -0.0087007722 4285690139
0.0021470822 0.0099422708 -0.0091238702 4285887508
0.0040932857 0.010081314 -0.009546916 4285886999
0.0065116324 0.0080116987 -0.0079238797 4285821718
0.0091060996 0.0052073225 -0.0056228349 4285756184
0.013186075 -0.0042182058 0.0028012339 4285558558
0.017666154 -0.015109964 0.012570839 4285558559
0.021722309 -0.023789398 0.020284053 4285164329
-0.017693922 0.0084478408 -0.0074468898 4285427234
-0.016138226 0.010806821 -0.0099295648 4285624349
-0.014206819 0.010943793 -0.010350164 4285558303
-0.012142085 0.01034075 -0.010085114 4285624094
-0.010071844 0.0097381696 -0.0098211421 4285624094
-0.0077191517 0.0076566264 -0.0081894575 4285624093
-0.0054914504 0.0063158572 -0.0072450144 4285624348
-0.0036844239 0.0071941614 -0.00835275 4285624348
-0.0020290688 0.0088113546 -0.010141914 4285558813
-0.00023507327 0.0096889138 -0.011246593 4285558558
0.0015537143 0.010566205 -0.012350063 4285558558
0.0036462769 0.0099660307 -0.012090393 4285624349
0.0060585774 0.0078895316 -0.010471066 4285624349
0.0088066384 0.0043377355 -0.0074954899 4285558814
0.012718838 -0.0043782815 0.00022888742 4285624349
0.017355748 -0.016041063 0.010654058 4285493023
0.021238998 -0.024009235 0.017670412 4285295654
-0.017830044 0.0068603531 -0.0086251432 4285361698
-0.016273908 0.0092258528 -0.011102957 4285558813
-0.014472954 0.010105275 -0.012208101 4285689628
-0.012278222 0.0087575242 -0.011260104 4285755164
-0.010208316 0.0081527308 -0.010997736 4285689629
-0.0079946145 0.0068065524 -0.010053708 4285624093
-0.0060520321 0.0069447309 -0.010476422 4285624348
-0.0041093081 0.0070830286 -0.010899075 4285624604
-0.00216645 0.0072214305 -0.011321695 4285559069
-0.00037240982 0.0081011504 -0.012424731 4285624093
0.0014164373 0.008980602 -0.01352656 4285624094
0.0033543706 0.009119004 -0.013947831 4285689629
0.00592025 0.0062951297 -0.011654009 4285624094
0.0085075982 0.0034728572 -0.0093647251 4285624349
0.012414716 -0.0052695796 -0.0016591158 4285559069
0.01688081 -0.016227417 0.0080637038 4285493279
0.020924117 -0.02495987 0.015739907 4285361444
-0.018090896 0.0060182363 -0.010487272 4285427234
-0.016409539 0.0076451823 -0.012276123 4285690138
-0.014738642 0.0092714503 -0.014062569 4285886743
-0.012547098 0.0079190955 -0.013117229 4285952534
-0.010344721 0.0065675974 -0.012174112 4286018323
-0.0081315264 0.0052170232 -0.011233311 4285755674
-0.0064706504 0.0068430007 -0.013017246 4285624348
-0.0043899566 0.0062371716 -0.012758688 4285624348
-0.002449885 0.0063753575 -0.0131807 4285624348
-0.00050968677 0.006513685 -0.013602656 4285689884
0.001127746 0.0081385002 -0.015381181 4285886998
0.0030628629 0.0082766786 -0.015801862 4285952533
0.005625207 0.0054438487 -0.013513865 4285952788
0.0085278526 0.0011273995 -0.0098772962 4285755929
0.012273118 -0.0068986192 -0.0028676894 4285558813
0.016406678 -0.016404763 0.0054800808 4285493278
0.020274781 -0.024421729 0.012463193 4285361699
-0.018600546 0.0066752657 -0.013710975 4285492769
-0.016926922 0.0083059296 -0.015494791 4285624093
-0.01513385 0.0091891363 -0.016594974 4285557793
-0.013080731 0.0085786581 -0.016332388 4285557793
-0.01088687 0.0072222501 -0.015390796 4285755163
-0.0088201091 0.0066129938 -0.015131061 4285689628
-0.0068884715 0.0067503527 -0.015551419 4285624093
-0.0049566925 0.0068878308 -0.015971728 4285624349
-0.0027329102 0.0055339411 -0.015036264 4285624348
-0.0010927022 0.0071631595 -0.016812185 4285755418
0.00068825111 0.0080463514 -0.017908996 4285689373
0.0024639741 0.0089292824 -0.019004595 4285557793
0.0050174072 0.006087102 -0.016721325 4285689629
0.0079107843 0.0017570406 -0.013092732 4285755418
0.011969648 -0.0077827498 -0.0047503952 4285493023
0.015768759 -0.015828632 0.0022293478 4285427744
0.019459374 -0.023125984 0.0085232072 4285295909
-0.020663597 0.0049610063 -0.014462055 4284900914
-0.019357875 0.0088445172 -0.018286468 4285427234
-0.017570242 0.0097293183 -0.019383866 4285821208
-0.015787765 0.010613941 -0.020480087 4285623838
-0.013745621 0.01000049 -0.020216787 4285623583
-0.011562921 0.0086389259 -0.019276097 4285820954
-0.0093694106 0.0072781965 -0.018337643 4285952789
-0.007305488 0.0066666678 -0.018078873 4285624093
-0.0052361041 0.0060556531 -0.017821206 4285558558
-0.0034527108 0.0069409385 -0.018917086 4285558558
-0.0018229261 0.0085737258 -0.020687427 4285821718
-0.00020365417 0.010205828 -0.022455361 4285689629
0.0017125197 0.01034262 -0.022871949 4285557794
0.0042544007 0.0074909627 -0.020592794 4285558304
0.0072948895 0.0024000779 -0.016298233 4285624603
0.011343148 -0.0071686655 -0.0079751741 4285690393
0.015460819 -0.01673229 0.00033291802 4285427488
0.018979661 -0.023305275 0.0059396289 4285230119
-0.019989029 0.010284252 -0.02216633 4285624349
-0.0180851 0.010419063 -0.022581112 4285821719
-0.016310558 0.011305191 -0.023673937 4285821464
-0.014541179 0.012191087 -0.024765538 4285755929
-0.012372315 0.010824181 -0.023825176 4285755673
-0.010192633 0.0094581619 -0.022887077 4285624349
-0.0080021396 0.0080929846 -0.021951199 4285624604
-0.0060866103 0.008229278 -0.022367995 4285624349
-0.0040254146 0.0076155886 -0.022110134 4285558814
-0.0025515854 0.010002039 -0.024549514 4285624603
-0.00079188496 0.010888003 -0.025638429 4285887509
0.0011161678 0.011024222 -0.026053246 4285755929
0.0036491416 0.0081632212 -0.023778819 4285755929
0.0065212958 0.0038056225 -0.020165535 4285821463
0.01071782 -0.0065411553 -0.01119001 4285558814
0.014989082 -0.016882472 -0.0022306368 4285493023
0.018667608 -0.02422408 0.0040327124 4285361698
-0.020494588 0.010987952 -0.025355414 4285296418
-0.018472068 0.010368519 -0.025091365 4285427744
-0.016702808 0.011256471 -0.026181433 4285427233
-0.014674626 0.010637656 -0.025918446 4285426979
-0.012640968 0.010019399 -0.025656596 4285492768
-0.010464452 0.0086488053 -0.024721138 4285558813
-0.0085572079 0.0087843761 -0.025136232 4285559068
-0.0066498145 0.0089200586 -0.025551282 4285559068
-0.004742302 0.0090558752 -0.025966264 4285559068
-0.0029826686 0.0099438801 -0.027053595 4285493023
-0.0012282282 0.010831639 -0.028139714 4285427233
0.00082770362 0.010215767 -0.027882099 4285426978
0.0030450709 0.0088488683 -0.026954927 4285426978
0.0059079528 0.0044775531 -0.023349544 4285427999
0.0099323392 -0.005149208 -0.015064405 4285493278
0.014354147 -0.016272746 -0.0054563871 4285493278
0.018355966 -0.025138162 0.0021292381 4285427234
-0.020503536 0.0086810961 -0.025830485 4285032493
-0.018605202 0.0088154599 -0.026244074 4285163819
-0.016706683 0.0089499429 -0.02665763 4285295653
-0.014676169 0.0083291754 -0.026396852 4285229354
-0.012640178 0.0077088848 -0.026137196 4285294889
-0.010735877 0.0078441128 -0.02655175 4285492768
-0.0088314191 0.007979475 -0.026966244 4285558814
-0.0070693418 0.0088695735 -0.028052639 4285493279
-0.0048769489 0.0074960813 -0.027123716 4285427234
-0.0031172708 0.0083862469 -0.028209407 4285427233
-0.0010617897 0.0077680349 -0.027953461 4285361443
0.00084595755 0.0079042017 -0.028368242 4285427233
0.0029096566 0.0072868168 -0.028113905 4285493279
0.0054542683 0.0044094175 -0.02585518 4285295653
0.0094707198 -0.0052460656 -0.01758988 4285295654
0.013720382 -0.015649594 -0.0086722476 4285229864
0.017545294 -0.023788877 -0.0017709509 4285229863
-0.020265453 0.0048539639 -0.024959825 4285426723
-0.018232897 0.004230924 -0.024701335 4285361443
-0.016323879 0.0043661445 -0.025117185 4285426979
-0.014414705 0.0045014769 -0.02553298 4285558559
-0.012505367 0.0046369284 -0.025948737 4285558559
-0.010595888 0.0047724992 -0.026364438 4285426469
-0.0086862594 0.0049082041 -0.02678008 4285426723
-0.0067764744 0.0050440431 -0.027195659 4285426978
-0.0048665777 0.0051799864 -0.027611189 4285426979
-0.0031041875 0.0060724914 -0.028695829 4285492769
-0.0010463744 0.0054522604 -0.028442062 4285426724
0.0010168701 0.0048324987 -0.028189335 4285360933
0.0029299259 0.0049691424 -0.028605193 4285426979
0.0054762959 0.0020832196 -0.026353491 4285426978
0.0091708712 -0.0060894266 -0.019442344 4285426979
0.013415046 -0.016523667 -0.01054674 4285229609
0.017235056 -0.024687089 -0.0036626644 4285229354
-0.020028427 0.001014024 -0.024098612 4285360679
-0.018114388 0.0011494532 -0.024515659 4285492514
-0.01620017 0.001285024 -0.024932649 4285492514
-0.014417276 0.0021804348 -0.026020642 4285492513
-0.01263956 0.0030756593 -0.027107444 4285492768
-0.010730214 0.0032112077 -0.027523134 4285426469
-0.0084023178 0.0010693297 -0.025930809 4285426724
-0.0064847022 0.0012056902 -0.026348116 4285492514
-0.0044221506 0.00058340281 -0.026097221 4285426978
-0.0026490763 0.0014787987 -0.027182551 4285426724
-0.00058094412 0.00085714459 -0.026932685 4285426469
0.0011870675 0.0017524436 -0.028016711 4285426214
0.0032607429 0.0011314079 -0.027767876 4285426979
0.0054979846 -0.00024698675 -0.026854837 4285426978
0.0091929846 -0.0084434226 -0.019962033 4285426724
0.01294671 -0.016635582 -0.013081845 4285229099
-0.020039089 -0.0013136789 -0.02458925 4285426214
-0.018122509 -0.0011780933 -0.025006866 4285426723
-0.016205773 -0.0010423735 -0.025424423 4285492258
-0.014288887 -0.00090651959 -0.025841923 4285492513
-0.012371846 -0.0007705465 -0.026259379 4285492513
-0.010454655 -0.00063445419 -0.026676776 4285426979
-0.0083980337 -0.0012595952 -0.026426448 4285492514
-0.0064778998 -0.0011230558 -0.026844306 4285426724
-0.0044130087 -0.0017474219 -0.02659555 4285426724
-0.002637215 -0.00084959716 -0.027679844 4285426724
-0.00056675076 -0.0014733151 -0.027432112 4285426724
0.0013565496 -0.0013360903 -0.027850306 4285361189
0.0034352243 -0.001958929 -0.027604217 4285360933
0.0056772567 -0.0033412799 -0.026695585 4285426723
0.0088935904 -0.0092818215 -0.021810828 4285360934
0.01296892 -0.019017421 -0.013622869 4285097774
-0.020050071 -0.0036454648 -0.025082914 4285360423
-0.01813098 -0.0035097077 -0.025501093 4285492769
-0.016211711 -0.0033738166 -0.025919208 4285492513
-0.014292307 -0.0032378137 -0.026337279 4285558049
-0.01237274 -0.0031016842 -0.026755294 4285558304
-0.010453023 -0.0029654279 -0.027173257 4285492514
-0.0082549751 -0.004356131 -0.026258973 4285426723
-0.0064714104 -0.0034559071 -0.027343465 4285426724
-0.0042597875 -0.0048453733 -0.026432013 4285426724
-0.0024786219 -0.003945075 -0.027515793 4285426468
-0.00040318072 -0.0045705661 -0.027270855 4285426468
0.0013729036 -0.003670387 -0.028353343 4285426724
0.0034538992 -0.0042952448 -0.028109429 4285361188
0.0055403374 -0.0049195811 -0.027866593 4285361443
0.0087550096 -0.010877587 -0.022994746 4285295144
0.012664661 -0.019879662 -0.015488587 4284900914
-0.021622017 -0.0084182397 -0.023155252 4285032239
-0.020061366 -0.005981341 -0.025579555 4285295398
-0.018139765 -0.0058454201 -0.025998285 4285361189
-0.016346239 -0.0049428642 -0.027083779 4285361189
-0.014165118 -0.006339483 -0.026169417 4285426979
-0.012373947 -0.0054368973 -0.027254177 4285427233
-0.01031547 -0.006066367 -0.02700766 4285427233
-0.0085293427 -0.0051639304 -0.028091153 4285361189
-0.0066068396 -0.0050272495 -0.028509548 4285360934
-0.0045399666 -0.0056557655 -0.028264599 4285360934
-0.0027614236 -0.0047535151 -0.029346166 4285360934
-0.00083852559 -0.0046164319 -0.029764364 4285229864
0.0012366995 -0.0052440017 -0.029520953 4285295653
0.00347225 -0.0066355988 -0.028617641 4285295653
0.0057185516 -0.0080263913 -0.027716544 4285361189
0.0087766759 -0.013237171 -0.023518585 4285295144
-0.019704781 -0.01062829 -0.024080317 4285229098
-0.017772667 -0.010491632 -0.024501348 4285295399
-0.015968442 -0.0095862225 -0.025587486 4285229609
-0.014038667 -0.0094495043 -0.026007839 4285295399
-0.012108728 -0.0093126521 -0.026428126 4285492514
-0.0100426 -0.0099437758 -0.026184957 4285426723
-0.0081097111 -0.009806484 -0.026605707 4285230119
-0.0060353056 -0.010436788 -0.026364088 4285360934
-0.0039554611 -0.011066563 -0.026123628 4285294888
-0.0021635592 -0.010161199 -0.027206447 4285295144
-0.00022750348 -0.010023206 -0.027627531 4285295144
0.001708664 -0.0098850802 -0.028048534 4285229609
0.0036449507 -0.0097468272 -0.028469477 4285295144
0.0057386905 -0.010374993 -0.028231565 4285295143
0.008797992 -0.015600853 -0.024045464 4285163309
-0.017281778 -0.015926003 -0.022352956 4284902954
-0.015464216 -0.015017472 -0.023440342 4284967213
-0.013390727 -0.015650481 -0.023200624 4284901424
-0.011444964 -0.015512519 -0.023624361 4285099049
-0.0094990507 -0.015374437 -0.024048049 4285165094
-0.0075530186 -0.015236236 -0.024471685 4285099304
-0.0054656342 -0.015867807 -0.024234567 4284967469
