# .PCD v0.7 - Point Cloud Data file format
VERSION 0.7
FIELDS x y z rgba
SIZE 4 4 4 4
TYPE F F F U
COUNT 1 1 1 1
WIDTH 767
HEIGHT 1
VIEWPOINT 0 0 0 1 0 0 0
POINTS 767
DATA ascii
0.002858106 -0.010326259 0.030874155 4289869588
0.0047243498 -0.0094717145 0.029741429 4288754218
0.0067649074 -0.0093301684 0.029306158 4289864489
0.0098990109 -0.013464049 0.033044968 4289930023
0.011955695 -0.013321169 0.032606419 4291106848
0.0011508651 -0.0055744126 0.023392998 4289868313
0.0028163865 -0.0040041506 0.02157177 4289277989
0.0048300885 -0.0038644969 0.021142203 4289604644
0.0077541843 -0.0072987154 0.024183154 4289146919
0.0094118677 -0.0057286546 0.02236386 4290062623
0.0089974217 0.0036994144 0.012924578 4289148448
-0.0016917475 -0.0045093745 0.019840259 4290526979
0.00014245883 -0.0036528036 0.018717531 4290064409
0.0014417805 -0.00064436346 0.015515126 4290063134
0.0036158524 -0.0012231991 0.015782621 4289212453
0.0061590895 -0.0032355562 0.017434049 4288950313
0.0070574284 0.0012046322 0.012854889 4289605154
-0.0023429394 -0.0040065423 0.016562805 4289476124
-0.00051670149 -0.0031483546 0.015443396 4289932828
0.00077520311 -0.00013165921 0.012249097 4290651929
0.0027619116 6.1020255e-06 0.011825278 4290128159
0.004748676 0.00014398247 0.011401532 4290651163
0.0050761849 0.0067531466 0.0047649592 4290194458
-0.0049846731 -0.0036279634 0.013720324 4290462209
-0.0029929765 -0.003490217 0.01329517 4289999128
-0.0013482161 -0.0019083992 0.011488046 4289997854
0.00063828751 -0.0017707571 0.01106419 4290063134
0.0029825456 -0.003076233 0.012020148 4289212454
0.0044299625 -0.00077375025 0.0095273815 4289669924
0.0038354062 0.0094611198 -0.00053792074 4290128923
-0.0056254305 -0.0030974969 0.010460692 4290262543
-0.0038125329 -0.0022359714 0.0093472954 4289671454
-0.0020048991 -0.0013747215 0.0082351007 4290455833
-2.6550144e-05 -0.0012376681 0.0078129694 4289735714
0.0026665032 -0.0039956644 0.010144033 4289539618
0.0037489943 -0.00023955107 0.0062811915 4289474593
0.003516864 0.0085787177 -0.0023857867 4289541914
-0.0060972385 -0.003280282 0.0078998208 4289868569
-0.004460115 -0.0016903877 0.006100744 4289933339
-0.0024873205 -0.0015538335 0.005679708 4290848023
-0.00016283616 -0.0028695539 0.0066332743 4290128924
0.0023508444 -0.0049103498 0.0082712695 4290521369
0.0032503158 -0.00041766465 0.0037309229 4289540128
0.003198728 0.0077010244 -0.0042302506 4288888604
-0.0087057203 -0.0028610453 0.0050787479 4290396419
-0.0067358948 -0.0027249679 0.0046581477 4289933339
-0.0049362667 -0.0018600151 0.0035508294 4289539618
-0.0026230551 -0.0031809583 0.0045034084 4289539363
-0.00047472119 -0.0037726909 0.0047681183 4289081638
0.0018573217 -0.0050921515 0.0057168864 4289932573
0.0029333644 -0.0013146549 0.0018717684 4289736989
-0.0091703162 -0.0030229911 0.0025314912 4289475868
-0.0073734112 -0.0021561384 0.0014262386 4290456088
-0.0055817552 -0.001289539 0.00032225437 4289997344
-0.0034498312 -0.0018847287 0.0005887337 4288688939
-0.0011370517 -0.003210023 0.0015382655 4288819753
0.001008343 -0.0038040355 0.0018020552 4289670433
0.0022552572 -0.00074646622 -0.0013498701 4290193949
-0.0099632964 -0.0017087385 -0.001378715 4289671453
-0.0078425333 -0.0023071393 -0.0011116676 4290063134
-0.0062260963 -0.00070555508 -0.0028965548 4290193438
-0.0041025057 -0.0013035461 -0.0026298855 4289408038
-0.0021487661 -0.0011682361 -0.0030467883 4289342758
0.00033879653 -0.0032305792 -0.00141792 4290716954
0.0017588921 -0.00089722872 -0.0038803704 4289408803
-0.010261606 -0.0025837347 -0.0032264963 4288361518
-0.0083109029 -0.0024489984 -0.0036430303 4288949549
-0.0065298378 -0.001578778 -0.0047415048 4288753198
-0.0047540553 -0.00070883334 -0.0058387853 4288426544
-0.0028084666 -0.00057408959 -0.006253954 4289408038
-0.00068508461 -0.0011740178 -0.0059887413 4289800739
0.0010828786 -0.00030422211 -0.0070840605 4289344288
-0.010231059 -0.0049299225 -0.0037076538 4286987579
-0.0082778372 -0.0047950372 -0.0041247411 4287575608
-0.0064940862 -0.0039224103 -0.0052222135 4287575608
-0.0047155991 -0.0030500814 -0.0063184351 4287510584
-0.0029423758 -0.0021779984 -0.0074134469 4288361264
-0.00081932172 -0.0027801469 -0.0071497969 4288753964
0.0011288971 -0.002644971 -0.0075653456 4288951844
-0.0098727942 -0.0087603703 -0.0028318474 4286267713
-0.008245118 -0.0071450844 -0.004609433 4286594369
-0.0061199255 -0.0077496395 -0.0043481486 4286529344
-0.0045054257 -0.0061350167 -0.0061227353 4286267714
-0.0027268417 -0.0052603334 -0.0072173001 4286856509
-0.0009535253 -0.0043859407 -0.0083106095 4287052859
0.0013546236 -0.0057288632 -0.0073729875 4287314743
0.0034907833 -0.0063320249 -0.0071135731 4287315254
0.0052615739 -0.0054574385 -0.0082060667 4286530618
-0.0082127191 -0.0094992295 -0.0050970921 4286397763
-0.0060852021 -0.010105826 -0.0048379423 4286528833
-0.0041241236 -0.0099701509 -0.0052565271 4286725438
-0.0025120042 -0.0083512142 -0.0070272656 4286856253
-0.00055613369 -0.0082156584 -0.007444554 4287379513
0.0013997853 -0.0080799535 -0.007861753 4287445049
0.0037208013 -0.0094261989 -0.006930084 4287706933
0.0056821443 -0.0092898682 -0.0073482515 4287379513
0.0076435283 -0.0091534331 -0.0077663483 4287249719
0.0094144102 -0.0082763955 -0.0088570425 4286988854
-0.0058817901 -0.013210282 -0.0046549821 4286463554
-0.0039155222 -0.013074256 -0.0050746845 4286921789
-0.0021235347 -0.012194343 -0.0061688283 4287117883
-0.00033682212 -0.011314623 -0.007261795 4287052603
0.0016242824 -0.011178575 -0.0076801078 4286921788
0.0039501227 -0.012528881 -0.0067526707 4287118394
0.006101653 -0.013135254 -0.0064997198 4287249209
0.0078832172 -0.0122554 -0.0075911554 4287314743
0.0098498072 -0.012118474 -0.0080102729 4287053368
0.011816414 -0.011981413 -0.0084292823 4287183673
0.013783043 -0.011844218 -0.0088482033 4287249719
0.016344722 -0.013933219 -0.0072588408 4287380023
0.019525481 -0.0182468 -0.0036661979 4287576118
0.022941932 -0.023299687 0.00058796071 4287968563
-0.0079827569 -0.014966361 -0.0054065976 4286071108
-0.0056790933 -0.016323194 -0.004478218 4286398274
-0.0037076548 -0.016186818 -0.0048990268 4287052604
-0.0019102842 -0.015304342 -0.0059926864 4287314233
-0.00029502437 -0.013676308 -0.0077574933 4287052603
0.001848083 -0.014285706 -0.0075045535 4287118394
0.0039965697 -0.014894597 -0.0072526764 4286856763
0.0059656128 -0.014757745 -0.0076724906 4286856764
0.0077471994 -0.01387573 -0.0087623205 4287052858
0.0097136367 -0.013738818 -0.0091814008 4287118649
0.011872921 -0.014346436 -0.0089314301 4287118649
0.014037553 -0.014953561 -0.0086825099 4287118649
0.01680203 -0.017793126 -0.006431153 4287642164
0.020592017 -0.024351694 -0.00084797107 4287576628
0.024837021 -0.032394625 0.0060584247 4287183928
-0.0058143549 -0.017947488 -0.0056525301 4286529089
-0.0038430616 -0.017811112 -0.0060733091 4287183418
-0.0018717125 -0.017674632 -0.0064940099 4287249209
-7.6927245e-05 -0.016790025 -0.0075854044 4286987578
0.0024297833 -0.018896915 -0.0059947167 4286791484
0.0044066384 -0.018759646 -0.0064163003 4286725948
0.0061988756 -0.017874792 -0.0075069051 4286660669
0.0076112114 -0.01549574 -0.0099332575 4286594879
0.009577496 -0.015358835 -0.010352297 4286725949
0.011736438 -0.015968665 -0.010103883 4286529598
0.01409604 -0.017324679 -0.0091897231 4287052859
0.017060272 -0.02091942 -0.006279001 4287118394
0.021054411 -0.028243713 -4.5558438e-05 4287183673
-0.0021810308 -0.018548287 -0.0083378088 4286727223
-3.5993755e-05 -0.019162051 -0.0080886427 4286792248
0.0024726801 -0.021275364 -0.0065032672 4286595643
0.0044520386 -0.02113793 -0.0069253873 4286399294
0.0062469877 -0.020250745 -0.0080148969 4286529598
0.0078494996 -0.018614314 -0.0097701345 4286398528
0.0096311755 -0.0177278 -0.01085663 4286529599
0.011599984 -0.017590582 -0.011276113 4286791229
0.013959058 -0.018951014 -0.010365097 4286856509
0.016922206 -0.022556737 -0.0074622724 4286790973
0.020914333 -0.02990301 -0.0012446819 4286856509
0.0050419234 -0.025776364 -0.005437999 4286334013
0.0068475641 -0.02488625 -0.0065281671 4286137409
0.0084609576 -0.023244701 -0.0082824808 4286137154
0.010253325 -0.022355236 -0.0093696099 4286529343
0.01204038 -0.021466039 -0.010455532 4286594623
0.01421199 -0.022079222 -0.010212978 4286529344
0.017179377 -0.025695525 -0.0073192259 4286594623
0.020974547 -0.032312728 -0.0017811088 4286725694
0.017830685 -0.030349024 -0.0058593443 4286332994
0.02123451 -0.035479389 -0.0016595637 4285940548
-0.027777296 -0.015569501 -0.0018854495 4284378164
-0.026099283 -0.013938732 -0.0036649117 4284508214
-0.027631763 -0.018688083 -0.0016977657 4283133764
-0.026232112 -0.015551828 -0.004831532 4282743869
-0.024275158 -0.015417717 -0.0052501839 4283526973
-0.02261265 -0.013783447 -0.0070228586 4283853373
-0.028043363 -0.018804148 -0.0042248759 4282088008
-0.026506696 -0.016412057 -0.00667453 4282153034
-0.024552528 -0.01627814 -0.0070925895 4282218058
-0.022598255 -0.016144089 -0.0075105783 4282152014
-0.020643868 -0.016009919 -0.0079285186 4282283339
-0.018994261 -0.014371887 -0.0096950363 4282283083
-0.016889859 -0.014989503 -0.0094379056 4282740043
-0.012664776 -0.0162232 -0.0089269374 4283328073
-0.010707203 -0.01608818 -0.0093450863 4283656004
-0.028176319 -0.020421006 -0.0053942669 4281891658
-0.026497666 -0.018777125 -0.0071641263 4281825869
-0.02468526 -0.017888449 -0.00825716 4282087499
-0.022731137 -0.017754443 -0.0086751375 4282087243
-0.020776898 -0.017620288 -0.0090930406 4282217548
-0.019127075 -0.015977867 -0.010856358 4282151758
-0.011329975 -0.015440889 -0.012522442 4282607953
-0.0092148781 -0.016059466 -0.012268854 4282477393
-0.007262636 -0.01592458 -0.012685684 4282869328
-0.029726479 -0.025201038 -0.0034453599 4282607189
-0.028309252 -0.022037543 -0.0065634269 4281499470
-0.026771788 -0.019632332 -0.0090035107 4281631049
-0.024962027 -0.018741675 -0.010094365 4281695564
-0.023157474 -0.017851211 -0.01118405 4281826124
-0.021208715 -0.017717451 -0.011600794 4282086733
-0.019259844 -0.017583542 -0.012017457 4282413133
-0.01178886 -0.015535645 -0.015021151 4282608209
-0.0096794404 -0.016156755 -0.014768017 4282673488
-0.0077326857 -0.016022235 -0.01518367 4282804049
-0.0056151263 -0.016642548 -0.014932102 4282608209
-0.0034921505 -0.017262392 -0.01468155 4282738513
-0.029995855 -0.026066527 -0.0052936552 4282541654
-0.028442133 -0.023653798 -0.0077323783 4281369164
-0.026763055 -0.022001185 -0.0094958451 4281435464
-0.025094483 -0.020349182 -0.011256913 4281303628
-0.023143325 -0.0202154 -0.011674268 4281434444
-0.02134129 -0.019322805 -0.01276171 4281826634
-0.019392576 -0.019188933 -0.013178362 4282478923
-0.011759281 -0.017894387 -0.015511481 4282738769
-0.0098127648 -0.017760031 -0.01592719 4282608209
-0.0059195086 -0.017490909 -0.016758354 4282738513
-0.0036263093 -0.018870123 -0.015843807 4282607954
-0.0007946901 -0.022518739 -0.012938162 4282607443
0.0024207868 -0.027678601 -0.0087104468 4282608210
-0.028574985 -0.025269754 -0.0089011211 4281564748
-0.026895683 -0.02361276 -0.01066138 4280712028
-0.025083188 -0.022717573 -0.01174959 4281172559
-0.023129512 -0.022583611 -0.012167489 4281303628
-0.021175727 -0.022449516 -0.012585318 4281173579
-0.019373555 -0.021554671 -0.013671039 4281042509
-0.01742221 -0.021420501 -0.014088163 4281238858
-0.015627835 -0.02052588 -0.015172055 4281303119
-0.013678972 -0.020391613 -0.015588449 4281498449
-0.011892416 -0.019497328 -0.016670452 4282020688
-0.0097809993 -0.020122699 -0.016421018 4281824849
-0.0074964613 -0.021507137 -0.015508076 4282151248
-0.0055419579 -0.021371968 -0.015925294 4282412368
-0.0032412857 -0.02275496 -0.015015619 4282542928
-0.00057845563 -0.025655068 -0.01278243 4282607443
0.0022841394 -0.02931238 -0.0098914606 4282738769
-0.025215756 -0.02432669 -0.012913311 4281886304
-0.023116026 -0.024955936 -0.012663668 4281299804
-0.021308601 -0.024058662 -0.013748979 4281039958
-0.019506399 -0.023161642 -0.014833083 4280975443
-0.017709423 -0.022264808 -0.015916022 4280781134
-0.015760813 -0.022130705 -0.016332468 4281237838
-0.013971645 -0.021234177 -0.017413491 4281237838
-0.01186331 -0.021862067 -0.017165126 4281238094
-0.0099144466 -0.021727562 -0.017581342 4281042253
-0.0076304227 -0.023116402 -0.016671536 4281629518
-0.0058462769 -0.022219725 -0.017751114 4281760334
-0.0033759363 -0.024368666 -0.016182205 4282086734
-0.00088953227 -0.026516415 -0.014616585 4281955409
0.0017911196 -0.0294239 -0.012393619 4282738513
-0.016050447 -0.022970557 -0.018156296 4281561688
-0.014104556 -0.022836514 -0.018572075 4280909145
-0.012158584 -0.022702336 -0.018987773 4280845393
-0.010047857 -0.023332119 -0.018741449 4281301843
-0.008099068 -0.023197502 -0.019157557 4280780114
-0.0058101714 -0.024590231 -0.018251942 4281302863
-0.0035105534 -0.02598203 -0.017348556 4281434189
-0.00084951147 -0.028899744 -0.015128004 4281824594
-0.0062839128 -0.02466704 -0.020733414 4281298019
-0.003817644 -0.026829384 -0.019173337 4281102944
-0.0013353191 -0.028990515 -0.017616605 4281690209
0.018711325 0.012947634 0.022340253 4285164328
0.02091226 0.012389146 0.022615794 4285164074
0.024756437 0.006248191 0.028495748 4285360168
0.016181823 0.019702174 0.012744512 4285296419
0.0181485 0.019839488 0.012325663 4285820444
0.020933371 0.017176643 0.014703205 4285820189
0.025604628 0.0082163885 0.023363002 4285819934
0.029505759 0.0020598918 0.029216282 4285754398
0.014078505 0.017940991 0.011989722 4285427488
0.015049936 0.021591477 0.0080776177 4285689884
0.016599745 0.023132749 0.0062655266 4285557794
0.018751953 0.022566572 0.0065482426 4285558048
0.022565788 0.016384125 0.012405323 4285689629
0.026008291 0.011608958 0.016859554 4285624093
0.029275792 0.0075382516 0.02061009 4285558559
0.03128501 0.0076790676 0.02018258 4285427488
0.033511911 0.0071186647 0.020449802 4285493278
0.034862537 0.009363316 0.017939679 4285427234
0.036197066 0.011606984 0.015433013 4285623328
0.038869951 0.009644933 0.017087571 4285754398
0.043386068 0.0020794123 0.024277821 4285819934
-0.02884217 0.00042593479 0.03326156 4285361444
-0.027104635 0.0019820184 0.031410746 4285951769
-0.024817292 0.00070182979 0.032400556 4286016793
-0.021948136 -0.0034125149 0.036224201 4285885723
-0.018901374 -0.0082330555 0.040749431 4285557794
-0.016409423 -0.010217443 0.042435281 4285097773
0.012961062 0.019842565 0.0073281433 4285493023
0.014118783 0.022798188 0.004123982 4285821719
0.015859641 0.023638502 0.0030138064 4285820954
0.01779934 0.023774035 0.0026007798 4285755164
0.021186989 0.018979564 0.0070551727 4285821209
0.024402495 0.014891975 0.010806903 4285821464
0.027437847 0.011510625 0.013857691 4285624348
0.029210698 0.012353674 0.012741148 4285559069
0.030760635 0.013899989 0.010932777 4285624603
0.031859413 0.016852401 0.0077417754 4285624349
0.033382524 0.0183971 0.0059392285 4285624349
0.036022659 0.016426176 0.0075958557 4285820189
0.039591648 0.011645295 0.012012316 4285885978
0.044121522 0.0040567294 0.019181754 4285885979
-0.031518649 0.0014723539 0.02965099 4284967469
-0.029920932 0.0037438497 0.027095318 4285689884
-0.028201837 0.0053030327 0.025251709 4285623839
-0.026073571 0.0047282353 0.025534347 4285623328
-0.023512099 0.0020210594 0.027938142 4285754653
-0.020638682 -0.0021060407 0.031751089 4285623838
-0.018324677 -0.0033884943 0.032732137 4285558303
-0.016451564 -0.0025389344 0.031593874 4285493279
-0.014430407 -0.0023998395 0.031161919 4285427488
-0.012565032 -0.0015505925 0.030025475 4285033514
-0.010387722 -0.0021212846 0.030298181 4284901933
-0.0075599514 -0.0055301189 0.0333835 4285163309
-0.0040496625 -0.011774905 0.039274562 4285031984
0.01048588 0.019508913 0.0051857494 4285361953
0.011649532 0.022473663 0.0019867383 4285558814
0.013586426 0.022608787 0.0015741531 4285624348
0.015322007 0.023450874 0.00046677329 4285755674
0.017664213 0.022172667 0.0014435053 4285755928
0.020637089 0.018775769 0.0044992734 4285690138
0.02363668 0.015380822 0.0075494796 4285624349
0.026026927 0.014106303 0.0085162334 4285624349
0.027998481 0.014244489 0.008096749 4285624349
0.029317945 0.016500078 0.005602954 4285624349
0.030401312 0.019460194 0.0024217684 4285886999
0.03168596 0.021713503 -6.4421445e-05 4285623584
0.034081332 0.020439878 0.00090164505 4285557539
0.037399475 0.016347043 0.0046223439 4285558048
0.041672412 0.0094373524 0.011090793 4285624093
0.047398943 -0.0016962364 0.021676309 4285624604
-0.032444816 0.0041023269 0.024206553 4285296164
-0.030728336 0.0056655705 0.022366665 4285755673
-0.028885309 0.0065146908 0.021236047 4285689884
-0.026907731 0.0066502392 0.020812996 4285755163
-0.024360482 0.0039332956 0.023213279 4285821209
-0.02164666 0.0005049929 0.026314288 4285886999
-0.019349176 -0.00078302622 0.027295578 4285624350
-0.017792821 0.0014928207 0.024754096 4285624603
-0.016099267 0.0030552372 0.022919666 4285624604
-0.014416274 0.0046170279 0.021087568 4285624348
-0.012110256 0.0033300444 0.022067361 4285690138
-0.0096323602 0.0013320372 0.023746792 4285820953
-0.0064833947 -0.0035114586 0.028227843 4285951768
-0.0032969229 -0.0083522871 0.032701004 4285754654
-0.00024205819 -0.012479067 0.036466099 4285427233
0.0099645071 0.019320518 0.0026338305 4285427743
0.01112343 0.022293709 -0.00055763498 4285559069
0.013054844 0.022428438 -0.00096905977 4285624093
0.015388532 0.021145128 6.1336905e-06 4285623839
0.018140525 0.018444873 0.0023645964 4285623838
0.020913877 0.015746221 0.0047185849 4285558559
0.023081139 0.015174739 0.0049933661 4285558558
0.025041902 0.015312076 0.0045761038 4285624348
0.026788145 0.016157664 0.0034685042 4285558814
0.028311837 0.017710984 0.0016722307 4285624093
0.029385153 0.020679124 -0.0015002321 4285887254
0.030882038 0.022230774 -0.0032906514 4285887253
0.033268902 0.020952128 -0.0023259893 4285886999
0.036349922 0.017552756 0.00069926307 4285821464
0.040610164 0.010620259 0.0071540847 4285755928
0.046789262 -0.0019630417 0.019089371 4285624859
-0.034564558 0.002326794 0.023445424 4285098793
-0.033105727 0.0053268597 0.020194508 4285558814
-0.031533863 0.0076096281 0.017654158 4285624603
-0.029704113 0.0084600076 0.016528003 4285886999
-0.027600486 0.0078790635 0.016812593 4285821464
-0.025206979 0.0058679208 0.01850453 4285821208
-0.022507545 0.0024276003 0.02160047 4285689884
-0.020371441 0.0018492118 0.021878362 4285624349
-0.018830676 0.0041305348 0.019345101 4285624349
-0.017305791 0.0064108744 0.016815316 4285821209
-0.015330173 0.0065468997 0.01639314 4285689374
-0.013196204 0.0059687719 0.016671855 4285623584
-0.010735024 0.0039630458 0.018349897 4285623839
-0.0082577132 0.0019584969 0.02002462 4285689118
-0.0054318272 -0.0014722124 0.02309414 4285820698
-0.0025791489 -0.0049009398 0.026158035 4285558048
0.00030032173 -0.0083277375 0.029216275 4285557029
0.0090580285 0.020564958 -0.0012983065 4285558558
0.010402471 0.022834562 -0.0037882756 4285952534
0.01252402 0.022257268 -0.0035057142 4285952533
0.015052818 0.020257853 -0.0018408168 4285952534
0.018004879 0.016837485 0.0012029763 4285821209
0.020571062 0.014840908 0.0028600823 4285624093
0.022526372 0.014977761 0.0024439003 4285624604
0.024270017 0.015825294 0.0013383683 4285624348
0.025793996 0.017382853 -0.00045474619 4285624349
0.027307257 0.018939771 -0.0022454932 4285558303
0.028590135 0.021206088 -0.0047216062 4285623838
0.03030158 0.022051744 -0.0058199279 4285623838
0.032907572 0.020058773 -0.0041707586 4285689628
0.035984848 0.016648181 -0.0011528665 4285624349
0.040470749 0.0089842007 0.0059721079 4285493279
0.047578335 -0.0064749345 0.020618252 4285493279
-0.035213869 0.0035611913 0.019437663 4285296418
-0.033633757 0.0058509707 0.016900346 4285624349
-0.031935487 0.0074217096 0.015070789 4285558303
-0.029974353 0.007555984 0.014651144 4285623583
-0.027734343 0.0062548444 0.01563796 4285623838
-0.0253415 0.0042370632 0.017325126 4285623838
-0.022787806 0.0015030876 0.019711014 4285624348
-0.020802032 0.0016394779 0.019286409 4285624604
-0.019116163 0.0032099709 0.017460037 4285624093
-0.017593544 0.0054966882 0.014935609 4285689883
-0.01577609 0.0063491389 0.013814254 4286083859
-0.013805822 0.0064848885 0.013393287 4285886743
-0.011514038 0.0051882342 0.01436964 4285952278
-0.0090481006 0.0031763092 0.016041879 4286148884
-0.0063999854 0.00044970959 0.018408243 4285820189
-0.0037304312 -0.0022752807 0.02077011 4285623074
0.0081334151 0.014551215 0.0021154638 4285490984
0.0087313168 0.019685157 -0.0031420682 4285558558
0.010073513 0.021961182 -0.005626658 4285886489
0.011993974 0.022095166 -0.0060357433 4285886489
0.014717497 0.019375265 -0.0036843754 4286018324
0.01766582 0.015943684 -0.00064795371 4285952534
0.020434745 0.013227195 0.0016939286 4285624093
0.022181129 0.014077008 0.00058936141 4285624348
0.02371072 0.015639231 -0.0012017628 4285624604
0.025015473 0.017913423 -0.0036777947 4285624348
0.02652096 0.019474193 -0.0054636151 4285689629
0.02779625 0.021746539 -0.007933218 4285755164
0.030166134 0.020457856 -0.0069715418 4285689628
0.032771431 0.018458277 -0.0053271092 4285623838
0.036302589 0.01361341 -0.0009482922 4285624094
0.041021772 0.0052141473 0.0068419091 4285559068
0.048831522 -0.012426622 0.02350115 4285559068
-0.036692377 -0.0018082857 0.022203423 4285032494
-0.035861667 0.0048134848 0.015442893 4285558814
-0.034422982 0.0078296289 0.012209298 4285886744
-0.032470148 0.007963188 0.011791322 4285952534
-0.030244146 0.0066566318 0.012777735 4285821209
-0.02786814 0.0046309382 0.014463546 4285689628
-0.025617804 0.0033262596 0.015444912 4285624349
-0.023212146 0.001302816 0.017124541 4285624348
-0.021231845 0.0014387965 0.016701084 4285624348
-0.019551106 0.0030133426 0.014879012 4285624093
-0.018033396 0.0053062439 0.012360565 4285624094
-0.01637641 0.0068793818 0.010543738 4285623838
-0.014256436 0.0062958524 0.010822147 4285755164
-0.011970498 0.0049943924 0.011796474 4285754909
-0.0095105805 0.0029754564 0.01346508 4285689373
-0.0067028217 -0.00047843158 0.016522132 4285623838
-0.0042053461 -0.0024944991 0.018182851 4285557538
0.0066692494 0.017959543 -0.0038812924 4285491749
0.0080198571 0.020242617 -0.0063628592 4285690138
0.0093544628 0.02252467 -0.0088409409 4285557793
0.011266781 0.02265808 -0.0092482939 4285557539
0.013780836 0.020644501 -0.0075900406 4285689374
0.016920654 0.016485631 -0.0038713617 4285755164
0.019474769 0.01447507 -0.0022214735 4285689628
0.021419117 0.01461117 -0.0026353085 4285624349
0.022940919 0.016177282 -0.004421548 4285690139
0.024238095 0.018457487 -0.0068910215 4285689884
0.025735795 0.020022139 -0.0086719599 4285952534
0.027442059 0.020871744 -0.0097659677 4285952533
0.030030701 0.018864274 -0.0081229322 4286083859
0.033084534 0.015430048 -0.0051164376 4285886744
0.036846869 0.0098563209 -6.7049637e-05 4285623838
0.042261526 -0.00070971996 0.0097491015 4285558814
0.050315082 -0.019117877 0.027046874 4285558814
-0.037455145 0.00016599149 0.017502025 4285164073
-0.036379639 0.0053608492 0.012163322 4285820953
-0.034686413 0.0069398507 0.010341259 4285755163
-0.032602724 0.0063506439 0.010625049 4285820953
-0.030104566 0.0035949722 0.013009489 4285952533
-0.027584929 0.00084090233 0.015389353 4285689628
-0.025468733 0.00025424361 0.015666429 4285689884
-0.023347061 -0.00033188611 0.015942372 4285624348
-0.021366894 -0.00019594282 0.015518937 4285624348
-0.01983558 0.0021043792 0.013002334 4285689884
-0.018320139 0.004403688 0.010489255 4285689629
-0.016665597 0.0059810057 0.0086761918 4285689374
-0.014548611 0.005395107 0.0089535546 4285689373
-0.012105502 0.0033683404 0.010620777 4285689629
-0.0096462741 0.001342766 0.01228462 4285689884
-0.0068395771 -0.0021221712 0.015333727 4285624093
0.005397398 0.020680405 -0.0091664046 4285558813
0.0073095374 0.020813577 -0.0095738862 4285886999
0.008636564 0.02310165 -0.012045408 4285755928
0.010738447 0.0225164 -0.011763558 4285755929
0.013246465 0.020495862 -0.010108966 4285821718
0.016379695 0.016323358 -0.0063986247 4285887509
0.01892776 0.014305837 -0.0047523966 4285624348
0.020658234 0.015158899 -0.0058502508 4285624349
0.022172268 0.016728818 -0.0076315189 4285624348
0.023675587 0.018298149 -0.0094104558 4285755418
0.025168195 0.019866794 -0.011186996 4285820954
0.026869165 0.020718217 -0.012278249 4285689373
0.029673524 0.017987378 -0.0099564567 4285820953
0.032723613 0.014541946 -0.0069573214 4285821208
0.037162922 0.0068023428 0.00012359023 4285689883
0.043039508 -0.0052280501 0.011276118 4285558558
0.051331166 -0.02440843 0.029210385 4285558558
-0.038341518 0.0028878078 0.012115549 4285624094
-0.036896486 0.0059217513 0.0088935252 4285689629
-0.035211015 0.0075045303 0.0070764087 4285557793
-0.033135641 0.0069125742 0.007360287 4285623583
-0.030510213 0.0034229755 0.010439051 4285755164
-0.02799676 0.00065966696 0.012813745 4285821209
-0.025886226 7.044524e-05 0.013090335 4285689884
-0.024058495 0.00092966855 0.011971299 4285624348
-0.022089139 0.0010648444 0.011550151 4285690139
-0.020568084 0.0033710226 0.0090406276 4285886999
-0.018758621 0.0042293146 0.0079257451 4285952533
-0.016954377 0.0050873682 0.0068120584 4286018324
-0.014682893 0.0037759915 0.0077828355 4285952533
-0.012080316 0.0010197088 0.010139141 4285689883
-0.0096191093 -0.0010123029 0.011797663 4285624349
-0.0069762878 -0.0037656054 0.014145534 4285558048
0.0045068525 0.021986321 -0.013056964 4285558814
0.0062159821 0.022839367 -0.014149172 4285624604
0.0075300597 0.025133148 -0.016613081 4285755928
0.009815814 0.023824431 -0.01564404 4285821464
0.012512665 0.021076404 -0.013306558 4285690393
0.015636623 0.016890161 -0.0096040722 4285558813
0.018175989 0.014865428 -0.0079608401 4285558814
0.019898497 0.015720107 -0.0090553705 4285558813
0.021404743 0.017293915 -0.010831753 4285624348
0.022686727 0.019586243 -0.013288245 4285887253
0.024385117 0.02043958 -0.014377389 4285689375
0.02651592 0.019855067 -0.014102656 4285557539
0.029095158 0.017833829 -0.012467379 4285623584
0.03258732 0.012940146 -0.0081146052 4285623838
0.037705157 0.0030216128 0.00098776072 4285624093
0.044504721 -0.0119178 0.014827808 4285624093
0.051880855 -0.02828493 0.03000116 4285558304
-0.040185954 -0.00031717867 0.012766261 4285098029
-0.038975086 0.0041814372 0.0081477407 4285623838
-0.037284214 0.0057688281 0.0063326303 4285821208
-0.035603862 0.0073556677 0.0045198109 4285689628
-0.033534128 0.0067610666 0.004803285 4285755418
-0.031051036 0.003986828 0.0071778111 4285886998
-0.028546441 0.0012141243 0.0095478464 4285755673
-0.02630293 -0.00010428578 0.010520868 4285624348
-0.024624448 0.0014829561 0.0087088458 4285690139
-0.022809874 0.0023435429 0.0075943172 4285755419
-0.021149773 0.0039297268 0.0057864562 4285754909
-0.019348282 0.0047896728 0.0046748444 4285623329
-0.017242726 0.0041984245 0.0049513206 4285689119
-0.014817115 0.002157189 0.0066123344 4285820699
-0.012215417 -0.00060794502 0.008962281 4285689629
-0.0099175386 -0.0019217059 0.0099243503 4285558303
-0.0076088943 -0.0032345578 0.010884169 4285623074
0.0035940297 0.015946202 -0.0096658971 4285359914
0.0045645125 0.019694835 -0.013504557 4285361444
0.0060843453 0.021273173 -0.015281161 4285361444
0.0075935274 0.022850834 -0.017055374 4285427744
0.009684084 0.02226042 -0.016774379 4285427743
0.012580071 0.01878126 -0.013759531 4285493789
0.015097382 0.016748309 -0.012116572 4285493789
0.01742534 0.015438557 -0.011159563 4285493788
0.018931855 0.017016612 -0.012932776 4285493279
0.020216957 0.019315615 -0.015385121 4285493023
0.021272643 0.022334978 -0.018514825 4285821719
0.023171101 0.022468209 -0.018918635 4285953044
0.025288226 0.021880575 -0.01864261 4285887254
0.028296173 0.018410183 -0.015650896 4285821719
0.032002922 0.012779899 -0.010628923 4285755928
0.03779282 0.00066886097 0.00048649684 4285755674
0.045508541 -0.017197609 0.017002508 4285755674
0.052429438 -0.032174379 0.030782651 4285624093
-0.040808301 0.00098190457 0.0087995362 4285361444
-0.039231833 0.0033039749 0.0062871743 4285493279
-0.037671182 0.0056250691 0.003778277 4285624604
-0.036126357 0.0079451427 0.0012728833 4285821464
-0.034064937 0.0073478073 0.0015564412 4285755928
-0.031590704 0.0045641437 0.0039263703 4285690139
-0.029371869 0.003239572 0.0049012545 4285558558
-0.027142201 0.0019158348 0.0058739632 4285624349
-0.025476824 0.0035065114 0.0040679872 4285624349
-0.023675542 0.0043683797 0.0029579289 4285821208
-0.022028562 0.0059579909 0.0011561066 4285755419
-0.020088587 0.0060913488 0.00074138492 4285557793
-0.017839588 0.0047695115 0.0017103218 4285557793
-0.015422661 0.0027210489 0.0033683255 4285754909
-0.012670044 -0.00078073889 0.0064042993 4285820954
-0.010215566 -0.0028263479 0.0080544055 4285492259
-0.0079100952 -0.0041438565 0.0090116728 4286411024
0.0038343668 0.012914054 -0.0094389347 4285294379
0.004810974 0.016674057 -0.013270739 4285295144
0.006336391 0.018257111 -0.015045241 4285360679
0.0080456249 0.019114718 -0.016134154 4285361189
0.010341037 0.017797925 -0.01517369 4285427234
0.012846962 0.015757523 -0.013533338 4285559323
0.014761399 0.015891314 -0.013940969 4285493788
0.01647066 0.016749345 -0.015029498 4285427999
0.018174563 0.0176071 -0.016116809 4285427488
0.019662604 0.019188359 -0.017882742 4285559068
0.020713553 0.022216141 -0.021004921 4285558814
0.022390671 0.023072422 -0.022086319 4285558304
0.024499474 0.02248197 -0.021810099 4285623838
0.027498338 0.019000009 -0.018824603 4285558559
0.0314193 0.012628734 -0.013136602 4285493278
0.037880123 -0.001688011 -1.7736107e-05 4285493023
0.046281289 -0.021776706 0.018485636 4285493023
-0.041062381 0.00010279566 0.0069369711 4285361443
-0.039363239 0.0016993582 0.0051264968 4285427233
-0.037802178 0.0040270165 0.0026223771 4285558814
-0.036126677 0.0056221783 0.00081712753 4285558814
-0.034195829 0.0057540983 0.00040376186 4285493278
-0.031993661 0.0044238865 0.0013788622 4285558813
-0.030057158 0.0045564175 0.00096445158 4285558814
-0.027979586 0.0039582625 0.0012431946 4285558814
-0.026183743 0.0048218295 0.00013577193 4285558558
-0.024393078 0.0056851208 -0.0009704046 4285690138
-0.022607628 0.0065481588 -0.0020753965 4285952788
-0.020827387 0.0074109659 -0.003179173 4285821208
-0.018589552 0.0060839951 -0.0022111088 4285886999
-0.016183998 0.0040281489 -0.00055558793 4285952278
-0.013443127 0.00051458925 0.0024747252 4285689118
-0.010837723 -0.0022677183 0.0048108995 4285557283
0.004260309 0.0091457292 -0.0085347034 4285163309
0.005434677 0.01218985 -0.011677417 4285229354
0.006970983 0.013778076 -0.013451022 4285229354
0.0088852607 0.013911493 -0.013858887 4285294889
0.010799546 0.014045045 -0.014266656 4285294888
0.013113145 0.012725249 -0.01331324 4285360679
0.014830464 0.013585903 -0.014401949 4285360933
0.016747424 0.013719991 -0.014810032 4285492514
0.018041391 0.016032651 -0.017254541 4285426723
0.019739984 0.016892351 -0.018339004 4285426214
0.02100721 0.019203372 -0.020777648 4285295143
0.022689726 0.020062178 -0.021858515 4285295398
0.024366861 0.020920724 -0.022938145 4285295398
0.02692263 0.018878199 -0.021312587 4285229863
0.031060115 0.011761673 -0.014962266 4285296163
0.037967063 -0.004048951 -0.00052490085 4285361954
0.046594519 -0.024923794 0.018607732 4285361954
-0.041071881 -0.002240181 0.0064688157 4285360933
-0.039245095 -0.0013730973 0.0053558163 4285361443
-0.037550885 0.00022757798 0.0035497099 4285360934
-0.035867151 0.0018276498 0.0017459411 4285360933
-0.03406119 0.0026936531 0.00063764863 4285493024
-0.031989578 0.002092652 0.00091585889 4285427488
-0.03032672 0.0036916658 -0.00088324957 4285361700
-0.028392885 0.0038241223 -0.001297012 4285295909
-0.026745725 0.0054222271 -0.0030925553 4285427744
-0.024816956 0.0055545494 -0.0035050809 4285361953
-0.023036782 0.0064194128 -0.0046073087 4285493278
-0.021110423 0.0065517724 -0.0050191581 4285558558
-0.018875778 0.0052201748 -0.004053697 4285558558
-0.016630333 0.0038894489 -0.003090445 4285689629
-0.013895851 0.00036448985 -6.6921115e-05 4285689375
-0.011458758 -0.0016955286 0.0015771277 4285819679
0.0039407127 0.0082838684 -0.010366991 4285163308
0.0054905638 0.0098773018 -0.012140307 4285229354
0.0074126869 0.010011151 -0.012549925 4285294889
0.009334825 0.010145113 -0.012959464 4285295143
0.01145377 0.009550117 -0.012689403 4285294633
0.013179138 0.010413401 -0.013778285 4285360678
0.014899172 0.011276439 -0.014865936 4285426723
0.016613858 0.012139238 -0.015952356 4285426723
0.018323176 0.013001814 -0.017037585 4285492259
0.020237289 0.013135925 -0.01744489 4285426469
0.021938572 0.013998121 -0.018528201 4285426469
0.023419004 0.015587859 -0.0202858 4285426468
0.025106866 0.016449355 -0.021366075 4285492514
0.027230976 0.015855782 -0.021096323 4285426978
0.03159526 0.0079904273 -0.014089227 4285295908
0.038505957 -0.0078680962 0.00031153113 4285295908
0.046906993 -0.028079338 0.018723644 4285295908
-0.040959779 -0.005323641 0.0066915303 4285295144
-0.039127607 -0.0044540688 0.0055790339 4285360933
-0.037300605 -0.0035847351 0.0044677202 4285360678
-0.035478767 -0.0027156025 0.0033575576 4285426724
-0.033794668 -0.0011110455 0.0015570261 4285492768
-0.031715352 -0.0017136782 0.0018319078 4285360933
-0.029906373 -0.00084514171 0.00072477944 4285229353
-0.028243136 0.00075832754 -0.0010710321 4285295399
-0.026733655 0.003096208 -0.0035538636 4285163818
-0.025094148 0.004698284 -0.0053444337 4285032493
-0.023316618 0.005565159 -0.0064445324 4285296164
-0.021241814 0.0049628541 -0.0061681475 4285296164
-0.019007675 0.0036268458 -0.0052058343 4285361699
-0.016762752 0.0022916719 -0.0042457581 4285624349
-0.014347799 0.00022344291 -0.0026019588 4285492258
0.0039933659 0.0059626624 -0.010835472 4285294889
0.0061119162 0.0053650811 -0.010567229 4285294888
0.0078533031 0.0062313229 -0.011658154 4285295144
0.0097833052 0.0063658357 -0.012069371 4285360678
0.011123493 0.0086943731 -0.0145143 4285426469
0.013244785 0.0080974698 -0.014246279 4285426723
0.014967527 0.0089628994 -0.015332866 4285426724
0.016889539 0.0090973377 -0.015742023 4285426469
0.018396968 0.010692969 -0.017502382 4285492259
0.020313609 0.010827281 -0.017910209 4285426468
0.022230225 0.010961697 -0.018317945 4285426469
0.024146806 0.011096232 -0.018725593 4285426469
0.025845375 0.011960715 -0.019806549 4285360678
0.027979851 0.01136566 -0.019540574 4285360934
0.03212931 0.0042062625 -0.01322544 4285426469
0.039269712 -0.012429364 0.001810329 4285360678
0.047218733 -0.031243347 0.018833447 4285360678
-0.041091781 -0.0069383308 0.005523501 4285360678
-0.039010804 -0.0075435117 0.0057960432 4285295398
-0.037051361 -0.0074099228 0.0053763371 4285295143
-0.035351191 -0.0058000311 0.0035755262 4285295398
-0.033661533 -0.0041906983 0.0017770138 4285361444
-0.031712275 -0.0040574744 0.001359731 4285295144
-0.02976286 -0.0039241239 0.0009425059 4285097518
0.0040456802 0.0036373436 -0.011306927 4285163563
0.0059781596 0.0037717894 -0.011718847 4285295143
0.0075285025 0.005374074 -0.013485618 4285361189
0.0096494369 0.0047747269 -0.01321933 4285426723
0.011382885 0.0056428239 -0.014306761 4285426469
0.013310097 0.0057773963 -0.014717199 4285426724
0.015237305 0.005912073 -0.015127547 4285492259
0.016960066 0.006779857 -0.016212463 4285426468
0.018470395 0.0083800852 -0.017970167 4285492259
0.020179791 0.0092471242 -0.019052025 4285492258
0.022308696 0.0086491629 -0.018786807 4285426468
0.024442909 0.0080517009 -0.018522624 4285426468
0.026146874 0.0089187101 -0.019603062 4285360933
0.028506782 0.0075900555 -0.018668603 4285360933
0.033108469 -0.0010540411 -0.011029676 4285360933
0.040257759 -0.01773937 0.0039667208 4285360933
0.047301296 -0.033684663 0.018267628 4285360934
-0.041223731 -0.0085527226 0.0043556858 4285426469
-0.039267283 -0.0084194764 0.0039365143 4285295398
-0.037310641 -0.0082861111 0.0035173949 4285295143
-0.035353836 -0.0081525967 0.0030983277 4285295143
-0.03366128 -0.0065387711 0.0013024695 4285229608
-0.031574618 -0.0071453229 0.0015724823 4285295143
-0.029620018 -0.0070116445 0.0011541229 4285098029
0.0046543516 -0.00090139359 -0.0097502396 4285228588
0.0065973513 -0.00076622516 -0.010164414 4285294889
0.0079676844 0.0015773028 -0.012606166 4285360934
0.0099027287 0.0017121658 -0.013018455 4285361188
0.011641551 0.0025828406 -0.014105402 4285426468
0.013772851 0.0019822568 -0.013842773 4285492259
0.01550635 0.0028528124 -0.014928397 4285492258
0.0172345 0.0037231222 -0.01601278 4285492259
0.018750377 0.0053281412 -0.017768458 4285492258
0.020674735 0.0054629967 -0.018177923 4285492259
0.022386815 0.0063325465 -0.019258618 4285492259
0.024308447 0.0064674467 -0.019667331 4285426469
0.026012454 0.0073366538 -0.02074613 4285360678
0.028812367 0.0045355335 -0.018475529 4285426978
0.033639919 -0.004868418 -0.010187708 4285426724
0.040792756 -0.021603785 0.0047704596 4285098793
-0.041112896 -0.011652932 0.0045663398 4285229099
-0.039027218 -0.012262203 0.0048345812 4285295143
-0.037189413 -0.011385657 0.0037257858 4285229354
-0.035356786 -0.010509275 0.0026181564 4285295144
-0.033661339 -0.0088908896 0.00082493015 4285295143
-0.03170703 -0.0087573752 0.00040652975 4285295398
-0.029615212 -0.0093656555 0.00067388639 4285163818
-0.027797949 -0.0084899142 -0.00043007731 4284966703
0.014433257 -0.0025635064 -0.012305032 4285425193
0.01637885 -0.0024275482 -0.012719303 4285491494
0.01812038 -0.0015541092 -0.013804901 4285360678
0.019649826 5.6244433e-05 -0.01556021 4285426723
0.020959198 0.0024029016 -0.017983399 4285361188
0.02288872 0.0025382414 -0.01839387 4285360933
0.024603479 0.0034102723 -0.019473422 4285360679
0.02631285 0.0042821169 -0.020551763 4285295398
0.029337272 0.00073636323 -0.017620575 4285229608
0.034615736 -0.01016771 -0.0080201076 4285229608
0.041552037 -0.026216857 0.0062317755 4285228843
-0.036815856 -0.015983388 0.0053007398 4284901168
-0.035101693 -0.014359489 0.0035066567 4284966703
-0.033529874 -0.011991628 0.0010296404 4285098029
-0.031704884 -0.011113428 -7.4535608e-05 4285163818
-0.029885057 -0.010235481 -0.0011775186 4285098284
-0.027930591 -0.010101713 -0.0015957756 4284966959
0.021580152 -0.0089341477 -0.010021106 4285294634
0.022916608 -0.0065789893 -0.012445224 4285229608
0.024237022 -0.0042248294 -0.014865827 4285229098
0.0259705 -0.0033492893 -0.015947722 4285228843
0.027264163 -0.00099675357 -0.018362451 4285294889
0.030300846 -0.0045525655 -0.015441996 4285229608
0.035367142 -0.014750496 -0.0065340642 4285098538
-0.031300057 -0.015713207 0.0014906861 4285163309
-0.029606525 -0.014086008 -0.00029546767 4285228843
-0.027644206 -0.013951719 -0.00071541499 4284901423
