# .PCD v0.7 - Point Cloud Data file format
VERSION 0.7
FIELDS x y z rgba
SIZE 4 4 4 4
TYPE F F F U
COUNT 1 1 1 1
WIDTH 968
HEIGHT 1
VIEWPOINT 0 0 0 1 0 0 0
POINTS 968
DATA ascii
-0.014780506 0.0017970502 0.010632364 4288492843
-0.012804545 0.0019183606 0.010250138 4288558379
-0.010950424 0.0027419776 0.009149557 4288623658
-0.00910151 0.0035654306 0.0080500077 4288558379
-0.006875664 0.0022829175 0.0091036912 4288558379
-0.0042487755 -0.0011039674 0.01230585 4288688938
-0.0014621764 -0.0051906556 0.016219197 4289408548
0.0012212954 -0.0085738599 0.019410567 4289016614
0.0037936419 -0.011254065 0.021881534 4288558634
0.0066691414 -0.015334941 0.025777923 4287708974
-0.016876563 4.6014786e-05 0.0098434556 4288035118
-0.014900893 0.00016717613 0.0094611961 4288231469
-0.012925051 0.00028842688 0.009078959 4288493353
-0.011070885 0.0011142343 0.0079799686 4288558634
-0.0090973973 0.0012355521 0.0075983424 4288558379
-0.0068693236 -5.1215291e-05 0.0086482856 4288427819
-0.0042407066 -0.0034490377 0.011841984 4288689449
-0.0015851185 -0.0068450868 0.015030554 4289801759
0.00082691759 -0.0088321865 0.016785571 4290195478
0.0035310388 -0.012225039 0.019964913 4289281559
-0.01316449 -0.00063439459 0.0071922597 4287774763
-0.011312976 0.00019346178 0.006095333 4288362538
-0.0090935454 -0.0010984093 0.0071436595 4288427309
-0.0069902912 -0.0016831532 0.0074757431 4288492844
-0.0044923574 -0.0043859184 0.0099478457 4288558378
-0.0021052137 -0.0063812882 0.011702714 4290522644
0.00043321401 -0.0090813115 0.014167102 4289608468
-0.0093383864 -0.002019152 0.0052597839 4288035118
-0.0069843456 -0.0040233433 0.0070159677 4288492844
-0.0046140701 -0.0060264766 0.0087691341 4288492843
-0.0022275671 -0.0080284923 0.010519249 4289935634
0.018103775 -0.017516188 0.01765004 4287183673
0.014805276 -0.023705028 0.021467904 4289345563
0.016092468 -0.02003216 0.017542249 4290587413
0.011291876 -0.019120939 0.014300706 4289541914
0.01317171 -0.018283658 0.013204044 4290261269
0.013665888 -0.011045001 0.0057703052 4290194968
0.0062515438 -0.0167602 0.0096545685 4288691743
0.0084107891 -0.017349631 0.0099698324 4289475869
0.0099841356 -0.015083268 0.0074693728 4290587413
0.010939371 -0.0099631548 0.0021594372 4290392594
0.0034158491 -0.014961287 0.0053331796 4288495649
0.0055586062 -0.01555407 0.0056499224 4289475869
0.0072718374 -0.013997793 0.0038578622 4289736989
0.0080883726 -0.0081457794 -0.0021446925 4291897349
0.0010194071 -0.015294872 0.0031304602 4288103458
0.0030142404 -0.015171766 0.0027450603 4289540639
0.0050091855 -0.015048519 0.0023597311 4289736733
0.0059904009 -0.0098962709 -0.0029327422 4289409824
0.00062401593 -0.015495874 0.00054790266 4289540894
0.0027526468 -0.016094074 0.00086402707 4290914578
0.0048867501 -0.016691804 0.0011791792 4291045649
0.0055796355 -0.010082826 -0.0055010784 4290784019
-0.0034757704 -0.017379463 0.00013957731 4288234529
-0.0017543957 -0.015809968 -0.0016447715 4289737754
0.00022932142 -0.015687697 -0.0020281319 4290063644
0.0024914369 -0.017011642 -0.0010136198 4290325274
0.0046225414 -0.017611787 -0.00069952011 4289605918
0.0054585934 -0.011705957 -0.0066671167 4290261014
-0.0041209571 -0.016114131 -0.0038328804 4289018400
-0.0021428727 -0.015992343 -0.0042152554 4290064409
-2.8371811e-05 -0.016595945 -0.0038997456 4290848789
0.0019526333 -0.01647374 -0.0042825136 4289212964
0.0040753931 -0.017076604 -0.0039684307 4288885798
0.0054819323 -0.014053859 -0.0071366336 4290326293
-0.0067318827 -0.014951795 -0.007412076 4289936399
-0.0046340302 -0.015558898 -0.0070951674 4289802523
-0.0026641265 -0.015437618 -0.0074759685 4290063389
-0.00069409609 -0.015316211 -0.0078567024 4290259483
0.0012760311 -0.015194699 -0.0082373861 4290325274
0.003387779 -0.015800498 -0.0079227556 4289932063
0.0052166209 -0.014951281 -0.0089985412 4292158723
-0.0067238659 -0.017302081 -0.0078797732 4288364323
-0.0047542304 -0.017180949 -0.0082606189 4288820263
-0.0027844682 -0.017059714 -0.0086414199 4289015849
-0.00095055997 -0.016208403 -0.0097167883 4289538853
0.0010167509 -0.01608707 -0.010096932 4289604643
0.0031254888 -0.016695216 -0.0097833965 4289540128
0.0049516857 -0.015844032 -0.010857018 4290718483
-0.0046135038 -0.020267725 -0.0080376361 4288362029
-0.0027716458 -0.019413859 -0.0091130231 4288492588
-0.00093504041 -0.018560141 -0.010187348 4288754218
0.0010348037 -0.018438682 -0.010568006 4289081128
0.0031459257 -0.019048944 -0.010256512 4289539874
0.0051186532 -0.018927068 -0.010637537 4290849298
-0.0040825307 -0.025567055 -0.0057432391 4288099634
-0.0024931952 -0.023241118 -0.0082036499 4288034864
-0.00078417361 -0.021650419 -0.009969363 4288296238
0.0011908934 -0.021528631 -0.010351026 4288492588
0.0033070557 -0.022140749 -0.010042172 4288427053
0.0051413253 -0.021284692 -0.011114137 4288885799
-0.0040736347 -0.027940549 -0.0062282253 4288164658
-0.002215676 -0.027081326 -0.007303521 4288165168
-0.00036294758 -0.026222304 -0.0083777122 4288165679
0.0016226843 -0.02609989 -0.0087614227 4288361773
0.0034675747 -0.025241092 -0.0098339748 4288492844
0.0053072199 -0.024382487 -0.010905351 4288754473
0.0068491995 -0.022052318 -0.013351281 4288822303
-0.0039350688 -0.031057253 -0.0060267709 4288100909
-0.002204366 -0.029456556 -0.0077903606 4288165934
-0.00034894794 -0.028595194 -0.0088634752 4288034863
0.0016392097 -0.028472632 -0.009247683 4288362029
0.0034868121 -0.027611494 -0.010319091 4288296749
0.0054724887 -0.027488858 -0.010702655 4288950824
0.0074582696 -0.027366057 -0.011086125 4288100399
0.0091467053 -0.025767237 -0.012841019 4287904303
0.010824509 -0.024168983 -0.014593708 4287904303
-0.0043162853 -0.031217188 -0.0085825399 4287839024
-0.0021933429 -0.031835869 -0.0082801431 4288035373
-0.00033524632 -0.030972175 -0.0093521774 4288165678
0.001655452 -0.030849472 -0.0097368881 4288427564
0.003505744 -0.029985979 -0.010807212 4288427564
0.0056371465 -0.030603662 -0.01050609 4288689194
0.0074822605 -0.029740259 -0.011575241 4288231724
0.0090250075 -0.027396724 -0.014011583 4287969583
0.010854214 -0.026534051 -0.015077471 4288230958
0.012524217 -0.024931788 -0.016825352 4288297003
0.014496751 -0.024809331 -0.017205913 4288035883
-0.0045671612 -0.032111526 -0.010445546 4287382065
-0.0024472252 -0.032732613 -0.010144204 4287774508
-0.0004567951 -0.032610059 -0.010528963 4288035628
0.0013960749 -0.031744376 -0.011598278 4288166443
0.0033840463 -0.031621709 -0.011982378 4288558889
0.0052290857 -0.030756265 -0.013049997 4288428074
0.0072145611 -0.030633524 -0.01343343 4288231724
0.008903347 -0.029025897 -0.015181932 4288166188
0.011034682 -0.029645413 -0.014882144 4288166188
0.012710229 -0.028038397 -0.016627859 4288035119
0.01484438 -0.028657481 -0.016328435 4287969583
0.01650665 -0.027051061 -0.018071409 4288427564
0.018481821 -0.026928186 -0.018452294 4288100398
0.0011370778 -0.032634556 -0.013456274 4287906089
0.0032623857 -0.033257142 -0.013157319 4288494373
0.00525029 -0.033134401 -0.013541337 4288231979
0.0070927516 -0.032266781 -0.014606755 4288231979
0.0089299306 -0.031399325 -0.015671093 4288100653
0.010761835 -0.030532122 -0.016734287 4288100653
0.012742028 -0.030409336 -0.017116431 4288100398
0.014566034 -0.029542357 -0.018177908 4288165678
0.016702607 -0.030163363 -0.017880473 4288492333
0.019329436 -0.03301511 -0.015548799 4288230704
0.021977764 -0.035865389 -0.013221174 4287315253
0.023812681 -0.034997225 -0.01428438 4286727224
0.0049858242 -0.034022421 -0.015396442 4287970859
0.007116355 -0.03464663 -0.015099935 4287970604
0.0088081695 -0.033030063 -0.016842563 4288231724
0.010941558 -0.033653915 -0.016546391 4288362539
0.012620121 -0.032037899 -0.018286277 4288297004
0.014444135 -0.031168744 -0.019346144 4288558379
0.016739152 -0.032538049 -0.018372942 4288492844
0.019690756 -0.036890365 -0.014694463 4288362029
0.022674553 -0.041240498 -0.011022128 4287838258
0.025190122 -0.043351695 -0.0093831867 4287315253
0.0091301091 -0.036907442 -0.015980393 4287904813
0.010970075 -0.036035359 -0.017041918 4288493608
0.012651492 -0.034414805 -0.018779133 4288624168
0.014322262 -0.032794833 -0.020514172 4288492844
0.016616799 -0.034168564 -0.019544113 4288427308
0.019244678 -0.037037805 -0.017225564 4288100143
0.022549897 -0.042897463 -0.012212225 4287445813
0.02539809 -0.04651089 -0.0092296507 4287576628
0.012988728 -0.038297512 -0.01792454 4288100654
0.014511947 -0.035921939 -0.020332634 4287969583
0.016652919 -0.0365493 -0.020040862 4288230958
0.01928265 -0.039427221 -0.017729141 4288165679
0.02258905 -0.045304298 -0.012728979 4287184183
0.017321829 -0.041944928 -0.017850265 4287380023
0.019964136 -0.044830821 -0.015547425 4287117883
-0.014795966 0.043796062 0.03270378 4281501508
-0.013800114 0.049129874 0.026277011 4279744049
-0.01198522 0.049901202 0.025147213 4280525624
-0.0089175105 0.044159666 0.031568669 4280135219
-0.017794892 0.047288213 0.02587449 4281696839
-0.016327642 0.050023798 0.022480315 4280002874
-0.015001953 0.053411927 0.018335851 4281372988
-0.013211139 0.054183926 0.017212296 4281764158
-0.010922939 0.052341722 0.019103529 4281373244
-0.0074636266 0.04462079 0.02776779 4281047353
-0.003677696 0.035597645 0.037924379 4280655673
-0.020411648 0.048849389 0.021325765 4281438014
-0.018831976 0.050937161 0.018692395 4280980544
-0.017268203 0.053024061 0.016062101 4280198969
-0.015960537 0.056422073 0.011929216 4279613999
-0.014065646 0.056539193 0.011563247 4279809583
-0.01166866 0.054033596 0.014204608 4279615019
-0.0084811375 0.047596246 0.021349674 4280135984
-0.0057631209 0.043783739 0.025481226 4281112889
-0.0034132786 0.041938867 0.027355785 4281112633
-0.00091097504 0.039440062 0.029977003 4280917049
0.0011962578 0.038907249 0.030346362 4281176383
0.003733743 0.036410745 0.032960884 4279938869
0.008024022 0.026061311 0.044549651 4280262974
-0.022890307 0.049775798 0.017541396 4280851004
-0.021313094 0.051869981 0.014913263 4280655164
-0.019293502 0.051328924 0.015297467 4281045824
-0.017268367 0.050788276 0.015680647 4281046333
-0.016077213 0.054855727 0.010803932 4280981564
-0.014182366 0.054972801 0.010437949 4281046843
-0.011911444 0.053116195 0.012322696 4280916793
-0.0087283477 0.046656441 0.019452328 4281177659
-0.0065367743 0.045460749 0.020578029 4281112379
-0.0047343746 0.046238013 0.019455662 4281178169
-0.0029371977 0.04701503 0.018334357 4281113144
-0.0012839809 0.048448898 0.016466437 4279613488
0.00092428178 0.047254473 0.017589157 4280589373
0.0042961985 0.040806815 0.024682643 4279938359
0.0093365759 0.027140133 0.039972782 4279352115
-0.025026679 0.048737854 0.016022542 4279939124
-0.023552924 0.051500004 0.012646375 4279416119
-0.021653548 0.051617064 0.012279296 4278504494
-0.019410767 0.049751788 0.014164379 4280002873
-0.017385863 0.049208868 0.014545945 4280915518
-0.016074039 0.052629128 0.010428445 4280916284
-0.014176592 0.052746318 0.010061929 4280916029
-0.011903562 0.050883174 0.01194136 4280916028
-0.0092308 0.047041237 0.016062038 4280851004
-0.007439211 0.047819942 0.014943311 4280916028
-0.0059192292 0.049917683 0.012331447 4280982328
-0.0041434541 0.050695542 0.011215871 4280265014
-0.0025114603 0.052132443 0.0093553234 4281371969
-0.00046635792 0.051591374 0.0097334292 4281828674
0.0025917813 0.046437908 0.015325626 4281306434
0.0062794685 0.038652021 0.023887502 4281241153
0.010181028 0.030211549 0.033180989 4281242939
-0.026949875 0.046377651 0.016008468 4281176893
-0.025568537 0.049812902 0.011885343 4280589118
-0.023996077 0.051919833 0.0092677977 4280523839
-0.02210483 0.052036334 0.0089022536 4279742773
-0.019642182 0.048837859 0.012282314 4280785214
-0.017269462 0.04630395 0.01490861 4280720189
-0.015592709 0.04774756 0.013042239 4280916538
-0.013804227 0.048528034 0.011925561 4280916284
-0.011770986 0.047983579 0.01230401 4280785724
-0.0098598674 0.048101705 0.011934916 4280915773
-0.0082092732 0.04954394 0.010073846 4281046843
-0.0065692738 0.050985619 0.0082148332 4281177404
-0.0046684444 0.051103324 0.0078478809 4279939378
-0.0030442737 0.052544117 0.0059920643 4279417648
-0.00086639076 0.051338948 0.0071140546 4280134964
0.0018974319 0.04748974 0.01120772 4280069683
0.0051329434 0.04165956 0.017523872 4280071468
0.0084169023 0.035832461 0.023830725 4281504569
0.01387484 0.020758834 0.04051438 4281504569
-0.029482283 0.0480095 0.011491647 4281306433
-0.02768705 0.048792087 0.010374909 4280330038
-0.026002988 0.050240144 0.0085101444 4280654908
-0.024220735 0.051022075 0.0073960219 4281176639
-0.022332259 0.05113836 0.0070309769 4280915773
-0.019987285 0.048593834 0.0096560102 4279938869
-0.017737426 0.046715725 0.01152995 4280525623
-0.0158296 0.046833411 0.011161318 4280981819
-0.014287964 0.048945382 0.008554766 4281046843
-0.012512647 0.049727291 0.0074422788 4280981819
-0.010870017 0.051173333 0.0055859219 4281111614
-0.0089776218 0.051290333 0.0052204672 4280981053
-0.00708507 0.051407419 0.0048550423 4281112124
-0.0051923841 0.051524591 0.0044896398 4281046333
-0.0035760291 0.052969322 0.0026385076 4280916284
-0.0012657009 0.051095583 0.0045012403 4280916284
0.0016352609 0.046569288 0.0093281921 4280851003
0.0051590726 0.03939249 0.017113114 4281046079
0.0091889836 0.030230217 0.027109055 4281046079
0.014810767 0.014443636 0.044493206 4281306434
-0.030909777 0.042312682 0.015225323 4281566278
-0.029598407 0.046439908 0.010363845 4281046333
-0.027906276 0.04789276 0.0085006859 4281046843
-0.026436381 0.050680939 0.0051446017 4279939633
-0.0246621 0.051464535 0.0040336046 4279744049
-0.022670515 0.050912675 0.0044165421 4278963239
-0.020331644 0.04835885 0.0070362594 4279939888
-0.018204339 0.04714103 0.008160999 4281177404
-0.016185351 0.046591021 0.0085388366 4281112123
-0.014770649 0.049376212 0.0051937196 4281177149
-0.013252579 0.051493388 0.0025966205 4279026733
-0.011495814 0.05227638 0.0014893599 4279417139
-0.0072017536 0.0498439 0.0037318356 4280069173
-0.0053091496 0.049961023 0.0033664256 4281111614
-0.0034164116 0.050078228 0.003001038 4280980798
-0.00096056238 0.047532346 0.0055986885 4280654654
0.0022340789 0.041659769 0.011893379 4280719424
0.0060616322 0.033128481 0.021137593 4280654144
0.01055434 0.021940406 0.033325203 4280718913
0.016350389 0.0054370761 0.051404655 4280784194
-0.030538447 0.037376799 0.017825386 4281436228
-0.02921278 0.041518051 0.012970896 4280982329
-0.027713023 0.044316772 0.0096154492 4281438523
-0.026340209 0.047784418 0.0055182744 4281242174
-0.024668872 0.04924053 0.0036623999 4281242173
-0.022785924 0.049356379 0.0032983534 4281177149
-0.020561554 0.047463298 0.0051673632 4281112124
-0.018670179 0.047579814 0.004801793 4281177404
-0.016897731 0.048365735 0.0036929455 4280982074
-0.015374079 0.050489761 0.0010995567 4280851258
-0.013741858 0.051943839 -0.00074840337 4280004659
-0.011865899 0.052059688 -0.0011107847 4280459833
-0.0094704106 0.049500961 0.0014917385 4278636839
-0.0071858242 0.047612108 0.0033494849 4279222319
-0.0050202087 0.04639269 0.0044639129 4280850749
-0.0031195208 0.046510361 0.0040969718 4281046334
-9.4026327e-05 0.04128404 0.0096433219 4280785469
0.0034043565 0.034056924 0.017397346 4280654398
0.0078376383 0.022827573 0.029568674 4280915264
0.01191641 0.013606455 0.039509632 4280980544
-0.029876202 0.030400351 0.022647267 4282152013
-0.028428018 0.033883456 0.018543495 4281501509
-0.027109273 0.03803758 0.013700055 4281109828
-0.025822483 0.042189762 0.0088628922 4281176384
-0.024243034 0.044323444 0.0062632989 4281371713
-0.022568569 0.045784157 0.0044101346 4280981563
-0.020791046 0.046572402 0.0033017918 4280851768
-0.019018717 0.047360443 0.0021944568 4281046845
-0.017370507 0.048819751 0.00034652837 4280785979
-0.015854493 0.050949886 -0.0022405349 4279807798
-0.014230095 0.052407861 -0.0040837638 4281437249
-0.012235284 0.051852114 -0.0037044585 4281567554
-0.009845905 0.049284115 -0.0011072308 4281241408
-0.0071701854 0.045376085 0.0029640906 4280785214
-0.0047322065 0.042811237 0.0055520441 4280589118
-0.0024103485 0.040918175 0.0073977988 4280980799
0.0010510758 0.033664439 0.015140964 4281111359
0.0051441044 0.023734201 0.02582095 4281046078
0.0091720149 0.014478933 0.035748899 4281567554
0.012681328 0.0079072714 0.042718388 4281957959
-0.029508479 0.025413942 0.02521099 4282086734
-0.028046161 0.02890889 0.021112567 4281567044
-0.026610427 0.032402281 0.017019333 4281175363
-0.025095917 0.035219535 0.013674004 4281306433
-0.023602657 0.038035549 0.010332832 4280980543
-0.022019915 0.040176086 0.0077374969 4280850238
-0.020339638 0.041641582 0.0058864709 4280719423
-0.01901821 0.045128316 0.0018156152 4281111359
-0.017723449 0.048613489 -0.0022500306 4280915008
-0.016333848 0.05142349 -0.0055708885 4280133179
-0.014593124 0.052211978 -0.0066703521 4279611958
-0.012730762 0.052326906 -0.0070301592 4279677749
-0.010220677 0.049076363 -0.0036996752 4279807798
-0.0075514168 0.045154668 0.00036312267 4280069174
-0.0045800284 0.03988947 0.005893765 4280654909
-0.0014279857 0.033954419 0.012152633 4280980544
0.0026139989 0.023987819 0.022818023 4280849219
0.0061649159 0.016715396 0.030526077 4281502018
0.0097750165 0.009446688 0.03822282 4282154054
0.012999371 0.004197605 0.04370489 4282348364
-0.029530957 0.023114819 0.024788236 4281955918
-0.027965389 0.025943827 0.021439379 4281566534
-0.02631852 0.028094638 0.018836303 4281501254
-0.024582312 0.029567715 0.016977513 4281371203
-0.022856623 0.031040214 0.015120814 4281436484
-0.021362595 0.033865139 0.011786019 4281110594
-0.019889809 0.036688816 0.0084553752 4280980544
-0.018554255 0.040187415 0.0043898802 4281045824
-0.01724533 0.043684445 0.00032958761 4281110338
-0.015963063 0.047179908 -0.0037254989 4280848709
-0.014583483 0.049998157 -0.0070378967 4280914754
-0.012591869 0.049437739 -0.006661268 4281045568
-0.010336041 0.04752706 -0.0048127212 4281112379
-0.0072717667 0.041566584 0.0014482904 4281243448
-0.0038895831 0.034259144 0.0091709029 4281112379
-3.6023557e-05 0.024930988 0.01908681 4281242684
0.0036126673 0.016956881 0.027519507 4281632323
0.0066120327 0.01235934 0.032270454 4282022474
0.009794578 0.0070898607 0.037747554 4282217548
0.013168328 0.0011490062 0.043949232 4282413133
-0.029650673 0.021491017 0.023621382 4282151503
-0.027984865 0.02364948 0.021019427 4281304138
-0.026130207 0.024448644 0.019900711 4281370183
-0.02438572 0.025926594 0.018043531 4281436229
-0.022436306 0.026046272 0.017666442 4281371459
-0.020928301 0.028880823 0.014335403 4281305924
-0.019328475 0.031035621 0.011746487 4281305924
-0.01797609 0.034546237 0.0076858271 4281045313
-0.016650349 0.03805529 0.003630368 4280980288
-0.015351266 0.041562781 -0.00041987374 4280784703
-0.013707377 0.043035123 -0.0022572502 4281110594
-0.011947565 0.043829165 -0.003357105 4280784194
-0.0096762255 0.041912794 -0.0015164502 4280915519
-0.0065974295 0.035933282 0.0047271568 4280850238
-0.0026628636 0.025893625 0.015364403 4281046079
0.0012151226 0.016536064 0.025252832 4280850749
0.0041889474 0.01192135 0.029997302 4281111104
0.0067726672 0.0093392357 0.032537699 4281825868
0.0098138563 0.0047288761 0.037269287 4282347854
0.013336666 -0.0019081607 0.044187345 4282543694
-0.029576644 0.018504012 0.023933658 4282151759
-0.027905077 0.020669345 0.021335458 4281173068
-0.026044987 0.021471046 0.020217242 4281174089
-0.02429492 0.022953693 0.018362185 4281436484
-0.022447802 0.023754712 0.017246636 4281436484
-0.020826325 0.02591734 0.014658315 4281306179
-0.019107796 0.027398285 0.012809543 4281305668
-0.017515443 0.029559284 0.010226978 4281175363
-0.015938997 0.031719368 0.0076475386 4281175363
-0.014378458 0.033878531 0.005071288 4281240899
-0.012833856 0.03603683 0.0024981312 4281111104
-0.011052512 0.036834363 0.0013957079 4281045824
-0.0086312741 0.034232888 0.0039606933 4281176384
-0.0053982064 0.027555313 0.010918049 4281567299
-0.001573775 0.018163454 0.020794006 4281829184
0.0017776564 0.011493359 0.027728627 4282024004
0.0043443739 0.0089012086 0.030265762 4282153544
0.0070751384 0.0056315809 0.033529453 4282218059
0.010123108 0.0010061637 0.038248353 4282413134
0.013652202 -0.0056525618 0.045148939 4282543183
-0.02782587 0.017680645 0.021645242 4282806854
-0.025960341 0.01848479 0.020527599 4281827653
-0.024414115 0.02133907 0.017201966 4281697348
-0.022459552 0.021458965 0.016823804 4281566788
-0.020724908 0.022945192 0.014975073 4281371458
-0.019000806 0.024430897 0.013128391 4281501763
-0.017402686 0.026598778 0.010549596 4281371459
-0.015702359 0.028083183 0.0087076295 4281306179
-0.014012575 0.029566977 0.0068678055 4281240898
-0.012209877 0.030367959 0.005762754 4281175874
-0.010538541 0.031850789 0.0039266236 4281306433
-0.0081046596 0.029241242 0.006482644 4281306179
-0.004859928 0.022542294 0.013421489 4281371203
-0.0011587143 0.013801839 0.022541935 4281958724
0.001790978 0.0091546476 0.027268188 4282415173
0.0046387874 0.005191125 0.031257667 4282479943
0.0073766708 0.0019108877 0.034511857 4282347853
0.010431409 -0.0027295202 0.039218023 4282347598
0.013819143 -0.0087291449 0.045373097 4282478159
-0.025978155 0.016175788 0.02009646 4283200573
-0.024115033 0.016982015 0.018980926 4282481473
-0.022257052 0.017788015 0.017866453 4281893698
-0.020514175 0.019279152 0.01601929 4281697859
-0.01900699 0.02214006 0.01270785 4281501763
-0.017405801 0.024314705 0.010133302 4281371459
-0.015702583 0.025803667 0.0082939919 4281305924
-0.013889238 0.026607342 0.0071884599 4281175363
-0.012204431 0.028095286 0.0053528827 4281175363
-0.010152169 0.027529638 0.0057111923 4281306179
-0.0077083185 0.024911854 0.008258773 4281502529
-0.0045859776 0.018875401 0.014450071 4281762884
-0.0011470914 0.01147433 0.02209015 4281958469
0.001530543 0.0081791282 0.0253477 4282219589
0.0043745562 0.0042021647 0.02932811 4282545734
0.0072509125 0.00022725761 0.033302389 4282544969
0.010304399 -0.0044286922 0.037997425 4282543949
0.013985477 -0.011814356 0.045591123 4283001163
-0.020304345 0.015600048 0.017054183 4283265089
-0.018788576 0.018470254 0.013747538 4282023749
-0.017294064 0.021339245 0.010445071 4281632068
-0.015703037 0.023519922 0.007877389 4281371204
-0.013886966 0.024325982 0.0067728776 4281109829
-0.012076102 0.025131758 0.0056694839 4281240133
-0.010144591 0.025250737 0.0052961539 4281371459
-0.0078273341 0.02331062 0.0071083661 4281436738
-0.004837811 0.017940458 0.012557333 4281697859
-0.0015374124 0.011200842 0.019453017 4281893444
0.0012704842 0.0072082952 0.02343058 4281894973
0.0042499751 0.0025321245 0.028128376 4282221118
0.0071252212 -0.0014561117 0.032093115 4282546244
0.010177419 -0.0061276034 0.036777005 4282936649
-0.018571049 0.014787424 0.014777852 4283330878
-0.017067961 0.017665721 0.011480188 4282350148
-0.015586138 0.020542797 0.0081866961 4281697094
-0.013764657 0.021351296 0.0070827771 4281174598
-0.012071364 0.02284855 0.0052519497 4281175109
-0.010137282 0.022967674 0.0048781093 4281371203
-0.0078179464 0.021021023 0.0066850167 4281567554
-0.0048271604 0.015633233 0.012120778 4281567044
-0.0013921112 0.008183375 0.019725861 4281959998
0.0016928613 0.0028015822 0.025143554 4282285888
0.0044036359 -0.00051358342 0.028378511 4282481984
0.00728314 -0.0045147538 0.032332622 4282743359
-0.013402626 0.016985413 0.0088402163 4283723069
-0.011821218 0.019178864 0.0062841568 4282089284
-0.010004707 0.01998942 0.0051829349 4281762629
-0.0076806322 0.018036466 0.0069839898 4281632324
-0.004816778 0.013321914 0.011681205 4281894464
-0.0012474209 0.0051572993 0.019992581 4282286653
0.0018414892 -0.0002418682 0.025396476 4282677058
-0.011449337 0.01480278 0.0080317352 4284049724
-0.0097474083 0.016309407 0.0062057506 4283003458
-0.0074158907 0.014350228 0.0080005284 4282155074
-0.0045452416 0.0096206442 0.012685051 4282351679
-0.001103323 0.0021226704 0.020253072 4282613053
0.0019895099 -0.0032939538 0.025643254 4284050489
-0.029819816 -0.0048004165 0.019480152 4282607954
-0.028019764 -0.0032712519 0.017647346 4282088263
-0.026029058 -0.0031497106 0.017261768 4282088263
-0.024244644 -0.0016213581 0.015432177 4283200828
-0.029845513 -0.0071537122 0.019018291 4282216273
-0.028140284 -0.00491409 0.016466672 4281762119
-0.026250094 -0.0040868595 0.015360134 4281762119
-0.024468161 -0.0025542378 0.013534194 4282091068
-0.022485204 -0.0024330243 0.013150232 4283070523
0.0090201274 -0.019005418 0.026308225 4284118063
0.012243051 -0.024501793 0.031608649 4283594804
-0.029776551 -0.010219388 0.019273857 4282347599
-0.02816318 -0.0072647557 0.016006069 4281500489
-0.026270263 -0.0064351857 0.014900601 4281435974
-0.024588361 -0.0041902363 0.012358466 4281762883
-0.022816725 -0.0026538372 0.01053785 4281958979
-0.02094733 -0.001825422 0.0094371457 4281893953
-0.018972144 -0.0017045438 0.009054793 4282090048
-0.0171104 -0.00087639689 0.0079557169 4283333939
0.0059962496 -0.016593605 0.021218488 4284510764
0.008750625 -0.019994177 0.024380164 4284185128
0.01153193 -0.023392953 0.027536714 4283988524
0.014785692 -0.028904937 0.032818288 4284052529
-0.029992342 -0.011162169 0.017366825 4282151503
-0.0282837 -0.0089092106 0.014824199 4281435719
-0.026390761 -0.0080774873 0.013720313 4281631813
-0.024708495 -0.0058259666 0.011182936 4281763138
-0.022831209 -0.0049950182 0.010082224 4281698113
-0.02106721 -0.0034546107 0.0082663689 4281697603
-0.019202948 -0.0026242658 0.0071683172 4281697859
-0.017457344 -0.0010847449 0.0053561237 4281959744
-0.015606113 -0.00025498867 0.004260743 4283396924
0.002869349 -0.013444893 0.01543129 4284182578
0.0054501668 -0.016150959 0.017881194 4283923244
0.0079095885 -0.01814805 0.019617541 4284250663
0.0103852 -0.020143993 0.021350781 4284381479
-0.030018613 -0.013525613 0.016897613 4282414408
-0.028404176 -0.010553405 0.01364251 4281763393
-0.0265112 -0.0097195208 0.012540212 4281436738
-0.024725944 -0.0081736445 0.01072331 4281501508
-0.02295123 -0.0066282824 0.0089084748 4281632324
-0.020971119 -0.0065072626 0.0085250456 4281502273
-0.019212097 -0.0049626976 0.0067134369 4281567554
-0.017350271 -0.0041302294 0.0056175385 4281372224
-0.015841655 -0.0011637658 0.0023834556 4281567808
-0.013760909 -0.0017546639 0.0027163774 4281763904
-0.01179599 -0.0016340613 0.0023362692 4281959998
-0.0095828548 -0.0029351413 0.003379235 4283069759
-0.0022177584 -0.010385811 0.010045955 4284117809
0.00032179803 -0.013103455 0.012497181 4283595058
0.0028829277 -0.015819624 0.014944268 4283465519
0.0051853806 -0.017114602 0.0159705 4283792939
-0.030139551 -0.0151783 0.015709789 4283134018
-0.028621651 -0.011482544 0.011745924 4282025279
-0.026831068 -0.0099320859 0.0099311192 4281828674
-0.024948552 -0.0090965405 0.0088324714 4281696073
-0.0230712 -0.0082612559 0.0077349264 4281566788
-0.02098342 -0.0088543743 0.0080645401 4281632834
-0.019331977 -0.0065913349 0.0055430662 4281502273
-0.017470129 -0.0057566836 0.0044487622 4281437504
-0.015845142 -0.0034950301 0.0019325074 4281502784
-0.013880521 -0.0033745691 0.0015523657 4281437759
-0.01203692 -0.0025407374 0.00046180934 4281502784
-0.01007466 -0.0024202317 8.2263723e-05 4281959998
-0.0077325925 -0.0044384152 0.0018310118 4282352443
-0.0049865693 -0.0085938871 0.005703466 4283005499
-0.0022082366 -0.012747228 0.0095697064 4283269424
0.00033321232 -0.015473582 0.012014063 4283660594
0.0026216693 -0.016773909 0.013039621 4283923243
-0.028548002 -0.014557876 0.011993328 4284706093
-0.026851445 -0.012285896 0.0094676036 4283922988
-0.024863936 -0.012164682 0.0090825502 4282156349
-0.023086146 -0.010610402 0.0072735492 4281763393
-0.020995952 -0.011205629 0.0076010991 4281698114
-0.019231178 -0.009651944 0.0057947654 4281567298
-0.017363943 -0.0088147968 0.0047010053 4281502274
-0.015733235 -0.0065462291 0.0021884833 4281307454
-0.013763368 -0.0064254776 0.0018073041 4281438269
-0.012035422 -0.0048736706 8.4433705e-06 4281503294
-0.010194324 -0.0040377155 -0.0010799486 4281763903
-0.0079792514 -0.0053474084 -4.3781474e-05 4281893953
-0.0051079541 -0.010231316 0.0045269784 4281698623
-0.0023307316 -0.014397942 0.0083837006 4282289713
0.00020990521 -0.017133184 0.010821709 4284314923
-0.024882019 -0.014522485 0.0086155552 4284575533
-0.02310133 -0.012963712 0.0068092402 4283465773
-0.021223716 -0.012123927 0.0057148729 4281894974
-0.019351259 -0.011284411 0.0046216194 4281633088
-0.017371163 -0.011163272 0.0042382833 4281568318
-0.015621901 -0.0096059963 0.0024383646 4281502784
-0.013883203 -0.0080492124 0.00064052455 4281502528
-0.012155041 -0.0064930171 -0.0011551529 4281372479
-0.010313913 -0.0056548864 -0.0022419505 4281437248
-0.0079730898 -0.0076863915 -0.00050271861 4281632578
-0.0053582117 -0.011151217 0.0026449375 4281763903
-0.0025847815 -0.015331343 0.006492706 4283399474
-0.00031615794 -0.016641825 0.0075155031 4284642343
-0.021343775 -0.013758272 0.004540341 4283138608
-0.017491326 -0.012795478 0.0030653421 4282287419
-0.015626527 -0.011954054 0.0019753221 4281894464
-0.013766915 -0.011112817 0.00088640116 4281698369
-0.012033224 -0.0095518753 -0.00090718083 4281437248
-0.010186702 -0.0087112337 -0.0019934252 4281501763
-0.0078411251 -0.010749109 -0.00025993399 4281762884
-0.0053505749 -0.01350528 0.0021746252 4281894719
-0.0027070232 -0.016979255 0.0053087045 4282878509
-0.017611429 -0.014427379 0.0018926207 4284509743
-0.015861779 -0.012861341 9.9057332e-05 4283203123
-0.014004819 -0.012018114 -0.00098775886 4281829183
-0.01227361 -0.010452941 -0.0027776379 4281763649
-0.010306515 -0.010332234 -0.0031581856 4281828164
-0.0080874711 -0.011654988 -0.0021325108 4281893698
-0.0054718181 -0.0151418 0.00099877268 4281895739
-0.01400695 -0.01436764 -0.0014524776 4283332918
-0.012152493 -0.013522282 -0.0025371369 4282419253
-0.010303237 -0.012677073 -0.0036207456 4282024769
-0.0080819651 -0.014004126 -0.0025987606 4282220863
-0.0057214275 -0.016054153 -0.00087786652 4282550069
-0.010423124 -0.014299676 -0.0047866758 4284641834
-0.0083278939 -0.014904976 -0.0044677388 4284250920
-0.019342609 -0.033345163 0.0010235235 4283330113
-0.017782398 -0.030270532 -0.0021431576 4283332663
-0.019246705 -0.036477514 0.0012236498 4282676294
-0.01790306 -0.031913221 -0.003323691 4282351169
-0.016249731 -0.029571027 -0.0057874173 4281959998
-0.014379188 -0.02870959 -0.0068640746 4282744378
-0.012633093 -0.027108535 -0.0086310767 4284378419
-0.019476496 -0.037390485 -0.00065809861 4282218059
-0.018023662 -0.033555612 -0.004504025 4281631303
-0.016369991 -0.031206846 -0.0069629811 4281436228
-0.014383033 -0.031085342 -0.0073476862 4281893954
-0.012515001 -0.030221745 -0.0084221587 4282351423
-0.010652177 -0.029358305 -0.0094955787 4283332408
-0.019705929 -0.038298681 -0.0025364961 4282021454
-0.018033348 -0.035942346 -0.0049943198 4281565258
-0.016376659 -0.033586822 -0.0074490346 4281370694
-0.014503397 -0.032720864 -0.0085230116 4281632324
-0.012754261 -0.031110868 -0.010284163 4281828164
-0.01089409 -0.030245453 -0.011355422 4281828928
-0.0089148805 -0.030124083 -0.011738386 4282809403
-0.020151079 -0.037708178 -0.0057889465 4281825103
-0.018264733 -0.036839455 -0.0068640187 4281565003
-0.016610384 -0.034477517 -0.0093134493 4281631814
-0.014623702 -0.034356073 -0.0096981227 4281435463
-0.012755632 -0.03348811 -0.010769401 4281697349
-0.011014216 -0.03187412 -0.01252576 4281435973
-0.0092833638 -0.030260682 -0.014279947 4281239624
-0.0070559382 -0.031631291 -0.013291571 4281565513
-0.0048176721 -0.033001155 -0.012305159 4282415939
-0.0027007386 -0.033624634 -0.012004863 4283461949
-0.020379432 -0.038602591 -0.0076573677 4281824594
-0.018495768 -0.037731826 -0.0087303817 4281368908
-0.016843736 -0.035363495 -0.011174474 4281566788
-0.014859885 -0.03524223 -0.011558615 4281501508
-0.012875885 -0.03512083 -0.011942692 4281632069
-0.011134289 -0.03350246 -0.01369587 4281501254
-0.009403266 -0.031884655 -0.015446879 4281435719
-0.00742957 -0.031763539 -0.015828699 4281434953
-0.0053264387 -0.032390177 -0.015527438 4281827399
-0.0032178462 -0.033016384 -0.01522715 4282022984
-0.0012384281 -0.032894522 -0.015609801 4283394373
-0.018836804 -0.037868246 -0.011278354 4281364829
-0.017076746 -0.036244728 -0.013032157 4281760844
-0.015095718 -0.036123648 -0.013415765 4281500234
-0.0129961 -0.036753252 -0.013115775 4281369164
-0.011133231 -0.035881117 -0.014182791 4281434953
-0.0092755631 -0.03500919 -0.015248664 4281369674
-0.0074231103 -0.034137473 -0.016313437 4281369929
-0.0054467581 -0.034016073 -0.016695689 4281108298
-0.0036021173 -0.033144608 -0.017758783 4281173834
-0.0017627031 -0.032273307 -0.018820763 4281173323
0.00020862371 -0.032151848 -0.019201767 4281369673
0.0027394593 -0.035028085 -0.016865291 4281826633
0.0051492974 -0.037153617 -0.015211664 4283722813
-0.017422281 -0.036367983 -0.015569385 4282345304
-0.015677929 -0.034740984 -0.017316792 4281040979
-0.013589345 -0.03537342 -0.017016325 4281171793
-0.011374317 -0.036758229 -0.016035449 4281303373
-0.0093957111 -0.036636963 -0.01641833 4281435208
-0.0074169487 -0.036515534 -0.016801145 4281435719
-0.0054380819 -0.036394 -0.017183892 4281304394
-0.003722392 -0.034768015 -0.018925212 4281304394
-0.0017486438 -0.034646526 -0.019306775 4281043019
8.8207424e-05 -0.033773094 -0.020366572 4281108043
0.0026182309 -0.036658183 -0.01803641 4281369419
0.0051697902 -0.039541811 -0.01571025 4282284359
0.0074527711 -0.040921353 -0.014741638 4283134274
-0.011735849 -0.03687562 -0.01856453 4281037408
-0.0096392706 -0.037509531 -0.018267058 4281498193
-0.0076633617 -0.03738831 -0.018649336 4281499469
-0.0056873001 -0.037266955 -0.019031543 4281369164
-0.0039741099 -0.035636753 -0.020769168 4281042508
-0.0018690303 -0.03626965 -0.02047297 4281108299
-3.2179058e-05 -0.035394028 -0.021531153 4281369673
0.0024970397 -0.038287915 -0.01920728 4281369419
0.0050477795 -0.041180409 -0.016887452 4281827399
0.0074751601 -0.043317892 -0.015246817 4281958724
0.0096235722 -0.043947481 -0.014958524 4282219333
-0.0081613287 -0.036742568 -0.021848585 4281432404
-0.0060648173 -0.03737849 -0.021552496 4281433423
-0.0040941611 -0.037257344 -0.021933582 4281238093
-0.0019893944 -0.037892461 -0.021638952 4281434188
-0.00015252829 -0.037014663 -0.022695523 4281369419
0.0023758784 -0.039917387 -0.020377964 4281303884
0.0047837719 -0.042062797 -0.018738519 4281696583
0.007497251 -0.045718528 -0.015754938 4281957959
0.0095006227 -0.04559461 -0.01614178 4282414154
-0.0023774058 -0.037997723 -0.024152864 4281237073
-0.00054589659 -0.037118092 -0.025206804 4281303629
0.0021155551 -0.040788263 -0.022221442 4281369674
0.0045201182 -0.042940453 -0.020586185 4282154054
0.0070853941 -0.045849442 -0.018281966 4282609228
-0.0027647242 -0.038093932 -0.026660196 4281690718
-0.00080221146 -0.037973076 -0.027039535 4281105493
0.0018555857 -0.041654453 -0.024061549 4281825614
0.0042568296 -0.043813407 -0.022430487 4282151249
0.0013182312 -0.040990517 -0.027238019 4281820768
0.025784779 4.8562884e-05 0.007251801 4285032749
0.027778897 0.00017306209 0.0068675932 4285558048
0.031002751 -0.004594624 0.011439783 4285819423
0.022327267 0.0038933828 0.00079150125 4285427234
0.023959484 0.0054192841 -0.0010035839 4285689373
0.025753807 0.006243363 -0.00208956 4285623839
0.02877133 0.0021594837 0.0017707348 4285754909
0.0314647 -0.00052042305 0.0042130295 4285886489
0.034722168 -0.0053011477 0.0087675247 4285558048
0.020232528 0.0021447837 4.0736049e-06 4285295909
0.021368399 0.0057868063 -0.0039081778 4285755929
0.023157366 0.0066126436 -0.0049915817 4285755419
0.024940994 0.0074382424 -0.0060738847 4285558048
0.027420633 0.0054503754 -0.0043356456 4285558048
0.03027245 0.0020572692 -0.0011916682 4285623838
0.033151105 -0.0013340265 0.0019471683 4285689883
0.036239985 -0.0054263324 0.0057842378 4285493023
0.039733224 -0.010921828 0.011020808 4285427489
0.042891867 -0.015009522 0.014844613 4285230119
0.013322048 -0.024260476 0.025206411 4284969254
0.017167609 0.004634805 -0.0050182827 4285295909
0.019123636 0.0047565848 -0.005395405 4285559068
0.020578343 0.0069966018 -0.0078869537 4285624604
0.022186816 0.0085298195 -0.0096709821 4285886998
0.023957059 0.0093567893 -0.010749087 4285821463
0.026422646 0.0073614344 -0.0090130083 4285821718
0.029437926 0.0032510534 -0.0051716156 4285821718
0.032124344 0.00055322051 -0.0027408451 4285624348
0.034282565 -2.8066337e-05 -0.0024193395 4285559324
0.036446147 -0.00060890615 -0.002098782 4285559068
0.038426504 -0.00048462301 -0.0024798643 4285493278
0.041171931 -0.0031783134 -6.0139224e-05 4285754654
0.044908576 -0.0093923062 0.0058538634 4285688863
0.0074986741 -0.018408723 0.016994679 4285231394
0.015249569 0.0021926165 -0.005094016 4285360934
0.016400144 0.0058573261 -0.0089930855 4285558814
0.018345311 0.0059784129 -0.0093681216 4285624348
0.020123571 0.0068078637 -0.010446314 4285623839
0.021726869 0.0083451644 -0.012226097 4285623839
0.023664109 0.0084660798 -0.012599368 4285624349
0.025951369 0.0071716607 -0.011569194 4285624349
0.029137827 0.0023401529 -0.0070351399 4285558558
0.031640384 0.0003406778 -0.0053108409 4285624349
0.033426832 0.0011712909 -0.0063901283 4285624349
0.03483643 0.0034158602 -0.0088675581 4285690139
0.036418352 0.0049525797 -0.010642672 4285689884
0.038753927 0.0036618412 -0.009621311 4285754908
0.041487791 0.00095872581 -0.0072057564 4285820188
0.045814849 -0.0073940903 0.00078624673 4285820188
0.050803721 -0.017861404 0.01085707 4285820188
0.0046410449 -0.016649216 0.012649523 4285230883
0.014017291 0.0055555925 -0.011175521 4285755419
0.015634052 0.0070978403 -0.01295496 4285820953
0.018060669 0.0050863624 -0.011221379 4285820953
0.019836277 0.0059178248 -0.012297448 4285689628
0.021606557 0.0067490786 -0.013372405 4285623838
0.023715809 0.0061598793 -0.013045039 4285558558
0.026180126 0.0041512549 -0.011318432 4285559069
0.028838091 0.0014339164 -0.0088952333 4285559069
0.030796718 0.0015565157 -0.0092723761 4285559068
0.032389577 0.0030981004 -0.011046516 4285624349
0.033971697 0.0046391711 -0.01281856 4285821208
0.035354838 0.0068887472 -0.015285909 4285689374
0.037485592 0.0063016787 -0.014962109 4285557539
0.040008936 0.00429748 -0.013246251 4285557794
0.043333538 -0.00053998828 -0.0087495539 4285558303
0.046894666 -0.0060834512 -0.0035644993 4285624094
0.051507004 -0.015165433 0.0050871056 4285624348
0.0022236705 -0.017008968 0.010432607 4284967978
0.011397514 -0.0027047172 -0.0052511413 4285687333
0.011957977 0.0038371533 -0.011949189 4285624093
0.013263091 0.0068103373 -0.015129756 4285755419
0.015030578 0.0076432675 -0.016202811 4285689373
0.017284565 0.0063375235 -0.015173029 4285886743
0.019715965 0.0043198615 -0.013445143 4285821209
0.021824881 0.0037283152 -0.013119424 4285624348
0.024111181 0.0024249107 -0.012095629 4285624349
0.026408255 0.0011222512 -0.011073774 4285559069
0.028361365 0.001244396 -0.011449929 4285559068
0.030134454 0.0020784736 -0.012523477 4285624349
0.031719454 0.0036240071 -0.01429292 4285624349
0.033293732 0.0051689371 -0.01606017 4285755419
0.034857266 0.006713368 -0.017825296 4285952788
0.036791585 0.0068348944 -0.018197425 4285821209
0.039112791 0.0055345222 -0.017179649 4285821208
0.041836962 0.0028133318 -0.014775091 4285887254
0.045178995 -0.0020383149 -0.010292988 4285690138
0.049364548 -0.0097294524 -0.003044555 4285427743
-0.028765187 -0.015484184 0.010098683 4285295654
-0.026772648 -0.015362814 0.0097125489 4285099304
0.0015524663 -0.015801445 0.0064237956 4285687589
0.0095929429 0.0035506412 -0.014124757 4285558048
0.010748155 0.0072483867 -0.018000605 4285689883
0.012510248 0.0080830604 -0.019071085 4285557793
0.014428128 0.0082023144 -0.01944096 4285557793
0.016837377 0.0061765611 -0.017713752 4285623583
0.019096315 0.0048668236 -0.016688084 4285755673
0.021535162 0.0028431192 -0.014966418 4285755419
0.023818307 0.0015351102 -0.013945264 4285624349
0.025763214 0.0016566217 -0.014319927 4285624348
0.027353767 0.0032066479 -0.016087309 4285689883
0.028933596 0.0047561452 -0.017852595 4285624093
0.030685259 0.0055911988 -0.018920312 4285624093
0.032802016 0.0049986318 -0.018597215 4285624094
0.03436039 0.0065470785 -0.020358078 4285755418
0.036098614 0.007381618 -0.021422964 4285821208
0.038411289 0.0060763657 -0.020406824 4285755928
0.041714501 0.0012067407 -0.015928622 4285624348
0.045253865 -0.0043732226 -0.010765322 4285493534
0.050245423 -0.014939249 -0.00076773949 4285427999
-0.028692193 -0.018569976 0.010338554 4285426979
-0.026694424 -0.018448316 0.0099513847 4285361189
-0.024900362 -0.016884401 0.0081455801 4285230374
-0.023116797 -0.015321091 0.0063419212 4284903209
0.0070894957 0.0039920956 -0.016995758 4285493024
0.0085564405 0.0062652603 -0.019465821 4285559069
0.01000737 0.0085375458 -0.02193271 4285821718
0.011917006 0.0086561814 -0.02230107 4285887509
0.013826702 0.0087749213 -0.022669375 4285821463
0.016063664 0.0074592456 -0.021642761 4285887509
0.018643983 0.0047102123 -0.019224368 4285755928
0.021076821 0.0026795864 -0.017506447 4285624349
0.023354143 0.0013667718 -0.01648736 4285624349
0.024944864 0.0029211268 -0.018251671 4285689883
0.026347863 0.0051912963 -0.020708608 4285820954
0.028273886 0.0053118467 -0.021079466 4285821209
0.030382294 0.0047164485 -0.020756464 4285820953
0.032496065 0.0041214973 -0.020434406 4285689629
0.034239698 0.0049584582 -0.021498803 4285624094
0.036168382 0.0050796419 -0.021869833 4285558813
0.038676389 0.0030547082 -0.020165578 4285559068
0.041983638 -0.0018300116 -0.015699532 4285493533
0.046122316 -0.0095725358 -0.0084778126 4285427998
0.051325776 -0.020885758 0.0021835901 4285296419
-0.030247554 -0.024681062 0.013797687 4285229099
-0.028619781 -0.021664239 0.010572249 4285492769
-0.026715904 -0.020818889 0.0094757918 4285426978
-0.024918959 -0.019250482 0.0076726843 4285361188
-0.02313254 -0.01768259 0.0058716405 4285360933
-0.021249488 -0.016838193 0.004779445 4285230118
-0.019481435 -0.015271202 0.0029821284 4285164839
-0.0030917563 -0.017183907 0.0027208347 4285033768
0.0065208338 0.0045670718 -0.020230239 4285558814
0.0079800971 0.0068463534 -0.022693969 4285559069
0.0094233491 0.0091246963 -0.025154486 4285558813
0.011482876 0.0085230321 -0.024824431 4285624093
0.013547819 0.0079217926 -0.024495352 4285624348
0.015781637 0.0066015348 -0.023471367 4285624349
0.01819234 0.0045628101 -0.02175412 4285558558
0.02061918 0.0025251508 -0.020039864 4285558558
0.022376202 0.0033644736 -0.021105712 4285689884
0.024127871 0.0042036101 -0.022170505 4285689883
0.02534366 0.0071983337 -0.025313823 4285952534
0.027794724 0.0051626936 -0.02360394 4285820953
0.029897459 0.0045647547 -0.023281449 4286018324
0.032190464 0.0032490939 -0.022268198 4286018324
0.033931449 0.0040880963 -0.023330458 4285689884
0.036237832 0.0027735531 -0.022319652 4285624860
0.039133765 -0.00069305301 -0.019240383 4285559324
0.043230265 -0.0084625632 -0.0120284 4285493534
0.047584031 -0.016945466 -0.0041385982 4285427998
-0.030088 -0.028518975 0.014727665 4285097773
-0.028547958 -0.024767101 0.010799827 4285492259
-0.026638694 -0.023919195 0.0097038914 4285426979
-0.024734579 -0.023071572 0.0086090509 4285426979
-0.022835605 -0.022224128 0.0075153094 4285426724
-0.020941831 -0.021376915 0.0064226259 4285426724
-0.019272529 -0.019079924 0.003921818 4285295653
-0.017619133 -0.016783789 0.001424171 4285099048
0.0070022717 9.8064542e-05 -0.018577218 4285623838
0.0084726214 0.002384603 -0.021038242 4285558558
0.0096164867 0.0061145797 -0.024887653 4285493023
0.011365253 0.0069550052 -0.025950722 4285493279
0.013429899 0.0063515604 -0.025623199 4285493278
0.015499964 0.0057485551 -0.025296636 4285624604
0.017741397 0.0044244826 -0.024277283 4285624604
0.019824952 0.0038225502 -0.023953151 4285624349
0.02174259 0.0039422289 -0.024322657 4285624348
0.023312252 0.0055040196 -0.026076391 4285886999
0.024871189 0.0070652887 -0.027828028 4285623583
0.0271369 0.0057433024 -0.026812928 4285557539
0.029413328 0.0044221357 -0.025799848 4285623583
0.031700481 0.0031017661 -0.024788743 4285689628
0.03399837 0.0017821342 -0.02377958 4285624094
0.036687158 -0.00097665936 -0.021394264 4285493533
0.040168483 -0.0066132545 -0.016258802 4285427999
0.044279076 -0.014406055 -0.0090673286 4285427998
0.048646774 -0.022914439 -0.0011996161 4285362208
-0.029929362 -0.0323698 0.015648277 4284966448
-0.02838061 -0.028606422 0.011726839 4285426724
-0.026660845 -0.026300281 0.0092207957 4285426979
-0.024754025 -0.025450245 0.0081270058 4285361188
-0.022956498 -0.023872986 0.0063302871 4285361189
-0.02106268 -0.023023598 0.005239198 4285361188
-0.019393034 -0.02072002 0.0027431566 4285361188
-0.017627105 -0.019144356 0.00095279329 4285360934
-0.015871719 -0.017569177 -0.00083548017 4285426724
-0.014126882 -0.015994579 -0.0026215892 4285360933
-0.012272395 -0.01514706 -0.0037046615 4285164838
0.0074824281 -0.0043883324 -0.016936675 4285623329
0.0089638457 -0.0020945221 -0.019394994 4285558304
0.010119133 0.0016471595 -0.023238519 4285492513
0.011878654 0.0024904385 -0.024302052 4285624349
0.013632867 0.0033334941 -0.025364483 4285624604
0.015544884 0.0034524873 -0.025733156 4285624603
0.017125353 0.005019024 -0.027486051 4285624860
0.019032087 0.0051379129 -0.027853537 4285558558
0.020767704 0.005980283 -0.028912038 4285624349
0.022497982 0.0068224221 -0.02996943 4285887254
0.024046391 0.0083874464 -0.031715795 4285821209
0.02630089 0.0070603564 -0.030701771 4285755163
0.028384238 0.0064567849 -0.0303788 4285690138
0.031211201 0.0029635355 -0.027302684 4285821719
0.033877734 0.00019443035 -0.02491964 4285558813
0.037515342 -0.0061842203 -0.019103225 4285493278
0.041393809 -0.013281718 -0.012609025 4285493534
0.045521177 -0.021097586 -0.005438609 4285493534
0.049311563 -0.027466238 0.00034870207 4285295143
-0.028214164 -0.032458723 0.01264458 4285032494
-0.026584648 -0.029415429 0.0094382111 4285426978
-0.024773732 -0.027833074 0.0076420475 4285360933
-0.023077331 -0.025521532 0.0051454846 4285360934
-0.021076821 -0.025399499 0.0047579315 4285426979
-0.019294806 -0.023818612 0.0029675737 4285426724
-0.017523326 -0.022238195 0.001179317 4285426724
-0.015877098 -0.019929253 -0.0013071857 4285426469
-0.014129393 -0.018350117 -0.0030906405 4285361189
-0.012272194 -0.017500237 -0.004172625 4285426979
-0.010420211 -0.016650572 -0.0052535255 4285361188
-0.0084480271 -0.0165295 -0.005635025 4285229098
0.0079612955 -0.0088920593 -0.015308598 4285623583
0.0096060112 -0.0073177218 -0.017071087 4285558304
0.01108519 -0.0050173849 -0.019523982 4285492259
0.012705915 -0.0034442991 -0.021281667 4285492258
0.014155719 -0.0011455119 -0.023728777 4285492513
0.015589494 0.0011523366 -0.026172677 4285624093
0.017172839 0.0027234629 -0.027922878 4285492513
0.018577196 0.0050197244 -0.03036093 4285558558
0.020136483 0.0065895692 -0.032106332 4285558814
0.021858737 0.0074334145 -0.03316056 4285558813
0.023751996 0.0075517967 -0.033525206 4285756184
0.025824303 0.0069452375 -0.033201799 4285755929
0.028083699 0.0056141913 -0.032191858 4285690393
0.030907005 0.0021096915 -0.02912315 4285559068
0.034505427 -0.0042912886 -0.023313817 4285493533
0.038531624 -0.012137912 -0.016141905 4285427998
0.042616807 -0.019980758 -0.0089811999 4285295909
0.046370693 -0.026371561 -0.0032015555 4285360168
-0.022990465 -0.028633595 0.0053626243 4285098538
-0.021197729 -0.027047783 0.0035733376 4285230119
-0.019524708 -0.024730876 0.0010863002 4285360933
-0.017643861 -0.023877718 1.0840595e-06 4285426723
-0.015997276 -0.021562181 -0.002480654 4285426468
-0.014249392 -0.019978657 -0.0042609219 4285426468
-0.012392178 -0.019126609 -0.0053413138 4285426468
-0.010540158 -0.018274754 -0.0064206067 4285492259
-0.0084428713 -0.018884338 -0.0061053857 4285622819
0.00799077 -0.011225775 -0.015769212 4285623839
0.0097904094 -0.010375842 -0.016837427 4285558304
0.011430029 -0.0087973177 -0.018595619 4285558048
0.013216399 -0.0079479963 -0.019661114 4285492513
0.014837384 -0.0063704401 -0.021415483 4285558304
0.016284909 -0.0040650815 -0.023857215 4285492258
0.017716393 -0.0017606318 -0.026295781 4285492769
0.018963683 0.0012709126 -0.029419584 4285624348
0.020531211 0.0028456226 -0.031163299 4285558559
0.021914527 0.0051474273 -0.033592325 4285558814
0.023634151 0.0059934333 -0.034644328 4285558814
0.02570614 0.0053846389 -0.034322493 4285559069
0.027965063 0.0040491596 -0.0333157 4285493533
0.031340063 -0.0016471893 -0.028198861 4285493534
0.035505611 -0.010247901 -0.020350801 4285427998
