# .PCD v0.7 - Point Cloud Data file format
VERSION 0.7
FIELDS x y z rgba
SIZE 4 4 4 4
TYPE F F F U
COUNT 1 1 1 1
WIDTH 764
HEIGHT 1
VIEWPOINT 0 0 0 1 0 0 0
POINTS 764
DATA ascii
-0.010440465 0.0025855489 0.020888925 4288427308
-0.0089393184 0.0047605373 0.018277984 4289082914
-0.0069523789 0.0049007833 0.01784667 4289345564
-0.0049653351 0.0050411262 0.017415397 4289345818
-0.0029781759 0.0051815584 0.016984161 4289476633
-0.00099093094 0.0053220838 0.016552974 4289411609
0.00081850216 0.0061398372 0.015398789 4289084953
0.002442088 0.0076342374 0.013523351 4288495393
0.0044215657 0.0077744722 0.013094038 4288757024
0.0065870434 0.0072382428 0.013386082 4288887328
0.0087579228 0.0067024715 0.013677008 4288561184
0.011125475 0.0054909512 0.014687024 4288234019
0.013115861 0.0056323037 0.014255609 4288103459
0.016482577 0.0010430738 0.018857177 4288431134
-0.010095477 -0.0011047944 0.02186694 4288227133
-0.0085858516 0.0010773465 0.019259065 4289998109
-0.0067580529 0.0018982291 0.018102266 4289605919
-0.0049354732 0.0027188286 0.016946666 4289803289
-0.0027733743 0.0021797046 0.017237458 4289999894
-0.00078089163 0.0023205802 0.01680512 4289738009
0.0013894029 0.0017822087 0.017094254 4290000149
0.003204342 0.0026026145 0.015940577 4289607703
0.005014006 0.0034227297 0.014788095 4289869334
0.0070041381 0.0035638064 0.014356539 4289672983
0.0091827326 0.0030263737 0.014644146 4289411353
0.011557803 0.0018110238 0.015649185 4289804308
0.013749845 0.0012747273 0.015934013 4289607703
0.017322252 -0.0040072687 0.021239493 4289607193
0.023525683 -0.018097941 0.035854351 4289541914
-0.0099130645 -0.0041253977 0.022112157 4289537324
-0.0082334578 -0.0026188195 0.020230718 4289997343
-0.0065644346 -0.0011128634 0.018351585 4289802268
-0.0047364421 -0.0002897121 0.017196435 4290129943
-0.0027414821 -0.00014876574 0.016763479 4290653969
-0.00074643642 -7.7337027e-06 0.016330566 4290392083
0.0014262348 -0.00054813921 0.016617537 4289999639
0.0034241229 -0.00040672719 0.016184144 4289999639
0.0054220892 -0.00026520342 0.015750803 4289933593
0.0076056719 -0.0008045733 0.016035616 4290195478
0.0096064284 -0.00066268817 0.015601795 4290064409
0.011798147 -0.0012013353 0.015885022 4290064409
0.0141888 -0.0024198815 0.016883463 4289933083
0.017963823 -0.0083991997 0.022890192 4289801759
0.023974936 -0.02185541 0.036753882 4289539873
-0.0097313561 -0.0071545728 0.022351157 4288490803
-0.0080461502 -0.0056432374 0.020471763 4290063389
-0.0065381713 -0.0034480132 0.017874137 4289933083
-0.0048767664 -0.0019381791 0.016000036 4290195478
-0.0028819293 -0.0017972663 0.015567087 4290195479
-0.00088699162 -0.0016562566 0.015134186 4290391829
0.0012853816 -0.0021988899 0.015419569 4290391829
0.0034631789 -0.0027410723 0.015703838 4290326293
0.0056463964 -0.003282804 0.015987046 4290326293
0.0076496601 -0.0031408332 0.015552618 4290457364
0.0094649419 -0.0023157336 0.014402281 4290522134
0.011656355 -0.002856601 0.014683925 4290260248
0.01404652 -0.0040795915 0.015679173 4290063899
0.018015768 -0.010761205 0.022385702 4290259484
0.024224374 -0.024943653 0.036930438 4290063134
-0.0098726191 -0.008818116 0.021143716 4288359988
-0.0081871375 -0.0073024072 0.019267522 4290391319
-0.0065122321 -0.0057873465 0.017393701 4290325783
-0.004678756 -0.0049594305 0.016240563 4290391829
-0.0028505065 -0.0041318424 0.015088663 4290326803
-0.00085301325 -0.0039906614 0.014655199 4290653714
0.0011445694 -0.0038493909 0.01422178 4290326549
0.0031422339 -0.0037080161 0.013788413 4290326549
0.0051399767 -0.003566552 0.013355095 4290064664
0.0075081363 -0.0047958009 0.01435167 4290194968
0.0093234889 -0.0039685108 0.013202954 4290194968
0.011514597 -0.0045116134 0.01348301 4290063898
0.013904266 -0.005739022 0.014475081 4289932574
0.017675657 -0.011758078 0.020453036 4290128158
0.023877498 -0.025987085 0.034964759 4290062879
-0.010335706 -0.0091028102 0.018499441 4289277479
-0.0088189505 -0.0068939514 0.015909646 4289868569
-0.0068192184 -0.0067529269 0.015475463 4289934358
-0.0049883276 -0.0059230588 0.01432455 4290065428
-0.0029910468 -0.0057820119 0.013891041 4290523664
-0.00081936643 -0.0063292272 0.014173195 4290457618
0.0010038055 -0.00549962 0.013024177 4290130708
0.0030013509 -0.0053582676 0.012590822 4290327058
0.0049989708 -0.0052168109 0.012157526 4290588689
0.0071816482 -0.0057628639 0.012437582 4290261014
0.0093697309 -0.0063084774 0.012716573 4290522899
0.011753518 -0.007540796 0.013706557 4290129689
0.013955036 -0.0080852248 0.013982736 4289867294
0.017531615 -0.013437118 0.01923475 4289735713
0.023729358 -0.027712468 0.033712875 4289866529
-0.0091227107 -0.0078546591 0.013994258 4287710249
-0.0052974746 -0.0068820007 0.012411941 4288889623
0.014005465 -0.010435555 0.013487391 4288824343
0.017387599 -0.015115891 0.018016651 4288758043
0.023383092 -0.028748672 0.031752344 4288758043
-0.0015275106 0.023652501 0.052149888 4281437503
-0.00053327158 0.027624156 0.04718684 4279874353
0.0013088398 0.028404977 0.045996111 4279743284
0.0052894056 0.02153492 0.053836618 4279678513
0.018533969 0.019224193 0.054921817 4282284103
0.020592729 0.019370552 0.054475691 4280135728
-0.005886104 0.03015149 0.041577462 4281892678
-0.0050800554 0.034775313 0.035875458 4281177404
-0.0036188848 0.036836043 0.033189762 4281568829
-0.0018220879 0.037615791 0.032010529 4281241663
0.0010401756 0.034556698 0.035337832 4280590139
0.0044726394 0.029580843 0.040910307 4281307709
0.0073965602 0.026526228 0.044224318 4281242939
0.0096014012 0.026030317 0.044535924 4281241665
0.011055076 0.028090831 0.041852091 4281241918
0.011725497 0.032705456 0.036179807 4281243193
0.012747521 0.036040273 0.032010484 4280069683
0.015123006 0.034904271 0.03307483 4280199224
0.019907309 0.026110232 0.043092001 4279678259
-0.0075355507 0.034281328 0.033612195 4280783173
-0.0062415712 0.036991321 0.030179698 4279743028
-0.0046230145 0.038415141 0.028252769 4280004659
-0.0026638657 0.038553976 0.0278279 4280199989
-0.0003481023 0.037408948 0.028901603 4279875119
0.0023403242 0.034981161 0.031470452 4280069683
0.0046830066 0.033838116 0.032538448 4281112379
0.0064775944 0.034620132 0.031361435 4280982074
0.008077953 0.036042988 0.029438701 4280786744
0.0092844181 0.038747206 0.0260255 4279548974
0.011052456 0.039527457 0.02485441 4280981309
0.013406111 0.038385499 0.025920182 4281502528
0.017168045 0.032761201 0.032196272 4281241664
0.022192081 0.023298804 0.042926434 4280981054
-0.0090141669 0.03780622 0.026425932 4280783174
-0.007400766 0.03923399 0.02450335 4280850494
-0.0054524839 0.039371975 0.024080776 4280525623
-0.0031532906 0.0382213 0.025154721 4280460853
-0.00066523626 0.03642723 0.026974093 4280590903
0.0016582012 0.035278343 0.028042916 4280981564
0.0034421422 0.036061734 0.026869807 4280981819
0.0050347298 0.037488364 0.024951983 4281046843
0.0066166781 0.03891433 0.023036472 4280916538
0.010331012 0.039835002 0.021445166 4279222828
0.012676217 0.038688 0.022509523 4279613999
0.016029421 0.034328558 0.027286787 4279482673
0.021037159 0.024832051 0.037995744 4279874354
-0.0093193538 0.036836606 0.024504259 4280980545
-0.0080480538 0.039562523 0.021089807 4281176639
-0.0062803924 0.040346667 0.019921735 4281437504
-0.0038171224 0.038544171 0.02174148 4281438014
-0.0011598431 0.036096483 0.024303835 4281307964
0.0011577979 0.034942813 0.025370561 4281373244
0.0031197406 0.03508196 0.02494517 4281242684
0.0047099665 0.036512807 0.023031149 4280916028
0.0062895529 0.037942998 0.021119431 4280983094
0.0078585111 0.039372444 0.019210104 4281114164
0.0098046698 0.039510712 0.018788312 4281176894
0.012340657 0.037713878 0.020592593 4281111104
0.015291274 0.034628429 0.023876384 4280980289
0.020288065 0.025098164 0.034563016 4280784193
-0.0097643472 0.028588787 0.031229619 4282673998
-0.0097911172 0.036520943 0.021839127 4281177149
-0.0086941458 0.039904453 0.017686047 4278636839
-0.0071067438 0.041339226 0.015775647 4279288873
-0.0044797845 0.03888052 0.018337939 4279158568
-0.0016536526 0.035774797 0.021640074 4279940398
0.00083856285 0.033967853 0.023448676 4281177148
0.0029808059 0.033458583 0.023767177 4281046588
0.0049427524 0.033597775 0.023341816 4280916028
0.0061512254 0.036328413 0.01994786 4280850749
0.00733836 0.039057601 0.016558576 4280656948
0.0090853684 0.03984293 0.01539696 4279091248
0.011612706 0.038038835 0.01719822 4279610684
0.014952419 0.03364763 0.021955349 4280523328
0.020145379 0.023437064 0.033357795 4280718913
-0.010560431 0.029559532 0.027059104 4282478413
-0.010262072 0.036214344 0.019180495 4281177403
-0.0090000816 0.038957089 0.015781227 4279809838
-0.0074150525 0.040396061 0.013874616 4280199989
-0.0023241676 0.036112905 0.018240042 4280069683
0.00033955649 0.033648156 0.020787805 4280916283
0.0026590489 0.032485805 0.021847606 4281111614
0.0046182536 0.032624785 0.021422829 4280916284
0.0056365319 0.03601411 0.017295338 4280720699
0.0070098713 0.038101889 0.014653593 4279938103
0.0085607879 0.03953889 0.012754794 4279417139
0.011082117 0.037727807 0.014552362 4278960689
0.020204276 0.021127056 0.032890353 4279024949
-0.01217474 0.033818036 0.019180685 4281240644
-0.011232104 0.037878096 0.014297679 4279938103
-0.0094749071 0.038667951 0.013136715 4280915518
-0.0077229328 0.039457504 0.011976928 4281567299
-0.005452279 0.038287118 0.013043813 4281241408
-0.0028162003 0.035811491 0.015590973 4280524858
-0.00015864521 0.033337455 0.018133529 4280785468
0.001607053 0.034128219 0.016970947 4280915773
0.0035528168 0.034266241 0.016549073 4280851003
0.0045586042 0.03766565 0.012432508 4280590648
0.0061097518 0.039107032 0.010536846 4280720189
0.0076502748 0.040547676 0.0086435787 4281567299
0.010552324 0.037425771 0.011913098 4281436738
0.013679847 0.033654325 0.01591349 4280980033
0.020061441 0.019464124 0.031683799 4280915008
-0.013130534 0.035491806 0.014301531 4281174854
-0.011867315 0.03825213 0.010915022 4280524603
-0.0099489093 0.038387805 0.010498784 4280068663
-0.0080303922 0.038523547 0.010082565 4280199733
-0.0057628639 0.037348531 0.011146832 4279678514
-0.0031302907 0.034863845 0.013688155 4280264759
-0.00083585829 0.033690855 0.014746681 4280916284
0.00073946267 0.0351381 0.012848958 4280785469
0.0023041628 0.036584653 0.010953583 4280916538
0.0038582347 0.038030554 0.0090605207 4279548463
0.0055921637 0.038821444 0.0079066046 4279938103
0.0075139664 0.038957939 0.0074900649 4280785468
0.0098274723 0.0377867 0.0085447468 4280720444
0.012945764 0.034001373 0.012537308 4280198969
0.019516267 0.01910843 0.029008511 4280198969
-0.013757233 0.035871092 0.010920428 4281370694
-0.012335103 0.037981473 0.0082824454 4281569594
-0.01025321 0.037458725 0.0086071417 4281503549
-0.0083374418 0.037594248 0.0081915036 4281438269
-0.006073039 0.036414556 0.009253189 4281242428
-0.0036209039 0.034578241 0.011050623 4281373244
-0.001511883 0.034057684 0.011369642 4281177404
5.5704266e-05 0.035508789 0.0094768181 4281177404
0.0017976426 0.036302309 0.008322712 4281046333
0.0031590275 0.038408905 0.0056982897 4281111869
0.0050753541 0.038544938 0.0052828826 4280328764
0.0069917254 0.038681038 0.004867509 4280459579
0.0092994384 0.037504941 0.0059201941 4280394808
0.012411151 0.033705994 0.009904258 4280720189
0.01897186 0.018761821 0.026339743 4280720189
-0.013239 0.031639613 0.012724567 4281502274
-0.011805709 0.03375734 0.010089066 4281567808
-0.0098821186 0.033893324 0.0096716583 4281568063
-0.0077870227 0.033369355 0.0099918805 4281699388
-0.0058605522 0.033505678 0.0095739476 4281568573
-0.0035804771 0.032322738 0.010628976 4281698879
-0.0014690571 0.031800136 0.010945816 4281568063
0.00028360263 0.032596521 0.009790957 4281503038
0.0018462129 0.034051724 0.0079025477 4281568319
0.0033982061 0.035506196 0.0060165375 4281567809
0.0053197928 0.035642583 0.0055999756 4281437249
0.0074342079 0.035120539 0.0059164204 4281436738
0.0095540099 0.034598935 0.0062317401 4281436738
0.012273595 0.03210336 0.0087414272 4280849473
0.018227443 0.019082148 0.022946343 4280784704
-0.012395814 0.026065052 0.015991479 4281502529
-0.01094602 0.028190497 0.013357311 4281439544
-0.0091750287 0.028990014 0.012199845 4281439798
-0.007238064 0.029126987 0.011779569 4281310259
-0.0051271059 0.028601984 0.012094736 4281310513
-0.0031872615 0.028739311 0.01167395 4281180208
-0.0012473352 0.028876698 0.011253178 4281245233
0.00051077083 0.029675649 0.010098774 4281244978
0.0022636056 0.030474298 0.0089455619 4281179188
0.0038239099 0.031933747 0.0070610344 4280982838
0.005753424 0.032070689 0.0066427439 4281177913
0.0076829903 0.032207701 0.0062244907 4281177913
0.010003131 0.031023728 0.0072678551 4280981308
0.012729883 0.028519861 0.009769395 4281046589
0.018687859 0.015455056 0.023940481 4281176639
-0.011880863 0.021794192 0.01776702 4281957449
-0.010088526 0.022597317 0.016606495 4281569849
-0.0083014183 0.023400176 0.01544711 4281505079
-0.0065195411 0.02420269 0.014288962 4281506353
-0.0049165934 0.025669172 0.012398183 4281376049
-0.0029715002 0.025806844 0.011976235 4281571124
-0.0010263175 0.025944591 0.011554319 4281505843
0.00091894716 0.026082415 0.011132441 4281440309
0.0026798956 0.026883818 0.0099791065 4281440053
0.0046226308 0.027021617 0.0095578879 4281309494
0.0065654144 0.027159486 0.0091367103 4281309494
0.0087006614 0.026634503 0.0094453357 4280982839
0.010646213 0.026772719 0.0090236701 4280982584
0.013382807 0.024260759 0.011516493 4281177659
0.018946752 0.012477223 0.024197161 4281046843
-0.011855844 0.019507602 0.017326254 4282155074
-0.010226239 0.020980112 0.015432797 4281831734
-0.0081026927 0.020451412 0.015741799 4281766199
-0.0064862184 0.021923196 0.013851263 4281701429
-0.0047068037 0.022727787 0.012695335 4281701684
-0.0027564578 0.022865802 0.012272224 4281636659
-0.00098487735 0.023669988 0.011118099 4281701428
0.00096296892 0.023807988 0.010695651 4281701939
0.002910886 0.023946054 0.010273241 4281701428
0.0050457418 0.023418691 0.01058019 4281505333
0.0069964565 0.023557108 0.01015728 4281505333
0.008947216 0.02369561 0.0097344257 4281504823
0.010898024 0.023834191 0.0093116164 4281374263
0.014034241 0.019984197 0.013250917 4281570104
0.020005828 0.0068324953 0.027353261 4281570104
-0.011993792 0.017886236 0.016149502 4282155583
-0.01052922 0.020032413 0.013526861 4281831478
-0.0084086172 0.019501247 0.013834886 4281766709
-0.0066238791 0.02030836 0.012679327 4281636148
-0.0050176941 0.021783806 0.01079439 4281636148
-0.0030701123 0.021921609 0.010371864 4281701429
-0.0011224411 0.022059493 0.0099493824 4281766709
0.0010066479 0.021529358 0.010255814 4281635893
0.0029571429 0.021667585 0.0098328255 4281636659
0.0049077049 0.021805909 0.0094098896 4281505333
0.0068583228 0.021944314 0.0089869983 4281505333
0.0091930516 0.020748064 0.010017306 4281244468
0.011149112 0.020887006 0.0095933452 4281374264
0.013894696 0.018358108 0.012071062 4281569848
0.019862389 0.0051621981 0.02614136 4281570104
-0.011806771 0.014921784 0.016435601 4282090559
-0.010501511 0.017746374 0.013085864 4281831989
-0.0085463151 0.017884463 0.012661502 4281766964
-0.0067614876 0.018693745 0.011507541 4281636148
-0.0048087575 0.018831816 0.011083826 4281506098
-0.0030317344 0.019640662 0.0099317282 4281571379
-0.00090301037 0.019108206 0.010236513 4281832499
0.0012311414 0.018576168 0.010540228 4281897523
0.0030030608 0.019384935 0.009389367 4281766453
0.0049561933 0.019523423 0.0089658573 4281701173
0.006909389 0.019662004 0.0085424036 4281375539
0.0092463195 0.018461503 0.0095689371 4281570869
0.011204954 0.018600628 0.0091444217 4281570103
0.014346708 0.014724702 0.013062738 4281766964
0.020518398 0.0008161515 0.027822521 4281831989
-0.011458199 0.011274919 0.017445125 4282872898
-0.0099793226 0.013435181 0.014829244 4282287929
-0.0080135502 0.013573989 0.014402565 4282158644
-0.0060476623 0.013712876 0.013975915 4281963314
-0.0044275708 0.015198089 0.012094464 4281963059
-0.0024668276 0.015336785 0.011669055 4281898288
-0.00050599501 0.015475564 0.011243686 4281766964
0.0014549196 0.015614428 0.010818362 4281831734
0.0032322779 0.016425721 0.009668 4281635893
0.0053769611 0.015892416 0.0099678487 4281505589
0.0073380731 0.016031548 0.0095426664 4281244214
0.009490883 0.015498985 0.0098408759 4281439798
0.011260439 0.016310051 0.0086924508 4281765433
0.01440363 0.01242106 0.012600593 4281831223
0.021172907 -0.0035473369 0.029491033 4281831223
-0.0073148198 0.0085703991 0.016857922 4283856433
-0.0055057779 0.0093857311 0.015701957 4283464753
-0.0037019588 0.01020075 0.014547244 4282877488
-0.0017279647 0.010340355 0.01411894 4283074094
6.8034977e-05 0.011154976 0.012966044 4283008559
0.0020395257 0.011294574 0.012538411 4282550833
0.0040111057 0.011434261 0.012110826 4282290223
0.0061688498 0.010899689 0.012406193 4282159153
0.0081432201 0.011039738 0.011978123 4281897524
0.010117639 0.011179879 0.011550106 4281766454
0.012092102 0.011320118 0.011122152 4282027573
0.015444234 0.0067451708 0.015738435 4283594804
0.022025403 -0.0086016543 0.031866912 4283463988
-0.0033029765 -0.0067411698 0.011979025 4284706859
-0.011259507 -0.0096448623 0.013230626 4282351168
-0.0095892884 -0.008117158 0.011367537 4281896759
-0.0077637099 -0.0072834156 0.010220964 4281830714
-0.0057747774 -0.0071430914 0.0097891651 4282157624
-0.0036144853 -0.0076956339 0.010070402 4282287928
-0.0014487617 -0.0082476847 0.010350533 4282026298
0.00072239712 -0.0087992586 0.010629553 4282091324
0.0027197078 -0.008657936 0.010196239 4282548283
0.0047170892 -0.0085165463 0.0097629614 4282679353
0.0070837662 -0.009759102 0.010749985 4282744378
0.0094611645 -0.011000741 0.011734705 4282939963
0.011469405 -0.010858279 0.011299301 4283202614
0.013670309 -0.011407148 0.01157232 4283529779
0.017048335 -0.016103122 0.016090993 4283529013
0.023433167 -0.031162385 0.031209726 4283529013
-0.011239041 -0.011990014 0.012747247 4281960254
-0.0097289495 -0.0097620152 0.01017366 4281374265
-0.007737577 -0.0096216388 0.009741243 4281244468
-0.0059144944 -0.0087858252 0.0085968971 4281636404
-0.0037545115 -0.0093405806 0.0088765547 4281571123
-0.001762826 -0.0091998838 0.0084442943 4281374774
0.00040534884 -0.0097538792 0.008722309 4281114164
0.0023998655 -0.0096127875 0.008289583 4281766198
0.0045762062 -0.010165993 0.0085659772 4281701173
0.0067579523 -0.010718729 0.0088412799 4281766198
0.0089451075 -0.011271011 0.0091155246 4281962039
0.010758124 -0.010435048 0.0079739355 4281896759
0.012950715 -0.010986749 0.0082471557 4282158389
0.016709475 -0.01708566 0.014168732 4281635639
0.022889566 -0.031500328 0.028547216 4281700664
-0.011379089 -0.013641182 0.01154875 4281698113
-0.0097056888 -0.012104515 0.0096915029 4281765433
-0.0078773089 -0.01126625 0.0085475706 4281505333
-0.0057177395 -0.011823352 0.0088255778 4281636914
-0.0037236027 -0.011682604 0.0083926991 4281505588
-0.0015558265 -0.012238923 0.0086690746 4281506608
0.00061737001 -0.012794781 0.0089443475 4281571889
0.0026171096 -0.012653325 0.0085104816 4281571889
0.0046169236 -0.012511764 0.0080766678 4281636914
0.0068010353 -0.013066571 0.008349847 4281571123
0.0089905374 -0.013620857 0.0086218938 4281506608
0.010806296 -0.012782563 0.0074813813 4281505844
0.013001233 -0.01333626 0.0077523924 4281832499
0.016371008 -0.01806346 0.012249839 4281832754
0.022346763 -0.031829212 0.025891379 4281832754
-0.012416545 -0.020336334 0.015762392 4282412623
-0.011679102 -0.014591713 0.0096399635 4281633853
-0.0098454393 -0.013751004 0.0084964298 4281831223
-0.0080169924 -0.012910563 0.0073540993 4281571379
-0.0058577321 -0.013469901 0.0076305233 4281963313
-0.0038637184 -0.013329182 0.007197652 4281636659
-0.0015228987 -0.014587108 0.0081800558 4281441329
0.00065267459 -0.015145037 0.008453209 4281636659
0.0026549511 -0.015003417 0.0080187805 4281636659
0.0048386753 -0.015560526 0.0082902648 4281702704
0.0068437681 -0.015418496 0.0078553855 4281636659
0.008848913 -0.015276376 0.0074205585 4281636914
0.010854114 -0.015134152 0.0069857948 4281571123
0.013051406 -0.015689868 0.0072546639 4281897778
0.016422411 -0.020432372 0.01174039 4281767218
0.021607345 -0.031451244 0.022539709 4281897524
0.02807813 -0.046648938 0.037531581 4281831224
-0.01365779 -0.017083246 0.0095866062 4282938179
-0.012937654 -0.011322375 0.0034810826 4282356269
-0.01144762 -0.0090760998 0.00092651695 4282621214
-0.0094779618 -0.0089373253 0.00049876422 4284060944
-0.0070046894 -0.010904361 0.0021926127 4284063239
-0.0045153089 -0.012870114 0.0038830005 4283143963
-0.0018366463 -0.015536252 0.0062760189 4282355249
0.00016009063 -0.015395153 0.0058426932 4282486574
0.0021569058 -0.015253942 0.0054094382 4282094383
0.0037914291 -0.013710592 0.0035676993 4282029358
0.0055991895 -0.012868714 0.002432026 4281638444
0.0077747144 -0.013428386 0.002703812 4281898544
0.010144815 -0.014688011 0.0036770403 4281963313
0.012909375 -0.017347332 0.0060519762 4282027829
0.016278924 -0.022105295 0.010526527 4281831734
0.021855101 -0.034559209 0.022701882 4281896759
0.027727315 -0.047705952 0.035556782 4281960508
-0.015524287 -0.010979351 0.00060186163 4284180028
-0.014512841 -0.0066124089 -0.004069861 4284706603
-0.0055063702 -0.01098958 -0.0008318238 4284706858
-0.0030149035 -0.012961712 0.00085330009 4284185638
-0.00085866451 -0.013525378 0.0011272989 4283795489
0.0009463504 -0.012681734 -6.3031912e-06 4282750243
0.0022031106 -0.0097286366 -0.0032467358 4282295069
0.003805913 -0.0081830584 -0.0050782468 4283073074
0.0059570931 -0.0087466426 -0.0048028305 4283854649
0.0088696778 -0.012120407 -0.0017247163 4284116533
0.012000673 -0.016194623 0.0020480305 4283727148
0.016135475 -0.023777921 0.009312883 4282358564
0.021905134 -0.036973644 0.022158723 4282358053
0.027776269 -0.050162036 0.034982655 4282094383
-0.0076014511 -0.046485502 -0.02173133 4283721283
-0.0059596188 -0.044850398 -0.023506338 4284573494
-0.0092938431 0.0084306747 0.017287496 4284901934
0.00068629906 -0.0064592026 0.011113342 4285296928
-0.013046369 -0.0043612383 -0.0066144001 4285165093
-0.010935891 -0.0049285404 -0.0063307714 4285361699
-0.0083170086 -0.0076078735 -0.0039315 4285361698
-0.01707302 -0.0062409379 -0.0069349185 4285493024
-0.015765693 -0.0032763742 -0.010180408 4285755163
-0.013993222 -0.0024334639 -0.011305777 4285820699
-0.011896394 -0.0030039214 -0.011020835 4285886233
-0.0092917345 -0.0056930445 -0.0086250547 4285952024
-0.0066656284 -0.0083805658 -0.0062338505 4285689628
-0.0043636821 -0.0096544288 -0.0052528884 4285558814
-0.0020509623 -0.01092748 -0.004274141 4285427743
-0.00026190281 -0.010082778 -0.0054026451 4285493533
0.00097946078 -0.0071220286 -0.0086331908 4285493789
0.0021995381 -0.0041626804 -0.011859035 4285624348
0.0047013275 -0.0061401017 -0.01018074 4286016794
0.0077856518 -0.010230925 -0.006407747 4285885468
0.011285011 -0.015728708 -0.0012441203 4285689119
0.015603734 -0.024041254 0.0067030527 4285295908
0.02156115 -0.037983511 0.020217303 4285295908
0.027425895 -0.051214021 0.033011507 4285099303
-0.017991964 -0.0042999126 -0.011623912 4285493789
-0.016538084 -0.0020366423 -0.014155995 4285558558
-0.014614284 -0.0019012541 -0.014573904 4285557794
-0.012361165 -0.0031833164 -0.013585819 4285558049
-0.0099299997 -0.0051730387 -0.01189767 4285624093
-0.007482715 -0.0071615689 -0.010212896 4285624349
-0.0051919483 -0.0084406175 -0.0092327949 4285558813
-0.0032409728 -0.0083028041 -0.0096562188 4285493788
-0.0014678724 -0.007457044 -0.010779625 4285493788
-6.1273575e-05 -0.0051963143 -0.013300769 4285558813
0.0016959347 -0.0043514334 -0.014420621 4285820444
0.0040057451 -0.0056286566 -0.013444213 4285754143
0.006892167 -0.0090261735 -0.010376833 4285951514
0.010187902 -0.013835426 -0.0059208479 4285820443
0.014878815 -0.023588773 0.0034032576 4285624094
0.021217586 -0.038988706 0.018279348 4285558304
0.027275233 -0.052967567 0.031739216 4285361953
-0.018596135 -0.0037596337 -0.01489055 4285427999
-0.016990755 -0.0022017099 -0.016713517 4285755928
-0.014910664 -0.0027778856 -0.016428331 4285623838
-0.012989555 -0.002642598 -0.016845593 4285689374
-0.010399997 -0.0053503476 -0.014459675 4285755419
-0.0082982592 -0.0059246682 -0.014178956 4285821209
-0.006018661 -0.0072089471 -0.013199674 4285624348
-0.0040784962 -0.0070719086 -0.013620758 4285558813
-0.0023160204 -0.0062246881 -0.014740279 4285690139
-0.00073923543 -0.0046679415 -0.016556414 4285821208
0.0010100342 -0.0038214885 -0.017672865 4285689374
0.0033113211 -0.0051036589 -0.016697941 4285557793
0.0060002208 -0.0078035183 -0.01433293 4285623838
0.0094749462 -0.013338078 -0.0091901887 4285624093
0.014348846 -0.023831721 0.00080828369 4285559068
0.02107087 -0.040697891 0.01703921 4285559068
0.027323702 -0.055429313 0.031160977 4285427488
-0.020039525 -0.0083378516 -0.01281655 4285099048
-0.018886697 -0.0046333335 -0.01674436 4285427999
-0.017283741 -0.0030712448 -0.018563548 4285690393
-0.015368197 -0.0029364787 -0.018979695 4285821719
-0.013452549 -0.0028015934 -0.019395782 4285886999
-0.010869201 -0.0055185445 -0.017015085 4285821464
-0.0086035468 -0.0068082623 -0.01603619 4285690139
-0.0066716112 -0.0066719316 -0.016455591 4285624348
-0.0049144812 -0.0058230571 -0.017572349 4285559069
-0.0031626187 -0.0049744584 -0.018687898 4285624348
-0.001416035 -0.0041260682 -0.019802257 4285887253
0.00069111958 -0.0047017299 -0.01952392 4285886998
0.0028036498 -0.0052768551 -0.019246703 4285886998
0.0054863207 -0.0079859234 -0.016886907 4285887254
0.0087631419 -0.012827169 -0.012449766 4285755929
0.014013246 -0.024776649 -0.0010866895 4285558813
0.020727927 -0.041695867 0.015106495 4285558813
0.026973976 -0.056473728 0.02919532 4285427488
-0.020634551 -0.0077854209 -0.016076481 4285295909
-0.019488927 -0.0040704496 -0.019994596 4285493534
-0.018052429 -0.0017887987 -0.022508152 4285558558
-0.016147688 -0.0016548149 -0.022921968 4285623839
-0.013914753 -0.0029514395 -0.021939412 4285623839
-0.011337619 -0.0056775995 -0.01956393 4285558559
-0.0089084171 -0.0076871477 -0.017890012 4285558559
-0.0069792755 -0.0075510107 -0.018308805 4285624348
-0.005050052 -0.0074147843 -0.01872755 4285559068
-0.0034755319 -0.0058495365 -0.020536782 4285558558
-0.0019116066 -0.0042849667 -0.022343582 4285558558
-0.00017555803 -0.0034350865 -0.023453895 4285624348
0.0022967532 -0.0054408945 -0.021788897 4285689883
0.0049732029 -0.0081591643 -0.01943431 4285690138
0.0084339678 -0.013729747 -0.014314774 4285558813
0.013484649 -0.025003526 -0.0036700778 4285493278
0.020385394 -0.042689119 0.013177209 4285559069
0.026227178 -0.056087557 0.025851779 4285427998
0.028947907 -0.058075074 0.027463507 4285164838
-0.021075208 -0.0079377629 -0.018627794 4285361189
-0.019778267 -0.0049303733 -0.021838419 4285624349
-0.01850253 -0.0019243471 -0.025044343 4285755418
-0.016603258 -0.0017907731 -0.025456987 4285820953
-0.01437616 -0.003092248 -0.024476413 4285820954
-0.011472192 -0.0072623603 -0.020714184 4285689628
-0.0090436824 -0.0092785396 -0.019045046 4285624094
-0.0072865374 -0.0084254406 -0.020158648 4285559068
-0.0055346526 -0.0075725354 -0.021271056 4285624604
-0.0039652102 -0.0060033388 -0.023075879 4285624349
-0.002586253 -0.003718283 -0.025571426 4285624094
-0.00067563355 -0.0035830475 -0.025985891 4285624094
0.0016054548 -0.0048798285 -0.025016382 4285558303
0.0048366226 -0.0097550862 -0.020592378 4285624094
0.0082957372 -0.015343305 -0.0154856 4285624349
0.013150059 -0.025936823 -0.0055566262 4285493789
0.019847384 -0.042962302 0.010561686 4285493789
0.025481546 -0.055687863 0.022518069 4285428255
0.02799234 -0.056967635 0.023438312 4285099048
-0.021821082 -0.0066399835 -0.022567071 4285295653
-0.020534199 -0.0036245622 -0.025768969 4285689884
-0.018793505 -0.0027709864 -0.026877772 4285886744
-0.016897034 -0.0026376173 -0.027289819 4285886744
-0.014509439 -0.0046634711 -0.025616884 4285952533
-0.012105744 -0.0066880472 -0.02394741 4285886998
-0.0096859299 -0.0087114088 -0.022281302 4285624348
-0.0075933933 -0.0092950873 -0.022005104 4285624348
-0.0056697689 -0.0091592632 -0.02242264 4285624604
-0.0042770989 -0.0068668537 -0.024916299 4285690139
-0.0029003769 -0.0045754127 -0.027406465 4285821208
-0.0013572574 -0.0030034892 -0.029202139 4286018324
0.00091530383 -0.0043052249 -0.028234111 4285952789
0.004137028 -0.0091965087 -0.023819486 4285755928
0.0077768303 -0.015520733 -0.018034581 4285559069
0.013008896 -0.027583081 -0.0067511462 4285559069
0.019897243 -0.045378957 0.010016907 4285559069
0.025332158 -0.05742659 0.021256525 4285427998
0.02744036 -0.057276506 0.020799842 4285098538
-0.022412602 -0.0060470812 -0.025797645 4285230118
-0.02097762 -0.0037459619 -0.028296292 4285689628
-0.019084062 -0.0036129318 -0.028707802 4285623329
-0.017351206 -0.0027576275 -0.029813202 4285557539
-0.01513312 -0.0040684678 -0.028837282 4285689374
-0.012904268 -0.0053784959 -0.027863588 4285755164
-0.010327015 -0.0081307925 -0.025507776 4285689884
-0.0084142797 -0.0079958551 -0.025923043 4285624349
-0.0065014698 -0.0078608058 -0.02633824 4285690139
-0.0049422309 -0.0062835924 -0.028134309 4285755418
-0.0035730861 -0.0039861389 -0.030617917 4285820698
-0.0018555671 -0.0031310357 -0.031719327 4285689373
0.00041115656 -0.0044376217 -0.030753272 4285820953
0.0036260746 -0.0093446486 -0.026348682 4285886744
0.0074488856 -0.016409207 -0.019889353 4285689884
0.013060596 -0.029948946 -0.0072584599 4285624094
0.019946745 -0.047799643 0.0094691366 4285624094
0.024786465 -0.057725985 0.018623538 4285492769
-0.023155596 -0.0047157072 -0.029712552 4285295909
-0.021886144 -0.0016840473 -0.03289758 4285821464
-0.020006053 -0.0015519783 -0.033306178 4285755164
-0.018125847 -0.0014197975 -0.033714719 4285755164
-0.01559234 -0.0041841827 -0.031356081 4285820954
-0.01336934 -0.0054989569 -0.030384444 4285821208
-0.010966927 -0.0075367056 -0.02872441 4285624348
-0.0090623349 -0.0074023567 -0.029137913 4285624349
-0.0071576536 -0.0072678886 -0.029551351 4285624348
-0.0057828277 -0.0049636029 -0.032031383 4285886999
-0.0042446181 -0.0033833943 -0.033819534 4285755164
-0.0023530871 -0.0032495372 -0.034229882 4285557538
9.2420727e-05 -0.0052835159 -0.032578729 4285558048
0.0027412958 -0.0080387555 -0.030244384 4285623838
0.0071213432 -0.017292958 -0.021740709 4285624603
0.012919299 -0.031596776 -0.0084541254 4285690139
0.019800587 -0.049502511 0.008233577 4285690139
0.024043564 -0.057294492 0.015312888 4285493024
-0.023744602 -0.0040935539 -0.032921985 4285493278
-0.022327442 -0.0017806329 -0.035406977 4285624859
-0.020768363 -0.00019548461 -0.037197053 4285755674
-0.018738512 -0.00079061091 -0.036912501 4285689883
-0.016213894 -0.0035643987 -0.034558505 4285689883
-0.013667833 -0.0063365586 -0.032209072 4285558814
-0.011605687 -0.0069291033 -0.031931303 4285558814
-0.0098803416 -0.0060695298 -0.033031479 4285558814
-0.0083340444 -0.0044845752 -0.034818329 4285558814
-0.0066218935 -0.0036257319 -0.03591549 4285690138
-0.0050941184 -0.0020419024 -0.037698109 4285953044
-0.0028498247 -0.0033588894 -0.036733869 4285887254
-0.00041034445 -0.0053999089 -0.035086289 4285821463
0.0024194196 -0.0088890158 -0.03207219 4285755928
0.0067942142 -0.018172022 -0.02358865 4285755929
0.0129705 -0.033968654 -0.0089657418 4285624348
0.019654458 -0.051205043 0.0069982633 4285624348
0.023697417 -0.058297332 0.013377398 4285493024
-0.023875665 -0.0056459121 -0.034048919 4285361953
-0.022458073 -0.0033264123 -0.036529109 4285427488
-0.020583581 -0.003194768 -0.03693651 4285492768
-0.018708985 -0.003062997 -0.037343852 4285493023
-0.016345493 -0.0051168613 -0.035685375 4285426979
-0.013965908 -0.007169459 -0.034030307 4285558813
-0.012075014 -0.0070362128 -0.034440942 4285493533
-0.01035497 -0.006174814 -0.03553839 4285493533
-0.0086401664 -0.0053137206 -0.036634576 4285493279
-0.0072831474 -0.0029976256 -0.039100885 4285427233
-0.0055842251 -0.002137363 -0.040193491 4285492768
-0.0035273619 -0.0027319603 -0.039915752 4285558558
-0.00091234222 -0.0055071674 -0.037587296 4285558558
0.0019110218 -0.0090077035 -0.034579948 4285493278
0.0064674839 -0.01904637 -0.025433179 4285559069
0.012829088 -0.035618078 -0.010162562 4285559069
0.01950836 -0.052907262 0.0057631657 4285559069
0.023154076 -0.058569346 0.010764275 4285493534
-0.02385461 -0.0079294853 -0.034486357 4285361188
-0.02196971 -0.00779723 -0.034896113 4285361189
-0.020084687 -0.0076648556 -0.035305813 4285426724
-0.018039487 -0.0082633309 -0.035027906 4285361188
-0.015988838 -0.0088613294 -0.034751046 4285361444
-0.014098171 -0.0087282397 -0.035161734 4285361443
-0.012207415 -0.0085950159 -0.035572346 4285361444
-0.010487318 -0.007731434 -0.036668174 4285361443
-0.0084256493 -0.008328218 -0.036393374 4285426979
-0.0070628859 -0.0060051195 -0.038856063 4285295654
-0.0053585693 -0.0051423647 -0.03994818 4285295653
-0.0032967068 -0.0057387315 -0.039673191 4285295653
-0.001045391 -0.0070638917 -0.038716961 4285361954
0.001776889 -0.01057541 -0.035717551 4285361953
0.0059517436 -0.019187082 -0.027955525 4285361699
0.012687698 -0.037267189 -0.011359159 4285361699
0.019362299 -0.054609139 0.0045283213 4285361699
0.022808921 -0.059560489 0.0088371895 4285164329
-0.023378212 -0.012418304 -0.032863609 4285360678
-0.021482777 -0.012285341 -0.033275679 4285492514
-0.019587237 -0.012152251 -0.033687685 4285492769
-0.017691571 -0.012019049 -0.034099631 4285558559
-0.015633259 -0.012618657 -0.033826124 4285558559
-0.013899956 -0.011752259 -0.034923326 4285558559
-0.012004007 -0.011618685 -0.035335079 4285558558
-0.010278519 -0.0107526 -0.036430418 4285558559
-0.0080386363 -0.012083378 -0.035475314 4285624094
-0.0063156672 -0.011217233 -0.036569919 4285426978
-0.0045979656 -0.010351341 -0.037663296 4285492769
-0.0028855391 -0.0094857104 -0.03875545 4285492514
-0.00062673166 -0.010814693 -0.037804104 4285427234
0.0014562272 -0.011411544 -0.037535179 4285427233
0.0056260265 -0.020049822 -0.029791635 4285426979
0.011970662 -0.036723275 -0.01459262 4285426723
0.018632581 -0.054118577 0.0012583435 4285426723
0.02246419 -0.060546931 0.0069135949 4285295144
-0.023206655 -0.01545262 -0.032625645 4285360678
-0.021151662 -0.016055014 -0.032353323 4285426723
-0.019248255 -0.01592138 -0.032767039 4285558049
-0.01718504 -0.016522985 -0.032496344 4285558303
-0.015278757 -0.016388934 -0.032910526 4285558304
-0.013537403 -0.015519772 -0.03400784 4285558304
-0.011801291 -0.014650878 -0.035103943 4285558304
-0.0099000633 -0.014516842 -0.035516769 4285558304
-0.0076526925 -0.015851464 -0.034566559 4285558304
-0.0057459846 -0.015716787 -0.034980394 4285558304
-0.0036608428 -0.01631603 -0.034713849 4285558303
-0.0019323714 -0.015447091 -0.035807848 4285492514
-0.00020917505 -0.014578383 -0.036900602 4285426468
0.0018814541 -0.015176889 -0.036634982 4285361189
0.0056787767 -0.022374403 -0.03026833 4285360678
0.011638202 -0.037632074 -0.016461385 4285360678
0.01809841 -0.054347422 -0.0013249442 4285360678
-0.022884291 -0.019233476 -0.03170938 4285295398
-0.020975806 -0.019099619 -0.0321243 4285426724
-0.019067198 -0.018965643 -0.03253917 4285492514
-0.017158501 -0.018831547 -0.03295397 4285492513
-0.015249684 -0.018697318 -0.033368703 4285558049
-0.013505626 -0.017825808 -0.034464989 4285492513
-0.011431783 -0.018428516 -0.034197986 4285492513
-0.0098630562 -0.016820338 -0.035973426 4285492513
-0.007613536 -0.018159192 -0.035026971 4285492513
-0.0055287965 -0.018760767 -0.034762055 4285492258
-0.0032604672 -0.020098101 -0.033819467 4285492513
-0.0017048083 -0.018490326 -0.035591759 4285426468
2.3763627e-05 -0.017619085 -0.036684062 4285426468
0.0019332245 -0.017483745 -0.03709814 4285361189
0.0059200339 -0.025438596 -0.030071545 4285426469
0.011497658 -0.039271418 -0.017650904 4285426469
0.017370827 -0.053832036 -0.0045768991 4285295143
-0.022865649 -0.021546613 -0.032168299 4285295399
-0.021108642 -0.020672496 -0.033266127 4285361188
-0.019043524 -0.021278467 -0.03299921 4285426723
-0.016972955 -0.021883976 -0.032733344 4285426723
-0.015058961 -0.021749418 -0.033149227 4285492514
-0.013474181 -0.020135935 -0.034925107 4285492513
-0.011565328 -0.020001482 -0.035339683 4285558049
-0.0096563958 -0.019866925 -0.035754204 4285492513
-0.0077473782 -0.019732218 -0.036168642 4285492513
-0.0056629665 -0.020335998 -0.035905283 4285558049
-0.0035731457 -0.020939332 -0.035642989 4285492514
-0.001839269 -0.020065602 -0.036734942 4285492259
7.2661787e-05 -0.01993021 -0.037149645 4285492259
0.0025426187 -0.022008318 -0.035538066 4285492259
0.0063492209 -0.029248867 -0.029206138 4285426468
0.011739794 -0.042385425 -0.017491734 4285426469
0.017032407 -0.054777745 -0.0064717066 4285295144
-0.022696171 -0.024606381 -0.031948831 4285360424
-0.020933796 -0.023729708 -0.033046197 4285426469
-0.018863682 -0.024337541 -0.032782018 4285491749
-0.016788114 -0.024944846 -0.032518927 4285426468
-0.014868926 -0.024809916 -0.032935932 4285426214
-0.013278596 -0.023191746 -0.034709726 4285426214
-0.011364553 -0.023056943 -0.035125442 4285426213
-0.0096202455 -0.022180784 -0.03621839 4285492258
-0.0077087097 -0.022045907 -0.036633376 4285492258
-0.0059722364 -0.021170121 -0.037724409 4285492768
-0.0037076138 -0.022516463 -0.036787555 4285558558
-0.0017932169 -0.022381034 -0.037202902 4285492514
0.00030436739 -0.022985723 -0.03694379 4285426723
0.002407331 -0.023589898 -0.036685746 4285492514
0.0062119029 -0.030852433 -0.030369733 4285426469
0.011598933 -0.044028539 -0.018683983 4285426469
0.016888186 -0.056458209 -0.0076910164 4285228844
-0.020145152 -0.029773425 -0.030115837 4285359659
-0.018059377 -0.030382369 -0.029856717 4285294124
-0.016127106 -0.030246649 -0.030276667 4285425958
-0.014194738 -0.030110795 -0.030696543 4285491749
-0.012590852 -0.028487321 -0.032470018 4285425959
-0.010663625 -0.028351586 -0.032888599 4285425959
-0.0089059435 -0.027472358 -0.033982784 4285491493
-0.0071535185 -0.026593339 -0.035075784 4285557029
-0.0055812933 -0.024971601 -0.036842015 4285623328
-0.0036644377 -0.024836134 -0.037257992 4285558048
-0.0013869591 -0.02618577 -0.036327153 4285557794
0.0007182993 -0.026792135 -0.036071297 4285492259
0.0028289221 -0.027397972 -0.035816561 4285426723
0.0064511858 -0.033939857 -0.030189812 4285426468
0.011458106 -0.045671333 -0.019876009 4285360679
0.016743999 -0.058138352 -0.0089100972 4285163309
