# .PCD v0.7 - Point Cloud Data file format
VERSION 0.7
FIELDS x y z rgba
SIZE 4 4 4 4
TYPE F F F U
COUNT 1 1 1 1
WIDTH 436
HEIGHT 1
VIEWPOINT 0 0 0 1 0 0 0
POINTS 436
DATA ascii
0.010428421 -0.005434759 0.038733669 4286789443
0.0064890757 0.0036109239 0.027369499 4287966523
0.0087684616 0.0022881925 0.028379973 4289406254
0.01166131 -0.0026560649 0.032883063 4289471534
0.015084662 -0.010495134 0.040172819 4290124589
0.0021672994 0.0024213344 0.026210725 4287313724
0.0035340488 0.0069103688 0.021629691 4288556594
0.0053287223 0.0084896386 0.019848108 4289865253
0.0075835213 0.0071609989 0.020859923 4288622894
0.010210253 0.0036532134 0.023961652 4289211689
0.013356067 -0.0027587339 0.029845547 4290192419
0.016298898 -0.0077149048 0.034327731 4288752944
0.019151032 -0.011942528 0.038107093 4289341229
0.02164226 -0.013990015 0.039794523 4286462788
0.00094772875 0.0080547333 0.017998874 4288817968
0.0026249364 0.010367192 0.0155243 4290192928
0.0045158789 0.01122041 0.014446264 4289277479
0.0067540929 0.0098864287 0.015457859 4288623148
0.0091234148 0.0078243613 0.017163195 4289080873
0.01200043 0.0028487146 0.021646231 4289931298
0.014538474 6.107986e-05 0.024038125 4289669158
0.017226376 -0.0034534633 0.02712021 4289211179
0.019417584 -0.0040535629 0.027422693 4289081128
0.021881476 -0.0061091632 0.029110443 4289079598
-0.0015087202 0.0084865391 0.015073812 4289212198
0.00016868114 0.010805346 0.012604093 4289670433
0.0019421205 0.012391806 0.010833031 4289800483
0.0037050396 0.013977706 0.0090641063 4290520603
0.0059267133 0.012638316 0.010075515 4289866018
0.0082793087 0.010568663 0.011779038 4290520093
0.011138923 0.0055767372 0.016253745 4290323999
0.013534714 0.0035099834 0.017949231 4289800739
0.015818667 0.002174899 0.018949155 4289735714
0.01785199 0.0023013204 0.018563068 4289669668
0.020018879 0.0016976297 0.01886859 4289341993
0.022599578 -0.0010956153 0.021246109 4290453283
0.025618255 -0.0060770065 0.025691181 4290518564
0.028674591 -0.011055894 0.030129146 4290321704
0.031768609 -0.016032338 0.034560107 4287444028
-0.0039475858 0.0089328587 0.012155706 4288884778
-0.0021635666 0.010524109 0.010385772 4288819243
-0.0003900826 0.012114733 0.0086179394 4289408038
0.0015964583 0.012237445 0.0082401335 4289735458
0.0033541843 0.013827376 0.0064754337 4289343013
0.0056872219 0.011749864 0.0081776194 4289080873
0.0079166293 0.010406688 0.0091843195 4289538853
0.010524526 0.0068651885 0.012264853 4289866018
0.012658525 0.0062569082 0.012574689 4289669668
0.014925923 0.0049164295 0.013574438 4289604389
0.016681861 0.0065068677 0.011810621 4289408039
0.018826962 0.0058996752 0.012118569 4289996323
0.0211135 0.0045607314 0.013114931 4287903028
0.023965415 0.00029440224 0.016864898 4289406764
0.026708305 -0.003237918 0.019920405 4289799209
0.030054115 -0.0096952468 0.02572234 4288490548
0.033154942 -0.014686331 0.030140471 4288555573
-0.0061670393 0.0079207569 0.010633267 4288298533
-0.0042767301 0.008779943 0.0095599182 4290128158
-0.0024978593 0.010375127 0.0077942684 4289866274
-0.00072954595 0.011969805 0.0060306769 4289735203
0.0012515038 0.012092136 0.0056538917 4289473574
0.0032327175 0.012214608 0.0052771624 4289473828
0.0055651218 0.010130517 0.0069744941 4289408038
0.0077940673 0.008782953 0.0079779644 4289473318
0.010278627 0.0059657097 0.010360086 4289735204
0.012409631 0.0053550974 0.010668783 4289800483
0.014418405 0.005479835 0.010287249 4289342759
0.016166471 0.0070740879 0.0085282046 4290454813
0.017903946 0.0086678267 0.0067712795 4289473318
0.020038132 0.00805787 0.0070797186 4288099379
0.022593189 0.0052457079 0.0094489958 4288949548
0.025169812 0.0024350286 0.01181422 4288884014
0.028199486 -0.0025758967 0.01623421 4289145133
0.031706344 -0.0097854584 0.022704314 4288817968
0.035416149 -0.01772514 0.029849581 4288884013
-0.0084783658 0.0076526776 0.0084200632 4288821283
-0.006691657 0.0092524737 0.0066559967 4289540128
-0.0048120096 0.01011315 0.0055863149 4289866274
-0.0029375702 0.010973603 0.0045177061 4290258719
-0.00095950812 0.011095628 0.0041413829 4290847258
0.001241684 0.0097416639 0.0051465575 4289538853
0.0034537837 0.0083884299 0.0061497875 4289473828
0.0055598989 0.0077737346 0.0064612757 4289408294
0.0076715425 0.0071595162 0.0067718197 4289343014
0.009788692 0.0065456927 0.0070814285 4289277224
0.011661567 0.0074068755 0.0060136635 4289473318
0.013656795 0.0075307488 0.0056346823 4289538853
0.015391648 0.0091285184 0.0038814452 4290585373
0.017248817 0.0099890083 0.0028169584 4290192674
0.019236356 0.010112748 0.0024396945 4289407784
0.021777198 0.0072909892 0.0048050452 4290127138
0.02433959 0.0044707283 0.0071663428 4289341738
0.027498201 -0.0012923926 0.01226216 4288752689
0.03113886 -0.0092603713 0.019402206 4288622894
0.034987658 -0.01796031 0.027214766 4288426543
-0.011063538 0.0096181929 0.0041350275 4288887328
-0.0090890005 0.009739548 0.003759047 4289671453
-0.0073154941 0.011342853 0.0020007873 4289408294
-0.0053459629 0.011464119 0.0016259113 4288426798
-0.0034821928 0.012326062 0.00056095701 4288557869
-0.0011890754 0.01022613 0.0022555534 4289538853
0.0011202991 0.0081273615 0.0039471034 4289800483
0.003331922 0.0067697316 0.0049470942 4289473828
0.005204387 0.007632643 0.0038808156 4289735714
0.0071909949 0.0077556223 0.0035031941 4289931553
0.0091777444 0.0078787059 0.0031256247 4289473829
0.01128938 0.0072625205 0.0034346748 4289211944
0.013406489 0.0066467673 0.0037427526 4289473574
0.015138842 0.0082487166 0.0019932892 4289800739
0.016727827 0.010589063 -0.00043913908 4289342503
0.018842619 0.0099735186 -0.0001303535 4289408039
0.021377284 0.0071426779 0.0022295434 4289407784
0.024355959 0.0020980313 0.006635977 4289799973
0.027515773 -0.0036823601 0.011718294 4288883503
0.031303316 -0.012412295 0.019522544 4288360243
-0.011658959 0.011728041 -0.00051210728 4289343269
-0.0095024556 0.010362044 0.0004945118 4289539620
-0.0078372136 0.012712255 -0.0019484973 4290127904
-0.0059816539 0.013575733 -0.0030103372 4289211943
-0.0041312575 0.014438987 -0.0040711174 4289081129
-0.0016352162 0.010846481 -0.0010028528 4290520093
0.00077664107 0.0079981834 0.0013728943 4289866529
0.0029824302 0.0066358745 0.002370635 4289604643
0.0047330484 0.0082427114 0.00062056072 4289997089
0.006711483 0.0083651543 0.00024447404 4289604389
0.0086900592 0.0084877163 -0.00013155676 4290454814
0.01091788 0.0071272254 0.00086233206 4290520093
0.013156578 0.005767487 0.0018542986 4289931554
0.014886424 0.007373631 0.0001085531 4289473574
0.016738277 0.0082380995 -0.0009516459 4289342759
0.018855445 0.0076205283 -0.00064496882 4289081129
0.021529965 0.0040403157 0.0023903865 4289211689
0.024512675 -0.0010192692 0.006784426 4289538089
0.027819715 -0.007557258 0.012534183 4288687408
0.031613156 -0.016312912 0.02031748 4286267714
-0.013646573 0.0092658848 -0.00063531473 4288233508
-0.011873052 0.010877617 -0.0023871688 4288951079
-0.009914875 0.010997914 -0.0027600834 4289473828
-0.0082573146 0.0133541 -0.005196658 4289669668
-0.0064097419 0.014219224 -0.0062553408 4288819499
-0.0044617206 0.014339224 -0.0066260779 4288819243
-0.0018636957 0.0099906921 -0.002878515 4289866529
0.0004336983 0.0078780651 -0.0011945944 4289343013
0.0025200024 0.0072554648 -0.00088441186 4289277734
0.0041464046 0.0096104294 -0.0033146013 4289997344
0.0059949458 0.010476291 -0.0043729669 4290258463
0.008081682 0.0098540485 -0.0040626167 4290323999
0.010422699 0.0077446848 -0.0023865607 4290520093
0.012779944 0.0056364834 -0.00071354397 4291174424
0.01476413 0.0057597309 -0.0010903906 4289735458
0.016748451 0.0058830976 -0.0014671627 4289408294
0.019003108 0.0045203269 -0.00048128702 4289669668
0.021957595 -0.00055631995 0.0039064521 4289342504
0.025230702 -0.0071160942 0.009647686 4288622383
0.028409019 -0.012930125 0.014700089 4286594879
-0.013673656 0.0069200397 -0.0011350196 4287774254
-0.01170776 0.0070406646 -0.0015095156 4288362539
-0.0099365264 0.0086566284 -0.0032575335 4288296749
-0.008175835 0.010272108 -0.0050035021 4288885033
-0.0064256638 0.011886992 -0.0067473515 4288754219
-0.0044751093 0.01200711 -0.0071185916 4289015848
-0.0021999404 0.0098865107 -0.0054355278 4289735714
-0.00013018399 0.0092605427 -0.0051239259 4289800994
0.0019450784 0.0086350739 -0.0048133186 4289539620
0.0037935004 0.0095029548 -0.0058701052 4289735458
0.0053989589 0.011863239 -0.0082912799 4289604389
0.0074746609 0.011238128 -0.007980505 4288688684
0.0098043308 0.0091215372 -0.0063072569 4289408039
0.012404032 0.0055145025 -0.0032746326 4289669923
0.014512297 0.0048917457 -0.0029697772 4289277479
0.016758323 0.0035239756 -0.0019856635 4289539109
0.019420046 -7.8856945e-05 0.0010354454 4289408548
0.022521593 -0.0059152544 0.0060889684 4288753963
0.025666144 -0.01174888 0.011134468 4286725694
-0.013425268 0.0023197532 0.00042085163 4287840299
-0.011543371 0.0031909645 -0.00064134784 4288165934
-0.0098611936 0.0055615604 -0.0030728672 4288165678
-0.0080949441 0.0071816519 -0.0048165675 4288427309
-0.0063392371 0.0088012293 -0.0065582371 4288623403
-0.0043834522 0.0089216605 -0.0069304756 4288950313
-0.0024275109 0.009042196 -0.0073026768 4289343013
-0.00047140568 0.0091628507 -0.0076748296 4289670179
0.0012581795 0.010781229 -0.009411132 4289474084
0.0030932277 0.011650428 -0.010463757 4289800993
0.0046856329 0.014016397 -0.012877506 4290389278
0.0067476407 0.013388254 -0.012565781 4289277479
0.0090632662 0.011264265 -0.010894836 4288950058
0.011902079 0.0061495304 -0.0065086354 4289538853
0.014390264 0.0032806396 -0.0041666497 4289408294
0.016900029 0.00041323155 -0.0018286724 4289146409
0.019835714 -0.0046951622 0.0025394531 4288818734
0.022946496 -0.010548368 0.007577993 4287314234
0.0261003 -0.016398787 0.012608524 4285875268
-0.013545126 0.00071154535 -0.00077433325 4287513133
-0.011568785 0.00083276629 -0.0011508483 4287969839
-0.0096893683 0.0017060786 -0.0022108722 4288231214
-0.0078151003 0.0025791824 -0.0032698195 4288165679
-0.0061509386 0.0049553961 -0.0056928005 4288034864
-0.0041872561 0.0050762743 -0.0060665738 4288623403
-0.0025468841 0.0074512362 -0.0084848609 4288819498
-0.00070139766 0.0083230063 -0.0095379893 4289211943
0.00091250986 0.01069656 -0.01195108 4289081384
0.0026263669 0.012318403 -0.013681014 4289669668
0.0042110756 0.014690377 -0.016088374 4289735203
0.0062647387 0.014059491 -0.01577669 4289015849
0.0084477738 0.012678795 -0.014787541 4289277224
0.011527728 0.0060477704 -0.0090546962 4289931044
0.014397532 0.00091987848 -0.0046858625 4289276458
0.017304979 -0.0042055994 -0.00032403972 4288818478
0.020115457 -0.0085789189 0.0033542709 4287837494
0.023095518 -0.013699621 0.0077025071 4286790463
-0.013573356 -0.0016508475 -0.0012863604 4287447088
-0.011688732 -0.00077517331 -0.0023458218 4287707953
-0.009809278 0.00010026991 -0.0034042168 4287904304
-0.0078353658 0.00022155046 -0.0037801177 4287969328
-0.0059635788 0.0010967478 -0.004836882 4288296493
-0.0039919987 0.0012181029 -0.0052121715 4288100399
-0.0022355691 0.0028465837 -0.0069472324 4288362029
-0.00060002506 0.0052278489 -0.0093595702 4289016359
0.0009065792 0.0083613545 -0.012447635 4288688939
0.0025075898 0.010740712 -0.014853237 4289211943
0.0042110533 0.012366347 -0.016577831 4289473574
0.0060249642 0.013238825 -0.017623013 4289146408
0.0083285943 0.011101045 -0.015959712 4288884523
0.011280499 0.0052027106 -0.010917744 4289342249
0.014533609 -0.0021971315 -0.0045322278 4289014573
0.017576884 -0.0080895647 0.00049255509 4287575608
0.020528711 -0.013227314 0.0048344471 4286267713
-0.013693266 -0.0032606348 -0.0024827374 4287381299
-0.011808619 -0.0023828149 -0.0035405671 4287773489
-0.009929128 -0.001505211 -0.0045973347 4287773233
-0.0079553649 -0.0013839751 -0.0049732313 4287969583
-0.005981423 -0.0012626201 -0.0053490722 4287969328
-0.0040073022 -0.0011411309 -0.0057248683 4287969328
-0.0022480115 0.00049184263 -0.0074571767 4288820009
-0.00049926341 0.002124235 -0.0091873687 4288492844
0.0012389049 0.0037561432 -0.010915486 4288296749
0.0027354658 0.0068978071 -0.013994956 4288492845
0.0044471398 0.0085283071 -0.015717866 4288623403
0.006148234 0.010158218 -0.017438633 4289211944
0.0084565803 0.0080142617 -0.015781229 4288950058
0.01141239 0.0020987988 -0.01075322 4289080364
0.014797993 -0.0060769022 -0.0037106564 4288556848
0.017716225 -0.011232048 0.00062595308 4286594624
-0.0099523291 -0.0038689226 -0.0051115518 4287773998
-0.0080753192 -0.0029892176 -0.0061661294 4287773488
-0.0059995353 -0.0036260337 -0.0058642803 4287904304
-0.0040228814 -0.0035044402 -0.006240583 4288034864
-0.0020460635 -0.0033826828 -0.0066168038 4288754473
-0.00050912797 -0.00023005903 -0.0096975956 4288230959
0.0014572889 -0.00010873377 -0.010071678 4288099888
0.0029623955 0.003042154 -0.013146231 4288100143
0.004800342 0.0039202794 -0.014192743 4288231213
0.0065123439 0.0055551827 -0.015912304 4288427564
0.0089541674 0.0026484653 -0.013588184 4288295983
0.011795826 -0.002526924 -0.0092487363 4287837749
0.015061408 -0.0099693984 -0.0028986027 4286398784
-0.0082943439 -0.0038336366 -0.0080353832 4287316274
-0.0062215552 -0.0044728518 -0.0077346405 4287839024
-0.0042477176 -0.0043513924 -0.0081103919 4288231469
-0.002273716 -0.0042298585 -0.0084861135 4288296238
-0.00051926076 -0.0025884211 -0.010210841 4288099888
0.0014496893 -0.0024669394 -0.010585415 4288034609
0.0033035874 -0.0015858114 -0.011633432 4288034864
0.0051522776 -0.00070488453 -0.012680365 4287904304
0.0068751648 0.00093504786 -0.014398748 4288362029
0.009203665 -0.0012207478 -0.012755054 4288034098
0.012052067 -0.0064108968 -0.0084284348 4287576118
0.015066694 -0.012357235 -0.0034379512 4286071618
-0.0042635351 -0.0067184716 -0.0086289151 4287644714
-0.0021799952 -0.0073589608 -0.0083317002 4287706678
-0.00041999668 -0.0057129115 -0.01005417 4287837493
0.001441814 -0.0048292652 -0.011102139 4288165679
0.0032984018 -0.0039457679 -0.012149069 4288165679
0.0051497743 -0.0030625314 -0.013194888 4288034864
0.0068755299 -0.0014181361 -0.014910481 4287969329
0.0092060715 -0.0035802647 -0.013272162 4288230704
0.012055852 -0.0087855235 -0.008957359 4287248954
0.015071686 -0.014749199 -0.0039802752 4286398528
0.017868292 -0.019188598 -0.00034895912 4285875268
-0.00032135099 -0.0088457763 -0.0099037914 4287577903
0.0014336482 -0.0071955919 -0.011621925 4288035118
0.0034078136 -0.0070737004 -0.011997423 4288165933
0.0051469877 -0.0054242238 -0.013712405 4288296493
0.0069958344 -0.0045388788 -0.014756016 4288361774
0.0092081875 -0.0059438944 -0.013792253 4288099634
0.012184925 -0.011927426 -0.0088210739 4287641654
0.015204649 -0.017908186 -0.0038579181 4286529343
0.017874517 -0.02159746 -0.00090451259 4286594878
0.0032871589 -0.0086778998 -0.013189367 4287250483
0.0051439255 -0.0077900067 -0.014232907 4288164914
0.0069954544 -0.0069022775 -0.015275422 4288033588
0.0094554946 -0.0098426417 -0.012981138 4288033588
0.012313385 -0.01507774 -0.0086909756 4287837494
0.015208893 -0.020310342 -0.0044079055 4286136898
0.0075943023 -0.013109341 -0.01246769 4287248698
0.0099470317 -0.015289649 -0.010848455 4288229683
0.012441225 -0.018236428 -0.008567173 4287510329
-0.0069388673 -0.011785261 0.03546362 4282476373
-0.005354844 -0.007995747 0.031577528 4282346834
-0.0094210207 -0.011399634 0.032509524 4282345813
-0.0068583712 0.00060716271 0.020577457 4280785468
-0.011975795 -0.010262221 0.028865922 4282410839
-0.01066146 -0.0042396486 0.022906702 4281436484
-0.0091986507 0.0003067404 0.018346446 4281567808
-0.0077677816 0.0048512071 0.013792384 4282349894
-0.014594659 -0.0083660036 0.024536159 4282152268
-0.013091244 -0.003804408 0.019977927 4281503038
-0.011619747 0.00075536221 0.015425876 4280525624
-0.0100848 0.0045742169 0.011573756 4283592763
-0.016846478 -0.0094134212 0.0229946 4282086734
-0.015590638 -0.0026128516 0.016362401 4281567554
-0.014113165 0.0019601658 0.011819009 4281503549
-0.012667611 0.0065313429 0.0072817821 4283070524
-0.017982423 -0.0021461546 0.01344862 4281307964
-0.016409233 0.001696378 0.0096054599 4281699899
-0.014952324 0.0062811822 0.0050758291 4283657278
-0.020356618 -0.0016648695 0.010541711 4280132923
-0.01869341 0.0014425069 0.0073965546 4279874864
-0.016790763 0.0023104027 0.0063269027 4280722229
-0.022555865 -0.0026665553 0.0090224799 4281825868
-0.021047048 0.00194709 0.0045024808 4280067134
-0.019149944 0.0028166696 0.003435431 4281697859
-0.017171264 0.0029377639 0.003058264 4281438014
-0.024900623 -0.002160877 0.0061271358 4281632323
-0.023383148 0.0024661571 0.0016153399 4280785468
-0.021491572 0.0033374429 0.00055090524 4281111613
-0.019437395 0.0027073026 0.00086295791 4281435973
-0.017377637 0.0020775944 0.0011740346 4281568573
-0.026862748 -0.0054079145 0.0066794902 4281564748
-0.025550306 0.0014932156 0.00011037476 4281239879
-0.023737289 0.0031196624 -0.0016396549 4281046079
-0.021691628 0.0024867207 -0.0013277102 4280264248
-0.019724123 0.0026069731 -0.0017028693 4280524093
-0.017583616 0.0012220889 -0.00070675276 4278964514
-0.027201347 -0.0047639459 0.0034135403 4281696328
-0.025744542 0.00064535439 -0.0017674509 4281436229
-0.023933999 0.0022759289 -0.003513677 4281435973
-0.022053055 0.0031508431 -0.0045728367 4280848964
-0.020010158 0.0025156289 -0.0042619691 4281045313
-0.017875463 0.0011260435 -0.0032681096 4281242684
-0.027320839 -0.0063800514 0.0022122646 4281630793
-0.025863037 -0.00095552951 -0.0029573916 4281632834
-0.02389621 -0.00083556771 -0.0033326065 4281110849
-0.022090591 0.00079913437 -0.0050745294 4281371714
-0.020045318 0.00016185641 -0.0047657848 4281241409
-0.017908394 -0.0012319982 -0.0037756399 4281306943
-0.027367771 -0.0087558329 0.001694479 4281761354
-0.025755875 -0.0048356205 -0.0020987643 4281631303
-0.023859031 -0.003955543 -0.0031577712 4281435973
-0.022047855 -0.0023161471 -0.0048975074 4281371204
-0.020080738 -0.0021959841 -0.0052726441 4281370693
-0.018113419 -0.0020757094 -0.0056477399 4281697349
-0.016057312 -0.0027143434 -0.005342531 4282808384
-0.027487308 -0.010373525 0.00049200002 4281826378
-0.025799707 -0.0072044358 -0.0026119826 4281761353
-0.023900144 -0.0063220561 -0.0036698757 4281631304
-0.022005714 -0.0054398775 -0.004726707 4281566023
-0.020033382 -0.0053194463 -0.0051028719 4281566023
-0.018232323 -0.0036761314 -0.006837233 4281631558
-0.016264923 -0.0035557672 -0.0072122803 4281827653
-0.014206246 -0.0041963309 -0.006909146 4282741829
-0.01214201 -0.0048363805 -0.0066070175 4283786818
-0.027751207 -0.010462284 -0.0020703701 4281694543
-0.025918685 -0.0088131875 -0.0038077864 4281825868
-0.024019092 -0.0079286546 -0.004864051 4281369928
-0.022044398 -0.0078081787 -0.0052407412 4281500234
-0.020152427 -0.0069238991 -0.0062953969 4281566023
-0.01826559 -0.0060398355 -0.0073489835 4281500999
-0.016383901 -0.0051559359 -0.0084015569 4281174343
-0.014416464 -0.0050354823 -0.0087765483 4281566024
-0.012542441 -0.0041518807 -0.0098274639 4282219843
-0.010673583 -0.0032684654 -0.010877288 4282351679
-0.0087109506 -0.0031479746 -0.011251106 4283917888
-0.028014429 -0.010542028 -0.0046261135 4281431639
-0.026112333 -0.0096552968 -0.0056813057 4281237074
-0.024060607 -0.010301143 -0.0053806114 4281238603
-0.022163451 -0.0094145089 -0.0064346972 4281304904
-0.020271413 -0.0085280687 -0.0074877213 4281434698
-0.018384561 -0.0076418817 -0.0085396906 4281435208
-0.016414762 -0.0075213909 -0.0089152222 4281239879
-0.014626332 -0.0058700442 -0.010640475 4281500489
-0.012754932 -0.0049844533 -0.011689237 4281762373
-0.010888748 -0.0040990636 -0.012736931 4281958979
-0.0089289173 -0.0039787516 -0.01311022 4282350149
-0.0066644773 -0.0061524212 -0.011465008 4282807873
-0.004487969 -0.0075604916 -0.010495066 4283461693
-0.026380181 -0.0097242594 -0.0082276762 4281167458
-0.024334081 -0.010372624 -0.0079275668 4281368399
-0.022282422 -0.011020556 -0.0076284516 4281303883
-0.020307809 -0.010900021 -0.0080050789 4281434444
-0.01850348 -0.0092436224 -0.0097301854 4281108554
-0.016621754 -0.0083554238 -0.010779492 4281238858
-0.01483579 -0.0066999495 -0.012500941 4281369928
-0.01296708 -0.0058123618 -0.013547561 4281565768
-0.011103533 -0.0049249679 -0.014593161 4281696329
-0.0091465265 -0.0048048198 -0.014965921 4281369928
-0.0070880353 -0.0054515079 -0.014667398 4281370183
-0.0048160106 -0.0076311231 -0.013028498 4281761354
-0.002314426 -0.011342764 -0.0100522 4282545479
-0.00033267587 -0.011220649 -0.01042933 4283264324
-0.020674139 -0.010195151 -0.011218104 4281235033
-0.018707462 -0.010075003 -0.011593151 4281171029
-0.016916163 -0.0084149837 -0.013312413 4281499724
-0.01495447 -0.0082949102 -0.013686339 4281304138
-0.012992583 -0.0081747323 -0.014060224 4281369419
-0.01103054 -0.0080544502 -0.014434057 4281303883
-0.009166792 -0.0071647912 -0.015477917 4281500489
-0.0072070882 -0.0070444047 -0.015851133 4281434954
-0.0050395429 -0.0084616691 -0.014886132 4281760843
-0.0025415868 -0.012184381 -0.011917386 4282023748
-0.00023508817 -0.014368176 -0.010289785 4282479689
0.0018638894 -0.015014052 -0.010000322 4282741573
-0.018911101 -0.010901779 -0.013452634 4281429853
-0.017034642 -0.010009646 -0.014497619 4281172048
-0.015073083 -0.0098896027 -0.01487153 4281172813
-0.013111353 -0.0097694546 -0.0152454 4281434954
-0.011149436 -0.0096491724 -0.015619211 4281238603
-0.0092856809 -0.0087573603 -0.016661435 4281434699
-0.0073261112 -0.0086370036 -0.017034642 4281631049
-0.005055353 -0.010829717 -0.015405402 4281630283
-0.0025556833 -0.014563158 -0.012445237 4281891914
-0.00024715066 -0.016753346 -0.01082297 4282218059
0.0018542036 -0.017401233 -0.010535605 4282479943
-0.013322882 -0.01058998 -0.017098248 4280907614
-0.011363789 -0.010469899 -0.017471544 4281040979
-0.0094045252 -0.010349676 -0.01784477 4281434189
-0.0073442534 -0.011002719 -0.017551593 4281630794
-0.0049679503 -0.013975114 -0.015261821 4281499724
-0.0027824491 -0.015399843 -0.014306769 4281892168
-0.00047721714 -0.017596737 -0.012688819 4282675274
-0.011863723 -0.0089581907 -0.021317717 4281690464
-0.0098173171 -0.009614408 -0.021023653 4281238094
-0.007564038 -0.011821352 -0.019401036 4281433423
-0.0050878599 -0.015578046 -0.016452976 4281564238
-0.0030088574 -0.01623188 -0.016164836 4282151758
