# .PCD v0.7 - Point Cloud Data file format
VERSION 0.7
FIELDS x y z rgba
SIZE 4 4 4 4
TYPE F F F U
COUNT 1 1 1 1
WIDTH 421
HEIGHT 1
VIEWPOINT 0 0 0 1 0 0 0
POINTS 421
DATA ascii
0.014186699 -0.010905728 0.04255617 4287900989
0.0044161081 0.0071131885 0.022774562 4287378749
0.0065714493 0.0065205693 0.023085739 4289275439
0.0092267841 0.0030523241 0.026211921 4289209903
0.012540545 -0.0040084049 0.0328504 4289144113
0.015908077 -0.011065654 0.039478566 4290451499
0.0019102469 0.0074849203 0.01983726 4289341994
0.0032278076 0.011940137 0.015224875 4289407274
0.0052379742 0.012065157 0.014836214 4289341994
0.0078655407 0.0085842311 0.017959576 4288949548
0.011024576 0.002220884 0.02388531 4290061858
0.014360823 -0.0048602074 0.030503124 4290127649
0.017487857 -0.010496415 0.035708975 4289144878
0.020523749 -0.015409261 0.040206224 4287705659
-0.0040769279 0.0039991438 0.021206982 4287708209
-0.0024857074 0.0070219785 0.018000472 4288885034
-0.00069057941 0.0085954219 0.016203899 4289015849
0.00097874552 0.010892272 0.013707069 4289931553
0.0025142506 0.013911933 0.010511623 4290585629
0.0043902695 0.014759704 0.0094242161 4289473318
0.0068775043 0.01199016 0.011841881 4288884523
0.0098901913 0.0063290894 0.01705654 4289800228
0.012945917 0.00067080557 0.022262961 4290126884
0.015782014 -0.003538847 0.02606266 4289341739
0.019052438 -0.0099145994 0.031952374 4288752689
0.022097867 -0.014842033 0.036436412 4288752433
-0.0069625899 0.0072967708 0.015463569 4288167209
-0.0050579309 0.0081479102 0.014371888 4289212453
-0.0033778772 0.010451734 0.011877709 4289212454
-0.001376532 0.010575831 0.011490467 4289408548
0.00039482862 0.012152255 0.0097018192 4289604643
0.0020378977 0.014454119 0.0072150463 4290258463
0.0039059222 0.015303507 0.0061308471 4290062369
0.0063843206 0.012524642 0.0085436488 4289539109
0.0092616975 0.0075709373 0.013048331 4290062369
0.011919793 0.0040702298 0.016149536 4289669924
0.014473669 0.001296401 0.018548004 4289605154
0.017316818 -0.0029258132 0.022336598 4289408549
0.020601816 -0.0093202218 0.028208829 4289014828
0.023796 -0.014986902 0.033375736 4287117628
-0.01160267 0.0090462938 0.011525941 4288820773
-0.0098079219 0.010628022 0.0097355815 4290390299
-0.007711105 0.010022238 0.010051015 4289474083
-0.0057156235 0.010145724 0.009664719 4290324764
-0.0038294941 0.010998026 0.0085782753 4289539363
-0.0019485429 0.011850059 0.0074929548 4289408548
-0.00018768013 0.013430163 0.005709595 4289604899
0.0016801879 0.014281645 0.0046269195 4289604389
0.0039037094 0.012948945 0.0056396769 4289146408
0.0062610358 0.010889232 0.007347987 4288884779
0.008885853 0.0073753968 0.010447339 4289604389
0.011024367 0.0067732111 0.010755391 4289473574
0.013299383 0.0054442063 0.011758487 4289277223
0.015718915 0.003388837 0.013455116 4289146409
0.018836442 -0.0023002476 0.018623631 4289146154
0.022275031 -0.009440124 0.025172852 4289080618
0.025909081 -0.017303124 0.032405734 4288557103
-0.013914332 0.0087493807 0.009313426 4289213219
-0.012316935 0.0117983 0.0061249761 4289408803
-0.010436714 0.01265201 0.0050410843 4289212453
-0.0085616335 0.013505533 0.0039582876 4287641908
-0.0063716024 0.012165844 0.0049737738 4289866274
-0.0040612668 0.010096103 0.0066858316 4289604389
-0.0021829754 0.010950118 0.0056026401 4289604899
-0.0003098622 0.011803925 0.0045205327 4289604899
0.0015580505 0.012657583 0.0034394795 4289735459
0.0039011911 0.0105903 0.0051455135 4289408038
0.0062605739 0.0085241348 0.0068484964 4289015593
0.0086361766 0.0064591244 0.0085483762 4289604389
0.010515414 0.0073138773 0.0074655013 4289800483
0.012520269 0.0074389428 0.0070781382 4289669924
0.014658734 0.0068347752 0.0073847072 4289996833
0.017483652 0.0025852397 0.011157283 4289538599
0.020618573 -0.0031200945 0.016309384 4289669159
0.024221152 -0.011009164 0.02353036 4289995558
0.027305894 -0.015979722 0.027972657 4287771448
-0.016120933 0.0077283382 0.0078055924 4288296748
-0.014419354 0.010052532 0.0053215129 4289277734
-0.012832135 0.013109475 0.002141594 4290127904
-0.011164963 0.015431769 -0.00033565424 4289539108
-0.0092020631 0.015553094 -0.00071575493 4288688684
-0.0069193244 0.013474941 0.00099662971 4289604388
-0.0042926669 0.0091988668 0.0047968188 4290520093
-0.0024170205 0.010054871 0.003715747 4289604899
-0.00054655969 0.010910727 0.0026357314 4289604899
0.0013187081 0.011766315 0.0015568407 4289212199
0.0036585405 0.0096922442 0.003258585 4289212199
0.0058919787 0.0083515346 0.0042628841 4289538853
0.0081362873 0.0070115626 0.0052652033 4289277223
0.0098795332 0.0085998774 0.0034921328 4289669668
0.01174286 0.0094559044 0.0024140375 4289604133
0.013600953 0.01031173 0.0013370449 4289146409
0.016269915 0.0067792088 0.0044118101 4288950314
0.019104518 0.0025173128 0.0081727291 4289931043
0.022395547 -0.0039355308 0.013999739 4289080108
0.025734931 -0.010385215 0.019817509 4288753963
0.028975934 -0.016101092 0.024936341 4287378749
-0.016242258 0.0060986131 0.0066137211 4287511603
-0.014540315 0.0084293634 0.0041344622 4289015593
-0.013247631 0.013702706 -0.0011313427 4289931554
-0.011588134 0.016031034 -0.0036022253 4289604389
-0.0095296875 0.015416279 -0.0032843892 4289146664
-0.0071465448 0.012595817 -0.00087989122 4289539109
-0.0046327412 0.0090415701 0.0022158278 4289538853
-0.0027624369 0.0098994225 0.0011374177 4289604644
-0.00078287721 0.010022163 0.00075439084 4289474084
0.0011968464 0.010145053 0.000371431 4289343014
0.00341627 0.0087989122 0.0013751024 4289604644
0.0055240989 0.0081879869 0.0016839588 4289669925
0.0075123012 0.0083117336 0.001299602 4289473574
0.0092450231 0.0099037364 -0.00046817493 4289800739
0.011097644 0.010761246 -0.0015425896 4290389279
0.013078209 0.010884866 -0.0019252067 4289277224
0.015466474 0.0088079348 -0.00023722183 4288753709
0.01814799 0.0052653849 0.0028270157 4288818734
0.020856414 0.0017246455 0.005886157 4289472553
0.024167344 -0.0047465116 0.01169468 4288817968
0.0276732 -0.011947379 0.018182065 4288686898
0.031083513 -0.018412039 0.023971599 4287640379
-0.016085029 0.0022539645 0.0075126579 4286726203
-0.014661215 0.006806463 0.0029475996 4287706933
-0.01346571 0.012833208 -0.0030027796 4289342503
-0.011808515 0.015167907 -0.005468335 4289081129
-0.0096495152 0.013813026 -0.0044567902 4289015593
-0.0073733777 0.011721298 -0.0027529821 4289800483
-0.0049721077 0.008893311 -0.00035848562 4289866274
-0.0031071156 0.0097529739 -0.0014342619 4289538853
-0.0012473017 0.010612443 -0.0025089374 4290062113
0.00084115565 0.0099978894 -0.0021981476 4290323999
0.0030547678 0.0086470544 -0.0011966741 4290062369
0.0051569268 0.0080335662 -0.00088836905 4289473574
0.007014662 0.0088933408 -0.0019623218 4289669668
0.0086118877 0.011225402 -0.0044154031 4290062369
0.010453813 0.012084484 -0.0054861475 4290520093
0.012290511 0.012943298 -0.0065557752 4290127393
0.014936101 0.0093874484 -0.003492876 4289931298
0.017470233 0.0065689683 -0.0011231294 4290062113
0.020025916 0.0037519634 0.0012425492 4289342503
0.023034319 -0.0012693107 0.0056651765 4289080619
0.026666015 -0.0092284083 0.012826703 4288818478
0.030356757 -0.017183647 0.019976877 4288361264
0.033195928 -0.020726621 0.023002971 4286725183
-0.016114049 -0.00012232363 0.007011638 4286725694
-0.014591366 0.0037030056 0.0031504696 4287314488
-0.01319328 0.008267045 -0.0013997005 4288492078
-0.01162573 0.011349067 -0.0045561986 4289277224
-0.009665899 0.011470094 -0.004935774 4289734948
-0.0075998381 0.01085151 -0.0046226298 4289735204
-0.005528219 0.010233372 -0.0043104803 4289735458
-0.0036739185 0.01109454 -0.005382563 4289473574
-0.0015966296 0.010476969 -0.005071356 4290781979
0.00048619509 0.0098598599 -0.0047611324 4289211943
0.002693966 0.0085042268 -0.0037617786 4290781978
0.0045462176 0.0093657076 -0.0048331348 4289996833
0.0063932613 0.010227039 -0.0059034182 4289735458
0.008235082 0.011088103 -0.0069725877 4289735204
0.010071676 0.011948965 -0.0080406498 4289735204
0.012035873 0.012071528 -0.0084201377 4288753963
0.01440677 0.0099803805 -0.006738632 4288753964
0.016932048 0.0071526393 -0.0043737767 4289408039
0.019478876 0.0043263286 -0.0020129448 4289146409
0.022334374 2.6583672e-05 0.0017146738 4288557358
0.025953349 -0.007957302 0.0088606058 4288885034
0.029929221 -0.01741159 0.017364025 4287837238
0.033216868 -0.0231767 0.022434764 4287509819
-0.016050845 -0.0032454729 0.0072012851 4286595133
-0.014522128 0.00059109926 0.0033470849 4287118394
-0.012922116 0.0036836937 0.00019072462 4287903538
-0.011443876 0.0075173676 -0.0036535291 4288492589
-0.0096825659 0.0091231242 -0.0054177931 4289146408
-0.0079318061 0.010728382 -0.0071799704 4289800483
-0.0058658421 0.010107636 -0.0068683429 4289538853
-0.0041281134 0.011712298 -0.0086278338 4289866018
-0.002286993 0.012574926 -0.0096956622 4289146664
-0.00033448637 0.012696043 -0.010073422 4286726204
0.0019760206 0.010593876 -0.0083856899 4289015849
0.0040588379 0.0099747851 -0.0080769379 4289604389
0.0062717795 0.0086153597 -0.0070817461 4289539364
0.0079862922 0.010219216 -0.0088361967 4289604388
0.0099502467 0.010341637 -0.0092157256 4289604134
0.011914302 0.010464154 -0.0095951986 4289015594
0.014284536 0.008366406 -0.0079184985 4288950058
0.016947057 0.004789874 -0.0048751486 4288557869
0.019495748 0.001954928 -0.0025212308 4288099633
0.022352774 -0.0023577809 0.0011962289 4287968563
0.025826357 -0.0096261948 0.0076407446 4288426033
0.029799916 -0.019108996 0.016123354 4287510329
-0.016080566 -0.0056321621 0.0066927141 4286529854
-0.014358453 -0.0032741129 0.0042290697 4287053114
-0.012749903 -0.00017227232 0.0010775821 4288099633
-0.011162564 0.0029283464 -0.0020697219 4287838515
-0.009699516 0.0067720711 -0.0059027998 4288361519
-0.0080515966 0.0091259778 -0.0083517451 4289211944
-0.0062027425 0.0099910274 -0.009419607 4289996834
-0.0044701695 0.011599675 -0.011174807 4290454814
-0.0028619245 0.013951458 -0.013615815 4289800738
-0.0010366961 0.014815368 -0.014678868 4289277479
0.0013789088 0.011962444 -0.012306495 4289669923
0.0036942735 0.0098541752 -0.010624571 4289735203
0.0059013888 0.0084899515 -0.0096314987 4289277734
0.0079922155 0.0078694001 -0.0093257679 4289669668
0.010088511 0.0072492957 -0.0090210168 4289604389
0.012057774 0.0073721409 -0.009401503 4289342759
0.014432736 0.0052681193 -0.0077306246 4288099888
0.017237496 0.00093879551 -0.004013069 4287772723
0.019793414 -0.0019044578 -0.0016670972 4287576374
0.022514105 -0.0054880083 0.0013570217 4287641654
0.025699418 -0.011294737 0.0064211329 4288229683
0.029076286 -0.017840147 0.012158195 4288033334
-0.016202733 -0.0072757229 0.0054906709 4286202689
-0.01448027 -0.0049111247 0.0030318452 4287183674
-0.012676135 -0.0032942742 0.0012656236 4287968818
-0.01118315 0.00056210905 -0.0025652274 4287314488
-0.0096138343 0.0036703944 -0.0057023903 4287380023
-0.008065775 0.0067775249 -0.008835393 4288230448
-0.0064307004 0.0091372728 -0.011276881 4289604389
-0.0049224645 0.012242153 -0.014402008 4289996833
-0.0033218786 0.014599957 -0.016836608 4289408038
-0.0013883933 0.014719844 -0.01721072 4289146408
0.0010210499 0.011857852 -0.014843727 4289931298
0.0034520626 0.0089972541 -0.012480794 4289800483
0.0057803318 0.0068832859 -0.010806165 4289473574
0.0081248209 0.0047704726 -0.0091345673 4289081129
0.010485496 0.0026587844 -0.0074660699 4288230959
0.012465332 0.0027822703 -0.007848613 4287772723
0.01498539 -7.2196126e-05 -0.0055024475 4287576628
0.017526992 -0.0029251724 -0.0031603463 4287445558
0.020090129 -0.005776681 -0.00082230195 4287576118
0.022674814 -0.0086267292 0.0015116697 4287641144
0.02586399 -0.014450654 0.0065619042 4287902519
0.028947718 -0.019528136 0.010924409 4287509308
-0.01460205 -0.0065478683 0.00183482 4287316018
-0.012797721 -0.0049266666 7.1819872e-05 4287446069
-0.011003911 -0.0033059567 -0.0016891211 4286987578
-0.009528771 0.00056029111 -0.0055082217 4287053114
-0.0079748407 0.0036764741 -0.0086358488 4287314744
-0.0065502077 0.0075398311 -0.012445006 4288164914
-0.0050414503 0.010653451 -0.015563714 4289080618
-0.0034405217 0.013017796 -0.017993493 4289211944
-0.0013910532 0.012389801 -0.017683411 4288688428
0.0010202676 0.00951913 -0.015323299 4289735204
0.0035746247 0.0059023798 -0.01228414 4289604389
0.005783461 0.0045295581 -0.011297989 4289342503
0.0082568005 0.0016630888 -0.0089496113 4288819499
0.01049269 0.00029219687 -0.0079685152 4287707443
0.012739435 -0.0010779575 -0.0069893859 4287576628
0.015131839 -0.0031940043 -0.00533171 4287510838
0.017540447 -0.0053088814 -0.0036771074 4287707189
0.020105448 -0.0081690103 -0.001345966 4287445049
0.0225491 -0.010281473 0.00030209776 4287902774
0.025736786 -0.016122937 0.0053395433 4288098359
0.028522674 -0.019724026 0.008334904 4287574589
-0.012724824 -0.0080611557 0.00025063008 4287119413
-0.011025354 -0.005684711 -0.0021937937 4286857018
-0.0093417466 -0.0033092052 -0.0046350434 4286660413
-0.0077792779 -0.00018377602 -0.0077578048 4286856508
-0.0063459426 0.0036909878 -0.011560491 4287314488
-0.0051603988 0.0090650469 -0.016725207 4288099378
-0.0034458414 0.010685712 -0.018467078 4289146409
-0.00127808 0.0093056113 -0.017476534 4288819243
0.0011378154 0.0064264834 -0.015123843 4288884778
0.0035752505 0.0035488233 -0.012775238 4288230959
0.0060342625 0.00067257881 -0.010430731 4288427053
0.0085148215 -0.0022021681 -0.0080902912 4288492334
0.010628939 -0.0028277487 -0.0077939257 4287576628
0.012748525 -0.0034528673 -0.0074985176 4287511349
0.015008286 -0.0048264563 -0.0065250844 4287510838
0.017416246 -0.0069479346 -0.0048752762 4287510328
0.019980434 -0.0098168403 -0.0025505247 4287444793
0.022566147 -0.012684286 -0.00022984389 4287705913
0.025609627 -0.017794922 0.0041174134 4287705149
-0.011047088 -0.0080676228 -0.002701439 4286726968
-0.0093604624 -0.0056853518 -0.0051384307 4286791993
-0.0075846389 -0.0040568411 -0.0068892017 4286987833
-0.0061426088 -0.0001706481 -0.010685422 4286987833
-0.00494802 0.0052191615 -0.015840426 4287511094
-0.003225252 0.0068447292 -0.017580677 4288231214
-0.0011656955 0.00621292 -0.017275799 4287969329
0.0013731942 0.0025732517 -0.014250099 4288034608
0.0038178861 -0.00031270087 -0.011909433 4287445814
0.006160289 -0.0024454296 -0.010252323 4287838258
0.0083924234 -0.0038254857 -0.0092771091 4288361774
0.010377061 -0.0037018508 -0.0096606985 4287641909
0.012625493 -0.0050805956 -0.0086884946 4287380279
0.015153825 -0.0079607517 -0.0063635632 4287445303
0.017566495 -0.010088503 -0.0047195116 4287248698
0.020414986 -0.014467373 -0.0010495642 4287117373
-0.0093794465 -0.0080655664 -0.0056447983 4286792503
-0.0074958578 -0.0071876943 -0.0067113936 4287053624
-0.0060477853 -0.003290236 -0.010500621 4287511094
-0.0047365949 0.001360476 -0.014965079 4287903793
-0.003005594 0.0029908568 -0.016703624 4287642164
-0.000707075 0.00084845722 -0.015043147 4287707443
0.0016076416 -0.0012927651 -0.013385762 4287576628
0.0038176104 -0.0026787966 -0.012409717 4287511093
0.0060384125 -0.0040640086 -0.011435725 4287642164
0.0082700551 -0.0054484755 -0.0104637 4287969329
0.010641556 -0.007585682 -0.0088169239 4288164913
0.012897547 -0.0089683682 -0.0078494176 4287445558
0.015567463 -0.012610063 -0.0048566693 4287249209
0.017990179 -0.014743701 -0.0032195123 4286725438
-0.0077219084 -0.0080551058 -0.0085793398 4286987833
-0.0062758401 -0.0041469038 -0.012360051 4287641398
-0.0046361834 -0.00175412 -0.014777891 4287249718
-0.0027868822 -0.00087587535 -0.015835971 4287118649
-0.00048097968 -0.0030243099 -0.014181875 4287314998
0.0016048849 -0.0036587566 -0.013885297 4287249464
0.0039378405 -0.0058052838 -0.012236267 4287314743
0.0059165657 -0.0056823045 -0.012618914 4287380023
0.0082738996 -0.0078271106 -0.010974366 4287445558
0.010647431 -0.0099707991 -0.0093328543 4287837748
0.013300166 -0.013624623 -0.0063450681 4286529343
-0.0063962713 -0.0057581812 -0.01353832 4286594878
-0.0048661977 -0.0025997162 -0.016628552 4286922554
-0.0029069409 -0.0024784356 -0.017007813 4287380279
-0.00060167164 -0.0046334714 -0.0153585 4287445558
0.0017198026 -0.0067874268 -0.013712201 4287380279
0.0039368346 -0.0081817284 -0.012744114 4287183928
0.006041415 -0.0088169724 -0.012452617 4287118393
0.008529447 -0.011726201 -0.010139793 4287053114
0.011039019 -0.014633909 -0.0078310864 4287052858
0.013701499 -0.018298015 -0.0048533464 4286791484
-0.0048763156 -0.0049632862 -0.017124578 4286857784
-0.0029145181 -0.0048418641 -0.017504334 4287118394
-0.00060720742 -0.0070033669 -0.015860293 4287575864
0.001834102 -0.0099245533 -0.013545293 4287248954
0.0042969659 -0.012844294 -0.011234314 4286922044
0.0065350831 -0.014241591 -0.010273454 4286137409
-0.0029223859 -0.007209383 -0.018003855 4286857019
-0.00061304122 -0.0093773156 -0.016365118 4287183419
0.0020654202 -0.013833195 -0.012712074 4286529343
-0.0025941879 -0.011877663 -0.016490668 4286071874
-0.016447581 -0.0032079965 0.021320455 4282870858
-0.019873559 -0.011736169 0.027204365 4282152778
-0.018693589 -0.0042661428 0.019794282 4280790823
-0.02287931 -0.0061804876 0.019364409 4281369928
-0.020933375 -0.0053189844 0.018270504 4281176893
-0.01934313 -0.0015116036 0.014379687 4281961529
-0.025351048 -0.0050125495 0.015743103 4281303884
-0.023823962 -0.00045420229 0.011157644 4281109574
-0.021819934 -0.00033111125 0.010768996 4280916539
-0.019640729 -0.0016854331 0.011776187 4281373753
-0.025632143 -0.0051849037 0.013136677 4281827398
-0.024191529 0.00012742728 0.0078645898 4281371203
-0.022195667 0.00024995208 0.0074774856 4281307454
-0.019850291 -0.0025910884 0.0098756244 4281371968
-0.017753281 -0.0032084063 0.010182285 4283592763
-0.02559603 -0.0083227158 0.013321905 4282088518
-0.024230853 -0.0022512525 0.0073642535 4281828674
-0.022232421 -0.002128616 0.0069766222 4281503038
-0.01988516 -0.0049783066 0.0093678227 4281569084
-0.017875604 -0.0048547536 0.0089781946 4283461948
-0.025639474 -0.010723144 0.012806258 4282346834
-0.024188809 -0.0053796843 0.0075550182 4281566534
-0.022269465 -0.004511252 0.0064727692 4281827908
-0.02009429 -0.0058789924 0.0074708713 4281959234
-0.017997868 -0.0065007657 0.0077743409 4283657788
-0.025761962 -0.012379676 0.011594585 4281822808
-0.024147339 -0.0085165948 0.0077396324 4281565513
-0.022306778 -0.0068979859 0.0059659136 4281826888
-0.020216212 -0.0075224936 0.006268817 4282153543
-0.026120335 -0.011785343 0.0083087711 4281562709
-0.02435042 -0.0094119087 0.0058452589 4281497683
-0.022428349 -0.0085389689 0.0047656624 4281955918
-0.020511396 -0.0076662749 0.0036871796 4282283083
-0.018599592 -0.006793797 0.0026097735 4282805324
-0.026556164 -0.01042521 0.0043429462 4281430619
-0.024553113 -0.010302477 0.0039542718 4281496919
-0.022549845 -0.010179617 0.0035656421 4281890893
-0.020632878 -0.0093047917 0.0024887575 4281956428
-0.018810228 -0.0076784566 0.00072519016 4282282318
-0.016814351 -0.0075557381 0.00033823028 4282805068
-0.024917424 -0.0096796602 0.00069130119 4281559393
-0.022922307 -0.0095573291 0.00030422583 4281824338
-0.020926982 -0.0094348937 -8.2816929e-05 4281825359
-0.019020475 -0.0085584372 -0.001155965 4281825103
-0.017027415 -0.0084359199 -0.0015424043 4281825104
-0.0149398 -0.0090668425 -0.0012436844 4282609484
-0.023210235 -0.0096779466 -0.002261796 4281757784
-0.021134213 -0.01031217 -0.001962685 4281889874
-0.019230351 -0.0094336644 -0.0030337498 4281759823
-0.017240107 -0.0093113407 -0.0034196526 4281498449
-0.015249662 -0.0091889128 -0.0038055331 4282151504
-0.013162144 -0.0098219663 -0.0035083005 4282739023
-0.021513097 -0.0096678659 -0.0052061351 4281690209
-0.019528531 -0.0095460117 -0.0055910312 4281889618
-0.01754377 -0.0094240382 -0.0059758909 4281759059
-0.015652865 -0.0085440129 -0.0070426203 4281824594
-0.0136704 -0.0084219873 -0.0074268845 4281955409
-0.01158835 -0.009057425 -0.0071302098 4282608718
-0.01982604 -0.0096492618 -0.0081417486 4282084184
-0.017846756 -0.0095276535 -0.0085255615 4281823573
-0.01596117 -0.0086458027 -0.0095896497 4281824083
-0.014080748 -0.0077641308 -0.010652643 4281759314
-0.011907801 -0.0091621056 -0.0096767247 4282151758
-0.0098258704 -0.0097996891 -0.0093815476 4282609994
-0.020122848 -0.0097435191 -0.010685809 4281755234
-0.018149048 -0.0096222535 -0.011068568 4281889109
-0.016268775 -0.0087385625 -0.01213 4281824339
-0.014200903 -0.0093793795 -0.011833955 4281824594
-0.012127489 -0.010019764 -0.011538912 4282021454
-0.010048546 -0.01065968 -0.011244833 4281894208
-0.0080685094 -0.010537468 -0.011628374 4282806854
-0.018541522 -0.0089430809 -0.01428264 4281624929
-0.016669251 -0.0080577135 -0.015340898 4281626969
-0.014417231 -0.01022999 -0.013691656 4281693268
-0.012346804 -0.010872759 -0.013397683 4282088263
-0.010270834 -0.011515036 -0.013104671 4281829184
-0.0081893653 -0.012156889 -0.012812653 4282089029
-0.0064231604 -0.010507196 -0.01454517 4282936648
-0.016881928 -0.0088969097 -0.017190926 4281624929
-0.014729276 -0.010309368 -0.016220991 4281889618
-0.012664482 -0.010954693 -0.015927508 4282022984
-0.010594182 -0.011599526 -0.015635043 4281697603
-0.0083101764 -0.013775989 -0.013996691 4281759824
-0.0064370334 -0.012887821 -0.015053076 4282738769
-0.015040629 -0.010379724 -0.018743664 4281952603
-0.012981489 -0.011027575 -0.018450782 4281236564
-0.01071433 -0.013211772 -0.016814105 4282020178
0.022039928 -0.022175252 -0.01866536 4282797928
0.023330573 -0.020594835 -0.022880411 4282863719
