# .PCD v0.7 - Point Cloud Data file format
VERSION 0.7
FIELDS x y z rgba
SIZE 4 4 4 4
TYPE F F F U
COUNT 1 1 1 1
WIDTH 511
HEIGHT 1
VIEWPOINT 0 0 0 1 0 0 0
POINTS 511
DATA ascii
0.0059051514 -0.0098071024 0.055555906 4288489783
0.0087663755 -0.013902791 0.059434075 4288752178
0.00026585907 -0.0040245801 0.047235105 4288096319
0.0018874779 -0.0010660216 0.043980844 4290321704
0.0043301061 -0.0030575618 0.045721233 4289798953
0.0070350058 -0.0064616129 0.048883397 4289603114
0.010395348 -0.01339709 0.055599984 4290323998
-0.0078132227 -0.0090935379 0.050433535 4290060328
-0.0059247017 -0.0075434148 0.048603073 4289472298
-0.0041561425 -0.0052839667 0.046061322 4288950823
-0.0027397946 -0.00089642406 0.041384164 4289408804
-0.0011258796 0.0020702481 0.038137849 4289735203
0.00081920624 0.0029076934 0.037031136 4289408549
0.003239736 0.00090821087 0.038770784 4288557868
0.0059222281 -0.0025081635 0.041928969 4289081383
0.0090082698 -0.0080492944 0.047212929 4289146408
0.012522027 -0.015713602 0.054618027 4288622383
-0.018629469 -0.01003392 0.049749155 4286985028
-0.017465875 -0.0027744472 0.042198971 4287966778
-0.015876353 0.0009174794 0.038230706 4290191654
-0.013919212 0.0017571151 0.037122838 4289995304
-0.01156234 -0.00025361031 0.038869172 4290127394
-0.0092930645 -0.001550816 0.039899658 4290126883
-0.0072260275 -0.0014228821 0.039503615 4289146919
-0.005377315 0.00012919307 0.037684131 4289409314
-0.0035391524 0.0016807616 0.035866704 4289343524
-0.0018261448 0.0039434284 0.0333407 4290389788
-0.00012905151 0.0062052608 0.030817777 4290258463
0.0021520853 0.0049093664 0.031846434 4290128159
0.0048121512 0.0014806539 0.035000641 4289997089
0.0080006383 -0.0047903955 0.040984433 4290062624
0.011365607 -0.011769228 0.04766722 4289146664
0.014784411 -0.018744551 0.05433977 4288754474
-0.02002231 -0.0017316341 0.038492616 4288032823
-0.018522628 0.0026864633 0.033818681 4288623403
-0.016672097 0.0042425022 0.032001752 4289342759
-0.01473368 0.0050831139 0.030899081 4288884524
-0.012295119 0.0023499578 0.033355784 4289080873
-0.0099386349 0.00033272803 0.035097305 4289669668
-0.0077787042 -0.00025459379 0.035414454 4289669924
-0.0059405193 0.0013011619 0.033600252 4289473828
-0.0041128695 0.0028564036 0.031788107 4289670178
-0.0024102256 0.005124934 0.029269006 4289735458
-0.00060635805 0.0066789016 0.027461559 4290324509
0.0014266297 0.0068052039 0.027072396 4289670178
0.0040723234 0.0033646524 0.030221086 4289997344
0.0072457716 -0.0029270053 0.036192894 4289866018
0.010339797 -0.0085024834 0.041448988 4289211944
0.013738006 -0.015500933 0.048108958 4288949804
0.016923524 -0.021070473 0.053347725 4288556849
-0.020418532 -0.0012610406 0.035114843 4288230959
-0.018926032 0.0031696558 0.030452136 4289866019
-0.017178871 0.0054467916 0.027928848 4290062368
-0.015349343 0.007005997 0.026119243 4289408038
-0.012924962 0.0042631552 0.028572086 4290062369
-0.010478929 0.0015217364 0.031020842 4290782233
-0.0083300173 0.00093151629 0.031338435 4289735458
-0.0065023527 0.0024909377 0.029529519 4289604899
-0.0045735911 0.0033335984 0.028430689 4289408294
-0.0027643293 0.0048921332 0.026625413 4289473829
-0.00084862858 0.005734168 0.025529236 4289408038
0.0013012066 0.0051445141 0.025847036 4289277734
0.0037012622 0.0031241253 0.027575772 4289343013
0.0064926371 -0.0010413677 0.031417754 4289146408
0.0094440728 -0.0059200153 0.035958573 4288819244
0.012954783 -0.013656475 0.043309856 4288491568
0.016524646 -0.021389164 0.05064996 4288425778
-0.020813711 -0.00077699125 0.031746913 4286922808
-0.019421093 0.004385896 0.026385475 4289342249
-0.017779633 0.0073883161 0.023159634 4289669668
-0.015669145 0.0067932084 0.023482691 4289342759
-0.013452366 0.0054794475 0.024513178 4289211944
-0.010914415 0.0020096079 0.027665485 4289996833
-0.008986026 0.0028542057 0.026568148 4289343013
-0.0069540143 0.0029799566 0.026178803 4289081128
-0.005033277 0.0038242564 0.025083128 4289277734
-0.0030035749 0.0039500669 0.024694387 4289539364
-0.00097370148 0.0040759966 0.024305698 4289408293
0.0012953356 0.0027661398 0.025326751 4289408293
0.0034530833 0.0021748766 0.025641449 4289800993
0.0057412088 0.00086645037 0.026658963 4290585629
0.0085503832 -0.0033109337 0.030487709 4290258464
0.011912815 -0.010355309 0.037121564 4290126884
0.015727758 -0.019547462 0.045851972 4289866018
0.018934637 -0.025150485 0.05106033 4288949039
-0.019452102 0.0020110235 0.025873762 4289276458
-0.01790265 0.0057439208 0.021946009 4289604134
-0.015792452 0.005146578 0.02226745 4289800738
-0.013777249 0.0052709579 0.021881077 4289473829
-0.011452109 0.0032320619 0.023613688 4289735458
-0.0095343888 0.0040781423 0.022520009 4289343013
-0.0072960183 0.00276158 0.023543309 4289539364
-0.0052692965 0.0028870776 0.023155041 4289735714
-0.0031284541 0.0022922382 0.023471061 4289277989
-0.0010987148 0.0024181232 0.023082364 4289474339
0.0011698604 0.0011038557 0.024100196 4289670433
0.0029612631 0.0026702359 0.022305109 4290259229
0.0051161945 0.0020767078 0.022618767 4289866529
0.0076587573 -0.00067529082 0.02503651 4289866274
0.010613114 -0.0055842325 0.029553737 4290520093
0.014401622 -0.01480642 0.038267817 4290192674
0.017989151 -0.022585891 0.04556828 4288884523
-0.019483373 -0.00036793202 0.025359016 4287641399
-0.018025585 0.0040998384 0.020732608 4289473064
-0.016013414 0.0042238832 0.020346712 4289342504
-0.014101408 0.0050715208 0.019255649 4289604644
-0.011988424 0.0044723228 0.019575018 4290586139
-0.0099756271 0.0045967177 0.019189235 4290913304
-0.0076372996 0.002552323 0.020914461 4290847768
-0.0057272092 0.0034002513 0.019824076 4289343013
-0.0035946965 0.0028026626 0.020140015 4289735969
-0.0016896054 0.0036505014 0.019050751 4289539618
0.00032944232 0.0037757978 0.018664159 4290390299
0.0022267997 0.004623346 0.017576519 4290062879
0.0044925511 0.0033047721 0.018591698 4289016104
0.0068963803 0.0012651309 0.020304982 4288819243
0.0097061247 -0.0029383078 0.024113894 4289211944
0.013078526 -0.010025606 0.030712936 4289604643
0.016910456 -0.019273303 0.039397303 4289604643
0.020260498 -0.025631957 0.045276362 4288556594
-0.017958708 0.0010040477 0.020928618 4288949549
-0.016233966 0.0033058599 0.018429402 4289538854
-0.014324613 0.0041555092 0.017340425 4289538853
-0.012420423 0.0050049126 0.016252555 4290258974
-0.010310195 0.0044034421 0.016570866 4289277734
-0.0081944168 0.003802374 0.016888231 4290717209
-0.0060730949 0.0032017976 0.017204568 4289539618
-0.0040598884 0.0033264831 0.016818907 4289605154
-0.0020464882 0.0034513101 0.016433306 4289801759
-0.00015192479 0.0043007359 0.015347752 4289736224
0.0017374232 0.0051499903 0.014263249 4290586393
0.0038703009 0.0045506209 0.014577816 4290455578
0.0061357133 0.003227748 0.015589832 4290193948
0.0088012107 -0.00026585907 0.018693682 4290259739
0.01175845 -0.0052050725 0.023187347 4289802268
0.01529377 -0.013035774 0.030461535 4289475103
0.018888213 -0.020862676 0.037724487 4289016359
0.022120409 -0.026516296 0.042888589 4286725439
-0.018176578 8.4348023e-05 0.019009404 4286725694
-0.016648926 0.0038485751 0.015110535 4289604389
-0.014847644 0.0054276884 0.01332279 4290324253
-0.012954146 0.0062786117 0.012238541 4289343269
-0.010854915 0.0056742057 0.012557334 4289016104
-0.0085339397 0.0036155954 0.014275952 4289474595
-0.0064182654 0.003012456 0.01459171 4290652183
-0.0044105425 0.0031367913 0.014207085 4289670943
-0.0026349574 0.0047149286 0.012424733 4289539873
-0.00063225627 0.0048391595 0.012041231 4289997855
0.0012490824 0.0056900308 0.010959919 4290128414
0.003373608 0.0050879791 0.011274382 4288950824
0.0055036433 0.0044863746 0.011587872 4289016614
0.0078983009 0.0024331585 0.013293075 4290064664
0.010176945 0.0011069477 0.014299412 4287841063
-0.01820492 -0.0022914186 0.018496372 4286071619
-0.016868368 0.0029442683 0.013203335 4289015339
-0.015269391 0.0059876665 0.010018586 4290455324
-0.01348649 0.0075701028 0.0082376553 4290128158
-0.011398271 0.006962806 0.0085568847 4289997343
-0.009088628 0.0048969314 0.010272718 4290522134
-0.0066520944 0.0021027401 0.012683845 4289802524
-0.0047604889 0.00295607 0.011601952 4289475613
-0.002990067 0.0045382306 0.0098238727 4289868823
-0.00099286437 0.0046620965 0.0094413972 4291179779
0.0010045022 0.0047860816 0.0090589775 4290133514
-0.016990364 0.0013122484 0.011998829 4288491568
-0.01559034 0.00582885 0.0074230256 4289474083
-0.013710171 0.0066831931 0.0063446192 4289409314
-0.01183515 0.0075373277 0.0052672839 4288887074
-0.0095341504 0.0054643154 0.0069798557 4290654734
-0.0074378476 0.0048555583 0.0072959764 4289610254
-0.017112285 -0.00031946599 0.010794532 4287510839
-0.015711427 0.0042102188 0.0062284125 4290194969
-0.013933465 0.0058009699 0.0044550216 4290653714
-0.012061097 0.0066570714 0.0033798078 4288757534
-0.017137416 -0.0026876479 0.010286466 4286923829
-0.017757557 -0.01626996 0.020583741 4286333758
-0.017756894 -0.024255611 0.019651487 4282607444
-0.018378884 -0.024606608 0.014430461 4282607699
-0.017348059 -0.021779649 0.0061136419 4282738513
-0.015523039 -0.020147152 0.0043605128 4283197769
-0.017756701 -0.021158688 0.002852411 4282280789
-0.015743636 -0.021034904 0.0024660872 4282478158
-0.018164344 -0.02052433 -0.00039893296 4282084439
-0.016061634 -0.021159567 -0.00010428112 4282477904
-0.014254808 -0.019519426 -0.001847296 4283852608
-0.018665887 -0.019115843 -0.0043186536 4282410584
-0.016574204 -0.019753888 -0.0040235734 4282280788
-0.014577284 -0.019631028 -0.0044067344 4282870604
-0.016793042 -0.020618938 -0.0059012426 4282346579
-0.014899082 -0.019733556 -0.0069595599 4282542928
-0.017303407 -0.019184291 -0.0097991694 4282476629
-0.015420124 -0.018297434 -0.01085381 4282477139
-0.013542034 -0.01741083 -0.011907334 4283002183
-0.015540577 -0.019911617 -0.012045207 4282411349
-0.013764955 -0.018256016 -0.013769018 4282611269
0.018293768 -0.018585563 -0.017832277 4284638773
-0.016059577 -0.018448748 -0.015919657 4282476629
-0.013987496 -0.019096531 -0.015627263 4282285124
-0.014311865 -0.019161157 -0.018150823 4282022473
-0.012868963 -0.015184753 -0.021869106 4283070268
-0.016596958 -0.019337527 -0.020291368 4282476629
-0.01453352 -0.019990183 -0.020000597 4281891658
-0.012987971 -0.016776301 -0.023043742 4282744123
-0.011356294 -0.014336675 -0.025416596 4283787583
-0.014856659 -0.020039052 -0.022512466 4282608464
-0.012897871 -0.019918397 -0.022888198 4282740553
-0.010938942 -0.019797608 -0.023263872 4283328838
0.0067386553 0.0066151917 0.0065226061 4285819169
0.0089953691 0.0052832142 0.0075298799 4286015774
0.011936735 0.00031263381 0.012003542 4285950493
0.01560298 -0.0082940832 0.019936003 4285819423
0.019473847 -0.017624132 0.028548852 4285491494
0.00051791221 0.0053486526 0.0057721948 4285425194
0.0023833737 0.0062029436 0.0046972604 4285688863
0.0039905161 0.0085181966 0.0022361642 4285689374
0.00584016 0.0093717352 0.0011644326 4285885978
0.007948406 0.0087646097 0.0014789402 4285950748
0.010600507 0.005237639 0.0045607714 4286016794
0.013965931 -0.0019370317 0.011095344 4286082329
0.017944939 -0.012027189 0.020383924 4285688608
0.022141799 -0.022842117 0.030348785 4285164074
-0.0082215741 0.0076349303 0.0019277008 4285752869
-0.0062490925 0.0077569857 0.0015497599 4285818403
-0.0041607842 0.007145755 0.001865915 4285623074
-0.0020669624 0.0065349862 0.0021811044 4285492513
-8.8639557e-05 0.0066577271 0.0018022917 4285624094
0.0016424134 0.0082464293 3.8534403e-05 4285755419
0.0033628941 0.0098346248 -0.0017231591 4285689628
0.0049437135 0.012154877 -0.0041742027 4285623584
0.0072990507 0.010079637 -0.0024762675 4285623839
0.0095361806 0.0087377951 -0.0014717728 4285623839
0.01274392 0.0022721365 0.0043603247 4285623838
0.016559206 -0.0071180686 0.012940957 4285624093
0.021014221 -0.019430853 0.024264064 4285558559
0.024834752 -0.028079875 0.03212776 4285295653
-0.014156379 0.0049233809 0.0025688438 4285491494
-0.012496211 0.0072540641 0.00010677241 4285623838
-0.010744475 0.0088477209 -0.001658164 4285952024
-0.0088931695 0.00970494 -0.0027275905 4285951514
-0.006821394 0.0090903342 -0.0024099667 4285886488
-0.004744105 0.0084762275 -0.0020933598 4285952279
-0.0025431216 0.0071271136 -0.0010858253 4285689628
-0.00057297945 0.0072493479 -0.001463078 4285624349
0.0011502355 0.0088418797 -0.0032220669 4285624349
0.0026104152 0.011903822 -0.0063597127 4285952789
0.0043071024 0.013494939 -0.0081134513 4285821208
0.0063879155 0.012881711 -0.0077970172 4285755164
0.0087427273 0.010800049 -0.0061038807 4285755419
0.011661544 0.0057823732 -0.0016603731 4285821209
0.015316129 -0.0029034093 0.0062151058 4285558559
0.019604407 -0.014520764 0.016827561 4285493024
0.023833614 -0.025398858 0.026736893 4285493023
-0.014786653 0.0070049912 -0.0020874478 4285558303
-0.013139516 0.0093413815 -0.004542103 4285689883
-0.011293702 0.010200262 -0.0056088902 4285689374
-0.0093430802 0.010320812 -0.0059827529 4285557539
-0.0071670115 0.0089655891 -0.004973907 4285623583
-0.0050953776 0.008348912 -0.0046578869 4285689373
-0.0030182227 0.0077326521 -0.0043427981 4285755418
-0.0010562688 0.0078543425 -0.0047185086 4285624349
0.00065909326 0.0094507858 -0.0064727478 4285558814
0.0022378042 0.011783749 -0.0089136027 4285624348
0.0036718473 0.014852844 -0.012039605 4285821464
0.0058730505 0.013499938 -0.011034988 4285821464
0.0082191937 0.01141116 -0.0093450956 4285821208
0.011128649 0.0063776746 -0.004911378 4285558558
0.014215209 0.00061032921 0.00020147394 4285558558
0.018055487 -0.0088348612 0.0087346537 4285558813
0.022400044 -0.020483412 0.019310109 4285361698
-0.015211686 0.0076271668 -0.0053438619 4285426979
-0.013781138 0.011450835 -0.0091746431 4285821208
-0.011948675 0.012311056 -0.010237236 4285821209
-0.0099017844 0.01169043 -0.0099183023 4285755164
-0.0077368915 0.010330141 -0.0089106206 4285821208
-0.0055611059 0.0089705735 -0.0079049021 4285886998
-0.0033744574 0.0076118335 -0.0069012307 4285624348
-0.0014179945 0.0077331737 -0.0072759017 4285559068
0.00041539222 0.0085940808 -0.0083381832 4285493533
0.001865916 0.01167278 -0.011460856 4285558813
0.0036808178 0.012532793 -0.012519415 4285624349
0.0056217276 0.012653612 -0.012890767 4285558559
0.0079645552 0.010558069 -0.011205193 4285558559
0.010323569 0.0084637031 -0.0095226653 4285624093
0.013116669 0.0041549727 -0.0057893023 4285558558
0.016367964 -0.0023665801 -9.8245218e-06 4285493023
0.020969521 -0.015528284 0.011912585 4285493024
0.02507836 -0.025731914 0.021084435 4285295654
-0.01543247 0.0067767277 -0.0072100237 4285295399
-0.014003918 0.010611147 -0.011032214 4285558814
-0.01228106 0.012216046 -0.012781849 4285689374
-0.010020547 0.010107853 -0.011086214 4285755163
-0.0079684332 0.0094854608 -0.010769859 4285821209
-0.005680792 0.0073791817 -0.0090792552 4285624349
-0.0037299767 0.0075000077 -0.0094529577 4285559069
-0.0017790124 0.0076209903 -0.0098265819 4285558813
4.9054623e-05 0.0084837377 -0.010886215 4285559324
0.0018718839 0.0093463287 -0.011944789 4285493533
0.0038178936 0.0094673336 -0.012317214 4285559069
0.0056329481 0.010329619 -0.013374098 4285624349
0.007576514 0.010450713 -0.01374587 4285689883
0.0096566379 0.0098310784 -0.013434112 4285821208
0.012159616 0.0069898888 -0.011074353 4285886233
0.015109561 0.00192862 -0.0066712131 4285886234
0.019253064 -0.0090527982 0.0031804508 4285754909
0.023771435 -0.021509446 0.014379711 4285689118
0.027481936 -0.029520221 0.02147603 4285229863
-0.01422631 0.0097760856 -0.012886368 4285427998
-0.012505949 0.011385165 -0.014632247 4285558814
-0.010358207 0.010014907 -0.013627935 4285558559
-0.0081995949 0.0086454675 -0.012625664 4285623839
-0.0061449558 0.0080211386 -0.012311377 4285623839
-0.0040847957 0.0073972866 -0.011998054 4285624093
-0.0021393299 0.007517904 -0.012370642 4285624349
-0.00019373 0.0076386333 -0.012743182 4285559069
0.0017520115 0.0077594817 -0.013115659 4285559069
0.0036978871 0.0078804642 -0.013488069 4285558814
0.0055129491 0.0087449029 -0.014543325 4285624348
0.0071891807 0.010352328 -0.016279861 4285755419
0.0091273598 0.010473177 -0.016650539 4285755163
0.011343557 0.009108454 -0.015658427 4285755163
0.014137145 0.0047737658 -0.011944875 4286017559
0.01768462 -0.0032714456 -0.004835655 4286017559
0.022026181 -0.015024558 0.0056614848 4285689628
0.026303954 -0.026030026 0.015463044 4285164073
-0.014032491 0.0059569255 -0.011991411 4285163818
-0.012410529 0.0083178356 -0.014421463 4285559069
-0.010367222 0.0076903999 -0.014106825 4285624603
-0.0085423812 0.008556813 -0.015162915 4285689884
-0.0066080689 0.0086764917 -0.015533555 4285886999
-0.0045562536 0.0080499202 -0.015220296 4285952788
-0.0023789033 0.0066776052 -0.014224663 4285952789
-0.00043611974 0.0067981407 -0.014596675 4285624348
0.001506798 0.0069188103 -0.014968622 4285558814
0.0033217743 0.0077852979 -0.016022298 4285558813
0.0050007552 0.0093971044 -0.017756183 4285755929
0.0066691227 0.011008419 -0.019487984 4285755419
0.0085991062 0.011128746 -0.019857097 4285557793
0.010806791 0.0097590685 -0.018866628 4285557794
0.013449725 0.006155625 -0.015840415 4285623838
0.016552016 0.00031986088 -0.010783103 4285624094
0.020284645 -0.0084912926 -0.0030209962 4285493023
0.024829302 -0.021020152 0.0081174234 4285427234
-0.014047191 0.0036237314 -0.01247552 4285228844
-0.012635142 0.0074897856 -0.016269866 4285493534
-0.010813124 0.0083580688 -0.01732387 4285690139
-0.0091081336 0.0099750236 -0.019060057 4285689883
-0.0072991922 0.010842763 -0.020111429 4285755163
-0.0051438808 0.0094645694 -0.019114915 4285689373
-0.0029777065 0.008087188 -0.018120449 4285820953
-0.00080069155 0.0067105591 -0.017127927 4285755929
0.0010114983 0.0075789168 -0.018179525 4285624349
0.0028184503 0.0084471107 -0.01923009 4285558814
0.004358992 0.010810487 -0.021638863 4285624348
0.0061500929 0.011677913 -0.022686215 4285887509
0.0079359449 0.012545101 -0.023732424 4285821463
0.010132432 0.011170395 -0.022743095 4285755673
0.012622349 0.0083023608 -0.020400498 4285755674
0.015565775 0.0031951442 -0.016030617 4285755929
0.018840153 -0.003403075 -0.010314588 4285558558
0.023357693 -0.015970595 0.00080106966 4285427233
0.02751036 -0.026293091 0.0098726274 4285427233
-0.01254046 0.0044121146 -0.016066723 4285230119
-0.010931037 0.0067853853 -0.018484499 4285624349
-0.0093375072 0.0091577992 -0.020899141 4285689884
-0.0076455772 0.01077839 -0.022629473 4285557793
-0.0058471635 0.011647709 -0.023677066 4285557794
-0.0035751686 0.0095145479 -0.022003124 4285689629
-0.0012869462 0.007382445 -0.020332165 4285689883
0.0007673502 0.0067519918 -0.020022426 4285624349
0.0024439022 0.0083722025 -0.021749377 4285558558
0.0041098557 0.0099919215 -0.023474244 4285558558
0.005632095 0.012360781 -0.02587451 4285558558
0.0074099377 0.013229631 -0.026917554 4285624350
0.0095978901 0.011850066 -0.025929932 4285558559
0.012078963 0.0089727789 -0.02359223 4285492768
0.014725387 0.0053478852 -0.020583052 4285493023
0.017545201 0.0009758994 -0.016903944 4285558814
0.021590739 -0.0093839094 -0.0078350436 4285427233
0.026318889 -0.022733159 0.0039154897 4285230118
0.030370884 -0.032334216 0.012280402 4285230118
-0.012764826 0.0035867915 -0.017913043 4285164074
-0.011484198 0.0082267299 -0.022367157 4285493279
-0.0097895339 0.009851709 -0.02409482 4285821719
-0.0082196146 0.012229271 -0.02649994 4285689629
-0.0061981827 0.011594251 -0.026185824 4285623838
-0.0040517002 0.010206886 -0.025194138 4285821464
-0.0017721727 0.0080677494 -0.023526506 4285755928
0.00039868057 0.0066821203 -0.022539314 4285624349
0.0021976382 0.0075540915 -0.023585033 4285558814
0.0038610846 0.0091779754 -0.025306147 4285559069
0.0055139437 0.010801293 -0.027025104 4285558814
0.0072918013 0.011672296 -0.028066527 4285493533
0.0094792768 0.010288343 -0.027082108 4285493279
0.011818562 0.0081537142 -0.025425229 4285427489
0.014174003 0.0060202703 -0.023771394 4285427489
0.01683829 0.002385743 -0.020773765 4285427234
0.020721614 -0.0072544068 -0.012398204 4285427233
0.025433194 -0.020643823 -0.00067407917 4285295399
-0.011818685 0.0081745759 -0.0248788 4285361953
-0.010463208 0.012069918 -0.028637523 4285624604
-0.0086783022 0.012942635 -0.029679399 4285755929
-0.0067818984 0.013060004 -0.030042753 4285755929
-0.0045272335 0.010912649 -0.028375322 4285690138
-0.0021343008 0.0080116391 -0.026034545 4285493024
3.0703843e-05 0.0066213384 -0.025049577 4285558814
0.0018243194 0.0074951127 -0.026092649 4285559069
0.0038728788 0.0068601742 -0.025784941 4285559069
0.0056613646 0.0077338889 -0.026826844 4285493278
0.0078509599 0.0063455328 -0.025846176 4285493278
0.0099132396 0.0057118014 -0.025540825 4285558813
0.012121767 0.0043249205 -0.02456364 4285493024
0.014197633 0.0036922172 -0.024260666 4285492768
0.016717441 0.00080024451 -0.021943375 4285426724
0.02044959 -0.0081152096 -0.01426 4285426724
0.025003802 -0.02079121 -0.0032350747 4285295143
-0.012260973 0.0088892654 -0.028061157 4285361954
-0.010801673 0.012037404 -0.031133447 4285559324
-0.0089082345 0.01215446 -0.031496327 4285493278
-0.0067815855 0.010757029 -0.030507512 4285493278
-0.0046440884 0.0093604252 -0.029520746 4285558813
-0.0022519752 0.0064506456 -0.027186397 4285559069
-0.00021199882 0.0058127269 -0.026878886 4285493023
0.0017062053 0.0059319064 -0.027246073 4285558813
0.0037544444 0.0052947477 -0.026939964 4285624604
0.0059407838 0.00390172 -0.025962047 4285624604
0.0080026425 0.003265664 -0.025658354 4285492769
0.010069963 0.0026300475 -0.02535563 4285426723
0.012142733 0.0019948632 -0.025053795 4285492769
0.014507603 -0.00015106052 -0.023411632 4285426723
0.017034642 -0.0030513406 -0.021102272 4285361188
0.020623982 -0.011237182 -0.014109408 4285426469
0.024726473 -0.021684565 -0.0051202876 4285229354
-0.010917418 0.010494247 -0.032272272 4285295908
-0.0087967366 0.0090919659 -0.031285707 4285427744
-0.0067815706 0.0084499791 -0.03097536 4285427489
-0.0045228228 0.0062898174 -0.02931859 4285360678
-0.0024913177 0.0056490749 -0.029011201 4285426469
-0.00032993406 0.0042498335 -0.02803212 4285426468
0.0017152056 0.0036101863 -0.027727148 4285426979
0.0038955882 0.0022123009 -0.026751492 4285492513
0.0060867853 0.00081527978 -0.025777843 4285426723
0.0081536993 0.00017730147 -0.025476728 4285492514
0.010363866 -0.0012183264 -0.024506535 4285426723
0.01230387 -0.0010971949 -0.02487744 4285426469
0.014673457 -0.0032494068 -0.023241073 4285426723
0.01720503 -0.0061580464 -0.020939192 4285426723
0.020649239 -0.013610162 -0.014633028 4285360678
0.024751913 -0.024087973 -0.0056669405 4285228844
-0.010478877 0.0051414296 -0.030042868 4285098283
-0.0084588006 0.0044974163 -0.029735152 4285361444
-0.0064332262 0.0038539022 -0.029428437 4285361443
-0.0044021681 0.0032108277 -0.029122707 4285360678
-0.0023656264 0.0025682226 -0.028817922 4285360678
-0.00019934028 0.0011648759 -0.027843039 4285360678
0.0019777566 -0.00023763627 -0.026870172 4285426724
0.004036095 -0.00087853521 -0.026569296 4285361443
0.0059676282 -0.00075830519 -0.026938859 4285426724
0.0080342218 -0.0013984963 -0.026639335 4285426723
0.010243896 -0.0027984902 -0.025672335 4285426724
0.012324069 -0.003437534 -0.025375254 4285426468
0.01455269 -0.0048361495 -0.024411656 4285426724
0.017083436 -0.0077535585 -0.022116197 4285426724
0.02067418 -0.015987158 -0.015159691 4285360679
0.024626009 -0.025735892 -0.0068825325 4285163053
-0.010263301 0.001295425 -0.029173318 4285032494
-0.0082354993 0.00064972788 -0.02886878 4285229099
-0.0063182563 0.00076832622 -0.029236171 4285295144
-0.0042821243 0.00012341887 -0.028933041 4285295143
-0.0023619309 0.00024243444 -0.029300816 4285295144
-0.00019346178 -0.0011651367 -0.028329637 4285295144
0.0019858479 -0.0025718585 -0.02736048 4285361189
0.0041759871 -0.0039778426 -0.026393272 4285360933
0.0061127208 -0.0038572997 -0.026763834 4285295398
0.0080495663 -0.0037366375 -0.027134337 4285426979
0.010261435 -0.005140841 -0.026171044 4285427234
0.012484122 -0.0065443218 -0.025209695 4285360679
0.014717601 -0.0079469308 -0.024250353 4285229354
0.017543908 -0.012396775 -0.020631639 4285229098
0.020995203 -0.01989188 -0.014359656 4285097519
-0.010159187 -0.0017969981 -0.028983638 4285228844
-0.008352749 -0.00091221184 -0.030021455 4285294889
-0.0062038749 -0.0023256913 -0.029050078 4285295144
-0.004281275 -0.002206631 -0.029418398 4285295399
-0.0022373125 -0.00285317 -0.029118352 4285295399
-0.00018787384 -0.0034992024 -0.028819241 4285295399
0.0021202341 -0.0056755468 -0.027186461 4285295398
0.0041859709 -0.0063203499 -0.026890296 4285295143
0.0061252303 -0.0061996654 -0.027261358 4285295143
0.0081992187 -0.0068437085 -0.026966594 4285295654
0.010553282 -0.0090167001 -0.025342239 4285295398
0.013063479 -0.011953071 -0.02305614 4285295143
0.015595198 -0.014887951 -0.020774046 4284901679
-0.01038678 -0.002592288 -0.030806489 4285229354
-0.0084699467 -0.0024738386 -0.0311739 4285295398
-0.0063215569 -0.0038917288 -0.030205734 4285295399
-0.004162319 -0.0053087398 -0.02923958 4285295143
-0.002113305 -0.0059571341 -0.028942142 4285163818
6.4916909e-05 -0.0073727891 -0.027979413 4285164073
0.0023804083 -0.0095551684 -0.026353022 4285229098
0.0045829751 -0.010969058 -0.025394758 4285229098
0.0065327995 -0.010847732 -0.02576785 4285229098
-0.010173224 -0.0064657927 -0.02995725 4285164073
-0.0083613843 -0.0055763498 -0.030992828 4285361699
-0.0060925484 -0.0077685788 -0.029362785 4285361188
-0.0038075224 -0.0099597648 -0.027735716 4285295143
-0.0015063211 -0.012149826 -0.026111672 4285163563
0.00068750232 -0.013568811 -0.025155252 4284901933
-0.0098505765 -0.011124991 -0.028451914 4285032493
-0.0078025982 -0.011778153 -0.028157832 4285360933
-0.0056337342 -0.013203412 -0.027200198 4285295143
-0.0032178983 -0.0161727 -0.024916494 4284901169
