# .PCD v0.7 - Point Cloud Data file format
VERSION 0.7
FIELDS x y z rgba
SIZE 4 4 4 4
TYPE F F F U
COUNT 1 1 1 1
WIDTH 752
HEIGHT 1
VIEWPOINT 0 0 0 1 0 0 0
POINTS 752
DATA ascii
0.012923706 0.0087458938 0.023870047 4290258973
0.017797792 -1.7881393e-05 0.03255197 4290520094
0.024091786 -0.012892157 0.045443986 4290322978
-0.0035148039 0.014273487 0.017581288 4291176718
-0.0013617761 0.01373741 0.017811958 4289999128
0.00079661235 0.0132019 0.018041335 4290784529
0.0027513467 0.013356395 0.017562676 4290391829
0.0044944622 0.014200263 0.016377941 4289932828
0.0051606558 0.018489223 0.011667006 4289998108
0.0066630039 0.020020258 0.0097833779 4289866273
0.0090333279 0.018796008 0.010719221 4289734948
0.013637185 0.010688238 0.018688127 4289538343
0.01942944 -0.00085555017 0.030156065 4290389279
0.026905054 -0.017208174 0.046517808 4290389279
-0.010479476 0.015647475 0.014308035 4291112968
-0.0091304928 0.01787819 0.011708282 4290457618
-0.0072027035 0.018030137 0.011235915 4290389788
-0.0046722479 0.016105212 0.012885101 4290520093
-0.0023293048 0.014873728 0.013823971 4290716953
-0.00059420243 0.015718993 0.012642615 4289736224
0.00071805343 0.017947316 0.010052232 4289867804
0.0024373867 0.0187915 0.0088749342 4290193949
0.0035090894 0.021709252 0.0055872109 4290651163
0.0047763921 0.023934361 0.0030080136 4289866018
0.0069055278 0.023394842 0.0032432955 4289015594
0.010594556 0.018021185 0.0083912071 4289211944
0.015899163 0.0078178868 0.018438093 4289342759
0.022420295 -0.0058302358 0.031969037 4289538598
-0.014127117 0.012333177 0.01552229 4287774254
-0.013326786 0.016658194 0.010797353 4289670689
-0.012365457 0.020285606 0.006787844 4289670433
-0.011039834 0.022521064 0.004198689 4289539364
-0.0089380331 0.021976355 0.0044384245 4289015848
-0.0062288828 0.01934848 0.0067937132 4289538853
-0.004108347 0.018805463 0.0070290174 4290127903
-0.0021884069 0.018957075 0.0065587871 4289539364
-0.00068560615 0.020496648 0.0046813432 4290128414
0.0010178797 0.021341812 0.0035095047 4289997599
0.002288308 0.023573618 0.00093439408 4290258718
0.0035428591 0.025804318 -0.0016367957 4290716188
0.005877614 0.024568416 -0.00069879182 4290454814
0.0095542334 0.019176174 0.0044391248 4290192928
0.013946887 0.011709392 0.011665996 4290650908
0.019079411 0.002170004 0.020975947 4290716444
0.026124822 -0.012901321 0.035855424 4290454814
-0.014426675 0.018536903 0.006118482 4289473828
-0.013285194 0.021476936 0.0028260816 4290323999
-0.012555111 0.025809769 -0.0018716827 4290324509
-0.010472197 0.025261354 -0.0016289596 4289604389
-0.0079829991 0.023319893 2.0574778e-05 4290389533
-0.0050716288 0.019986678 0.0030729789 4290651419
-0.0031624176 0.020137448 0.002605373 4290193438
-0.0012531318 0.020288315 0.0021378249 4289801249
0.00023409352 0.021831151 0.00026752241 4289932063
0.0014970601 0.024069011 -0.00230092 4290127904
0.0031768754 0.02491466 -0.003465144 4289735459
0.0057274476 0.022978809 -0.0018301513 4289408294
0.0089589469 0.018958982 0.0018975418 4289669923
0.012670906 0.013552092 0.0070138108 4290062368
0.01642533 0.0081486255 0.012119807 4289865763
0.022747967 -0.0048904344 0.024881143 4289604644
0.031958621 -0.026252404 0.045972656 4289604644
-0.014804643 0.010488361 0.011800513 4287249718
-0.015145157 0.019038383 0.0028656758 4288623404
-0.014395501 0.023385882 -0.0018272456 4289931553
-0.013287682 0.026332147 -0.0051048184 4290127904
-0.011213046 0.025780819 -0.0048616659 4289669669
-0.0087325647 0.023832101 -0.0032149348 4290192928
-0.006033197 0.021185935 -0.00087022595 4290193439
-0.0039291754 0.020637278 -0.00063408352 4289931554
-0.0016115867 0.019390762 0.00030134618 4289800739
8.412078e-05 0.020239644 -0.00086530298 4289539109
0.0013475902 0.022484139 -0.0034289882 4289866019
0.0034597814 0.02193654 -0.0031945389 4289800739
0.0060149096 0.019994408 -0.0015655048 4289800738
0.0090288743 0.01665904 0.0014541801 4289539364
0.011621185 0.01472006 0.0030742604 4289866274
0.01490967 0.010691814 0.0067783576 4289931553
0.020524057 -0.00030057877 0.01742772 4289735204
0.029240075 -0.020340271 0.037086915 4289473318
-0.01402206 0.0053595379 0.01416932 4288561693
-0.015104663 0.016745318 0.002436338 4288492333
-0.014351226 0.021106247 -0.0022477116 4289996835
-0.013240047 0.024061568 -0.0055195978 4289996833
-0.011163104 0.023508251 -0.0052786935 4289996578
-0.0092807971 0.023656659 -0.0057398854 4289931299
-0.0065876916 0.021001197 -0.0034001581 4289800738
-0.0042839795 0.019749101 -0.002464721 4289539109
-0.0019695871 0.01849791 -0.0015317779 4289669924
-0.00027645007 0.019348834 -0.0026962161 4289800739
0.0014114454 0.020199411 -0.0038592387 4290193184
0.0033100098 0.020349737 -0.0043239426 4290389534
0.0058643855 0.01840093 -0.0026996192 4289669923
0.0079922099 0.017852582 -0.0024704728 4289735459
0.01012536 0.017304763 -0.0022425447 4290585884
0.012943465 0.014660135 6.727688e-05 4290585629
0.018074758 0.0050283596 0.0093092024 4290454814
0.026526172 -0.014378995 0.02823608 4290651164
0.034657091 -0.032377489 0.045741912 4290651164
-0.014686089 0.013039596 0.003407836 4287838259
-0.014499187 0.019526556 -0.0033723954 4289865763
-0.012998275 0.021083053 -0.0052368119 4290520093
-0.011113528 0.021231528 -0.0056986874 4290062369
-0.0092287026 0.02138013 -0.0061605014 4289997089
-0.0071413256 0.020825632 -0.0059236316 4290781978
-0.0048434474 0.019568622 -0.00498999 4290716699
-0.002534911 0.018312618 -0.0040589143 4290585374
-0.00063656271 0.018462699 -0.0045237308 4289800738
0.0010487586 0.019315258 -0.0056845071 4289996578
0.0031602718 0.018763207 -0.0054531489 4289473318
0.0048403665 0.019615561 -0.0066124927 4289931553
0.0067362227 0.019765876 -0.0070763789 4290258718
0.0086320937 0.019916296 -0.0075401952 4289800483
0.011433324 0.017261542 -0.0052327458 4289015593
0.015858667 0.0097008124 0.0019145776 4289473574
0.023122011 -0.0062659904 0.017345686 4290062113
0.031444483 -0.025025755 0.035510462 4290062113
0.037777655 -0.037469685 0.047428522 4290454558
-0.013880469 0.015122153 -0.0016982909 4287642164
-0.012951598 0.018802006 -0.0056591295 4289800484
-0.011655208 0.021068171 -0.0082166763 4290062624
-0.0099754259 0.021922007 -0.0093749026 4290520604
-0.0078963377 0.021364592 -0.0091376072 4290847514
-0.005606968 0.020102557 -0.0082051801 4290847513
-0.0035144947 0.01954646 -0.0079710409 4290847513
-0.0016268827 0.019695684 -0.0084332386 4289931553
0.0002607815 0.019845024 -0.0088953609 4289604644
0.0019329712 0.02069886 -0.010051208 4289473574
0.0038180575 0.020848196 -0.01051255 4289866274
0.0050407052 0.023109548 -0.013051369 4290650908
0.0069178846 0.023258492 -0.013510604 4289669668
0.0094734579 0.021296907 -0.011896108 4288950314
0.013417607 0.015116744 -0.0061420333 4289015593
0.019260913 0.0033155605 0.0051198322 4289342504
0.027301054 -0.014804453 0.022563148 4289604134
0.035479069 -0.032913432 0.039972886 4289604134
-0.014029171 0.013534181 -0.002828883 4286137408
-0.013487589 0.018641606 -0.0081766536 4289734949
-0.012589525 0.022330135 -0.012121723 4290193438
-0.01092026 0.023185253 -0.013275729 4289539108
-0.0088521168 0.022624824 -0.013037421 4289343013
-0.0067786016 0.022064913 -0.012800354 4290127903
-0.0046997182 0.021505553 -0.01256451 4290128159
-0.0028254949 0.021653712 -0.013023432 4289866273
-0.00095121935 0.021801982 -0.013482285 4289669923
0.00070779398 0.022656955 -0.014633295 4289604388
0.002361536 0.023511611 -0.015782937 4289997089
0.0037893765 0.025072172 -0.017622173 4290520093
0.0058764517 0.024514042 -0.017387819 4290454814
0.0084206536 0.022545014 -0.015775464 4290258464
0.01166648 0.018460672 -0.012099888 4290323999
0.016100205 0.010852344 -0.0049903449 4290127648
0.023164816 -0.004507564 0.0096697025 4290127648
0.032001704 -0.024792418 0.029110637 4289996834
0.038839795 -0.038722627 0.042336483 4289669923
-0.015667219 -0.02082742 0.029859189 4288951843
-0.012745138 -0.024226725 0.032859404 4289475103
-0.014022719 0.018490382 -0.010687719 4288688429
-0.013325602 0.022899792 -0.015318788 4290323999
-0.012062594 0.025176622 -0.017858315 4290128159
-0.010411743 0.026032627 -0.019006155 4289408293
-0.0083571114 0.02546899 -0.018766046 4289408294
-0.0056756847 0.022777632 -0.016449429 4290258718
-0.0038121901 0.022924937 -0.016905725 4290455069
-0.0019486472 0.023072362 -0.01736195 4289997089
-0.00030016899 0.02392868 -0.018508762 4289669923
0.0017785467 0.023367517 -0.018274207 4290062114
0.0032013953 0.024932038 -0.020108914 4290192928
0.0052828118 0.024371307 -0.019874852 4289015594
0.0073695444 0.023811124 -0.019642005 4289473574
0.010375014 0.020420417 -0.016660715 4289800739
0.013869017 0.015616819 -0.012312265 4289604133
0.02020403 0.0023283139 0.000260612 4289343014
0.028766556 -0.017316192 0.018978201 4289343014
0.036999598 -0.03553497 0.036289949 4289343014
0.041746281 -0.043142065 0.043305453 4289147174
-0.015291069 -0.024656124 0.03075251 4286922298
-0.012903538 -0.025924683 0.031650331 4289081128
-0.014750656 0.019060977 -0.013886489 4287641654
-0.014256712 0.024195544 -0.019199787 4289669668
-0.013003822 0.026478142 -0.021731971 4290520093
-0.011363488 0.027335517 -0.022875605 4289997088
-0.0091155097 0.026056949 -0.021942791 4290389533
-0.006236054 0.022644397 -0.018939445 4290651419
-0.0041684024 0.022079837 -0.018704042 4290062624
-0.0025198869 0.022938255 -0.019849315 4289735459
-0.00087662786 0.023796365 -0.020993222 4289931553
0.0011964478 0.023232553 -0.02075891 4290258464
0.0030546598 0.023379873 -0.021213595 4289473318
0.0051357374 0.022816926 -0.020981072 4289342504
0.0074476339 0.021544285 -0.020063253 4289407783
0.010454575 0.01814273 -0.017090445 4289669669
0.013718817 0.01403363 -0.013438864 4289211689
0.019349353 0.00283169 -0.0029495396 4288884524
0.027189607 -0.014747463 0.013674244 4288884524
0.035401128 -0.033025086 0.030948952 4288949803
0.041095044 -0.043493479 0.04068147 4289015594
0.043695774 -0.044742249 0.041529249 4287771703
-0.013422351 -0.026190437 0.029049583 4288492079
-0.010664169 -0.028894424 0.031333644 4289146409
-0.014509905 0.016070627 -0.013612151 4286267713
-0.014597729 0.023365155 -0.020991819 4289995813
-0.013545781 0.026368689 -0.02421004 4289865763
-0.011507813 0.025799245 -0.023969252 4289473318
-0.0092603751 0.024516243 -0.023039553 4289408038
-0.0065888241 0.02180646 -0.020733504 4289734948
-0.0043147877 0.020525802 -0.019810213 4289407783
-0.0022421256 0.019959547 -0.019577585 4289015594
-0.00016411766 0.019393772 -0.01934615 4288884778
0.0019192211 0.018828582 -0.019115977 4288819498
0.0035679191 0.019689538 -0.020259423 4288753963
0.0056566 0.019124996 -0.02003039 4288557614
0.0079758875 0.017848596 -0.019117678 4288361774
0.010989595 0.01443658 -0.016154662 4288165423
0.014029812 0.011026792 -0.013198046 4288034353
0.019428924 0.00050155073 -0.0034181103 4288099378
0.026794646 -0.015709609 0.011801027 4288099378
0.034997888 -0.034044951 0.029035434 4288034099
0.040444657 -0.043835655 0.038063988 4287902774
0.043283366 -0.045800239 0.039590366 4287575609
-0.013400219 -0.028601483 0.028538473 4286922043
-0.011188392 -0.029160261 0.028734412 4288492333
-0.014546443 0.021105692 -0.021399559 4288818478
-0.01329257 0.023401529 -0.02392224 4289473063
-0.010847192 0.0213973 -0.022305965 4289277224
-0.0083858371 0.019394394 -0.020693475 4289015593
-0.0059085228 0.017392851 -0.019084821 4289015849
-0.0040427744 0.017540321 -0.019541679 4289015849
-0.0017533377 0.016256601 -0.018625326 4288688683
0.00054674596 0.014973827 -0.017711503 4288492334
0.0026403442 0.01440721 -0.017485419 4288492589
0.0045194887 0.014556177 -0.017945237 4288295984
0.0063986611 0.014705271 -0.018404968 4288165168
0.0087279901 0.013425268 -0.01749797 4288099889
0.011751123 0.010003038 -0.014545375 4288165169
0.014800755 0.0065830126 -0.011599199 4287968563
0.01997414 -0.0032605827 -0.0025268681 4288034099
0.027107159 -0.018808283 0.011973392 4288033843
0.035310097 -0.037200794 0.02916564 4287968564
0.040277105 -0.045595363 0.036811963 4287837239
0.042627774 -0.046140343 0.036976073 4287706169
-0.013198614 -0.031737015 0.02871719 4287903283
-0.011164308 -0.031577453 0.028218143 4286922298
-0.013712667 0.015965573 -0.01905464 4287379513
-0.012445051 0.018269066 -0.021575825 4288557359
-0.0099871866 0.016259208 -0.0199675 4288361263
-0.0077169985 0.014969189 -0.019049898 4288361774
-0.0056424811 0.014398448 -0.018821158 4288296238
-0.0037715733 0.014546305 -0.019279294 4288099888
-0.0010541528 0.01182279 -0.016997328 4288361774
0.0012559742 0.010536425 -0.016089216 4288165168
0.0033598319 0.0099684075 -0.01586728 4288165168
0.0052494444 0.010118224 -0.016329644 4288230704
0.0071390755 0.010268129 -0.016791938 4288165168
0.0092535876 0.0097013563 -0.016572399 4287969074
0.012055965 0.0069852695 -0.014310714 4287904049
0.015109714 0.00355459 -0.011373661 4287838004
0.02028532 -0.0063195676 -0.0023246408 4287838004
0.026947923 -0.020483561 0.010781353 4287706679
0.035145245 -0.03893362 0.027932703 4287772215
0.039387271 -0.045208097 0.033526573 4287510329
0.041973032 -0.046471231 0.034368277 4287640634
-0.013213769 0.0048835501 -0.010761731 4286202433
-0.012880921 0.010803618 -0.016725278 4287902773
-0.011401422 0.012393631 -0.018558297 4288164658
-0.0091292113 0.011099309 -0.017644567 4288361519
-0.0070497915 0.01052659 -0.017418703 4288361519
-0.0051711239 0.010674939 -0.017878834 4288295983
-0.0032924041 0.010823421 -0.018338881 4288296494
-0.00099082664 0.0095318556 -0.017432017 4288296238
0.0011073351 0.0089611262 -0.017210441 4288034354
0.0032108463 0.0083908886 -0.016990047 4288034354
0.0053196736 0.0078212246 -0.016770918 4287903538
0.0072118193 0.0079713464 -0.017233822 4287969329
0.0095532872 0.0066835359 -0.016336285 4287969329
0.01213268 0.0046778172 -0.014761693 4287969328
0.01541784 0.00051767379 -0.011154245 4287707189
0.020828269 -0.010105431 -0.001450276 4287903540
0.027964998 -0.025749467 0.012977537 4287772215
0.034980409 -0.040666103 0.026700009 4287575864
0.038739264 -0.045524955 0.030927118 4287510329
-0.012976777 0.0018523261 -0.01051644 4286791228
-0.012637109 0.0077904761 -0.016468661 4287771958
-0.010954078 0.0086619779 -0.017614719 4288426288
-0.0088750832 0.008086957 -0.017390501 4288034098
-0.0071972124 0.0089583099 -0.018535107 4288165168
-0.0053186826 0.0091066435 -0.018995207 4288100143
-0.0034401044 0.0092550814 -0.019455237 4288165678
-0.00092788413 0.007236816 -0.017869629 4288296493
0.00095873326 0.0073861256 -0.018331457 4288165679
0.0030618981 0.0068136677 -0.018112604 4287969328
0.0049512312 0.0069634467 -0.01857491 4288100143
0.0072841719 0.0056704432 -0.01767863 4288231213
0.0094032846 0.0050996393 -0.017463462 4288100399
0.012209004 0.0023662597 -0.01521559 4288100399
0.01526567 -0.0010861456 -0.01229552 4287969584
0.021137606 -0.013183706 -0.0012617651 4287904048
0.028274864 -0.028875969 0.013130177 4287904048
0.034577906 -0.041678071 0.024792191 4287903794
0.038092144 -0.045832641 0.028334271 4287314744
-0.012394089 0.0047688186 -0.016218191 4286725948
-0.010705695 0.0056429431 -0.017363932 4288230449
-0.0086217448 0.0050661042 -0.017142572 4288230449
-0.0071415529 0.0066651851 -0.018969087 4288427309
-0.0054662004 0.0075386241 -0.020111382 4288231214
-0.0035877675 0.0076870695 -0.020571366 4288100398
-0.0010763146 0.0056621209 -0.018990476 4288100398
0.00081016123 0.0058114454 -0.01945225 4288231214
0.0029129758 0.0052367449 -0.019234948 4288558379
0.0048021637 0.005386509 -0.019697217 4288165678
0.0071345493 0.0040890798 -0.018804051 4287904049
0.0094775483 0.0027925894 -0.017913401 4287773234
0.011831166 0.0014970526 -0.017025199 4287707953
0.015113521 -0.002689667 -0.01343658 4287904813
0.02121393 -0.015547641 -0.0017544478 4288166699
0.028114229 -0.030565761 0.011927813 4288166699
0.033938356 -0.04196284 0.022213928 4287642928
0.037445873 -0.046131127 0.025747884 4286923318
-0.012736514 0.0039225146 -0.01802158 4286661178
-0.010853168 0.0040708855 -0.018483115 4288164913
-0.0089697503 0.0042193606 -0.018944595 4288099889
-0.0074919388 0.0058226287 -0.020767294 4288296493
-0.0056136884 0.0059709251 -0.02122733 4288296493
-0.0037353896 0.0061193481 -0.021687292 4288166189
-0.0012247078 0.0040877536 -0.020111086 4288231724
0.00066162646 0.0042370558 -0.020572837 4288166188
0.0029801689 0.0029338524 -0.019679666 4288100653
0.0048718601 0.0030838028 -0.020142559 4287773999
0.0072063319 0.0017821491 -0.01925315 4287447088
-0.010803279 0.0017691478 -0.018921727 4288035374
-0.0091173314 0.0026475713 -0.020063549 4288232234
-0.0072339922 0.0027961358 -0.02052493 4287970859
-0.0055558644 0.0036741793 -0.021664651 4287775529
-0.010378908 -0.02545809 0.013299946 4282935373
-0.012180373 -0.010777764 -0.00089857168 4282673743
-0.010721441 -0.026394345 0.011429992 4282936393
-0.012521561 -0.011670031 -0.0027363636 4282218313
0.011227079 0.0013580546 -0.019506292 4283002439
0.014273427 -0.0021171346 -0.016599879 4282416194
0.020593934 -0.015740596 -0.0042705946 4282350913
0.027953623 -0.032255225 0.01072569 4282350913
0.033536948 -0.04296308 0.020314448 4282023493
0.037040405 -0.047144845 0.023839675 4282023239
-0.011063505 -0.027325846 0.0095634069 4283135039
-0.013051692 -0.011826925 -0.0052531492 4282477903
0.0026152283 0.0020838305 -0.021478981 4283394884
0.0049411692 0.00077697635 -0.020590831 4282937414
0.0068353899 0.00092726946 -0.021054242 4282153033
0.0087296329 0.0010776594 -0.021517577 4282022984
0.01062388 0.0012281835 -0.021980826 4281957705
0.013663715 -0.0022584647 -0.019081 4281762884
0.020206554 -0.016651608 -0.0061083259 4281697603
0.027558612 -0.033217303 0.0088524614 4281697603
0.033373058 -0.044685394 0.019089006 4281566534
0.036395669 -0.047427207 0.021264829 4281826378
-0.011405129 -0.028252624 0.0077001881 4283656258
-0.013202582 -0.013440318 -0.0064018993 4282673488
-0.0057034865 0.0021048635 -0.022781767 4284180028
-0.0040305406 0.0029848143 -0.023918502 4282939709
-0.0021524802 0.0031333268 -0.02437833 4282612288
-0.00027437881 0.0032819584 -0.024838071 4282349894
0.0020350739 0.0019693002 -0.023949225 4282153544
0.0043551661 0.00065755099 -0.023062848 4282023238
0.0062439404 0.00080739707 -0.023524934 4281892679
0.0081327371 0.00095736235 -0.023986939 4281892679
0.010247793 0.00037758797 -0.023777183 4281761864
0.013512699 -0.0038500056 -0.020213529 4281696583
0.01981964 -0.017557897 -0.0079426402 4281696584
0.027164059 -0.034174658 0.0069826636 4281696584
0.033682898 -0.047865443 0.019201938 4281696584
0.036230795 -0.049158044 0.020033374 4281826378
-0.015376586 -0.039207347 0.016162828 4282804303
-0.013353441 -0.015053391 -0.0075504268 4283066189
-0.014103021 -0.0046140179 -0.017523771 4282674763
-0.013566799 0.00067739189 -0.0227337 4282153798
-0.011689186 0.00082526356 -0.02319386 4281957448
-0.0096119344 0.00023908168 -0.022977382 4281957448
-0.0077315345 0.00038741529 -0.023438048 4281826888
-0.0058510713 0.00053586811 -0.023898643 4281957959
-0.0039705522 0.00068444759 -0.024359167 4281762119
-0.0020899959 0.00083315372 -0.024819601 4281500998
-0.00020939112 0.00098198652 -0.025279958 4281762884
0.0018866956 0.00039801747 -0.025067553 4281762884
0.0037700124 0.0005473122 -0.025528397 4281763139
0.0058740936 -3.5785139e-05 -0.025317769 4281828419
0.0079835057 -0.00061836094 -0.025108296 4281828674
0.010550302 -0.0026645362 -0.023559915 4281893954
0.013590401 -0.006173104 -0.020676397 4281893444
0.019664511 -0.019191124 -0.0091047892 4281893188
0.02653596 -0.034395836 0.0044480842 4281957194
0.032335408 -0.045935266 0.014636286 4281957450
-0.017550495 -0.041048668 0.01545909 4282346069
-0.01588973 -0.039414607 0.013603687 4282477904
-0.013315488 -0.017403372 -0.0080211321 4283262793
-0.014059674 -0.0069328919 -0.017973091 4282414918
-0.013519507 -0.001625821 -0.023172621 4281826633
-0.011836089 -0.00074117631 -0.024309056 4281696839
-0.0097591951 -0.0013295859 -0.02409412 4281827399
-0.0078789368 -0.0011812821 -0.024554767 4281696584
-0.0059986189 -0.0010328293 -0.025015319 4281762119
-0.0041182525 -0.00088425726 -0.025475796 4281631559
-0.0020278879 -0.001471132 -0.025263805 4281632069
-0.00014478713 -0.0013220981 -0.025724772 4281632068
0.0019535981 -0.0019080862 -0.02551456 4281697349
0.0038394071 -0.0017585978 -0.025976015 4281697093
0.005945798 -0.0023437366 -0.025767524 4281828419
0.0078343041 -0.0021938011 -0.02622946 4281763138
0.010400325 -0.0042466 -0.024685746 4281632579
0.013667725 -0.0085003451 -0.021142133 4281892423
0.019971687 -0.022291817 -0.0089322263 4281892679
0.026142512 -0.035341501 0.0025866125 4281957194
0.031226479 -0.044716127 0.010752521 4281957194
-0.018759031 -0.038288839 0.010184852 4282280789
-0.016757954 -0.038132153 0.0096937586 4282412113
-0.013466459 -0.019018047 -0.009170807 4283985208
-0.0142079 -0.0085166544 -0.019100711 4281957705
-0.013278734 -0.0046721697 -0.022939743 4281500488
-0.011786461 -0.0030461028 -0.024749951 4281631813
-0.010105561 -0.0021593422 -0.025884064 4281566789
-0.0082280971 -0.0020112619 -0.026344026 4281631814
-0.0061461367 -0.0026012287 -0.026131779 4281566278
-0.0038517341 -0.0039286166 -0.025249263 4281435719
-0.0019661672 -0.003779538 -0.025710942 4281501254
0.00034422055 -0.0051054582 -0.024832116 4281500998
0.0022351593 -0.0049556717 -0.025294902 4281632324
0.0039084367 -0.0040686652 -0.02642652 4281762883
0.0057967752 -0.0039188489 -0.026888501 4281763138
0.0079081096 -0.0045056269 -0.0266828 4281633089
0.010024745 -0.0050918683 -0.026478311 4281698623
0.013516366 -0.01009538 -0.02227715 4281567298
0.019816197 -0.023928829 -0.010097058 4281567298
0.02598308 -0.037018277 0.0013935287 4281761609
0.030355493 -0.044214666 0.0075459592 4282018903
-0.017446723 -0.037574179 0.0064736884 4282476373
-0.015634034 -0.036675744 0.0053082388 4283263048
-0.013429042 -0.021374099 -0.0096457759 4284180029
-0.014165092 -0.010841601 -0.019554276 4282153033
-0.01323238 -0.0069858804 -0.023386069 4281828674
-0.011737205 -0.0053551644 -0.025193796 4281501254
-0.010053597 -0.0044660047 -0.026326953 4281435718
-0.00837522 -0.0035771281 -0.027458733 4281631814
-0.0062936135 -0.0041693226 -0.027248025 4281566534
-0.0039997771 -0.0055011436 -0.02636862 4281632069
-0.0021143593 -0.0053520724 -0.026830262 4281501254
0.00019546226 -0.0066824183 -0.025954543 4281436229
0.0020862482 -0.0065326691 -0.026417309 4281435463
0.0041945353 -0.0071221441 -0.026212683 4281697603
0.0060880221 -0.006971918 -0.026675915 4282024769
0.0079815201 -0.0068215653 -0.027139062 4281959998
0.010100447 -0.0074098259 -0.026936764 4282025788
0.013365034 -0.011690088 -0.023411933 4282157623
0.019199286 -0.024088897 -0.012589866 4282287929
0.025356941 -0.037218548 -0.0011262465 4282547265
-0.018311765 -0.036257945 0.002587812 4282608464
-0.016149197 -0.036847137 0.0027762558 4282936139
-0.014313448 -0.01242695 -0.020683039 4282349128
-0.013186418 -0.0093036443 -0.023835359 4281893698
-0.011688329 -0.0076683387 -0.025640564 4281566024
-0.010002013 -0.006776765 -0.026772756 4281501508
-0.0083209313 -0.0058854818 -0.027903579 4281632069
-0.0064410567 -0.0057370886 -0.02836404 4281567043
-0.0041477829 -0.0070733652 -0.027487757 4281697858
-0.0020531863 -0.0076665059 -0.027281623 4281959744
0.00025870651 -0.0090010464 -0.026409706 4282286908
0.0021519922 -0.0088511109 -0.026873095 4283464499
0.0040453039 -0.0087010339 -0.027336391 4284052528
-0.018820424 -0.036417566 6.2568113e-05 4282476374
-0.016663507 -0.037009351 0.00025072508 4282476629
-0.01465236 -0.013266131 -0.022482291 4282806853
-0.013720531 -0.0093885735 -0.026297653 4281893444
-0.011835705 -0.0092401728 -0.026759611 4281501763
-0.0099508129 -0.0090916455 -0.027221499 4281762629
-0.0082670227 -0.0081979781 -0.02835137 4282024258
-0.005977001 -0.0095390454 -0.027477581 4282351423
-0.0038828216 -0.010134518 -0.027273117 4282940218
-0.001783289 -0.010729425 -0.02706985 4284118829
0.00010980293 -0.010579623 -0.027533283 4284576043
-0.017176941 -0.03716246 -0.0022682417 4282476629
-0.015020285 -0.037756376 -0.0020815674 4283524679
-0.015181184 -0.013352565 -0.024947232 4283266108
-0.014060751 -0.01021228 -0.028084982 4282743613
-0.011983052 -0.010811739 -0.027878465 4283266364
-0.01029662 -0.009915784 -0.02900745 4283461948
-0.008213494 -0.010514587 -0.028802099 4284443953
-0.015720747 -0.037152052 -0.0052637821 4282673999
-0.016419929 -0.036534257 -0.008436325 4282673488
-0.016754214 -0.037413433 -0.010266601 4282476374
-0.01590303 -0.032729246 -0.014740972 4283199808
-0.017451257 -0.036772959 -0.013422998 4282345814
-0.016054157 -0.034348063 -0.015893659 4282679609
-0.017965637 -0.036878586 -0.015906608 4282149719
-0.016573351 -0.034447543 -0.018371178 4282417724
-0.018841553 -0.035451293 -0.019706955 4282083419
-0.017091703 -0.034537889 -0.020842263 4282024258
-0.01646601 -0.029055782 -0.02593814 4283983679
-0.019353796 -0.035534337 -0.022174412 4281760078
-0.017425533 -0.035383075 -0.022647431 4282219079
-0.016242344 -0.03217686 -0.025755411 4283659318
0.0069174506 0.0035956651 0.061581057 4285557029
-0.00099975243 0.0067269057 0.056055676 4285164073
-0.00014383718 0.010898113 0.051200081 4285623584
0.0012818314 0.013062529 0.048527885 4285754654
0.0039106347 0.011218205 0.050206993 4285754909
0.0077902973 0.0053689554 0.056225639 4285820443
-0.016339283 0.0072526261 0.0546952 4285098028
-0.015384991 0.011444166 0.049824815 4285820699
-0.013735481 0.012946084 0.047874901 4285820699
-0.010990169 0.010417573 0.050292779 4285820443
-0.0084105283 0.0085622221 0.051978629 4285624094
-0.0061942078 0.0080506206 0.052208137 4285493024
-0.0045494698 0.0095524937 0.050259646 4285493278
-0.0031102039 0.011724368 0.047588933 4285624603
-0.0016867667 0.013895102 0.04492211 4285755163
-7.8838319e-05 0.015394304 0.042982887 4285557794
0.0025332943 0.013542064 0.044661108 4285557794
0.0059838444 0.0090114027 0.049224813 4285558303
0.010929411 -0.00020430237 0.058831144 4285624093
-0.02008852 0.011466697 0.047426324 4285361188
-0.018964995 0.014996354 0.043295231 4285689119
-0.017688971 0.017849788 0.0398979 4285557794
-0.015344907 0.016657446 0.040865328 4285623584
-0.012621749 0.014118329 0.04328208 4285689374
-0.0098772421 0.011580996 0.045693669 4285624094
-0.0078692734 0.011739075 0.045201521 4285624348
-0.006245438 0.01324366 0.043261457 4285558814
-0.0046321116 0.01474753 0.041323982 4285689883
-0.0030292757 0.016250629 0.039389186 4285887253
-0.0012368746 0.017080419 0.038179062 4285886743
0.0013612472 0.015220445 0.039855808 4285820953
0.0043861754 0.012017503 0.042970207 4285820953
0.0088940393 0.0041130856 0.051118802 4285755673
-0.020938624 0.012495875 0.043323386 4285558814
-0.020000786 0.016712423 0.038476497 4285952789
-0.018379979 0.018220741 0.036540043 4285820698
-0.016044386 0.017023247 0.037506305 4285820699
-0.013330121 0.014474586 0.039918691 4285821464
-0.010407895 0.011251882 0.043049615 4285821719
-0.0087838732 0.012760803 0.041112632 4285624349
-0.006978441 0.013593525 0.039900731 4285559069
-0.0053727441 0.01510115 0.037968419 4285624349
-0.0033831261 0.01525804 0.03748095 4285624349
-0.001593288 0.016089842 0.036273025 4285689628
0.0010014661 0.014222935 0.037945736 4285755419
0.0038174018 0.011683017 0.040333737 4285624093
0.0074859895 0.0064481944 0.045590643 4285624349
0.012460046 -0.0028268993 0.055144358 4285624349
-0.021094415 0.010826662 0.042134795 4285296418
-0.020507045 0.016414296 0.035847906 4285558814
-0.018712785 0.017247874 0.034640029 4285821208
-0.016199253 0.015367221 0.036327198 4285821464
-0.013485927 0.012809657 0.03873327 4285821209
-0.010751266 0.010253891 0.04113413 4285624349
-0.009129595 0.01176697 0.039201014 4285624348
-0.0073266961 0.012601681 0.037991349 4285558814
-0.0055289976 0.013436064 0.036783028 4285559069
-0.00314546 0.01223848 0.037734602 4285624349
-0.0013502054 0.013072863 0.036527015 4285558558
0.00084445998 0.012553334 0.03675722 4285624094
0.0028395467 0.012710899 0.036268592 4285624093
0.0058728568 0.0094866306 0.039364669 4285755419
0.010194439 0.0022075027 0.046751957 4285624349
-0.020904262 0.0077950656 0.042393949 4285098539
-0.02066122 0.014763042 0.034672126 4285493534
-0.018866848 0.015598815 0.03346584 4285559068
-0.016534958 0.014392138 0.034426428 4285624094
-0.014192317 0.013186455 0.035384413 4285689374
-0.011652742 0.011301391 0.037060414 4285689374
-0.0094748326 0.010777846 0.037292734 4285624093
-0.0072914921 0.01025483 0.037523791 4285689884
-0.0052968971 0.010411963 0.037035 4285624349
-0.0033021905 0.0105692 0.036546245 4285624349
-0.0017063059 0.012085006 0.034622964 4285624348
0.00028328225 0.012242034 0.034135606 4285821209
0.0020681806 0.013078012 0.032932274 4285952279
0.0046775378 0.011199184 0.034591727 4285951768
0.0083532315 0.0059297383 0.039820839 4286017304
0.014411407 -0.0067963004 0.052894149 4286082839
-0.020196665 0.0027041882 0.044813689 4285032493
-0.020289171 0.011062063 0.035661254 4285427999
-0.019020874 0.013950005 0.032291822 4285559069
-0.016870201 0.013421811 0.032528952 4285624349
-0.015080754 0.01425954 0.031325608 4285755673
-0.012738507 0.013049439 0.03228052 4285952533
-0.010196894 0.011158034 0.03395113 4286018323
-0.0074479468 0.0085858703 0.036335588 4285820954
-0.0054534562 0.0087429732 0.035846807 4285624349
-0.0036554672 0.009581849 0.034641713 4285624349
-0.0020619445 0.011101887 0.032722209 4285689628
-7.5120479e-05 0.011258677 0.032235522 4285820954
0.0012981147 0.013458654 0.029605657 4285557793
0.0036915466 0.012253381 0.030548535 4285558048
0.0069351122 0.0083265752 0.034341358 4285820444
0.012335742 -0.002401717 0.045251187 4285754908
-0.019491069 -0.0024085492 0.04721776 4284966449
-0.020093489 0.008033596 0.035921048 4285427744
-0.019174833 0.012301467 0.031117972 4285559323
-0.017204944 0.012456149 0.030634861 4285690139
-0.015601184 0.013980761 0.028715719 4285887253
-0.01345057 0.013450533 0.028951366 4285820953
-0.010917637 0.011551768 0.030619238 4286018069
-0.008177612 0.0089701116 0.032999299 4285886743
-0.0061911978 0.0091265514 0.032512471 4285689628
-0.0045974553 0.010650858 0.030596141 4285624094
-0.0030142292 0.012174428 0.028682459 4285624093
-0.0014415383 0.013697311 0.026771389 4286018324
0.00032498688 0.014536172 0.025575832 4286083603
0.0029142871 0.012642525 0.027230393 4285886233
0.0061485134 0.0087017417 0.031015698 4285951768
0.010263877 0.0020330846 0.03763685 4286083858
0.015507132 -0.0080433637 0.047796275 4285689629
-0.020073529 0.0056842715 0.035456356 4285295908
-0.019506343 0.011340767 0.029226575 4285427743
-0.01789977 0.012869939 0.02730988 4285821209
-0.015937824 0.013024054 0.026828747 4285558048
-0.013790172 0.012491316 0.027063515 4285557538
-0.011260651 0.010585696 0.028727271 4285623583
-0.0087150782 0.0086813867 0.030387215 4285754908
-0.0069276169 0.0095236972 0.029187858 4285755419
-0.0055377297 0.011737913 0.02656341 4285689884
-0.0037659816 0.012579173 0.025368042 4285558814
-0.001999449 0.01342012 0.024174035 4285755929
-3.4000725e-05 0.013575301 0.023692634 4286148628
0.0025518872 0.011674792 0.025343075 4285885468
0.0055726506 0.0084055215 0.028409634 4285754144
0.0086200051 0.0051384568 0.031469759 4285491748
0.011479188 0.0025582165 0.033814792 4285491748
0.01479445 -0.001389116 0.037570741 4285294123
-0.019837368 0.010384768 0.027338509 4285296164
-0.01841322 0.012607694 0.024710108 4285755673
-0.016273983 0.012072004 0.024945166 4285952789
-0.014314681 0.012225993 0.024464745 4286018323
-0.011791192 0.010313213 0.026125118 4286215184
-0.009442348 0.0090905875 0.027068675 4285820954
-0.0078560822 0.010622963 0.025160585 4285558559
-0.0066722594 0.013531297 0.02183187 4285624094
-0.0049136803 0.014373712 0.020641357 4285558049
-0.0031603239 0.015215795 0.019452188 4285491748
-0.0008004047 0.013994522 0.020393394 4285425704
0.0015701987 0.012774199 0.021332048 4285490984
0.0045792051 0.0094929338 0.024393372 4285491239
0.0067672208 0.0089621693 0.024617281 4286016539
-0.019990731 0.0087415054 0.026168395 4285098029
-0.018925797 0.012354605 0.022116847 4285493534
-0.016792178 0.011816241 0.022351634 4285689883
-0.014653135 0.011278406 0.022585161 4285689628
-0.012508668 0.0107411 0.022817437 4285557283
-0.010358777 0.010204315 0.023048453 4285491238
-0.0091690421 0.013121761 0.01972476 4285556519
-0.018359575 0.0079466701 0.023804273 4285493534
-0.016580284 0.0087944865 0.022611473 4285558813
-0.01480617 0.0096419752 0.021420006 4285492258
-0.013412446 0.011875957 0.018809017 4286674183
-0.01743605 0.0021287799 0.026900914 4285359913
-0.015640769 0.0029800087 0.025705799 4286016538
-0.014521819 -0.0035589635 0.029489893 4286147098
-0.015954357 -0.008184582 0.031622622 4285425448
-0.01376906 -0.008727774 0.031838149 4285885214
-0.01342164 -0.0022680461 0.02498905 4286342938
-0.013018314 -0.013918445 0.034170832 4285950239
-0.012450829 -0.018426098 0.035784114 4286081308
0.0061585493 -0.009292163 -0.027134491 4285034789
0.008277107 -0.0098827481 -0.0269338 4285099558
0.010400983 -0.010472842 -0.026734287 4285098793
0.013441589 -0.014025204 -0.023883339 4285098538
0.018813759 -0.024980359 -0.014413616 4285098539
0.002431754 -0.011917628 -0.026666984 4285033259
0.0045472793 -0.012510948 -0.026467325 4285033004
0.0066681113 -0.013103656 -0.026268903 4285163818
0.0085718986 -0.012952514 -0.026734583 4285427488
0.010700697 -0.013544343 -0.026537925 4285426979
0.01397305 -0.01785025 -0.023034509 4285360933
0.019119563 -0.028095201 -0.014251189 4285229609
-0.0038249195 -0.012457348 -0.027729778 4285033003
-0.0015142001 -0.013800874 -0.026864156 4285230118
0.00038404018 -0.013650663 -0.027328845 4285229864
0.0027107261 -0.014992721 -0.026466914 4285229354
0.0046143271 -0.014841825 -0.026932716 4285229098
0.0067374427 -0.01543656 -0.026736487 4285360934
0.0086437259 -0.015285201 -0.027202766 4285493024
0.010999613 -0.016624413 -0.026347589 4285361444
0.014503287 -0.021688297 -0.022194853 4285360934
0.019424569 -0.031218626 -0.014094787 4285294634
-0.014207698 -0.01178129 -0.02920207 4285164073
-0.01213035 -0.012382969 -0.028997088 4285295399
-0.010245759 -0.012234479 -0.029458912 4285229353
-0.0081603304 -0.012835331 -0.029255696 4285360934
-0.0058661588 -0.014184788 -0.028389454 4285360934
-0.0035613514 -0.015533298 -0.027525734 4285360934
-0.0016633049 -0.015383229 -0.027990468 4285295398
0.00044614449 -0.015981667 -0.027792756 4285295398
0.002774898 -0.01732789 -0.026934605 4285360678
0.004897628 -0.017924972 -0.02674 4285360678
0.0070256889 -0.01852157 -0.026546564 4285360679
0.0089371093 -0.018369801 -0.027014103 4285360678
0.01129771 -0.019712977 -0.026163362 4285360934
0.014805058 -0.024791867 -0.022022856 4285360678
0.019269001 -0.032856248 -0.015260061 4285228844
-0.015476402 -0.016507924 -0.027193844 4285033004
-0.014162 -0.014102273 -0.029653657 4285164583
-0.011887096 -0.015458055 -0.028786175 4285295399
-0.0099973604 -0.015309162 -0.029249262 4285295143
-0.0081075653 -0.015160158 -0.029712278 4285295144
-0.0062176995 -0.015010983 -0.03017519 4285295143
-0.0039161146 -0.016364127 -0.029313929 4285295399
-0.0018123724 -0.016965292 -0.029116571 4285295398
0.0002967082 -0.017565958 -0.028920401 4285360679
0.0024111085 -0.018166021 -0.028725468 4285360678
0.0047472604 -0.019515909 -0.027872279 4285360678
0.0068749562 -0.020114712 -0.027680375 4285360934
0.0090079531 -0.020712905 -0.027489696 4285360933
0.011146251 -0.021310575 -0.02730024 4285361189
0.014651978 -0.026404917 -0.023170685 4285295398
0.018883791 -0.033744253 -0.017081348 4285163309
-0.015623953 -0.018085159 -0.028316833 4285032493
-0.014309086 -0.015672892 -0.030771896 4285295398
-0.012034751 -0.01703313 -0.029907536 4285360934
-0.0099474713 -0.017638296 -0.029708154 4285360934
-0.0080551729 -0.017489061 -0.030171759 4285360934
-0.0061628222 -0.017339714 -0.030635305 4285360934
-0.0040647909 -0.017943673 -0.030438293 4285295398
-0.0017531179 -0.019300304 -0.029582586 4285360678
0.00035823509 -0.019902922 -0.029388629 4285295399
0.0024749227 -0.020505011 -0.029195882 4285295399
0.0048131607 -0.021859147 -0.028346401 4285295144
0.0073808655 -0.023964666 -0.026842227 4285229609
0.0095214359 -0.02456446 -0.026655031 4285163819
0.011891486 -0.025915705 -0.025813056 4285163308
0.01517937 -0.030272923 -0.022352351 4285163563
-0.015581921 -0.020418972 -0.028776802 4285163309
-0.014456138 -0.017243244 -0.031889934 4285361189
-0.01218237 -0.018607892 -0.031028677 4285360934
-0.010292936 -0.018459029 -0.031491689 4285295399
-0.0080031715 -0.019822128 -0.03063421 4285360934
-0.0061083287 -0.01967258 -0.031098358 4285295398
-0.0033917092 -0.022545449 -0.028926726 4285229609
-0.0012781136 -0.023150228 -0.028735042 4285229609
0.0010515526 -0.024509676 -0.027886892 4285164328
0.0031784587 -0.02511315 -0.027698277 4285229863
0.0055266991 -0.02647084 -0.026854528 4285032749
0.0083228853 -0.029336765 -0.024701895 4284967214
0.010918949 -0.031446509 -0.023209384 4284966959
-0.015729614 -0.021997824 -0.029900949 4285294888
-0.01460316 -0.01881329 -0.033007771 4285426979
-0.012135316 -0.020941027 -0.031489674 4285230118
-0.01024339 -0.02079197 -0.031953298 4285229609
-0.0077516101 -0.022917561 -0.030440878 4285032493
-0.0054464824 -0.024283715 -0.029590314 4285163309
-0.0027202666 -0.027164578 -0.027427515 4285032493
-0.014174778 -0.02266632 -0.032148302 4285229609
-0.011699777 -0.024800055 -0.030636817 4285295399
-0.010682777 -0.03096126 -0.027822798 4284966449
-0.0083736107 -0.032336093 -0.026979888 4285099558
