# .PCD v0.7 - Point Cloud Data file format
VERSION 0.7
FIELDS x y z rgba
SIZE 4 4 4 4
TYPE F F F U
COUNT 1 1 1 1
WIDTH 461
HEIGHT 1
VIEWPOINT 0 0 0 1 0 0 0
POINTS 461
DATA ascii
-0.01434236 0.0020400435 0.011290779 4287577393
-0.013118476 0.0057610348 0.0072714332 4289148448
-0.011288635 0.0066304281 0.0060764793 4290326038
-0.0093032122 0.0067873448 0.0055866633 4291831048
-0.0048338473 0.0049662217 0.006714588 4289149723
0.0069498904 0.0066258833 0.0030666012 4288823069
0.0093110725 0.0053636953 0.0039716791 4288102948
-0.013274349 0.0041040406 0.0060792435 4289146919
-0.011444427 0.0049755946 0.004885884 4290586139
-0.0096196234 0.0058469102 0.0036938284 4289604389
-0.0073105171 0.0045752823 0.004607847 4290455324
-0.0049906448 0.0033046678 0.0055192579 4290586904
-0.0026600063 0.0020349398 0.0064281207 4289475868
-0.00048971176 0.0014797747 0.0066347811 4289279263
0.0013385788 0.0023518503 0.0054423008 4289540128
0.002985321 0.0039367974 0.0035528447 4289867038
0.0048006661 0.0048080608 0.0023637209 4290325019
0.006974183 0.0042535886 0.0025699157 4290586904
0.009890452 0.00084962696 0.0055602212 4290652183
0.012833335 -0.0025521219 0.0085440595 4291896074
0.016750965 -0.0095121264 0.014996631 4291046668
0.020913951 -0.017179608 0.022130547 4289149723
0.025525197 -0.026265673 0.030637665 4289542679
-0.0148082 -0.00057839602 0.0081881303 4289014064
-0.013740137 0.0038814172 0.0034833569 4289406763
-0.01191543 0.0047547296 0.0022929031 4289669669
-0.0099355653 0.0049111322 0.0018044058 4288819243
-0.0076296404 0.0036348328 0.0027159061 4289342759
-0.0053129569 0.0023595616 0.0036248062 4289735458
-0.002817288 0.00036921352 0.0052298177 4289735713
-0.00081820786 0.00052757561 0.0047369096 4289605154
0.0010074899 0.0014016405 0.0035466421 4289670690
0.0026518889 0.0029907227 0.0016610716 4290062624
0.0042858273 0.0045790747 -0.0002218578 4289866019
0.0064537153 0.0040219352 -1.5933067e-05 4289211944
0.0091793835 0.0013211891 0.002273025 4289343013
0.012299903 -0.0028067455 0.0059449878 4289604643
0.016209982 -0.0097892284 0.012382975 4289277224
0.020557299 -0.018195555 0.020193594 4289277733
0.024968289 -0.026596628 0.027988577 4288819244
-0.015573196 0.00063419342 0.0041859839 4289603623
-0.014205031 0.0036678836 0.00089407526 4289472809
-0.012542978 0.0052619427 -0.00099317171 4290585373
-0.010731257 0.0061365366 -0.002178777 4290192928
-0.0082737431 0.0041363612 -0.0005694367 4289015593
-0.0059655458 0.0028560013 0.0003382545 4290585884
-0.0036465973 0.0015765429 0.0012434069 4289800738
-0.0018289089 0.0024519935 5.6697056e-05 4289735969
0.00015695393 0.0026093796 -0.00043290108 4289408549
0.0017910227 0.0042020306 -0.002312718 4289997089
0.0035932697 0.0050765947 -0.0034953728 4290716444
0.0055716075 0.0052337199 -0.0039828643 4289931298
0.007917881 0.0039571449 -0.003083989 4289604389
0.011021107 -0.00018537045 0.0005824361 4290323999
0.015480679 -0.0093406737 0.0090840477 4290193184
0.01981739 -0.01777415 0.016877605 4289408295
0.024023272 -0.025486283 0.023964981 4289145643
-0.016488396 0.0025863573 -0.00050267391 4288688173
-0.014823593 0.0041849241 -0.0023874659 4289407274
-0.012854762 0.0043403059 -0.0028733667 4289538598
-0.010725848 0.0037747398 -0.0026617497 4288884524
-0.0084289685 0.0024889559 -0.0017546527 4289277224
-0.0062864944 0.0019247457 -0.0015462562 4289669925
-0.0041385517 0.0013610572 -0.0013391357 4289735459
-0.0024965443 0.0029584169 -0.0032177791 4289670179
-0.00069186836 0.0038351044 -0.0043995827 4289473828
0.0012834072 0.0039917603 -0.0048864968 4289669923
0.0030804202 0.0048680604 -0.0060662497 4289866018
0.0050533339 0.0050247461 -0.0065524075 4289408038
0.0073937438 0.0037433058 -0.0056553837 4289277223
0.01067663 -0.0011317655 -0.0013062805 4289800739
0.0149417 -0.0095973238 0.0064851698 4289603879
0.019462094 -0.018776208 0.014950624 4289145388
0.02327428 -0.025076292 0.020643314 4288949040
-0.016946293 0.0023893714 -0.0030817948 4289080363
-0.015286505 0.0039918348 -0.0049620606 4289669413
-0.013166048 0.0034233406 -0.0047501344 4289800228
-0.011040144 0.0028553605 -0.0045394842 4288819243
-0.0085841343 0.00084187835 -0.0029396452 4289408038
-0.006442003 0.00027541071 -0.0027328227 4289538853
-0.0046296045 0.0011546537 -0.0039150771 4289343014
-0.0026521198 0.0013112277 -0.004402725 4289408549
-0.00084736943 0.0021900907 -0.0055829231 4289539108
0.001127772 0.0023467019 -0.0060698297 4289997089
0.002924867 0.003225185 -0.0072479695 4289800483
0.0050784647 0.002660282 -0.0070434827 4289408038
0.0076044723 0.00065329671 -0.0054602753 4289146408
0.010704905 -0.0035157427 -0.0018128455 4289277223
0.014969967 -0.012007542 0.0059588868 4289276713
0.019490138 -0.021214895 0.014403107 4289014573
0.022914767 -0.026093699 0.018706134 4288818224
-0.017403282 0.0022014454 -0.0056543332 4288556083
-0.015748501 0.0038079023 -0.0075301547 4289408038
-0.013633683 0.0032366961 -0.0073184595 4290323999
-0.011194475 0.0012152418 -0.0057195164 4290062369
-0.0089013427 -7.9683959e-05 -0.0048180465 4290193184
-0.0067621991 -0.00064860284 -0.0046121515 4289539108
-0.0047849938 -0.00049220026 -0.0050998386 4289670179
-0.0028076284 -0.00033565611 -0.0055874735 4289735459
-0.0010028109 0.00054536015 -0.0067660715 4289342758
0.0007968545 0.0014261082 -0.0079433098 4289669923
0.002769351 0.0015826151 -0.0084294789 4290062113
0.0051032268 0.00029172748 -0.0075375251 4290454814
0.0076311305 -0.0017217323 -0.0059596542 4290258464
0.010732822 -0.0059037581 -0.0023224093 4289669668
0.014809281 -0.013698734 0.0047425758 4289473063
0.019326583 -0.022934787 0.013166199 4289080108
0.022555709 -0.027106337 0.016772313 4288883503
-0.017708063 0.0012943894 -0.0075256806 4288490803
-0.016209595 0.0036330521 -0.010091655 4289800483
-0.014100425 0.0030592158 -0.0098802671 4290062369
-0.011826523 0.00175827 -0.0089774188 4289997344
-0.0095418692 0.00045832247 -0.0080771837 4290782233
-0.0075755417 0.00061374158 -0.008562278 4289997344
-0.0056090727 0.000769265 -0.0090473443 4289604899
-0.0034726039 0.00019815564 -0.0088422671 4289735458
-0.0013306811 -0.00037246197 -0.0086384192 4289539108
0.00046640262 0.00051028281 -0.009813441 4289931553
0.0024361052 0.00066654384 -0.010298945 4290781979
0.0045863762 9.6932054e-05 -0.010096896 4290781979
0.0074743479 -0.0033750907 -0.0071488526 4290781979
0.010760348 -0.0082959011 -0.002834931 4290651164
0.014648654 -0.015389644 0.0035264697 4289277224
0.018781047 -0.02320414 0.010559799 4289146408
0.021809809 -0.026664473 0.013473539 4288949293
-0.019375913 -0.0026847273 -0.0061354656 4286462788
-0.018314585 0.0018529892 -0.010779805 4289146154
-0.016669832 0.0034673214 -0.012646593 4289669669
-0.014722653 0.0036208704 -0.01312723 4288884778
-0.012616299 0.003044717 -0.012916721 4288885033
-0.010342784 0.0017394796 -0.012017036 4289473828
-0.0083871856 0.0018940344 -0.012499506 4290259229
-0.0064314082 0.0020487085 -0.012981931 4289343269
-0.0043058917 0.0014745072 -0.012775823 4289539364
-0.0021749027 0.00090081245 -0.012570927 4289931553
-0.00038834661 0.0017848909 -0.013741734 4289866019
0.0012154952 0.003396973 -0.01559769 4289800228
0.0033495165 0.0028239265 -0.015393324 4289342504
0.006220419 -0.00066038221 -0.01244925 4290062113
0.010045469 -0.0077811703 -0.0060887374 4290258463
0.014111746 -0.015625149 0.00094275735 4289145898
0.018045582 -0.022737019 0.0072766598 4288949294
-0.020715572 0.0015391558 -0.012851994 4287770684
-0.019221604 0.0038904175 -0.015407164 4289603624
-0.017436244 0.0047756284 -0.016576685 4290388769
-0.015499808 0.0049282983 -0.017054696 4289277223
-0.013404354 0.0043490753 -0.016843155 4289473574
-0.011141971 0.0030385703 -0.015944006 4290520604
-0.0091970935 0.0031922609 -0.016423836 4289735458
-0.0072520599 0.0033460557 -0.016903637 4289735459
-0.005137451 0.0027687475 -0.016696436 4289735459
-0.0028453469 0.0014610291 -0.015804291 4289931553
-0.0014160797 0.0038081929 -0.018342745 4290585629
-2.5555491e-06 0.006154187 -0.020877175 4289342504
0.0021152347 0.0055776313 -0.020670466 4288753964
0.0053343624 0.00062070787 -0.01636311 4289473575
0.0093319044 -0.0072529316 -0.0093327761 4289930533
0.013387784 -0.015121765 -0.0023167636 4289799718
0.017311424 -0.022256337 0.0040032733 4289211689
-0.021607734 0.0035934374 -0.017471366 4287705149
-0.020126492 0.0059501827 -0.020018458 4289603625
-0.018200949 0.0061018765 -0.020493872 4289930534
-0.016119242 0.0055192485 -0.020280674 4288819243
-0.01387345 0.0042029247 -0.019380804 4288819243
-0.011616901 0.0028875098 -0.018483466 4289931554
-0.0096774474 0.0030407384 -0.018961985 4289408294
-0.0077378452 0.0031940714 -0.019440468 4289669923
-0.005798094 0.0033475533 -0.019918893 4290062114
-0.0038581938 0.0035011545 -0.020397265 4290127393
-0.0026161894 0.0065868422 -0.023611687 4289800484
-0.0012180693 0.0089381784 -0.026137479 4289603879
0.0008834973 0.0083580762 -0.025928382 4288950058
0.0040851422 0.0033844709 -0.021628164 4289800483
0.0082494467 -0.0052468404 -0.013929926 4289799719
0.01266513 -0.014604889 -0.0055665169 4289275949
0.016959347 -0.023225568 0.0020998623 4289079598
-0.02205424 0.0034581348 -0.020007737 4286920769
-0.02027683 0.004346922 -0.02117214 4288033334
-0.018504553 0.0052354336 -0.02233519 4288426033
-0.016270056 0.0039137155 -0.021435909 4288492334
-0.014341652 0.0040658191 -0.021911889 4288230448
-0.012090944 0.002745606 -0.021016432 4288427054
-0.010320634 0.0036343858 -0.022178678 4287969074
-0.0083891153 0.003787078 -0.022655176 4288296239
-0.0064574257 0.0039399043 -0.023131616 4288557869
-0.0045256242 0.00409282 -0.023608021 4288361518
-0.0029422566 0.0057162568 -0.02544922 4288427054
-0.0013693608 0.0073390231 -0.027287807 4288034353
0.00073185563 0.0067566857 -0.027080268 4287903538
0.0035674199 0.0032367185 -0.02415207 4289146154
0.0073539987 -0.0039527491 -0.017831188 4289014828
0.012131292 -0.014808558 -0.0081274044 4288687408
0.01641757 -0.023456164 -0.00047866441 4288949803
-0.021761686 -0.00036543608 -0.019100634 4286659138
-0.019976296 0.0005261898 -0.020265443 4288425779
-0.018195994 0.0014174804 -0.021428859 4288556593
-0.016109668 0.00083080679 -0.021220095 4288818988
-0.014176108 0.00098329782 -0.021697363 4288884524
-0.012081519 0.00039743632 -0.02149044 4288623149
-0.010145001 0.00055038184 -0.021968272 4288296238
-0.0082083195 0.00070346147 -0.022446057 4288754219
-0.006271489 0.00085666776 -0.02292379 4288819499
-0.0046774149 0.0024852231 -0.024764508 4288295983
-0.0030937716 0.0041130185 -0.026602525 4288623148
-0.0013438612 0.0050029457 -0.027757682 4288296239
0.00075964257 0.0044186339 -0.027552392 4287903538
0.003232602 0.0023613796 -0.025990572 4288034354
0.0070143156 -0.0048503801 -0.01968481 4288230194
0.011785671 -0.015739463 -0.010004109 4288229684
0.016066629 -0.024413683 -0.0023737345 4288098358
-0.021617748 -0.0034601986 -0.018888669 4286986560
-0.019526839 -0.004048951 -0.018682862 4287902518
-0.017735891 -0.0031546578 -0.019847287 4288230195
-0.015794694 -0.0030016974 -0.02032654 4288492078
-0.014011346 -0.0021077618 -0.021488924 4288557614
-0.011751167 -0.003436029 -0.020602394 4288558125
-0.0098068491 -0.0032824948 -0.021082167 4288557869
-0.0078623667 -0.0031288117 -0.021561887 4288623148
-0.0062549189 -0.0014950112 -0.023402687 4288557868
-0.00448668 -0.00060171634 -0.024560913 4288558125
-0.0025497153 -0.00044826418 -0.025038511 4288296494
-0.00061262399 -0.00029471517 -0.025516059 4288361773
0.0015037581 -0.00088020414 -0.025315601 4288296494
0.0038073659 -0.0022040755 -0.02443907 4288427054
0.0070440173 -0.0072207823 -0.020181734 4288361009
0.011627629 -0.017404169 -0.01120141 4288294963
0.015716165 -0.025366522 -0.0042653624 4288164149
-0.021327347 -0.0073073879 -0.017998587 4287574844
-0.01952856 -0.0064104199 -0.019163406 4287706169
-0.017734922 -0.0055137128 -0.020326938 4288099379
-0.015636064 -0.0061038584 -0.020124529 4288230704
-0.013689555 -0.0059503987 -0.020605031 4288165169
-0.011582434 -0.0065396205 -0.020404529 4288361774
-0.00963296 -0.0063856915 -0.02088559 4288492589
-0.007517606 -0.006974034 -0.020686954 4288754474
-0.0059019402 -0.0053352341 -0.022526529 4288623403
-0.0041257143 -0.0044390857 -0.02368515 4288688939
-0.0023546256 -0.0035432726 -0.02484237 4288492844
-0.00023607165 -0.0041308925 -0.02464417 4288492588
0.0017089322 -0.0039765984 -0.025123585 4288492588
0.0041988865 -0.0060456917 -0.023575746 4288296495
0.0074418783 -0.01107721 -0.019331425 4288491823
0.011656534 -0.019809298 -0.011724075 4287968819
0.015366159 -0.026314639 -0.0061535928 4287379513
-0.021773204 -0.0074370131 -0.020530984 4287182144
-0.019680344 -0.0080300868 -0.020328924 4287706168
-0.017886616 -0.0071311966 -0.021490846 4288033843
-0.015633158 -0.0084690377 -0.020609345 4288230704
-0.013841726 -0.0075701401 -0.021770474 4288165168
-0.01173497 -0.0081616119 -0.021571558 4288361774
-0.0099485144 -0.0072628781 -0.022731289 4288361773
-0.0078361481 -0.0078536645 -0.022533569 4288558124
-0.0062228739 -0.006210655 -0.02436934 4288558123
-0.0041075721 -0.0068010241 -0.024172124 4288361773
-0.0021603145 -0.0066468045 -0.024652287 4288427309
0.00013928115 -0.0079800114 -0.023781512 4288689449
0.0020920783 -0.0078251138 -0.024262857 4288427309
0.0044077933 -0.0091567934 -0.02339587 4288558378
0.007470414 -0.013460182 -0.019837398 4288557869
0.011124976 -0.019989692 -0.014268173 4287968053
-0.021484137 -0.011299007 -0.019651566 4287443774
-0.019832052 -0.0096494555 -0.021494236 4287902518
-0.018038258 -0.0087483823 -0.022654545 4287903284
-0.015940078 -0.0093430057 -0.022455271 4288165168
-0.013836466 -0.0099370256 -0.022257295 4288295983
-0.011887439 -0.0097832903 -0.022738367 4288296494
-0.010100923 -0.0088823959 -0.023896497 4288296493
-0.0079889074 -0.0094754174 -0.023700338 4288427308
-0.0062073842 -0.0085746571 -0.024857048 4288296493
-0.0039191991 -0.0099133998 -0.023986928 4288361773
-0.0019667968 -0.0097587928 -0.024468374 4288230958
0.00016163662 -0.010350041 -0.024275906 4288362029
0.0019383729 -0.0094491914 -0.025431082 4288362029
0.0044347234 -0.011530891 -0.02389463 4288754728
0.007130906 -0.014356546 -0.02169013 4288361008
0.010780782 -0.020906053 -0.016134506 4287641144
-0.021489479 -0.013672911 -0.020140395 4287117119
-0.019685209 -0.012769029 -0.021301717 4287773234
-0.017734177 -0.012615494 -0.021783546 4287969074
-0.015628405 -0.01321166 -0.021587834 4288231214
-0.013831571 -0.012308031 -0.022747077 4288165168
-0.01188004 -0.012154087 -0.023228757 4287969328
-0.01009082 -0.011250816 -0.02438594 4288165935
-0.0078113899 -0.012594856 -0.023517102 4288165678
-0.0058567598 -0.012440331 -0.023999296 4288296750
-0.0035611913 -0.013782911 -0.02313422 4288427563
-0.0017740652 -0.012879275 -0.024290565 4288362284
0.00053500384 -0.014220528 -0.02342863 4288558123
0.0023197345 -0.013316877 -0.024584163 4288492844
0.0044612736 -0.01390902 -0.024396371 4288492589
0.0071591213 -0.016743295 -0.022198822 4288033588
0.010623328 -0.022565104 -0.017327746 4287771959
-0.0053397939 -0.017069958 -0.02247813 4286792503
-0.0014092624 -0.016758867 -0.023447493 4286989109
0.00073168054 -0.017353505 -0.023261387 4287119414
0.002699893 -0.017197423 -0.023746567 4287315763
0.0048490167 -0.017791204 -0.023562254 4287119158
0.0073703751 -0.019883893 -0.022041736 4286660668
0.010652006 -0.024973385 -0.017852625 4286529344
0.012593679 -0.032450698 -0.030470768 4282732394
-0.0026936755 0.0043732747 0.040334612 4285295399
-0.00062727183 0.0045371056 0.039825201 4285623583
0.0019441992 0.0026386082 0.041475758 4285819934
0.0052155182 -0.0020075738 0.045999661 4285754399
0.0081769228 -0.0052766055 0.049077138 4285098029
0.017218024 0.0010495782 0.040758766 4285360424
0.020251915 -0.0022131056 0.043818824 4285491494
-0.0058835447 0.0066271573 0.035281569 4285361954
-0.0044845045 0.0095500052 0.031897277 4285558814
-0.0026101395 0.010401577 0.030675368 4285688863
-0.00040474534 0.0098734573 0.030891532 4285754653
0.0026598163 0.0058985054 0.034695074 4285820699
0.0054095909 0.0033046901 0.037056684 4285558559
0.0076526143 0.0027798563 0.037263796 4285427744
0.0095437244 0.0036332309 0.036038108 4285427744
0.010885697 0.0065522119 0.032668382 4285493024
0.012574568 0.0080927312 0.030732876 4285754909
0.01462625 0.0082561225 0.030227637 4285754654
0.017245926 0.0063556433 0.031861894 4285820189
0.020841323 0.0010175407 0.037054867 4285623839
0.025452204 -0.0077549517 0.045796722 4285492258
-0.007004641 0.0090716034 0.029738316 4285493278
-0.0054581985 0.011309624 0.027082438 4285689883
-0.0037622228 0.012854449 0.025147909 4285623839
-0.0017409027 0.013014719 0.024649618 4285689884
0.0011332072 0.0097166598 0.027732061 4285755673
0.0038608238 0.0071122795 0.030092539 4285690138
0.0059064925 0.0072747692 0.029588463 4285624349
0.0075953826 0.0088194609 0.027656062 4285624349
0.0094549432 0.0096725821 0.026439844 4285821209
0.011309322 0.010525428 0.025224915 4285754909
0.013531417 0.0099970624 0.025435863 4285557539
0.015948005 0.0087790564 0.026357057 4285558048
0.019142233 0.0048020035 0.030119387 4285558558
0.023729045 -0.0040009618 0.038845807 4285558558
-0.0078037009 0.010153309 0.02564873 4285493279
-0.0062673464 0.01239711 0.02300019 4285887509
-0.0044166371 0.013251111 0.021787332 4285821718
-0.0022357255 0.012716621 0.022006208 4285821464
0.00063192099 0.0094070286 0.025082005 4285755929
0.0030073412 0.0081807449 0.026009599 4285624349
0.004866682 0.0090358257 0.024794908 4285624349
0.0065426044 0.01058384 0.02286897 4285624093
0.008389011 0.011438087 0.02165761 4285821464
0.010413811 0.011599168 0.021158868 4285952533
0.01262496 0.011067756 0.021370804 4285886743
0.01521926 0.0091520399 0.023001419 4285886999
0.01821265 0.0058532059 0.026046889 4285886489
0.022785984 -0.0029793382 0.03475523 4285755164
-0.0095155537 0.0062137246 0.027081983 4285164583
-0.0082820132 0.0098591298 0.023003133 4285493534
-0.0065882578 0.011412337 0.021075623 4285558559
-0.0047401339 0.012268282 0.019865008 4285558559
-0.0025621913 0.011731327 0.020082949 4285558303
0.00030164793 0.0084104463 0.023151467 4285624094
0.0023283698 0.0085712671 0.022651942 4285624349
0.0041798577 0.0094278753 0.021440798 4285558813
0.0058481172 0.010979682 0.019519957 4285624349
0.0078673661 0.011140198 0.019022489 4285624094
0.0095200203 0.012690924 0.017105693 4285624093
0.011906236 0.011461571 0.018027691 4285689884
0.014491852 0.0095385164 0.019655546 4285624093
0.017667405 0.0055335984 0.023402734 4285558814
0.022038631 -0.0026339591 0.031384699 4285558814
0.027456619 -0.014266282 0.042883188 4285493024
-0.0098319203 0.0052186996 0.02514836 4285230118
-0.0086001009 0.0088749081 0.021078112 4285493278
-0.007070668 0.011131257 0.018441075 4285755674
-0.0050631315 0.011290215 0.017946025 4285821208
-0.0025536716 0.0093537122 0.019587109 4285755674
0.00014176592 0.0067202598 0.021935666 4285624093
0.0021683536 0.0068810284 0.021436142 4285624349
0.0040199235 0.0077398121 0.0202266 4285559068
0.0056884885 0.0092959926 0.018308939 4285624349
0.0073466115 0.010851413 0.016393987 4285624094
0.0088111199 0.013103396 0.01377354 4285624093
0.011003047 0.012566015 0.013986884 4285624094
0.013954192 0.0092417747 0.017026188 4285623839
0.017314158 0.0045264661 0.021471335 4285558813
0.021680079 -0.0036678463 0.029434895 4285558813
0.027091712 -0.015337974 0.040907033 4285427743
-0.010460697 0.0056315511 0.021791982 4285295909
-0.009076789 0.0085967183 0.018444067 4285558813
-0.0075521469 0.010859229 0.015813099 4285820954
-0.0055500343 0.01101774 0.015319372 4285755163
-0.0028795823 0.0083733946 0.017667415 4285952789
-0.00035745651 0.0064314306 0.019300463 4285755674
0.0016637221 0.0065917373 0.01880225 4285624349
0.0035100803 0.0074522644 0.017595602 4285624349
0.0053512752 0.0083124861 0.016390311 4285624348
0.0068267584 0.010571793 0.013771983 4285755419
0.0082864761 0.012829907 0.011157664 4285886999
0.010472775 0.012289852 0.011370735 4285886998
0.013605669 0.0082550645 0.015108617 4285887508
0.017152272 0.0028252229 0.020247867 4285689628
0.021128461 -0.0039983541 0.026784537 4285493278
0.026531093 -0.015706539 0.03823103 4285361953
-0.011244364 0.0067616999 0.01773393 4285295653
-0.0097114742 0.0090312958 0.015105741 4285689884
-0.0080327392 0.010596395 0.01319165 4285426213
-0.0062002167 0.011457577 0.011989729 4285492003
-0.0035386607 0.0088037476 0.014333399 4285689374
-0.0011947006 0.0075571463 0.01525549 4285755419
0.00098787621 0.0070140585 0.015467422 4285624349
0.0028263628 0.0078761131 0.01426434 4285624349
0.00465969 0.0087379217 0.013062553 4285689883
0.00612773 0.011003144 0.010451006 4285755419
0.0075799935 0.013267256 0.0078433771 4285557793
0.010128759 0.011321366 0.0094654206 4285623583
0.013257623 0.007273078 0.01319444 4285755419
0.016799763 0.0018253326 0.01832165 4285558558
0.020771071 -0.0050205886 0.024843095 4285493534
0.025579404 -0.014664665 0.034158237 4285296163
-0.012494408 0.010027811 0.011559101 4285361188
-0.010662183 0.010890953 0.010358719 4285952788
-0.0088350475 0.01175376 0.0091596637 4285952279
-0.0068490803 0.011910923 0.0086698625 4285820698
-0.00436306 0.0099527538 0.01030183 4285952279
-0.0020302385 0.00870087 0.011223378 4285755418
-0.00020243227 0.0095641837 0.010024415 4285558558
0.0017948151 0.0097226277 0.0095321257 4285558558
0.0036149845 0.010585509 0.0083352495 4285689884
0.0052501485 0.012152173 0.0064357314 4286018323
0.0070573613 0.013014235 0.0052422043 4285886488
0.0096000433 0.011061296 0.0068607572 4285755164
0.012722246 0.0069992766 0.010581614 4285821209
0.016257264 0.0015334412 0.015697399 4285755673
0.020414159 -0.0060380995 0.022905046 4285558559
0.025608283 -0.017118998 0.033598766 4285427488
-0.013118178 0.01049234 0.0082398448 4285295909
-0.011135332 0.010649018 0.0077506322 4285689118
-0.0091523007 0.010805808 0.0072614569 4285754654
-0.0071690902 0.010962717 0.0067723114 4285951514
-0.0050192922 0.010412343 0.0069888998 4285689119
-0.0026949681 0.009155415 0.007909188 4285623839
-0.00087500364 0.010020226 0.0067138243 4285559069
0.00093980134 0.010884739 0.0055198092 4285559069
0.0031034797 0.010335915 0.005733246 4285558558
0.0045539513 0.012612887 0.0031357836 4285886998
0.0065355971 0.012770377 0.0026475582 4286148883
0.0087023377 0.012222119 0.002860466 4286017558
0.012000144 0.0074403137 0.0072748642 4285820699
0.015525408 0.0019560978 0.012379961 4285623838
0.020443521 -0.0084613785 0.022368656 4285558303
0.025832355 -0.020282499 0.033734858 4285427488
-0.013429396 0.0095495656 0.0063437391 4285163309
-0.011449315 0.0097059831 0.0058551822 4285294378
-0.0094690621 0.0098625198 0.0053666588 4285557029
-0.0073250681 0.0093093961 0.0055828933 4285491238
-0.0051755905 0.0087567866 0.0057979096 4285360423
-0.0028518066 0.0074953958 0.0067150313 4285492259
-0.0010317862 0.0083623752 0.0055212658 4285427233
0.00078310817 0.0092290416 0.0043288413 4285361954
0.0025928319 0.010095455 0.0031377319 4285427234
0.0042179711 0.01167006 0.0012472104 4285492258
0.0063789412 0.011119016 0.001459809 4285491493
0.0087300912 0.0098603964 0.0023707096 4285557029
0.011654146 0.0064790919 0.005375592 4285557538
0.015555035 -0.00043834746 0.011865066 4285623583
0.020472512 -0.01088877 0.021829316 4285558303
0.025860287 -0.022747226 0.033167891 4285361698
