# .PCD v0.7 - Point Cloud Data file format
VERSION 0.7
FIELDS x y z rgba
SIZE 4 4 4 4
TYPE F F F U
COUNT 1 1 1 1
WIDTH 860
HEIGHT 1
VIEWPOINT 0 0 0 1 0 0 0
POINTS 860
DATA ascii
0.0027227141 -0.017956331 0.036057226 4289083168
0.004777953 -0.01780501 0.035589404 4289016358
0.0064589195 -0.016240209 0.033722892 4289605408
0.0090785436 -0.018208534 0.035352774 4289537833
0.01036663 -0.015231475 0.032091841 4291370008
-0.00091477484 -0.014136791 0.029702386 4288693018
0.00075560808 -0.012568586 0.027841313 4289277989
0.0025997683 -0.011710159 0.026681183 4289539364
0.0046256743 -0.011560902 0.026220107 4290193438
0.0068413019 -0.012120217 0.026456298 4289604643
0.0077161156 -0.0077195093 0.021815231 4289997598
0.0068042427 0.0030537173 0.010917647 4287970859
-0.0019575097 -0.012265444 0.024999352 4289212963
-0.00048166141 -0.0099823177 0.022447104 4290127903
0.0011624359 -0.0084115788 0.02059534 4289604899
0.0033563711 -0.0089748427 0.020834787 4288819753
0.0053662397 -0.0088266656 0.020377444 4288885543
0.0056470968 -0.0022819415 0.013665156 4289213219
-0.0028196573 -0.011085607 0.021008836 4289606174
-0.0013540052 -0.0087966844 0.018463781 4289997599
-8.8173896e-05 -0.0057953075 0.015227215 4290651418
0.0020894445 -0.0063619539 0.015468681 4289866529
0.0037046783 -0.0047887489 0.01362698 4290063134
0.0037739314 0.0024871454 0.0062404219 4291112459
-0.0049757622 -0.012899876 0.020268248 4289152018
-0.0035017692 -0.010603882 0.017726095 4289540384
-0.0020436645 -0.0083089545 0.015187642 4289932573
-0.00041768327 -0.0067308247 0.013346573 4290193949
0.00175694 -0.0072998777 0.013587082 4289277989
0.0028025545 -0.0035765022 0.009671865 4289344034
0.0022877827 0.0058660582 0.00022812746 4288102438
-0.0056491233 -0.012410618 0.016988637 4289673493
-0.0043609068 -0.0093903169 0.013759824 4289801759
-0.0029129907 -0.0070896223 0.011228615 4289736479
-0.0012974143 -0.0055078268 0.0093931276 4289474338
0.0010524429 -0.0067976713 0.010325979 4289344033
0.0017131604 -0.001628764 0.0050388221 4290063643
-0.0063212812 -0.011907801 0.013718775 4289409314
-0.0048623644 -0.0095998421 0.011189861 4289802014
-0.0034193397 -0.0072928891 0.0086646117 4291110418
-0.0014421269 -0.0071473792 0.0082145017 4291044628
0.00072117522 -0.0077216998 0.0084543023 4290260249
0.0011917874 -0.0018178746 0.0024896655 4289540639
-0.0091495104 -0.010814063 0.010219498 4289150743
-0.0073425733 -0.0099456161 0.0090772528 4289933338
-0.0057186931 -0.0083547607 0.0072462391 4290194458
-0.0039248578 -0.0074870661 0.0061072037 4289866783
-0.0019531138 -0.0073419884 0.0056583229 4289867038
0.00020452216 -0.0079189315 0.0058977697 4290718228
0.00085970387 -0.0027197599 0.00063469075 4289410843
-0.01015557 -0.0088306591 0.0055893753 4289671453
-0.0081868991 -0.0086861774 0.0051409174 4290783254
-0.0065734126 -0.0070917085 0.0033155214 4289866783
-0.0046098717 -0.0069473609 0.0028684158 4288492843
-0.0024632961 -0.0075274333 0.003108656 4288689194
-0.0004969351 -0.0073826313 0.0026610885 4289736733
0.0007163398 -0.0043410957 -0.00053077191 4289018653
-0.011159651 -0.006824933 0.00097537972 4289867293
-0.0093792006 -0.005954124 -0.00015755557 4290324764
-0.0079588927 -0.0036292747 -0.0026630796 4290390299
-0.0060141198 -0.0034863055 -0.0031059217 4289081638
-0.0037037209 -0.0047967508 -0.0021772422 4289016614
-0.0011971816 -0.0068328157 -0.00056581013 4290259738
0.00038493052 -0.0052357689 -0.0023805071 4288691488
-0.02618527 -0.013245165 0.0068324544 4286529853
-0.024524506 -0.011639558 0.0050019976 4286399038
-0.013257042 -0.0085888728 0.00025564991 4288166698
-0.011302061 -0.0084455237 -0.0001897905 4289277733
-0.0096961632 -0.0068429932 -0.0020070467 4289932064
-0.0084553249 -0.0037824139 -0.0051925257 4289800993
-0.0066959336 -0.0029107407 -0.0063188653 4288231213
-0.0043940581 -0.0042261407 -0.0053915512 4288885799
-0.0022667088 -0.0048118979 -0.0051501039 4289735969
-0.00032185391 -0.0046685785 -0.0055927094 4288428839
-0.026176993 -0.015609778 0.0063492674 4286791228
-0.024360213 -0.014732845 0.0052105542 4286399039
-0.015354 -0.010352291 -0.00046382286 4286660414
-0.013568349 -0.0094769821 -0.0015948806 4287380023
-0.01161617 -0.0093338639 -0.0020397026 4288165423
-0.010012697 -0.0077271461 -0.0038531553 4288427054
-0.0087738782 -0.004657954 -0.0070316549 4288361774
-0.0068373792 -0.0045156404 -0.0074726455 4288361773
-0.0047184192 -0.0051043257 -0.0072310045 4288427308
-0.0022239797 -0.0071544573 -0.005626617 4289147684
-0.00046432391 -0.0062801689 -0.0067511629 4288559908
-0.026018772 -0.018714122 0.0065513179 4286725694
-0.024196621 -0.017834671 0.0054130349 4286398529
-0.011415206 -0.012419932 -0.001836054 4287248698
-0.009631969 -0.011542343 -0.0029648002 4287707189
-0.0080308095 -0.0099313036 -0.0047743963 4287969328
-0.0062606819 -0.0090544745 -0.0058999397 4287773233
-0.0043135993 -0.008911252 -0.0063432325 4287446069
-0.002181612 -0.0095010772 -0.0061061215 4287707954
-0.026011359 -0.02108907 0.0060606021 4286987068
-0.024186496 -0.020207249 0.0049233194 4286529344
-0.011043627 -0.016250812 -0.00095678493 4286921533
-0.0094263628 -0.014634326 -0.0027668756 4287445813
-0.0076429769 -0.013754465 -0.0038939025 4287838513
-0.00586484 -0.012874842 -0.0050196992 4287838513
-0.0039099306 -0.012731053 -0.0054647913 4287707444
-0.0019549504 -0.012587145 -0.0059098108 4287576884
-0.026004281 -0.023468174 0.005566977 4286921278
-0.024176713 -0.022583924 0.0044306535 4287052093
-0.022509519 -0.020960309 0.0026117843 4286528833
-0.020694967 -0.020076819 0.001478646 4286397763
-0.012983177 -0.018761702 -0.00099881925 4286071108
-0.010844316 -0.019356064 -0.000766946 4286660159
-0.0090476908 -0.018473126 -0.0018955041 4287314488
-0.0072562806 -0.0175905 -0.0030227434 4287707443
-0.0056492426 -0.015970193 -0.0048270924 4287838515
-0.0036891662 -0.015826032 -0.0052733673 4287707699
-0.0020979382 -0.014206566 -0.0070739603 4287577139
-0.025548432 -0.028078213 0.0071207769 4286398274
-0.023710165 -0.027191065 0.0059836674 4286921278
-0.022187132 -0.02482038 0.003483301 4286659648
-0.020206887 -0.024675868 0.0030315947 4286594114
-0.018226508 -0.024531223 0.0025799498 4286528323
-0.013126191 -0.020391725 -0.0021708328 4286071619
-0.01098768 -0.020988308 -0.0019405205 4286725438
-0.0090173744 -0.020843796 -0.0023894124 4287314744
-0.0072232746 -0.019958727 -0.0035156831 4287511093
-0.0054343976 -0.019073986 -0.0046406304 4287642164
-0.0038323589 -0.017449558 -0.0064405007 4287773234
-0.0022408962 -0.015825711 -0.0082378974 4287773489
-0.00047307089 -0.014942147 -0.0093577793 4287904813
-0.019877791 -0.028548233 0.0038919989 4286332739
-0.017889582 -0.028403036 0.0034385584 4286332484
-0.016064055 -0.027514167 0.0023063235 4286529088
-0.014574643 -0.025138848 -0.00018117577 4286594623
-0.013101052 -0.022764616 -0.0026649386 4286791483
-0.011301775 -0.021877252 -0.003790956 4286857273
-0.009507712 -0.0209902 -0.0049156472 4287642673
-0.0077188797 -0.020103402 -0.006039056 4287707953
-0.0059352815 -0.019216858 -0.0071611768 4287773234
-0.0039755031 -0.019072741 -0.0076073995 4287772215
-0.002199728 -0.018186525 -0.0087275421 4287707443
-0.0099972412 -0.021127529 -0.007435292 4287381809
-0.0080377832 -0.020983703 -0.0078816302 4287446578
-0.0058996864 -0.021584295 -0.0076542534 4287512113
-0.0039374121 -0.021440007 -0.0081010573 4287576373
-0.0023428015 -0.019807234 -0.0098926267 4287969583
0.015637835 0.0063722134 0.023670232 4282284103
0.016397424 0.010685951 0.018997012 4281438269
0.01838189 0.010833062 0.018546047 4280523839
0.022487726 0.004041642 0.025113964 4280588354
0.011678405 0.010835536 0.016607201 4282280533
0.011615237 0.017948501 0.0091368537 4281243193
0.012945104 0.020182364 0.0065891966 4281243958
0.014468281 0.021718826 0.0047461577 4281568318
0.018100187 0.016293906 0.0099084955 4280590648
0.021989333 0.010176353 0.015760953 4279287853
0.025926419 0.0040624365 0.021602595 4281176894
0.028811797 0.0014296174 0.023941053 4281046334
0.031941056 -0.0018967912 0.026972605 4281372223
0.033069625 0.001034677 0.023722796 4281634108
0.033721026 0.005354397 0.01908459 4281894719
0.035954498 0.0048090518 0.019326122 4281372478
0.0409922 -0.0040697008 0.027912015 4280329274
0.0093207695 0.016885199 0.0077159628 4281633089
0.010045147 0.021222569 0.00307028 4280722483
0.011356842 0.023461625 0.00053168461 4281046844
0.01307071 0.024302691 -0.00060464442 4281567554
0.01583798 0.021652002 0.0017538704 4281241153
0.019269785 0.016908728 0.0062019303 4280394044
0.022521799 0.012866236 0.0099440701 4280915773
0.025366308 0.010221586 0.012285268 4280915773
0.027120139 0.011066101 0.011140298 4281177148
0.027968384 0.014699534 0.0072139036 4281308218
0.028562233 0.019028183 0.0025985204 4279940143
0.030967182 0.017779328 0.0035462957 4280392768
0.035247102 0.010957792 0.010042651 4280197439
0.040994503 -3.8661063e-05 0.020686569 4278958393
0.0077710561 0.02017859 0.0016580783 4280913989
0.0088849477 0.023125671 -0.001575971 4280458558
0.010390006 0.024669472 -0.0034084283 4279025968
0.012302183 0.024811219 -0.0038429722 4279677749
0.015060551 0.02215109 -0.0014889631 4279481909
0.018268645 0.018092059 0.0022532754 4280589884
0.021291826 0.014735602 0.0052924417 4281176128
0.023463491 0.014180847 0.0055444278 4281241663
0.024973888 0.01572568 0.0037112292 4281176893
0.025799027 0.019368373 -0.00020175427 4279547954
0.026597504 0.023009166 -0.0041086096 4281306689
0.028980609 0.021754339 -0.0031591766 4281502018
0.032072876 0.018403657 -0.00013522059 4281241664
0.036840316 0.01016406 0.0077245124 4281175874
0.043100648 -0.0022617057 0.019716272 4281307199
0.051142633 -0.019568384 0.036519632 4281307199
0.0072853081 0.012806624 0.0065350588 4282542928
0.0070269033 0.020689271 -0.0015856065 4280718404
0.0085401796 0.022237964 -0.0034167506 4281045058
0.010042826 0.023786016 -0.0052454406 4281241153
0.01236959 0.022521727 -0.0042870604 4281175873
0.014707003 0.021258369 -0.0033310689 4280980289
0.017911134 0.017185844 0.00040232763 4281111360
0.02028051 0.015925087 0.0013512261 4281111360
0.022441201 0.015367322 0.0016040765 4281111360
0.023497205 0.018319637 -0.0016097315 4281241919
0.024981219 0.01986701 -0.0034335926 4279547954
0.025999893 0.022816747 -0.0066387719 4279677748
0.028147165 0.022258408 -0.0063825622 4280003383
0.030997677 0.019597206 -0.0040553734 4280133179
0.035751954 0.011330299 0.003787769 4280003383
0.042473879 -0.0025374666 0.017132359 4280525624
0.050986722 -0.021300852 0.035275057 4280525624
0.00635048 0.01401303 0.0025848374 4282088519
0.0062839612 0.02121345 -0.0048195133 4280654144
0.0077895038 0.022765994 -0.0066456823 4279481398
0.0099019054 0.022201918 -0.0063838921 4279417139
0.012436625 0.020228088 -0.0047341269 4281175873
0.015198492 0.017550662 -0.0023939721 4281110849
0.017767852 0.015579626 -0.00075191259 4281110848
0.019920234 0.015018947 -0.00049888156 4281176383
0.021639658 0.01586739 -0.0016312189 4281176129
0.022688339 0.018827945 -0.0048368312 4281176639
0.024164613 0.020379186 -0.0066557024 4281045824
0.025403097 0.0226334 -0.0091623431 4280850238
0.027544722 0.022072464 -0.0089064725 4280590138
0.030621435 0.0186987 -0.005895298 4280850494
0.035370544 0.010405093 0.0019294489 4280784703
0.042799041 -0.0056158826 0.017306628 4280784703
0.051071253 -0.023735754 0.034717984 4280980289
0.0056148954 0.014529303 -0.00065710396 4282155838
0.0059428252 0.020335406 -0.0066542067 4280003384
0.0072430111 0.022599816 -0.0091706878 4279873079
0.0093497559 0.022033125 -0.008909246 4278829873
0.012086721 0.019344956 -0.0065700486 4279612979
0.014634058 0.01736559 -0.0049279612 4281176385
0.017197357 0.015387557 -0.0032894686 4281046079
0.019560369 0.014117509 -0.0023456067 4280980798
0.021277186 0.014968015 -0.0034757536 4280980799
0.022102259 0.018643513 -0.0073643066 4281241663
0.023349226 0.02090485 -0.0098680463 4281242174
0.025034025 0.021753296 -0.010990681 4281437504
0.027631849 0.01977846 -0.0093594864 4281241918
0.030710107 0.016393848 -0.0063568093 4281176383
0.036399033 0.0052525625 0.0041959733 4280916028
0.044073716 -0.011523336 0.02021998 4281046845
0.052356601 -0.029699445 0.037586503 4281046845
0.0045165978 0.0092329681 0.0021030307 4283789113
0.0038933046 0.018610738 -0.0073582511 4281177914
0.005001802 0.021592364 -0.010565003 4281176638
0.0062917881 0.023862645 -0.013074318 4281436993
0.0087984316 0.021873467 -0.011428032 4281176383
0.011529138 0.019176103 -0.0090939905 4280981564
0.014281172 0.016480386 -0.0067646634 4280720444
0.01620084 0.016622908 -0.007200744 4281241918
0.018552676 0.01534763 -0.006257616 4281046589
0.020040166 0.016908281 -0.0080726612 4280981563
0.021074185 0.019885294 -0.011261886 4280851259
0.02253503 0.021444134 -0.013070676 4279679789
0.024892109 0.020169735 -0.012128452 4279029284
0.027948003 0.016772345 -0.0091288947 4279745323
0.031494565 0.011961617 -0.0047634803 4281373499
0.037190836 0.00078579038 0.0057615396 4281373755
0.045346022 -0.017457008 0.023114515 4281373755
0.0024278946 0.014748327 -0.0059836172 4282679099
0.0029638894 0.019877635 -0.011264935 4280266033
0.0044621862 0.021442674 -0.013079764 4280916793
0.0059498884 0.023007005 -0.014892047 4281372223
0.0080426633 0.022434901 -0.01463069 4280981308
0.010972373 0.019016322 -0.011611337 4280330038
0.013507608 0.017022915 -0.0099762809 4281046589
0.015632374 0.01645349 -0.009721959 4281111614
0.017546585 0.016595706 -0.010156725 4281112124
0.019023685 0.018159971 -0.011966143 4280721209
0.020490134 0.019723512 -0.013773018 4280590139
0.021945918 0.021286346 -0.015577404 4281503294
0.024523675 0.019296795 -0.013951562 4281047353
0.027804974 0.015178025 -0.010274354 4279549994
0.031813733 0.0089319423 -0.0045513446 4280592434
0.038215578 -0.0044080988 0.0079983622 4281243193
0.046615951 -0.023416847 0.025990246 4281373753
0.0011206977 0.017448418 -0.011273421 4281635384
0.0018389933 0.021877296 -0.015849404 4281047354
0.0035239682 0.022731192 -0.016967954 4280461619
0.0052036494 0.023584805 -0.018085223 4280199989
0.0076981969 0.02158156 -0.016445987 4280265779
0.010416428 0.018865682 -0.014122112 4280591158
0.013155961 0.016151533 -0.011803044 4281112124
0.014851689 0.017006792 -0.012923619 4281176894
0.016542088 0.017861761 -0.014042906 4281111614
0.017790457 0.020142775 -0.016532481 4279743793
0.019464867 0.02099679 -0.017647963 4280850493
0.021357603 0.021137744 -0.018077603 4281568064
0.023702988 0.019853681 -0.017139189 4281372734
0.027203966 0.015008755 -0.01278634 4281111104
0.031900473 0.0066058636 -0.0050280308 4280981053
0.039004017 -0.0089117512 0.0095373597 4280851004
0.047172572 -0.027267598 0.02680256 4280851004
0.00098105147 0.015872456 -0.01240618 4281763393
0.0018972494 0.01959759 -0.016283548 4281436228
0.0035849325 0.020453926 -0.017401133 4281567299
0.0052673444 0.021309931 -0.018517388 4281436994
0.0075589865 0.020016596 -0.017570693 4281373244
0.01006878 0.018008061 -0.015939776 4281373243
0.012804743 0.015284836 -0.013626376 4281242174
0.014497872 0.016142093 -0.014744731 4281111104
0.015754683 0.018430211 -0.017231412 4281110849
0.016995534 0.020717196 -0.019714342 4280719678
0.018220386 0.023003176 -0.022193586 4280003383
0.020099677 0.02314315 -0.022620158 4280589884
0.022657361 0.021138906 -0.020999495 4280459834
0.02614617 0.016277738 -0.016655298 4279351349
0.031986821 0.0042757019 -0.0055077123 4280068664
0.039790899 -0.013432793 0.011063956 4280589628
0.047728013 -0.031131282 0.02760558 4280589628
0.052685328 -0.039540589 0.035285391 4281240898
0.0012294315 0.012858152 -0.012162622 4281893954
0.0023484565 0.015875556 -0.015345816 4281109574
0.0042435154 0.016015679 -0.015776729 4281567044
0.0057346486 0.017593421 -0.017580006 4281697349
0.0080337338 0.01629629 -0.01663832 4281762118
0.010136193 0.015718371 -0.01638394 4281828929
0.012453947 0.014422841 -0.015446322 4281633599
0.013931843 0.016000062 -0.017246252 4281436228
0.015183784 0.018294394 -0.019726936 4281175363
0.016419755 0.020587657 -0.022203902 4281306179
0.017639752 0.022879802 -0.024677115 4280980033
0.019736862 0.02230221 -0.024421057 4280849984
0.022291142 0.020291187 -0.022804553 4280915008
0.026232978 0.013980791 -0.017110409 4280915009
0.032535322 0.00050825626 -0.0046311524 4281175618
0.040576205 -0.017971188 0.012578079 4281175618
0.04804568 -0.03429167 0.027720915 4281305923
0.0018646792 0.0083921775 -0.010552256 4281891913
0.003387928 0.0099764392 -0.012359757 4281631814
0.0050996877 0.010838926 -0.013479561 4281435208
0.0068061613 0.011701085 -0.014598034 4281434444
0.0087117925 0.011842236 -0.015031174 4281368398
0.010410335 0.012704037 -0.016147671 4281434698
0.012523111 0.012124851 -0.015897227 4281500998
0.014216352 0.012986496 -0.017012352 4281566279
0.015689177 0.014567837 -0.018807789 4281435973
0.017151341 0.01614853 -0.020600766 4281566534
0.018382426 0.018448122 -0.023071647 4281566533
0.020266771 0.018588483 -0.023499364 4281631813
0.02260258 0.01729057 -0.022568543 4281566534
0.026319422 0.011679672 -0.017568436 4281436228
0.032851569 -0.0025533065 -0.0044419095 4281436484
0.041126214 -0.021808349 0.013402367 4281436484
0.04812618 -0.036742195 0.02715336 4281371204
0.0021111891 0.0053563491 -0.010324101 4281891659
0.0036399923 0.0069454387 -0.012129658 4281565769
0.0055560693 0.0070871189 -0.012565353 4281369419
0.0072705857 0.0079520717 -0.013684024 4281369164
0.0091840588 0.0080937743 -0.014118963 4281434444
0.01089064 0.0089583844 -0.015235647 4281304394
0.012801491 0.0091001317 -0.015669812 4281369929
0.014500098 0.0099644139 -0.016784566 4281435719
0.016193401 0.010828391 -0.017897973 4281370438
0.018098928 0.010970101 -0.018330662 4281305413
0.019564006 0.012555465 -0.020120917 4281174853
0.02146418 0.012697004 -0.020552222 4281305668
0.023364328 0.012838669 -0.020983431 4281240644
0.027090091 0.0072109178 -0.015998382 4281567555
0.03339792 -0.0063444152 -0.0035823379 4281502018
0.041441515 -0.024937592 0.013541536 4281305669
0.048206307 -0.039196834 0.026582917 4281436229
0.0023569353 0.0023120567 -0.010102105 4281694288
0.0038913265 0.0039058998 -0.011905626 4281434444
0.0056138299 0.0047735497 -0.013024622 4281368908
0.0073310621 0.0056408867 -0.014142287 4281434445
0.0092470609 0.0057827905 -0.014577786 4281303629
0.011163071 0.005924806 -0.015013213 4281173068
0.012869721 0.0067917258 -0.016128205 4281173068
0.014571059 0.0076583624 -0.017241899 4281238858
0.016481776 0.0078003332 -0.017675862 4281369673
0.018609846 0.0072182566 -0.017431881 4281304903
0.020303182 0.0080846623 -0.018543493 4281304903
0.021991165 0.0089508072 -0.019653859 4281305414
0.023899157 0.0090930685 -0.020086838 4281304649
0.027403176 0.0041716471 -0.015791669 4281435973
0.033481754 -0.0087020248 -0.0040817279 4281435973
0.041289382 -0.026629359 0.012326164 4281566534
0.04757807 -0.039487079 0.023988632 4281500998
0.0026019365 -0.00074074417 -0.0098862294 4281629519
0.0039460175 0.0015858263 -0.012368875 4281303118
0.0058697835 0.0017280653 -0.012806321 4281434444
0.0075923912 0.0025979877 -0.013923576 4281368908
0.0095135607 0.0027402639 -0.014360262 4281434445
0.011434756 0.0028826743 -0.014796855 4281173068
0.013146769 0.0037522167 -0.015911482 4281238604
0.014429796 0.0060750023 -0.018379699 4281238858
0.016340367 0.0062169805 -0.018813621 4281304393
0.018468101 0.0056326836 -0.0185712 4281305159
0.020381315 0.005775094 -0.019005543 4281239623
0.022072028 0.0066436082 -0.020114837 4281174853
0.024207685 0.0060602501 -0.019873958 4281174089
0.027943304 0.00039820373 -0.0149172 4281108809
0.034256622 -0.013239942 -0.0025643054 4281108553
0.041370392 -0.029046014 0.011783654 4281108553
0.047186442 -0.040493242 0.022072973 4281369419
0.0022671334 -0.0016109794 -0.011716822 4281957705
0.0038046725 -8.1583858e-06 -0.01351456 4281368143
0.005529955 0.00086402148 -0.01463089 4281369164
0.0074509531 0.0010061637 -0.015067626 4281434444
0.0095756389 0.00041886419 -0.014826579 4281499979
0.011705667 -0.00016792864 -0.014586659 4281173068
0.01342307 0.00070416182 -0.015700839 4281500234
0.014923498 0.0023050085 -0.017489638 4281435209
0.016413296 0.0039051473 -0.019275887 4281305159
0.018543348 0.0033188388 -0.019035617 4281370183
0.020678705 0.0027330369 -0.018796464 4281239879
0.022597078 0.0028759614 -0.01923188 4281174598
0.024515428 0.0030189902 -0.019667214 4281108554
0.028254643 -0.0026603118 -0.014724301 4281108043
0.034569375 -0.016339958 -0.0024026744 4281043019
0.041451037 -0.031466775 0.011238264 4281043019
0.046795227 -0.041494645 0.020160755 4281173069
0.0025112294 -0.0046742409 -0.011508396 4284311608
0.0040543266 -0.0030666068 -0.013304185 4284115769
0.0057849772 -0.0021918267 -0.014420109 4283331389
0.0075103454 -0.0013173148 -0.015534731 4282677313
0.0096373521 -0.0019066483 -0.01529585 4282089284
0.011769699 -0.0024954528 -0.015058083 4281957959
0.013489805 -0.0016209781 -0.016171252 4281893190
0.015416052 -0.0014779493 -0.016608818 4281631813
0.016914081 0.00012715906 -0.018393682 4281435718
0.018835001 0.00027003139 -0.018829858 4281501508
0.020755906 0.00041302294 -0.01926594 4281435974
0.022676799 0.00055613369 -0.01970193 4281435973
0.024597663 0.0006993562 -0.020137826 4281435208
0.028337799 -0.0049973428 -0.015208194 4281303883
0.034881368 -0.019448526 -0.0022471175 4281304393
0.041531295 -0.033891603 0.010689892 4281304394
0.046639819 -0.043220706 0.018920792 4281239114
0.0060392581 -0.0052561685 -0.014215434 4284705584
0.0075693801 -0.0036448985 -0.016004784 4284311353
0.0094954334 -0.0035022646 -0.016442591 4283721539
0.011215575 -0.0026257187 -0.017554229 4283394628
0.013347588 -0.0032166243 -0.017317927 4282807108
0.015273686 -0.0030736029 -0.017755454 4282676804
0.016985875 -0.0021972954 -0.018865017 4281958979
0.018909305 -0.0020542219 -0.019301752 4281958724
0.020394247 -0.00044541061 -0.021080254 4281827399
0.022756131 -0.001767762 -0.020174975 4281827144
0.024679508 -0.0016243234 -0.020611426 4281631559
0.028420577 -0.0073384643 -0.01569503 4281631814
0.034732826 -0.021101527 -0.0034346655 4281500489
0.041378632 -0.035588704 0.0094707087 4281435208
0.020909175 -0.0042392164 -0.020213818 4284576044
0.023056787 -0.0048305318 -0.019982228 4284117553
0.024985338 -0.0046867207 -0.02041986 4283594548
0.028275961 -0.0089492798 -0.016852306 4282810934
0.034124937 -0.021285765 -0.0059558377 4282351678
0.033747349 -0.022197314 -0.0078050867 4284704819
0.0026185326 -0.018011622 -0.015069596 4284638774
-0.010800995 -0.022124134 -0.011783257 4282607698
-0.0090253241 -0.021231785 -0.012898806 4282673234
-0.0067203976 -0.022586547 -0.01200163 4282542928
-0.0047664009 -0.022442885 -0.01244656 4282478414
-0.0029958189 -0.021550514 -0.013560664 4282478924
-0.0014166348 -0.01991003 -0.015342146 4282807364
0.00034076348 -0.019018315 -0.016453099 4283330369
0.0022843741 -0.018874913 -0.016895287 4283722304
0.0040339045 -0.017983571 -0.01800422 4283983679
0.0059749372 -0.017840095 -0.018445622 4284048959
0.0081154443 -0.018443897 -0.018221308 4284638773
-0.011115611 -0.02298788 -0.013614714 4282672978
-0.0093425624 -0.022093534 -0.014728054 4282412114
-0.0072188079 -0.02270177 -0.014502317 4282281553
-0.0056315549 -0.021056525 -0.016282611 4282152014
-0.0038715675 -0.020162746 -0.017392676 4282282319
-0.0015589856 -0.021521032 -0.016500205 4282282828
0.00019845739 -0.020627119 -0.017609537 4282348619
0.0023331828 -0.021233976 -0.017385788 4282544714
0.0040854029 -0.020340197 -0.018493749 4282741318
0.006028939 -0.020196542 -0.018935718 4283133253
0.0081717633 -0.020802394 -0.018713515 4283394883
0.010118024 -0.020658255 -0.019155905 4283788859
0.012677975 -0.022761635 -0.017609689 4284509233
-0.011084877 -0.025354408 -0.014105756 4282672979
-0.0093091317 -0.024457693 -0.015218079 4282477393
-0.0073608421 -0.024314582 -0.01566181 4282346833
-0.0057733618 -0.022664942 -0.0174389 4282020688
-0.0040133372 -0.021769002 -0.018547371 4282151504
-0.0017012991 -0.023131691 -0.017658018 4282216784
5.6188554e-05 -0.02223561 -0.018765744 4282216784
0.0019994788 -0.022092231 -0.019207861 4282282319
0.0037490912 -0.021196529 -0.020313576 4282413388
0.0058862008 -0.02180507 -0.020091824 4282674763
0.0080286674 -0.022413127 -0.019871164 4282740044
0.010378178 -0.023772217 -0.018989798 4282805578
0.013351437 -0.027384646 -0.016126923 4282805834
0.016558334 -0.031746231 -0.01260931 4282611268
0.019168083 -0.033852167 -0.01107907 4283852354
-0.014627047 -0.029524073 -0.012373205 4282804049
-0.010882221 -0.028481059 -0.013932765 4282542163
-0.0092760585 -0.026825942 -0.015711058 4282673234
-0.0075028501 -0.025927104 -0.016821094 4282347089
-0.0057348795 -0.025028504 -0.01792983 4282020433
-0.003972169 -0.024130113 -0.019037321 4282281809
-0.0018435754 -0.024742059 -0.018815629 4282150994
-8.6057931e-05 -0.02384378 -0.019921731 4282151248
0.0020479597 -0.02445507 -0.019701082 4282085968
0.0038002618 -0.023556925 -0.02080581 4282347344
0.0055472925 -0.022659101 -0.021909218 4282543184
0.0074878894 -0.022515535 -0.022350434 4282608973
0.010033056 -0.024633281 -0.020810649 4282478413
0.013410848 -0.029764123 -0.016635686 4282413134
0.016825896 -0.034892105 -0.012469028 4282089028
0.019230723 -0.036251076 -0.011603192 4282806854
0.020797625 -0.034597076 -0.013371148 4283590724
-0.0078222118 -0.026781544 -0.018644299 4282673233
-0.0058768205 -0.026638538 -0.019087285 4282280789
-0.0039313547 -0.02649539 -0.019530188 4282215764
-0.0018004552 -0.027109273 -0.019310668 4282150738
0.00014778972 -0.02696567 -0.019754011 4282216274
0.0019054003 -0.026065163 -0.020858403 4282281554
0.003464397 -0.024408251 -0.022622041 4282411858
0.0054048002 -0.02426482 -0.023063302 4282738513
0.0073452406 -0.024121262 -0.023504481 4282738513
0.0098896623 -0.026245616 -0.021969408 4282281554
0.013265926 -0.031391852 -0.017805465 4282216019
0.016472811 -0.035779662 -0.014307347 4282085713
-0.0056590065 -0.029767796 -0.0189206 4282541653
-0.0040734075 -0.028105132 -0.020687394 4282541909
-0.0017577 -0.029480621 -0.01980868 4282477394
5.2191317e-06 -0.028577648 -0.020912729 4282542673
0.0019533522 -0.028433934 -0.021355964 4282542929
0.003322091 -0.026013643 -0.023775943 4282542164
0.0072026215 -0.025726683 -0.024658315 4282738259
0.015913701 -0.035904668 -0.016798247 4282608208
0.015355416 -0.036020599 -0.019282546 4280712538
-0.027186479 0.009379372 0.041833527 4285557538
-0.025179807 0.0095259696 0.041375913 4285688864
-0.022109944 0.0048614442 0.045984752 4285622563
-0.03063174 0.013776131 0.034575872 4285493024
-0.029088352 0.0159906 0.031953491 4285886234
-0.02696472 0.015445106 0.032225937 4285820188
-0.024380606 0.012831494 0.034663744 4285885979
-0.021312032 0.0081515685 0.039261431 4285820189
-0.018206023 0.0034744442 0.043850698 4285099048
-0.033039365 0.013369098 0.032397211 4285427489
-0.031636517 0.016282566 0.029056566 4285690139
-0.030108619 0.018502399 0.026442623 4285623584
-0.02800126 0.017953485 0.026717117 4285557794
-0.025585469 0.016021602 0.028431585 4285689374
-0.022845257 0.012707815 0.031582475 4285755418
-0.020548657 0.011470214 0.03256914 4285624604
-0.018081792 0.0095422864 0.034272216 4285493533
-0.016247287 0.01037953 0.033098973 4285559324
-0.014417931 0.011216462 0.031927034 4285558303
-0.012928676 0.013434216 0.029322455 4285951769
-0.010264516 0.010818347 0.031735912 4285951259
-0.0068878345 0.0054433867 0.037007563 4285951258
-0.002415847 -0.0040682405 0.046560325 4285819934
-0.034026448 0.015894659 0.026887195 4285493023
-0.032352317 0.017426699 0.024998175 4285821464
-0.030980561 0.020346727 0.021671185 4285886743
-0.028886806 0.019794535 0.021947159 4285886743
-0.026485007 0.017855003 0.023659898 4285952789
-0.023605246 0.013835393 0.027524246 4285755419
-0.021633003 0.013979644 0.0270746 4285624349
-0.019342076 0.012737289 0.028059339 4285624349
-0.017849963 0.014961667 0.025458807 4285690138
-0.016044501 0.015799016 0.024293931 4285689629
-0.014411494 0.017328851 0.022414939 4285688863
-0.011939432 0.015395112 0.024112148 4285688609
-0.0091061182 0.012077801 0.02723412 4285885979
-0.0055451281 0.005993858 0.033204176 4285623583
-0.0006907694 -0.0049305335 0.044153951 4285427233
-0.036266703 0.014819726 0.02544242 4285427233
-0.03487071 0.017750099 0.022116287 4285624349
-0.032923404 0.017892025 0.021671953 4285624093
-0.031267431 0.019427177 0.019790372 4285755164
-0.029176664 0.018872578 0.020065321 4285689884
-0.027080376 0.018318452 0.020339137 4285624094
-0.024209891 0.014284998 0.024195736 4285689884
-0.022089336 0.013732851 0.024464102 4285624349
-0.019963291 0.01318121 0.024731288 4285558558
-0.018640436 0.016106941 0.021422425 4285755674
-0.017174333 0.018336073 0.018832775 4285886998
-0.015389975 0.019174136 0.017674385 4285754909
-0.013101645 0.017927542 0.018656703 4285689373
-0.010285404 0.014598019 0.021774335 4285821208
-0.0070923381 0.009881705 0.026309876 4285886999
-0.0017294176 -0.0031622499 0.039373107 4285624603
-0.036958728 0.015990399 0.021397045 4285493278
-0.035292219 0.017530493 0.019516168 4285690139
-0.033350345 0.01767198 0.019073045 4285755164
-0.031117145 0.016416036 0.020064054 4285689373
-0.029169586 0.016558133 0.01961978 4285558559
-0.026920069 0.015303619 0.020607168 4285624094
-0.024506185 0.013351761 0.022307405 4285624349
-0.022701029 0.014193118 0.021145584 4285624349
-0.020742163 0.01433643 0.020699019 4285624349
-0.01926776 0.016572624 0.018112285 4285624094
-0.017644998 0.018110387 0.016242022 4285821464
-0.015865874 0.018950235 0.015086433 4285886998
-0.013583381 0.017698757 0.01606684 4285886999
-0.010773562 0.014357753 0.019177748 4285887253
-0.0074124597 0.0089289322 0.02441374 4285624094
-0.0017010085 -0.0055500865 0.038866892 4285492768
-0.037649129 0.01717899 0.01736456 4285820953
-0.035712887 0.01731994 0.016922629 4285886488
-0.033633735 0.01675985 0.017196769 4285952534
-0.031112943 0.014097326 0.019616084 4286018324
-0.0290148 0.013538815 0.019886034 4285755674
-0.026911166 0.012980767 0.020154795 4285624349
-0.024955396 0.013123631 0.019708773 4285624348
-0.023155484 0.013966776 0.018549765 4285624348
-0.021519426 0.015509628 0.016679609 4285558558
-0.020055216 0.017751656 0.014100088 4285623838
-0.018114801 0.017893784 0.013657851 4285623839
-0.016007621 0.0173366 0.01392624 4285623838
-0.013725627 0.016080663 0.014903476 4285623838
-0.011260889 0.014126644 0.016587665 4285624349
-0.0073828287 0.0065832213 0.023938509 4285559069
-0.00096367672 -0.0107366 0.041190356 4285427998
-0.039725054 0.015429698 0.016649658 4285558814
-0.03806353 0.016978063 0.014776321 4285755418
-0.036272589 0.017822139 0.013620546 4285689374
-0.033916663 0.015852436 0.015323872 4285689374
-0.031399425 0.013180822 0.017737428 4285886743
-0.029156405 0.011916883 0.018719638 4285820954
-0.027053077 0.011356615 0.018986823 4285624348
-0.024944264 0.010796778 0.019252868 4285624348
-0.023453292 0.013047121 0.016671965 4285624348
-0.021978106 0.015296407 0.014094735 4285690139
-0.020518761 0.01754459 0.011521241 4285886999
-0.018256176 0.016282663 0.012499427 4285821464
-0.01581635 0.014319964 0.014184268 4285755673
-0.013529554 0.013060011 0.015157087 4285624349
-0.011060201 0.011099689 0.016835356 4285559068
-0.0070046335 0.0028313249 0.024874652 4285559069
0.00030313805 -0.018047437 0.045617901 4285559069
-0.040402267 0.016646199 0.01263419 4285690139
-0.038340073 0.016080223 0.012908744 4285755163
-0.036691386 0.017632037 0.011041688 4285623583
-0.034483809 0.016360901 0.012028554 4285623584
-0.032265406 0.015090585 0.013013056 4285755164
-0.029888567 0.013116024 0.014706785 4285821208
-0.027796198 0.012552708 0.014974801 4285624348
-0.02569833 0.011989869 0.015241692 4285624348
-0.023906272 0.012836814 0.014087649 4285690139
-0.022277664 0.014387846 0.012225682 4285755419
-0.020981472 0.01734668 0.0089489035 4285755418
-0.018724721 0.016079873 0.0099251755 4285821209
-0.016290937 0.01411017 0.011606438 4285886743
-0.013672091 0.011438072 0.013990944 4285623838
-0.010860231 0.0080642179 0.017076844 4285558558
-0.0061047412 -0.0030433387 0.027918315 4285427488
-0.042597611 0.01561588 0.011209913 4285164074
-0.040943716 0.017172292 0.0093447324 4285624348
-0.038889807 0.016603433 0.0096195564 4285756184
-0.037388299 0.018867049 0.0070455596 4285887254
-0.035191882 0.017590672 0.0080316793 4285887253
-0.032839824 0.015607551 0.0097261146 4285821718
-0.03032418 0.012918293 0.012126999 4285624348
-0.028537687 0.013766758 0.010975741 4285624349
-0.026450794 0.013200931 0.011243431 4285624349
-0.024513852 0.01334241 0.010801701 4285690138
-0.022734869 0.014190629 0.0096523762 4285689629
-0.021282583 0.016451456 0.0070902035 4285557794
-0.019355863 0.016592503 0.006651029 4285557793
-0.016764667 0.013909467 0.0090352092 4285689373
-0.013983317 0.010522269 0.012119794 4285689883
-0.010660995 0.005020164 0.017312223 4285558303
-0.0057293586 -0.006827794 0.028831033 4285361443
-1.6763806e-07 -0.021490075 0.04314293 4285295653
-0.042998809 0.015440941 0.0086372886 4285230118
-0.041349974 0.017001286 0.0067765303 4285493279
-0.039438318 0.017140202 0.0063400306 4285558814
-0.037805054 0.01869965 0.0044829343 4285558304
-0.035472494 0.016708389 0.0061768163 4285558558
-0.033413026 0.016138032 0.0064488892 4285558558
-0.031053517 0.014148928 0.0081367679 4285558558
-0.029277582 0.014998794 0.0069895331 4285559069
-0.027201641 0.014429934 0.007258065 4285558813
-0.02527548 0.014570601 0.0068187714 4285690139
-0.023507077 0.015420206 0.0056734644 4285887253
-0.02206498 0.017686851 0.0031184945 4285755163
-0.019985795 0.017118648 0.0033865981 4285689629
-0.017569371 0.015134409 0.005062025 4285821463
-0.014294099 0.0096111745 0.010252029 4285820953
-0.010462489 0.0019676015 0.017541418 4285492768
-0.0053550825 -0.010625236 0.029734487 4285492259
-0.0015640371 -0.017551146 0.036291257 4285425449
-0.042743575 0.011710152 0.0096239317 4285360424
-0.041220281 0.013988279 0.0070545692 4285493024
-0.039576296 0.015552707 0.0051982217 4285492514
-0.037803669 0.016404085 0.0040530488 4285426979
-0.035469163 0.01440639 0.0057415254 4285426978
-0.033407327 0.013833947 0.0060114488 4285558814
-0.031487089 0.013973854 0.0055732634 4285558813
-0.029866148 0.015537158 0.0037225038 4285559069
-0.027950894 0.015676893 0.0032856017 4285559069
-0.026035499 0.015816748 0.0028487388 4285559069
-0.024435375 0.0173788 0.0010030083 4285624603
-0.022524994 0.017518483 0.00056744553 4285821463
-0.020451467 0.016947642 0.00083517842 4285755928
-0.018041074 0.014956363 0.0025070757 4285690138
-0.01460446 0.0087048188 0.0083875861 4285558813
-0.010435734 -0.00038342923 0.017063031 4285558814
-0.0056766458 -0.011596128 0.027825287 4285426214
-0.042358499 0.0072512254 0.011310184 4285294633
-0.040957693 0.010251686 0.0080348253 4285492514
-0.039032992 0.010391489 0.0075952988 4285492513
-0.037108097 0.010531396 0.0071557947 4285558049
-0.03504144 0.009957023 0.0074228458 4285492258
-0.033257727 0.010811582 0.0062769074 4285624094
-0.031626064 0.012379862 0.0044269059 4285624603
-0.029855315 0.013233729 0.0032840297 4285558814
-0.02793755 0.013373621 0.002846526 4285558814
-0.026329335 0.014940493 0.0010021012 4285493278
-0.02441657 0.015080236 0.00056590326 4285493278
-0.022503655 0.015220098 0.00012975186 4285493279
-0.020264938 0.013934359 0.0010969676 4285493279
-0.01784993 0.011936814 0.0027628951 4285558814
-0.01440987 0.0056657121 0.0086279605 4285493279
-0.010067649 -0.0041631386 0.017981419 4285493023
-0.0059977733 -0.01256229 0.025919477 4285622818
-0.042105634 0.0034923702 0.012276543 4285294633
-0.040429424 0.0050677508 0.010419244 4285360934
-0.038627584 0.005925484 0.0092705432 4285492514
-0.036692169 0.0060661212 0.0088286176 4285492259
-0.034897935 0.0069235042 0.0076818038 4285426213
-0.033108871 0.0077806488 0.0065361951 4285492259
-0.031471614 0.0093536973 0.0046881605 4285492258
-0.029695485 0.010210067 0.003545709 4285426468
-0.027924504 0.011066161 0.0024045054 4285360934
-0.026004042 0.011206336 0.0019664541 4285360679
-0.024083432 0.011346623 0.0015284438 4285163818
-0.022002686 0.010771774 0.0017911624 4285163563
-0.01991649 0.010197431 0.002052715 4285163564
-0.017494213 0.0081937984 0.0037120674 4285164073
-0.014216013 0.0026181117 0.0088621471 4285229863
-0.0098713189 -0.0072413012 0.018192181 4285229098
-0.041984368 0.00044011325 0.012527848 4285360168
-0.040036183 0.00058145821 0.012082836 4285361188
-0.038087796 0.00072290003 0.011637842 4285492513
-0.036416259 0.0023025498 0.0097849611 4285492514
-0.034755167 0.0038814917 0.007934574 4285492514
-0.03310452 0.005459778 0.0060866494 4285492258
-0.031171363 0.0056005418 0.0056454521 4285426469
-0.029088881 0.0050231814 0.0059058126 4285492259
-0.027304549 0.0058824047 0.0047631674 4285360678
-0.025525395 0.006741412 0.003621744 4285229354
-0.023751397 0.0076000988 0.0024816245 4285097518
-0.021662999 0.0070235953 0.0027409457 4285097519
-0.01956914 0.0064475536 0.0029991437 4285031984
-0.041994173 -0.0018988475 0.012068769 4285360424
-0.039910425 -0.0024789572 0.012326734 4285361189
-0.037956852 -0.0023371652 0.011880534 4285492514
-0.036141414 -0.0014740303 0.010732008 4285492258
-0.034613084 0.00083094835 0.0081811957 4285492514
-0.032669585 0.00097231567 0.0077375285 4285492259
-0.030872229 0.0018344522 0.0065933671 4285426469
-0.028782081 0.0012554377 0.0068503339 4285426469
-0.026989717 0.0021174103 0.0057074651 4285360678
-0.025202509 0.0029791296 0.0045658629 4285295144
-0.023263533 0.0031207129 0.0041236281 4285295144
-0.041613791 -0.0064139739 0.01371455 4285097773
-0.039652552 -0.0062717423 0.013266513 4285294889
-0.037826616 -0.0054057911 0.01211712 4285295144
-0.036005799 -0.0045401081 0.010968978 4285361189
-0.034471694 -0.0022281632 0.0084217172 4285427233
-0.03252301 -0.0020864382 0.0079768505 4285427234
-0.030720267 -0.0012217537 0.0068330672 4285360679
-0.028476376 -0.0025252849 0.0077855792 4285360679
-0.026675958 -0.0016605482 0.0066424999 4285295143
-0.024880718 -0.00079607219 0.0055006742 4285295398
-0.023404147 0.0015123114 0.0029670168 4285360934
-0.021465171 0.0016539767 0.0025248509 4285229863
-0.03702065 -0.012112074 0.01584653 4285163308
-0.035181168 -0.011242874 0.014695736 4285229863
-0.03390922 -0.0074721351 0.010751827 4285295653
-0.032233898 -0.0058789775 0.0089079943 4285361444
-0.030569036 -0.0042864457 0.0070665795 4285295398
-0.028617505 -0.004144311 0.0066212062 4285295144
-0.026817035 -0.0032774061 0.0054797232 4285295144
-0.025021721 -0.002410762 0.0043394957 4285295143
-0.023388166 -0.00082007051 0.0025055464 4285361189
-0.021287445 -0.0014023259 0.002757119 4285295654
-0.019505028 -0.00053627044 0.0016200878 4285295143
-0.016905114 -0.0032890365 0.0039499439 4285163053
-0.028313387 -0.0079442784 0.0075426009 4285163308
-0.026504893 -0.0070746243 0.0064008869 4285163308
-0.025008973 -0.0047518238 0.0038724858 4285163309
-0.02352887 -0.0024300814 0.001347756 4285229353
-0.02158751 -0.0022882745 0.00090502203 4285229354
-0.019322623 -0.0035985783 0.0018466562 4285360424
-0.017046995 -0.0049079359 0.0027858764 4285359913
-0.014760606 -0.0062164515 0.0037227627 4285425194
-0.019302458 -0.0059410557 0.0013764985 4285228588
-0.017188847 -0.0065265521 0.0016220119 4285294123
0.0026123077 -0.0093522444 -0.012460681 4285031984
0.0043563135 -0.0084722266 -0.013576483 4285032238
0.0064905472 -0.0090656504 -0.013342688 4285164074
0.0080288909 -0.0074494034 -0.015130663 4285163564
0.017271014 -0.0052612349 -0.018668761 4284901933
0.0024700724 -0.010958195 -0.013615021 4285097519
0.0042141192 -0.010076016 -0.014729219 4285032238
0.0061504506 -0.0099328682 -0.015169537 4285098029
0.0080868155 -0.009789601 -0.01560978 4285098029
0.0098203253 -0.0089078099 -0.016721291 4285097773
0.011342989 -0.0072880313 -0.018502289 4285097773
0.013479635 -0.007882975 -0.018270312 4285163564
0.015199894 -0.0070017949 -0.019378526 4285229353
0.017341871 -0.007596083 -0.019147558 4285229609
0.01884063 -0.005977653 -0.02092273 4285164074
0.021204088 -0.0073087141 -0.02002445 4285098284
0.023135174 -0.007164821 -0.020462738 4285032239
0.025290407 -0.0077576712 -0.020234367 4284967214
0.028358201 -0.011296459 -0.017343411 4284901678
0.004461363 -0.013161846 -0.014538544 4284966704
0.0064028613 -0.013018325 -0.014980047 4285032494
0.0081443749 -0.012133859 -0.016091825 4285032238
0.010083269 -0.011990294 -0.016532557 4285098028
0.011816848 -0.011106193 -0.017642366 4285163564
0.013753127 -0.010962538 -0.018082296 4285229609
0.015478747 -0.01007878 -0.019190116 4285294889
0.017199039 -0.0091952384 -0.020296669 4285295144
0.01869804 -0.0075723901 -0.022068622 4285295144
0.021279609 -0.0096473023 -0.02050727 4285294889
0.023434505 -0.010242455 -0.02028059 4285163818
0.025594696 -0.010837071 -0.020055009 4285098283
0.028440051 -0.013647646 -0.017837465 4285163563
0.033828739 -0.024581365 -0.0083234571 4285163309
0.0023775473 -0.014912784 -0.015252444 4284900914
0.0043188445 -0.014769405 -0.015693996 4284901168
0.0060630254 -0.013882697 -0.016804855 4285032494
0.008001741 -0.013739258 -0.017245639 4285032238
0.0099404864 -0.013595708 -0.017686337 4285032238
0.011879254 -0.013451986 -0.018126922 4285163819
0.014025841 -0.014050566 -0.017900445 4285163818
0.015756827 -0.013164215 -0.019007852 4285163819
0.017269371 -0.011536121 -0.020779727 4285295144
0.018987045 -0.010650449 -0.021883959 4285294889
0.021136301 -0.011248372 -0.021657674 4285295143
0.02329085 -0.011845723 -0.021432532 4285229354
0.02545069 -0.012442544 -0.021208489 4285163564
0.02897438 -0.017485023 -0.017008923 4285163309
0.034138843 -0.027710371 -0.0081825629 4285031984
0.0078591444 -0.015344329 -0.018399216 4284901423
0.0097977333 -0.015200771 -0.01883987 4285098029
0.011736352 -0.015057079 -0.01928043 4285097773
0.013882589 -0.015657857 -0.019055497 4285097774
0.015613612 -0.014769338 -0.02016129 4285098028
0.017552253 -0.014625259 -0.020601571 4285163564
0.019275304 -0.013737038 -0.021705342 4285229609
0.021429515 -0.014336735 -0.021481853 4285229353
0.023368124 -0.014192276 -0.021921843 4285163819
0.025530275 -0.014791116 -0.021699961 4285163819
0.029055085 -0.019848824 -0.017512038 4285163308
0.012207745 -0.01890292 -0.018440396 4284966704
0.014569018 -0.020252138 -0.017555013 4284966703
0.016730871 -0.020853825 -0.017335158 4285097774
0.018472575 -0.019962162 -0.018441644 4285098028
0.020208962 -0.019070782 -0.019546829 4285098283
0.021940021 -0.018179648 -0.020650696 4285164074
0.023445021 -0.016542949 -0.022414126 4285229354
0.025609482 -0.017143786 -0.022194371 4285164074
0.028909389 -0.021471299 -0.018677685 4285163563
0.017635919 -0.02621562 -0.015189424 4284900913
0.019390959 -0.025320791 -0.016297314 4284966958
0.02613467 -0.020996235 -0.021374453 4284901933
0.029215373 -0.024588697 -0.018527068 4284966703
