# .PCD v0.7 - Point Cloud Data file format
VERSION 0.7
FIELDS x y z rgba
SIZE 4 4 4 4
TYPE F F F U
COUNT 1 1 1 1
WIDTH 965
HEIGHT 1
VIEWPOINT 0 0 0 1 0 0 0
POINTS 965
DATA ascii
-0.023358107 -0.00062101334 0.0082421154 4287904048
-0.021962468 0.0023298487 0.0050043911 4287904303
-0.020439673 0.0045741275 0.00248014 4287840299
0.014064234 -0.01246345 0.015482407 4286137408
0.017054141 -0.015841119 0.018575694 4286267713
0.019294897 -0.01640787 0.018864039 4286464063
0.020754348 -0.014165804 0.016353928 4286202943
-0.026892912 -0.00533887 0.010695759 4286921533
-0.025044113 -0.0045013353 0.0095851533 4287706933
-0.023343455 -0.0029561743 0.0077670999 4287772979
-0.021798968 -0.00070403516 0.0052432865 4287969583
-0.020270433 0.0015472099 0.0027227309 4288362029
-0.018908802 0.0045047998 -0.00050145574 4288165933
-0.017568491 0.0074610934 -0.0037212651 4287708463
0.0082159378 -0.0080573186 0.0087810531 4287249975
0.010782359 -0.01003959 0.010476563 4287511859
0.013741776 -0.01343035 0.013567708 4286791739
0.01653686 -0.016114607 0.015954707 4286464318
0.018965764 -0.017388403 0.016940899 4286529344
0.020422934 -0.015139922 0.014436156 4286464829
-0.027158953 -0.0062643215 0.0087979659 4286921788
-0.025312785 -0.0054247826 0.0076895058 4287772468
-0.023614593 -0.0038754568 0.0058751889 4288100399
-0.021926969 -0.0023267344 0.0040631369 4288100399
-0.020398039 -6.8917871e-05 0.0015473962 4288231469
-0.018885072 0.0021879748 -0.00096505508 4288231469
-0.017388053 0.004443869 -0.0034741648 4287904559
-0.015907008 0.0066988841 -0.0059800129 4287839534
0.005173672 -0.00630375 0.00448763 4287512368
0.0079008937 -0.0090015307 0.0068814419 4287249208
0.010649579 -0.011697821 0.0092710704 4287510328
0.013419706 -0.014392599 0.011656456 4286725948
0.016020322 -0.016378999 0.013340395 4286595388
0.018056111 -0.016244203 0.012931071 4286333248
0.020091893 -0.01610931 0.012521822 4286726969
-0.027424593 -0.0071851015 0.0069035552 4286333248
-0.025581073 -0.0063435212 0.0057972148 4287707443
-0.023600187 -0.0062144399 0.0053973757 4288035119
-0.021909673 -0.0046611652 0.0035880022 4288165679
-0.020377677 -0.0023966059 0.0010765251 4288558123
-0.018861633 -0.00013300031 -0.0014316011 4288165679
-0.017514825 0.0028411821 -0.0046396684 4287904304
-0.015721466 0.0036800727 -0.0057353768 4287773489
-0.014250651 0.0059410706 -0.0082341917 4287642674
-0.012473181 0.0067791268 -0.0093265381 4287643184
0.00035298616 -0.0053666309 0.0013029277 4286858039
0.0026924051 -0.0066557303 0.0023000389 4287314998
0.0052226484 -0.0086537972 0.0039928891 4287118903
0.0077689774 -0.01065065 0.0056825429 4286922299
0.010145988 -0.011936985 0.0066723675 4287576373
0.012721816 -0.013931654 0.008356262 4286464063
0.021396544 -0.015522115 0.0088142343 4289149213
0.023222629 -0.014679201 0.0077133402 4289410589
-0.022037741 -0.0062855035 0.0024066493 4288035628
-0.020357613 -0.0047284588 0.00060269795 4288427563
-0.018688072 -0.0031719431 -0.0011990741 4288623914
-0.017488454 0.00052509457 -0.0051033739 4288362029
-0.015692376 0.0013663247 -0.0061980169 4288230958
-0.014060032 0.002920717 -0.007992059 4287904048
-0.012277171 0.0037613139 -0.0090838615 4287641909
-0.010499582 0.0046016574 -0.01017453 4287576628
-0.0077283196 0.0011647642 -0.0070707165 4287446833
-0.0045918673 -0.0036956146 -0.0025755074 4287316273
-0.0019334294 -0.0064159036 -0.00018127449 4286727223
0.00057196617 -0.008422412 0.0015114993 4286791484
0.0027390514 -0.0090034381 0.0018076301 4286725693
0.0052713081 -0.011007957 0.0034951605 4286660669
0.0072719641 -0.010875933 0.0030925609 4286922554
0.0098283701 -0.012878619 0.0047754087 4287446068
0.012025014 -0.013457261 0.0050659142 4286399039
0.021063786 -0.01647789 0.0069105066 4289278753
0.023491155 -0.017764546 0.0078874044 4289279009
0.02592922 -0.019050412 0.0088622905 4289412119
-0.022165779 -0.007909514 0.0012255274 4287382319
-0.020337842 -0.0070643499 0.00012584776 4288101163
-0.018665414 -0.0055032969 -0.0016732551 4288820009
-0.017309457 -0.0025110096 -0.0048700999 4288362029
-0.015663587 -0.00095151365 -0.0066636372 4288034864
-0.014186636 0.0013229996 -0.0091538932 4287838258
-0.012242772 0.0014503673 -0.0095457397 4287772469
-0.01029883 0.0015778691 -0.0099375043 4288034864
-0.00752322 -0.0018697008 -0.0068427529 4287838768
-0.0043827668 -0.0067451373 -0.0023598 4287773233
-0.0017198063 -0.0094739422 2.7019531e-05 4286922808
0.00079028681 -0.011486709 0.0017139353 4286791484
0.0027853884 -0.011355281 0.0013122857 4286725948
0.005139932 -0.012652047 0.002299875 4286660413
0.0071404539 -0.012520038 0.0018973034 4286529854
0.018513652 -0.016849928 0.004725188 4288756768
0.020929851 -0.018141843 0.0057010278 4289736478
0.023557872 -0.02014567 0.0073650815 4289540383
0.026609547 -0.023573421 0.010405477 4289409824
0.030307429 -0.029136404 0.015508186 4289016613
0.033838954 -0.033984259 0.019913767 4286856763
0.03698422 -0.037405446 0.022935621 4286595133
0.040370725 -0.041536555 0.026639797 4287314489
-0.018943224 -0.0064021945 -0.0035482682 4288100654
-0.017436624 -0.0041194186 -0.0060397759 4288362284
-0.015635107 -0.0032734722 -0.0071322583 4288362028
-0.013838865 -0.0024277791 -0.0082236063 4288034353
-0.012047883 -0.0015822873 -0.0093137901 4288034353
-0.0097717941 -0.002889283 -0.0083141811 4287772468
-0.0073187687 -0.0049127117 -0.0066209324 4287903284
-0.0043431558 -0.0090861395 -0.0028454289 4287445303
-0.0018498525 -0.011106692 -0.0011601206 4286856509
0.0004853867 -0.012409329 -0.00017208233 4286856509
0.0024776701 -0.01227811 -0.00057318062 4286594623
0.0046495274 -0.012863152 -0.00028117001 4286529343
0.021192487 -0.021235712 0.0058702044 4289605154
0.024227096 -0.02467566 0.0089057535 4289212455
0.0274921 -0.028828494 0.012624223 4288492333
0.031201806 -0.034408197 0.017711479 4287707443
0.033909373 -0.036412939 0.019354917 4286595133
0.036844619 -0.039130718 0.021681752 4286464063
0.040229909 -0.043275028 0.025376372 4286790974
-0.01771633 -0.0050072074 -0.0079060122 4287708208
-0.015917454 -0.0041592643 -0.0089963377 4288035373
-0.014123842 -0.0033115521 -0.010085521 4288165679
-0.012335505 -0.0024640784 -0.011173557 4288034353
-0.0098992921 -0.0044952631 -0.0094819665 4287903283
-0.0074469298 -0.0065253004 -0.0077934936 4287837748
-0.0046411492 -0.0099927038 -0.0047211125 4287576118
-0.0023225211 -0.011300929 -0.0037330873 4286921789
0.00018087775 -0.013327286 -0.002054641 4286791229
0.0021703467 -0.013196237 -0.0024551656 4286398528
0.021454446 -0.024338111 0.0060332455 4289408293
0.02469416 -0.028505839 0.0097468384 4288884778
0.027965972 -0.032671295 0.013454091 4287379768
0.031063752 -0.036117747 0.016468972 4286463808
0.033979449 -0.038845673 0.018793125 4286267713
0.036916513 -0.041572087 0.021113053 4286202434
0.040731605 -0.047161922 0.026166409 4285940548
-0.014250681 -0.0049128011 -0.011249941 4287512878
-0.012462307 -0.0040631518 -0.012336353 4287707953
-0.010026753 -0.0061009526 -0.010649541 4287903283
-0.0079066493 -0.0066943094 -0.010350848 4287707189
-0.0049387589 -0.010894567 -0.0065933764 4287118649
-0.0027944483 -0.011486121 -0.0062994007 4286464063
0.021715697 -0.02744896 0.0061900765 4286921788
0.025160173 -0.032348894 0.010578569 4286725694
0.028032256 -0.035088725 0.012904748 4286529343
0.030925712 -0.03782697 0.015226699 4286398785
0.033840548 -0.040563717 0.017544482 4286202434
0.037410691 -0.0454548 0.021908093 4286071364
-0.012749344 -0.0049376786 -0.014190926 4287185204
-0.010480057 -0.0062583163 -0.013199733 4287445558
-0.0082000047 -0.0075780749 -0.01221066 4287642418
-0.0054042898 -0.011068031 -0.0091526099 4286988599
0.022174019 -0.031290047 0.0070252083 4286464319
0.025424702 -0.035483271 0.010717008 4286398784
0.028504385 -0.038952895 0.013719097 4286398785
0.031405024 -0.041699439 0.016033128 4286333249
0.03495241 -0.046607479 0.020389773 4286267713
0.03811495 -0.050071202 0.023375519 4286202434
0.022236153 -0.033696152 0.0064852983 4286202943
0.0254883 -0.037902392 0.010166995 4286464063
0.028772555 -0.042106435 0.013842382 4286333504
0.031883292 -0.045584798 0.01683018 4286267713
0.025551572 -0.040325634 0.0096140765 4286333503
0.029040022 -0.045268387 0.01395949 4286202689
-0.009977717 0.040926978 0.014284845 4279938103
-0.0073711947 0.038396318 0.016833745 4280589884
-0.014135335 0.039745238 0.01317047 4281175108
-0.013985932 0.047209837 0.004705105 4281176384
-0.012906529 0.050669342 0.00065347925 4281371713
-0.010513868 0.048793528 0.0024720505 4281241665
-0.0062330626 0.039586924 0.012345634 4280719933
-0.018896755 0.041248418 0.0091206953 4282608974
-0.017603952 0.044052783 0.0057992935 4281305668
-0.016651042 0.048194706 0.0010160469 4280588863
-0.015082367 0.049657494 -0.00083039515 4280002874
-0.013853617 0.052457884 -0.0041387249 4280850748
-0.0116423 0.05124345 -0.0030537453 4280981309
-0.0089101829 0.048023552 0.00022197887 4280394043
-0.0045970231 0.03878843 0.010066077 4280526134
-0.00020873174 0.029558331 0.019895107 4281112889
0.0049668718 0.017660409 0.032626413 4281372733
0.010600515 0.0044328421 0.046795946 4281372734
-0.022451792 0.046263568 0.0010266751 4282348363
-0.020867072 0.047731571 -0.00081989355 4281502529
-0.018980127 0.04785531 -0.0012001917 4281111104
-0.017411292 0.049322456 -0.0030435007 4280849219
-0.015691299 0.05011747 -0.0041536 4280395064
-0.014469981 0.052926131 -0.0074538868 4279547443
-0.0124343 0.052377846 -0.0071003716 4280200243
-0.010053527 0.05048807 -0.0052891746 4280198713
-0.006104026 0.042562477 0.0030780919 4280654653
-0.0029660761 0.037994225 0.0077910796 4281045823
-0.00014628842 0.034769345 0.011041116 4280849728
0.0027003586 0.031546313 0.01428581 4281111104
0.0066732578 0.024304707 0.021885078 4281306433
0.013122059 0.0083585605 0.038911927 4281306433
-0.025504749 0.049303055 -0.0048496462 4280396339
-0.023933295 0.050774515 -0.0066903848 4280198458
-0.021758169 0.049548462 -0.005604947 4280329019
-0.019415978 0.047649197 -0.0037912503 4281175618
-0.017534383 0.047772642 -0.0041704271 4281111358
-0.015814308 0.048569843 -0.0052789189 4280915773
-0.014592379 0.051387317 -0.008572774 4281045313
-0.012723945 0.051510118 -0.0089491345 4280654144
-0.010685779 0.050959863 -0.0085977111 4280784703
-0.0072635263 0.045026179 -0.0024296995 4280849984
-0.0048430413 0.043132573 -0.00063131191 4280784958
-0.0029395111 0.043258004 -0.0010145046 4280915264
-0.0012163185 0.044055954 -0.0021232199 4279874864
0.0015998892 0.04082001 0.0011194553 4280461364
0.005557362 0.033553343 0.0087037943 4280526388
0.011458039 0.019571435 0.023516007 4280526388
0.017471325 0.0055970773 0.038305584 4280460089
0.020690516 0.0017036945 0.042229328 4280070448
0.02256662 0.0025122911 0.041090194 4282940729
-0.027209204 0.046283789 -0.0041319299 4281633088
-0.026367061 0.051144097 -0.0096239429 4280720954
-0.024658035 0.051942438 -0.010728816 4280525114
-0.019695003 0.046775877 -0.0056468491 4280525368
-0.017498679 0.045546997 -0.0045689065 4280850748
-0.015775841 0.046346553 -0.0056763329 4280981308
-0.014222395 0.047821552 -0.0075098407 4280849728
-0.012512807 0.048620388 -0.0086144805 4280523329
-0.010469552 0.048068263 -0.0082657356 4280784703
-0.0079044029 0.045490988 -0.0057412162 4280653888
-0.0056674294 0.044265248 -0.0046711117 4280784958
-0.0041297562 0.045739606 -0.0065011475 4280850493
-0.0024225786 0.046538733 -0.0076050442 4280850748
-0.00035494938 0.045988563 -0.0072608646 4281632323
0.0028314199 0.041393057 -0.0025803708 4281502528
0.0066200756 0.034777712 0.0042597204 4280982328
0.01122606 0.025470201 0.01397638 4281242683
0.016100731 0.015493929 0.024399318 4281634109
0.019878104 0.0095646642 0.030481659 4281830713
0.023106826 0.005658932 0.034393732 4282157623
-0.03010897 0.039734818 0.00061401166 4281955918
-0.028924707 0.043255374 -0.0034182798 4281045313
-0.027767081 0.046774261 -0.0074451435 4280655674
-0.026488282 0.049612515 -0.010737719 4281175618
-0.024779167 0.050413027 -0.01184099 4281502019
-0.022462443 0.048498765 -0.010032048 4280980798
-0.019973628 0.045907199 -0.0074990802 4280524858
-0.017780434 0.044673692 -0.0064238105 4280851003
-0.015898943 0.044797171 -0.0068029352 4280981054
-0.014017373 0.044920728 -0.0071820226 4280719678
-0.012302343 0.045722105 -0.0082861315 4280719679
-0.010592606 0.046523221 -0.0093891099 4280653633
-0.0088881515 0.047324076 -0.010490954 4280849729
-0.007014364 0.047447443 -0.010868235 4280785469
-0.0051405169 0.047570899 -0.011245461 4279547188
-0.0034466647 0.048371337 -0.012345042 4280915773
-0.0012100153 0.047141381 -0.011277929 4281437758
0.0014081486 0.044559218 -0.0087703466 4281372733
0.0046119709 0.039949574 -0.0041047838 4281308729
0.0082348324 0.033990152 0.0019937418 4281048119
0.013453379 0.022626158 0.01384005 4281177914
0.018566955 0.011944115 0.024948925 4281438269
0.022772375 0.0046459287 0.03244767 4281438778
0.02522351 0.0034307986 0.033472043 4283141413
-0.030930523 0.041581236 -0.0041664094 4281240644
-0.029616538 0.044430334 -0.0074596237 4280979778
-0.02846887 0.047959559 -0.011476342 4280459834
-0.026904818 0.049443513 -0.013305821 4280068664
-0.025200989 0.050245844 -0.014406407 4279938869
-0.02273719 0.047643766 -0.011875028 4279221809
-0.020563312 0.046404511 -0.010799214 4280265014
-0.018061798 0.043805048 -0.0082753282 4280981819
-0.016505253 0.04528892 -0.010102984 4280981308
-0.015123118 0.047452323 -0.012652487 4280850493
-0.013424087 0.04825484 -0.013751736 4281046078
-0.011392113 0.047697537 -0.013404028 4281110848
-0.0093547106 0.047140691 -0.013057342 4281110338
-0.0078353435 0.048622526 -0.014877206 4281046079
-0.0063266568 0.050103776 -0.016694903 4280460089
-0.0042891204 0.049547177 -0.016348066 4279743793
-0.0022461712 0.048990976 -0.016002208 4280069683
0.00054298341 0.045720384 -0.012778645 4280787763
0.0037347414 0.041094571 -0.0081221405 4280656439
0.0077263359 0.033757817 -0.00059862994 4281177148
0.0125499 0.023712352 0.009785343 4281306944
0.018041685 0.01163825 0.022305816 4281371969
0.022239672 0.0043154582 0.029787973 4281372223
0.025087573 0.0017402247 0.032243181 4282549558
0.027140997 0.0018764138 0.031830478 4284443953
-0.030216042 0.035926837 -0.00093068555 4281435463
-0.029311862 0.040837061 -0.0064009558 4281566534
-0.028300222 0.04506132 -0.011137405 4281305923
-0.027173087 0.048600189 -0.015141705 4281046334
-0.025471862 0.049404532 -0.01624014 4280916284
-0.023164429 0.047476478 -0.014439238 4280850748
-0.020996343 0.046232387 -0.013365511 4281111868
-0.018817455 0.044989131 -0.01229394 4281112124
-0.017432299 0.047159232 -0.014839201 4281112123
-0.016553897 0.051375344 -0.019548358 4280004913
-0.015042506 0.052860782 -0.02136353 4279418158
-0.012865979 0.051617697 -0.020291243 4278636839
-0.0099921562 0.047648169 -0.016337916 4279938869
-0.008131966 0.047770612 -0.016712476 4281241919
-0.006802693 0.049937509 -0.019246057 4281111358
-0.0049504563 0.050059602 -0.019618884 4281176894
-0.0029158443 0.049500696 -0.019273035 4280849983
0.00023435801 0.044856645 -0.014619665 4281241408
0.0039852392 0.038172949 -0.0078211762 4281177149
0.0083609223 0.029451143 0.0011176281 4281046079
0.01357859 0.018012509 0.012908321 4281175363
0.018300142 0.0086206123 0.022532992 4281175363
0.021906136 0.0033139884 0.027850304 4281631813
0.024549423 0.0014096051 0.029584821 4283266364
0.026801167 0.00086577237 0.029887531 4284705328
-0.029085722 0.028187878 0.0044629127 4281630793
-0.028298289 0.033801015 -0.0017261039 4281240133
-0.027842894 0.040782981 -0.0093555767 4281436739
-0.026704282 0.04433354 -0.013354016 4281502019
-0.025142293 0.045826212 -0.015176537 4280784450
-0.023132827 0.045262516 -0.014827965 4280980798
-0.021428645 0.046069384 -0.015925255 4281112124
-0.01925556 0.044821292 -0.014855767 4280851514
-0.018357545 0.049051803 -0.01955916 4280917049
-0.017491594 0.053280253 -0.024255984 4279093543
-0.015993357 0.054769199 -0.026065238 4280460599
-0.013324361 0.051468216 -0.022834271 4279288108
-0.0079057924 0.044871807 -0.016388377 4281177149
-0.0065707415 0.047045689 -0.018918255 4281111614
-0.0045337602 0.046484649 -0.018574594 4280719679
-0.002127029 0.044557415 -0.016797885 4280785213
0.0015897937 0.037849426 -0.010009008 4281242173
0.0051727109 0.03182802 -0.0039467812 4281569084
0.0097549669 0.022396002 0.0056828186 4281567809
0.014026493 0.014334232 0.01386768 4281567809
0.018166762 0.0069592446 0.021325313 4281827653
0.021374714 0.0029994547 0.025202263 4282153289
0.024011983 0.0010881349 0.026933033 4283265853
-0.028375849 0.022474479 0.0076556355 4282020943
-0.02728745 0.02672993 0.0029232539 4281565769
-0.026375543 0.031671409 -0.0025255978 4281305669
-0.025501013 0.036610488 -0.007966809 4281632833
-0.02421435 0.039484344 -0.011234758 4281828929
-0.022796489 0.041669458 -0.013776994 4281305923
-0.021549799 0.044540871 -0.017036755 4281177148
-0.020166561 0.046723843 -0.019571844 4281112123
-0.018959876 0.049592808 -0.02282341 4280004913
-0.01761131 0.051773716 -0.025351427 4281177404
-0.016112827 0.053267065 -0.027157456 4281632834
-0.013444811 0.049955029 -0.023934502 4281502529
-0.010236111 0.044586219 -0.018564187 4281176893
-0.0076803006 0.041964456 -0.016070563 4280720443
-0.0058095567 0.042087674 -0.016447194 4281045569
-0.0035801269 0.040839575 -0.015391825 4280849475
-0.0002479665 0.035479248 -0.010046104 4280849473
0.0033117868 0.029436465 -0.0039940402 4281372989
0.0071071777 0.022711772 0.0027627535 4281372223
0.010766141 0.016675729 0.0087949932 4282024004
0.014858786 0.0092733763 0.01624411 4282087754
0.018228792 0.0046135336 0.020830531 4282021198
0.021240171 0.0013251081 0.023985181 4282086733
0.023475276 0.00077570975 0.024287902 4283658808
-0.02822382 0.019496989 0.0079394542 4282020943
-0.026845865 0.022385251 0.0046594739 4281434953
-0.025633521 0.025962476 0.00066240877 4281435973
-0.024447836 0.029538017 -0.003329169 4281436228
-0.023139149 0.032422066 -0.006595023 4281502529
-0.022004124 0.035994463 -0.010576252 4281045824
-0.021360859 0.041633613 -0.016709641 4281306433
-0.020444967 0.045891501 -0.021397062 4281241408
-0.019561131 0.050147325 -0.026077913 4280461109
-0.017894052 0.050956376 -0.027164277 4280331314
-0.01590078 0.050387625 -0.026815426 4280395828
-0.013396807 0.047753491 -0.024318054 4280069683
-0.010700244 0.044432443 -0.021108985 4279547443
-0.0078030415 0.04042501 -0.017189834 4280590393
-0.0050500929 0.037107851 -0.013991985 4281112379
-0.0019120201 0.032416731 -0.0093707405 4280783684
0.0016272552 0.026352767 -0.003329372 4280783429
0.0050302912 0.020979594 0.0019890778 4281110083
0.0079146847 0.017671481 0.005160749 4282023748
0.01101575 0.013678044 0.0090392828 4282022218
0.014534075 0.0083127879 0.014334757 4281955663
0.017900044 0.0036373213 0.018910524 4281889874
0.020709828 0.0010243803 0.021347109 4282479434
0.022939276 0.00047241151 0.021649335 4283854138
-0.028211188 0.017203622 0.0074962415 4281891403
-0.026688524 0.019408341 0.0049423985 4281632324
-0.024893526 0.020227309 0.003831394 4281566279
-0.023544192 0.023122679 0.00056381524 4281566789
-0.022216171 0.026016746 -0.0026993975 4281305669
-0.021213796 0.030293226 -0.0073945224 4281174344
-0.020553175 0.03595107 -0.013518371 4281045314
-0.019935317 0.041606225 -0.019633517 4281436483
-0.019200034 0.046567284 -0.025023421 4281503549
-0.017687749 0.048070237 -0.02682581 4281111614
-0.016020529 0.048881553 -0.027910514 4281176385
-0.013685614 0.046929382 -0.026134441 4280784703
-0.010650866 0.042215861 -0.021504121 4280653634
-0.0072313286 0.036123984 -0.015453607 4280587334
-0.0035872236 0.029345099 -0.008699473 4280521799
-0.0002474077 0.023950037 -0.0033815391 4280521034
0.0033169612 0.017867964 0.0026400164 4280716363
0.0060079694 0.015237924 0.0050935857 4281565004
0.0087204389 0.012609389 0.0075429007 4281891914
0.011644047 0.0092929937 0.010698564 4281890384
0.014979187 0.0046000332 0.015268985 4281889618
0.017766712 0.0019767508 0.017703425 4281824339
0.019982485 0.0014215931 0.01800669 4282544968
0.021802792 0.0022442341 0.016892087 4284377398
-0.028060254 0.014211241 0.0077692159 4281956173
-0.026673097 0.017117646 0.0045004003 4281631814
-0.025019322 0.018633533 0.0026723072 4281762118
-0.023229487 0.019454427 0.0015640333 4281566534
-0.021743529 0.021663573 -0.00097730756 4281501254
-0.020425528 0.024565827 -0.0042318963 4281435973
-0.019438196 0.028854549 -0.0089141093 4281175109
-0.018640261 0.033835001 -0.014305292 4281240898
-0.018039793 0.039506622 -0.02040378 4281306434
-0.017156672 0.043788776 -0.025064785 4281436739
-0.015478671 0.044602998 -0.026150022 4281373243
-0.013133682 0.042644881 -0.024380913 4280914243
-0.0097480454 0.036530934 -0.018338393 4280848454
-0.0059672669 0.029034957 -0.010881094 4280782408
-0.0023035966 0.022235412 -0.0041472912 4281109063
0.0010561347 0.016824093 0.0011535045 4281174598
0.00391436 0.013492119 0.004313916 4281304903
0.0064311214 0.011545893 0.0060488731 4281760843
0.0089639686 0.009600874 0.0077806227 4281891148
0.012081455 0.0055821687 0.011636239 4281956174
0.015038896 0.0022571236 0.014776967 4282086988
0.017633395 0.00031647086 0.016496535 4282086479
0.019651324 0.00045015663 0.016090859 4283133508
0.02146901 0.0012748316 0.014978435 4284704563
-0.027909961 0.011210289 0.0080359429 4282805578
-0.026516866 0.01412579 0.0047725141 4281761864
-0.02485751 0.015646446 0.0029465035 4281696328
-0.023062259 0.016469862 0.0018387605 4281501254
-0.021421388 0.017989453 1.6663224e-05 4281435974
-0.019942939 0.020204764 -0.0025181882 4281370439
-0.018480469 0.022419114 -0.0050497651 4281500743
-0.017348323 0.026024342 -0.0090057477 4281371459
-0.016562585 0.031019382 -0.0143829 4281109829
-0.015814282 0.036012102 -0.019752488 4280915263
-0.014442541 0.038220886 -0.022265486 4281240898
-0.011911537 0.035562173 -0.019793253 4280849473
-0.0083355866 0.028734744 -0.013058309 4281305414
-0.0045327321 0.021216027 -0.0056234449 4281240133
-0.0011986829 0.015785381 -0.00033064932 4281174343
0.0016424283 0.012441207 0.0028249267 4281892679
0.0041477811 0.01048759 0.0045571476 4281826634
0.0068532266 0.0078409426 0.0069946945 4281826378
0.0093934722 0.0058897883 0.0087200813 4282087244
0.012896467 0.00047077984 0.013979238 4282414408
0.016250331 -0.0042516366 0.01852297 4282544458
0.018668253 -0.005504258 0.019527737 4283132488
-0.024696317 0.012650769 0.0032145232 4282741318
-0.023188248 0.014874369 0.00067843683 4281697858
-0.021547146 0.016398344 -0.0011404455 4281763393
-0.019916654 0.017921772 -0.0029571541 4281697859
-0.018142436 0.018746261 -0.0040588211 4281567044
-0.016530491 0.020268671 -0.0058716461 4281566788
-0.01540821 0.023884285 -0.0098173991 4281370948
-0.014475003 0.028196007 -0.014468865 4281371203
-0.013078738 0.030412965 -0.016981898 4281175363
-0.010692153 0.028444424 -0.015230998 4281240644
-0.0074374378 0.022990808 -0.0099354871 4281631303
-0.0037936457 0.016146 -0.0032305215 4281500489
-0.00097500905 0.012789275 -7.8687444e-05 4281891658
0.0015135929 0.010827813 0.0016519427 4281891403
0.0040183011 0.0088675842 0.0033793822 4281826124
0.0067229159 0.0062121153 0.0058105402 4281761864
0.0096354578 0.0028619766 0.0089437701 4282086988
0.013142278 -0.0025743172 0.014189068 4282414153
0.016691977 -0.0080076754 0.019425813 4282741063
-0.023021959 0.011877138 0.00094393641 4282548029
-0.021524061 0.01410668 -0.0015850831 4282025278
-0.020042136 0.01633532 -0.0041108523 4281697603
-0.018113714 0.016461495 -0.0044997204 4281567044
-0.016498853 0.01798841 -0.0063098315 4281566788
-0.014894623 0.019514777 -0.0081177689 4281566788
-0.013625391 0.022440471 -0.011342626 4281501508
-0.011882916 0.023265451 -0.01243598 4281371458
-0.0098106451 0.022690941 -0.012111221 4281632069
-0.0068818145 0.018619627 -0.0082476363 4281827143
-0.0039207973 0.014550555 -0.0043905172 4281826890
-0.00092758238 0.010483708 -0.00053980947 4281891914
0.0015630499 0.0085158125 0.0011855047 4281826124
0.0044316724 0.0051516294 0.0043192431 4281760589
0.0073271058 0.0017892942 0.0074476488 4281891914
0.010249361 -0.0015711561 0.010570738 4282282828
0.013765365 -0.0070243925 0.015801083 4282674764
0.017132571 -0.011776604 0.020319205 4283394884
-0.019713677 0.012640487 -0.0031339359 4282416703
-0.018239271 0.014875297 -0.0056532156 4281893953
-0.016624179 0.016406596 -0.0074601099 4281501254
-0.015019726 0.01793734 -0.0092648268 4281436484
-0.013263877 0.018765271 -0.010359325 4281567044
-0.01134862 0.018890969 -0.01074525 4281566788
-0.0090985633 0.017613124 -0.009717349 4281762374
-0.0063275658 0.014231082 -0.0065724161 4281892680
-0.0035297312 0.010850947 -0.0034328531 4281957449
-0.00070505589 0.0074726939 -0.00029861741 4282153034
0.0017902665 0.0054985657 0.0014207903 4282087753
0.0046632364 0.0021236911 0.0045454502 4282349129
0.0075630359 -0.0012493506 0.0076648407 4282674763
-0.017903376 0.011174642 -0.0046825074 4282808383
-0.016592994 0.014120337 -0.0079027396 4281697603
-0.014667302 0.014246497 -0.0082909334 4281632324
-0.013227053 0.016485918 -0.01079821 4281632068
-0.010815691 0.014499124 -0.0090671498 4281501764
-0.0085553899 0.013217568 -0.0080445912 4281632324
-0.0056048147 0.0091213472 -0.0042050611 4281762884
-0.0029671453 0.0064347908 -0.0017804299 4281632069
-0.00030798838 0.0037496909 0.0006399937 4281761864
0.002194725 0.0017694309 0.0023530442 4282087754
0.0052553099 -0.0023190826 0.0061706901 4282349384
-0.014633872 0.011956252 -0.0087371059 4283394629
-0.013028871 0.013495818 -0.010535294 4281761863
-0.010941491 0.012915593 -0.010218589 4281631049
-0.0083476268 0.010217119 -0.0077918041 4281370184
-0.0053928681 0.0061080828 -0.0039629769 4281369419
-0.0025782995 0.0027071089 -0.00084317848 4281893954
-8.6985528e-05 0.00071942061 0.00086717866 4282285888
0.0024204142 -0.0012670681 0.0025743227 4283135038
-0.012831356 0.010497242 -0.01027862 4282675529
-0.010738924 0.0099151619 -0.0099645685 4282153035
-0.0081405304 0.0072081983 -0.0075452588 4281630793
-0.0051815994 0.0030862764 -0.0037271027 4281696838
-0.0025348775 0.00038270652 -0.001317367 4282285888
-4.1548163e-05 -0.0016114339 0.00038766861 4283460929
-0.027963933 -0.0066716224 0.0036028884 4282936394
0.016627656 -0.015324198 0.0063374527 4283459144
0.019039011 -0.01661218 0.0073174499 4283722304
-0.029395577 -0.012009673 0.0063394196 4282672724
-0.028228432 -0.007578589 0.0017185137 4282087498
-0.026395526 -0.006733425 0.00061758235 4282675274
0.013903793 -0.014977135 0.0034598298 4282543183
0.016301258 -0.016270481 0.0044392161 4282739279
-0.029523883 -0.013644271 0.0051504634 4282347599
-0.028355837 -0.0092000142 0.00053917244 4281892679
-0.026522879 -0.0083526745 -0.00056014583 4281761353
-0.024695162 -0.0075055435 -0.0016583838 4282284614
-0.022727933 -0.0073772967 -0.0020554252 4282873154
-0.020760592 -0.0072489455 -0.0024524182 4284116279
0.0093791448 -0.015463732 0.001683604 4283328073
0.011572488 -0.016047001 0.0019715633 4282805579
0.01377118 -0.016629763 0.0022584777 4282543439
0.016168153 -0.017927535 0.0032346882 4282870348
-0.029652145 -0.015278555 0.0039617233 4282282319
-0.028483182 -0.010821149 -0.00063997135 4281957958
-0.026510991 -0.010692813 -0.0010381937 4281696839
-0.024680551 -0.0098433718 -0.0021353066 4281826888
-0.022999909 -0.0082732961 -0.0039297268 4282088519
-0.021329831 -0.0067038164 -0.0057218857 4282936648
0.0068775117 -0.015807338 -0.00049255416 4283262793
0.0092471875 -0.017111637 0.00048561953 4282611013
0.011627603 -0.018415131 0.0014617704 4282545479
0.013448529 -0.017564245 0.00036812201 4282478158
0.016035071 -0.019584261 0.0020303987 4283066443
-0.029780347 -0.016912557 0.0027731881 4282086734
-0.028610498 -0.012441978 -0.0018188916 4281696073
-0.026638433 -0.012313686 -0.002217114 4281761353
-0.024807949 -0.01146207 -0.0033126101 4281696328
-0.023415852 -0.0084415451 -0.0064974166 4281696329
-0.021603879 -0.007590875 -0.0075890608 4281892934
-0.019946869 -0.0060177818 -0.0093752351 4281893188
-0.017995644 -0.0058902949 -0.0097688362 4283002949
0.0043876283 -0.016141005 -0.0026642308 4283068484
0.0067460835 -0.017450534 -0.0016871504 4282414409
0.009299811 -0.01947967 -2.339296e-05 4282219080
0.011682397 -0.020787366 0.00094900653 4282153544
0.01369592 -0.020654149 0.00054407865 4282347598
0.015902011 -0.021240681 0.00082632899 4283262793
-0.029908489 -0.018546231 0.0015848763 4282087244
-0.028737739 -0.014062501 -0.0029976033 4281826633
-0.026626971 -0.014659815 -0.0026995279 4281826889
-0.024793774 -0.013805844 -0.0037939511 4281761863
-0.023110036 -0.012226842 -0.0055824853 4281762119
-0.02143687 -0.010648467 -0.007368762 4281631303
-0.019774307 -0.0090706125 -0.0091528427 4281631048
-0.018122334 -0.0074933842 -0.010934658 4282153033
-0.016480979 -0.005916737 -0.012714262 4282544969
0.0020858161 -0.017187782 -0.0041427165 4282937413
0.0044357292 -0.018502407 -0.0031672306 4282545479
0.0066146776 -0.019093409 -0.0028815158 4282283848
0.0089833662 -0.020406507 -0.0019096732 4282218568
0.011549821 -0.022441261 -0.00025329925 4282022728
0.013942627 -0.023752525 0.00071387365 4282544458
-0.029903259 -0.020907745 0.0010925308 4282871879
-0.028592922 -0.01713863 -0.0027856603 4282023238
-0.026477117 -0.017737798 -0.0024902336 4281957703
-0.024779905 -0.016153745 -0.0042782873 4281826633
-0.023093257 -0.014570221 -0.0060640946 4281631303
-0.021417219 -0.012987256 -0.0078477338 4281631558
-0.01990116 -0.010677777 -0.010321673 4281435974
-0.018401049 -0.0083692819 -0.012792262 4281565513
-0.016762171 -0.0067883953 -0.014568149 4281761354
-0.014819071 -0.0066612288 -0.014959951 4282218823
-0.013035987 -0.0058075711 -0.016042054 4282284869
-0.010769863 -0.0071328059 -0.015053502 4283068483
-0.00020992756 -0.018229395 -0.0056187883 4282674253
0.0021314211 -0.019549094 -0.004644949 4282413899
0.0044834986 -0.020867921 -0.0036732163 4282348873
0.0068463162 -0.022185899 -0.0027035531 4282218569
0.0092198625 -0.023503117 -0.0017359257 4282219080
0.011790989 -0.02554407 -8.5428357e-05 4282219334
0.014378197 -0.027583875 0.0015619677 4283330623
-0.026881937 -0.017904408 -0.0050594788 4282678334
-0.025189873 -0.016316302 -0.0068432223 4281958469
-0.023364533 -0.01545836 -0.0079327859 4281762119
-0.02169095 -0.013871238 -0.009712629 4281566789
-0.020177186 -0.011555374 -0.012181213 4281697348
-0.018679369 -0.0092404708 -0.014646442 4281631304
-0.016733829 -0.009113282 -0.015038847 4281696073
-0.01494544 -0.008257173 -0.016120523 4281892168
-0.013002407 -0.0081299171 -0.016512252 4281957193
-0.010896694 -0.0087309703 -0.016215619 4282219078
-0.0084550343 -0.010787964 -0.01454467 4283001928
-0.0056613497 -0.014299937 -0.011502557 4283067208
-0.0030114725 -0.017082147 -0.009152364 4282609484
-0.00034013391 -0.019862823 -0.0068063997 4282348109
0.002000723 -0.021186925 -0.0058357213 4282348874
0.0041736476 -0.021782808 -0.005552154 4282283848
0.0065332837 -0.023105398 -0.0045851246 4282349129
0.0089036599 -0.024427176 -0.0036201123 4282349383
0.011658115 -0.02720172 -0.0012904666 4283330114
0.014434002 -0.029974781 0.0010349993 4284442169
-0.027009364 -0.019526251 -0.0062391292 4284378674
-0.025317084 -0.017933771 -0.0080196541 4283593784
-0.023635399 -0.016341828 -0.0097980015 4282024514
-0.021964286 -0.014750518 -0.011574103 4281437504
-0.020452823 -0.012428246 -0.014037326 4281567043
-0.01880559 -0.010838263 -0.01580843 4281762119
-0.016860191 -0.010711081 -0.016200803 4281761863
-0.014914703 -0.010583788 -0.016593114 4281761354
-0.012969133 -0.010456376 -0.016985353 4281826888
-0.010861069 -0.011059441 -0.016690888 4281761353
-0.0085824952 -0.012392446 -0.015711345 4282283594
-0.005789835 -0.015915416 -0.012677189 4282283594
-0.0031407997 -0.018706441 -0.010333369 4282021963
-0.000470303 -0.021495908 -0.0079937577 4281824848
0.0018700473 -0.022824429 -0.0070262626 4282153033
0.0042211264 -0.024152078 -0.0060608722 4282349894
0.0065829419 -0.025478885 -0.0050975494 4282677059
0.0089554936 -0.026804909 -0.0041362513 4284574003
-0.023618843 -0.018688641 -0.010282207 4284707113
-0.021944858 -0.017092779 -0.012055624 4283532838
-0.020579208 -0.014030091 -0.015202301 4282024769
-0.018780231 -0.013169229 -0.016283 4281893443
-0.016832292 -0.013041906 -0.016675903 4282023749
-0.014727384 -0.013647616 -0.016382625 4281892934
-0.01277661 -0.013519868 -0.016775919 4281761864
-0.010825757 -0.013391994 -0.01716914 4281892423
-0.0085450001 -0.014729239 -0.016193304 4282087753
-0.005918283 -0.01753059 -0.013851605 4282153289
-0.0032700896 -0.020330407 -0.011514138 4282086733
-0.00077339634 -0.022396617 -0.0098637864 4281956174
0.0015637688 -0.02372966 -0.0088989474 4282414408
0.0039116852 -0.025061943 -0.0079361536 4282807108
0.0060893409 -0.025661767 -0.0076567046 4284442424
-0.020408172 -0.017103381 -0.014994808 4282941494
-0.018603817 -0.016239986 -0.016074959 4281894209
-0.016958751 -0.014641292 -0.017839018 4281958723
-0.014854163 -0.015249223 -0.017547322 4281892934
-0.013222318 -0.01365114 -0.01930853 4281892423
-0.01095283 -0.01499363 -0.018333787 4281957703
-0.0085078143 -0.017070152 -0.016678192 4282153033
-0.0058792606 -0.019880153 -0.014343407 4282349128
-0.0033993535 -0.021954089 -0.012694702 4282414154
-0.00090333074 -0.024026886 -0.011049103 4282545223
0.0016087964 -0.026098512 -0.0094066691 4283068484
0.0039588697 -0.027434975 -0.0084476117 4283983933
0.0063196793 -0.028770596 -0.0074906144 4284573493
0.024941182 -0.044689499 0.0052338578 4282805069
-0.01693131 -0.016978107 -0.018318474 4283202103
-0.014980908 -0.016850531 -0.018711805 4282416450
-0.013030421 -0.016722813 -0.019105047 4281893444
-0.010917969 -0.017332174 -0.018816395 4281958723
-0.0083063804 -0.020152144 -0.016484808 4282024514
-0.005840566 -0.022233732 -0.014838216 4282089028
-0.0033586584 -0.024314098 -0.013194804 4282546244
-0.00086063892 -0.026393346 -0.01155453 4283135038
0.021361701 -0.041378357 -0.00030761398 4282739024
0.024405735 -0.044916026 0.0026525799 4282477394
0.027476501 -0.048451789 0.0056075044 4282672978
-0.016750477 -0.020058893 -0.018119041 4284706093
-0.015107609 -0.018451519 -0.019876059 4283790644
-0.013157275 -0.018323824 -0.020269284 4282155074
-0.010883424 -0.019674778 -0.019301957 4281893443
-0.0082700066 -0.022503383 -0.01697728 4282089539
-0.0059692636 -0.023852371 -0.016015153 4281895739
-0.0033182725 -0.026678242 -0.013697852 4283265088
-0.00081826374 -0.028763853 -0.012062902 4284180794
0.015794087 -0.038167946 -0.0054263305 4283460164
0.01840396 -0.040245332 -0.00381268 4282674254
0.02083336 -0.041584395 -0.0028754454 4282477394
0.023870999 -0.045133404 7.7879056e-05 4282476628
-0.010849185 -0.02202151 -0.019790456 4283989544
-0.0082339384 -0.024858736 -0.017472669 4283399473
-0.0060979314 -0.025470689 -0.017191857 4284640559
0.011047021 -0.037881002 -0.007841995 4284442169
0.013255518 -0.038487174 -0.0075750183 4283003203
0.015469365 -0.039092846 -0.007309014 4282152014
0.018075878 -0.041177005 -0.0056995843 4282020689
0.020502089 -0.04252065 -0.0047649685 4282019923
0.023138002 -0.044602603 -0.0031612534 4282476374
0.010543233 -0.038054205 -0.010391453 4283133509
0.012934182 -0.039404981 -0.0094532501 4282479179
0.015145019 -0.040013023 -0.0091882627 4282151504
0.017748166 -0.042103961 -0.0075830575 4282085714
0.019975042 -0.042710707 -0.0073211063 4282018904
0.0053021573 -0.035504811 -0.014812602 4282871623
0.0078484155 -0.037606589 -0.013201235 4282543693
0.010225462 -0.038962714 -0.012263628 4282347344
0.012801174 -0.041062281 -0.010657994 4282216019
0.014630413 -0.040184431 -0.01173366 4282084949
0.017034221 -0.041538455 -0.010801109 4282280278
0.0029957071 -0.036528908 -0.016272912 4283723834
0.0051710531 -0.037144206 -0.016004445 4282741063
0.0078990534 -0.039999314 -0.013728278 4282347598
0.010278264 -0.041359685 -0.012794374 4282281554
0.012855962 -0.043465666 -0.011194041 4282084694
0.014497442 -0.041839235 -0.012936543 4281626458
0.00069533288 -0.03754779 -0.017730838 4282417214
0.002864968 -0.038165785 -0.01746296 4282152269
0.0052195527 -0.039532401 -0.016527558 4282020434
0.0075848661 -0.040898226 -0.015594183 4282019159
0.0099608917 -0.042263158 -0.014662906 4282149718
0.012347614 -0.043627284 -0.013733688 4281953369
-0.0015989803 -0.038561426 -0.019186446 4283595059
0.00056495145 -0.039182156 -0.018919101 4282088009
0.0027342513 -0.039802335 -0.018652776 4281889873
0.0050883256 -0.041173361 -0.017720537 4281889108
0.0074531361 -0.042543575 -0.016790319 4281822808
0.0096438937 -0.043161951 -0.016528014 4282213979
-0.0063717067 -0.037437215 -0.022243394 4284705584
-0.0040557235 -0.038815685 -0.021307105 4283596078
-0.0019001961 -0.039439209 -0.021039823 4282417214
0.00026071444 -0.040062286 -0.020773547 4282021964
0.002250459 -0.039931156 -0.021174079 4282020178
0.0045986846 -0.04130695 -0.020243874 4281823064
0.0067757219 -0.041928567 -0.019980546 4281625694
-0.0086423941 -0.038433038 -0.023691537 4284508214
-0.0065006763 -0.03905993 -0.023423312 4282549048
-0.0043535531 -0.039686374 -0.023156034 4281895483
-0.0022010319 -0.040312298 -0.02288978 4281698878
-4.3135136e-05 -0.040937729 -0.022624513 4281759823
0.0021201484 -0.041562684 -0.022360237 4282150228
-0.0064641051 -0.04144115 -0.023938155 4282935373
-0.0046510138 -0.040552348 -0.025001595 4282087499
-0.0025014915 -0.041180678 -0.024736321 4281565768
4.4330955e-07 -0.043325014 -0.023145722 4282085713
0.0021660775 -0.043952033 -0.022883506 4282214744
0.0079335161 -0.049219988 -0.026990667 4282405484
0.030074771 0.0030009747 0.045939829 4285558049
0.032780804 0.0011404008 0.047691356 4285754653
0.037184671 -0.0060476661 0.055222575 4285754398
0.026368001 -0.00099807978 0.047700424 4284967979
0.026843389 0.0044910982 0.041496981 4285361953
0.028094586 0.0073029399 0.038191583 4285623839
0.030568492 0.0061025918 0.03922138 4285558303
0.034313355 0.00089331716 0.044576619 4285689629
0.039590146 -0.008989796 0.054968331 4285820698
0.024437359 0.0033205673 0.03995223 4284902444
0.025899054 0.0054706633 0.037372854 4285690139
0.027344653 0.0076197311 0.034796823 4285755419
0.029395677 0.0077558272 0.034384649 4285689884
0.03228613 0.0052100047 0.036851164 4285754908
0.036685821 -0.002026543 0.044347215 4285886489
0.040713973 -0.0079188198 0.05039436 4285689374
0.025359457 0.005121626 0.034701098 4284903464
0.027004443 0.0066039264 0.032850116 4285493024
0.029259689 0.0060669631 0.033157073 4285886489
0.031939629 0.0041850507 0.034899119 4286018069
0.0354851 -0.00038588047 0.039508086 4285689883
0.038207829 -0.0022648051 0.041241709 4285558558
0.04072883 -0.003470391 0.042255718 4285558813
0.042819653 -0.0033311993 0.041835885 4285559069
0.046472058 -0.0078946576 0.04642364 4285624093
0.029123709 0.0043783411 0.031929679 4285558558
0.031593498 0.0031647161 0.032950502 4285624349
0.034710541 -7.2322786e-05 0.036116991 4285624349
0.036994845 -0.00060931593 0.036416728 4285624348
0.03841421 0.0015516952 0.033856116 4285690394
0.040037647 0.0030375347 0.032013092 4285755419
0.042541951 0.0018265992 0.033027362 4285820699
0.04708723 -0.0054480731 0.040458452 4285820189
0.029607685 0.00065810978 0.032848585 4285296418
0.031457059 0.0014719516 0.031720128 4285559069
0.034149081 -0.00042226166 0.033450041 4285558813
0.035783626 0.0010685474 0.031607937 4285624349
0.037190028 0.0032352656 0.029054914 4285821464
0.038580261 0.0054010302 0.026505142 4285689373
0.040845275 0.0048608929 0.02680729 4285492259
0.044468071 0.00026486069 0.031378139 4285492259
0.049268764 -0.0077079237 0.039496902 4285558304
0.028851761 0.001001887 0.029475477 4285558813
0.030693159 0.0018173903 0.028350268 4285559069
0.032740977 0.0019534975 0.02793891 4285558558
0.034574211 0.0027686954 0.026815426 4285623839
0.036184829 0.004262358 0.024981543 4285952534
0.037784655 0.0057554021 0.023149893 4285886743
0.040041342 0.0052125379 0.023452092 4285755673
0.042979021 0.00263533 0.025883328 4285755674
0.046849694 -0.0026526377 0.031148192 4285755929
0.050993741 -0.0086155906 0.037113506 4285624604
0.027890602 0.0020408928 0.025399972 4285624349
0.029721344 0.0028578937 0.024278548 4285690139
0.031758327 0.0029933006 0.02386938 4285689628
0.033580918 0.0038099661 0.022749741 4285558048
0.035181053 0.0053073764 0.020921204 4285623839
0.036550693 0.0074849799 0.018385444 4285755673
0.039016083 0.0062583536 0.019397732 4285755928
0.042167272 0.0029911697 0.022533145 4285755929
0.046028383 -0.0023150072 0.027786877 4285624603
0.049932241 -0.0076181963 0.033032056 4285427743
0.025512278 0.00091083348 0.023878515 4284967724
0.026930872 0.0030978099 0.021337487 4285820188
0.028959755 0.0032325983 0.02092988 4285820954
0.030988585 0.0033674687 0.020522356 4285952533
0.033231515 0.0028190538 0.020823855 4285821208
0.034829225 0.0043206811 0.018999144 4285558303
0.036416128 0.0058217198 0.017176632 4285493023
0.039103247 0.0039078593 0.018893089 4285493534
0.042480994 -5.2832067e-05 0.02272677 4285493534
0.046573475 -0.0060587525 0.0286729 4285427999
0.050714076 -0.012061387 0.034609441 4285296418
0.024767539 0.0012934804 0.020531561 4285164839
0.026178513 0.0034865439 0.017996997 4285492004
0.027990621 0.0043067262 0.016882617 4285492004
0.03043123 0.0030693412 0.017893083 4285623838
0.032882489 0.0018327981 0.018901426 4285689373
0.034911077 0.0019678548 0.018494096 4285624093
0.036939599 0.0021030083 0.018086858 4285559069
0.039856128 -0.00050196797 0.020502653 4285559069
0.043243401 -0.0044751465 0.024324615 4285427998
0.047344878 -0.0105002 0.030254204 4285427744
0.051494475 -0.016521938 0.036174212 4285229608
0.023617713 0.0030666143 0.015778642 4286018324
0.025015699 0.0052654073 0.013251606 4286214164
0.02681447 0.0060869232 0.012141559 4285755163
0.029241204 0.0048442334 0.013151538 4285690139
0.032320011 0.0015389845 0.01627665 4285821464
0.035209067 -0.0010767579 0.018691283 4285559069
0.037900314 -0.0030035228 0.020396989 4285493534
0.041273091 -0.006990917 0.024211966 4285493534
0.04467795 -0.010976106 0.028020632 4285361698
0.04811484 -0.014959 0.031822901 4285228843
0.023078404 0.0027899444 0.013160866 4285361188
0.024265859 0.0056855306 0.0099340007 4285624093
0.026264913 0.0058183596 0.0095324107 4285755674
0.028685804 0.0045709461 0.010540251 4285624603
0.031971864 0.00056435168 0.014362611 4285493023
0.035506338 -0.0041298717 0.018882226 4285427743
0.039078228 -0.0088214576 0.023394365 4285493533
0.042687569 -0.013510481 0.027899113 4285361443
0.045212597 -0.014750458 0.028886411 4285097774
0.02274253 0.0018294901 0.011254344 4285623074
0.023927912 0.0047336668 0.0080344938 4285426979
0.026340336 0.0034812316 0.0090407021 4285493534
0.028974209 0.0015371814 0.010747943 4285493534
0.032477889 -0.0031744838 0.015262168 4285493534
0.036451276 -0.0092676207 0.021172989 4285427744
0.040254019 -0.014665611 0.026372764 4285295398
0.02321725 -0.0019068047 0.012163647 4286147098
0.024821717 -0.00038313121 0.010353718 4285951514
0.027247062 -0.0016390905 0.011354055 4285559069
0.030314852 -0.004978016 0.014456768 4285427744
0.033835933 -0.0097038895 0.018956102 4285361953
0.037394438 -0.014427118 0.023447949 4285295399
0.040771756 -0.018453717 0.027232502 4285163054
0.025713757 -0.0055216774 0.012657139 4286015773
0.028359748 -0.0074781254 0.014352012 4285819934
0.031863436 -0.012220576 0.018843312 4285557539
0.035404563 -0.016960412 0.023327108 4285229098
0.026194271 -0.009283267 0.013546016 4286081053
0.029055202 -0.011944979 0.015933357 4285884959
0.032568231 -0.016702145 0.020411327 4285491238
0.026059637 -0.010953136 0.012332298 4286080798
0.029127106 -0.01432503 0.015410461 4286015774
0.032641437 -0.01909744 0.019876719 4285359659
0.03598047 -0.023166209 0.023639355 4285163054
0.025720499 -0.011918977 0.010422636 4286342683
0.028784268 -0.015302047 0.013493378 4286080798
0.025586069 -0.013586037 0.0092109554 4286342684
0.028648818 -0.016980141 0.012273718 4285883939
0.032157712 -0.021783561 0.016718179 4285163054
0.035704039 -0.026584327 0.021155149 4285097519
-0.028576542 -0.021851666 -0.0037642978 4285163564
0.011525264 -0.028859071 -0.0024952795 4285033004
0.014300298 -0.031640917 -0.00017616712 4285098283
-0.029889312 -0.028016813 -0.00040231831 4284966704
-0.028433304 -0.024948858 -0.0035676882 4285294888
-0.026998557 -0.021882124 -0.0067286603 4285229608
-0.025303401 -0.020285122 -0.008506529 4285229609
0.0086396895 -0.027723931 -0.0060167778 4284900913
0.011392435 -0.030516095 -0.0036998633 4285163564
0.014166612 -0.03330674 -0.0013871025 4285229099
-0.02856135 -0.026581012 -0.0047548953 4285229354
-0.026850063 -0.02497872 -0.0065328553 4285294888
-0.025008712 -0.02411335 -0.0076208748 4285295143
-0.023315903 -0.022512004 -0.009394912 4285164839
-0.021779712 -0.020175181 -0.011853456 4284968489
0.011073479 -0.031439379 -0.0055827815 4285097518
0.013844125 -0.034239009 -0.0032758582 4285163053
-0.028554197 -0.028951824 -0.0052546673 4285228844
-0.026977863 -0.026606224 -0.0077166352 4285295654
-0.025136475 -0.025738671 -0.0088030454 4285295654
-0.023443479 -0.024132989 -0.010573883 4285361188
-0.021615222 -0.023266092 -0.011657413 4285361189
-0.020237766 -0.02018518 -0.014793435 4285098793
-0.018579237 -0.018581331 -0.016557086 4285099814
0.011126859 -0.033829175 -0.0061083231 4285097774
0.013899319 -0.036637425 -0.0038082805 4285097774
-0.028817292 -0.029844441 -0.0071286689 4285163564
-0.027243268 -0.027492404 -0.0095853303 4285229608
-0.025264207 -0.027363695 -0.0099849924 4285295654
-0.023428015 -0.026494242 -0.011068607 4285426723
-0.021451384 -0.026365437 -0.011467585 4285361189
-0.020068038 -0.023275435 -0.014598285 4285360933
-0.018554967 -0.020926803 -0.017042141 4285229864
0.0086101908 -0.034142651 -0.0082581956 4284966449
0.011179924 -0.036223084 -0.0066367667 4284966448
0.01357723 -0.037564643 -0.005693363 4284966703
-0.027095854 -0.030603431 -0.0094000362 4285229354
-0.02539188 -0.028988391 -0.011166716 4285361189
-0.023412842 -0.028859578 -0.011566294 4285426723
-0.021433692 -0.028730631 -0.011965794 4285360934
-0.019750778 -0.027116619 -0.013727897 4285295654
-0.018380169 -0.024018608 -0.016849417 4285360934
-0.016723812 -0.022406101 -0.018605988 4285360678
-0.015078083 -0.020794138 -0.020360369 4285295398
-0.0034477934 -0.028305374 -0.01488093 4284901423
-0.024959605 -0.033593528 -0.0096227285 4285360679
-0.023255326 -0.03197404 -0.011386095 4285426724
-0.021561626 -0.030355066 -0.013147258 4285229608
-0.019878518 -0.028736703 -0.014906154 4285295399
-0.018206012 -0.027118914 -0.016662814 4285295399
-0.016544122 -0.025501646 -0.018417288 4285360933
-0.015048862 -0.023140825 -0.020847652 4285360934
-0.013093483 -0.023012832 -0.021241918 4285164073
-0.010976646 -0.023628511 -0.020959008 4285033258
-0.0085262991 -0.0257309 -0.019324142 4284902188
-0.006059844 -0.027832128 -0.01769238 4285032749
-0.0035772771 -0.029932164 -0.016063761 4285360679
-0.0010786243 -0.032030992 -0.014438344 4285229354
-0.022955973 -0.035844162 -0.010532828 4285033003
-0.02168953 -0.031979196 -0.014328497 4284967468
-0.020006221 -0.030356474 -0.016084179 4285164073
-0.018484022 -0.027987577 -0.018515266 4285229608
-0.01667143 -0.02711267 -0.019588884 4285360934
-0.014864102 -0.026237957 -0.020661332 4285360679
-0.012903523 -0.026109628 -0.021056656 4285164073
-0.010781668 -0.026727132 -0.020776428 4285098283
-0.0083266422 -0.028835796 -0.019147359 4285163564
-0.0058555193 -0.030943245 -0.017521482 4285098028
-0.0035375096 -0.032304086 -0.016572537 4285228589
-0.0012087561 -0.033664085 -0.015625717 4285360423
0.00095617026 -0.034278169 -0.015353663 4284966449
-0.020133886 -0.031975903 -0.01726198 4285033003
-0.018611331 -0.029600479 -0.019688271 4285164073
-0.016645711 -0.029472075 -0.020084787 4285295654
-0.014991362 -0.027846508 -0.021831091 4285229608
-0.013030935 -0.027718194 -0.022226389 4285229609
-0.010748383 -0.029086076 -0.021273887 4285163563
-0.0084550604 -0.030453168 -0.020323418 4285163309
-0.0013388582 -0.03529685 -0.016812859 4285097773
-0.020114042 -0.03434629 -0.017764607 4284967213
-0.018588427 -0.031964146 -0.020186571 4285033259
-0.016773131 -0.031084657 -0.021257525 4285295909
-0.014963083 -0.030205421 -0.02232728 4285295399
-0.013000131 -0.030076958 -0.022723084 4285163819
-0.010876257 -0.030698709 -0.022446549 4285098028
-0.0084199123 -0.032820411 -0.020827534 4285097773
