# .PCD v0.7 - Point Cloud Data file format
VERSION 0.7
FIELDS x y z rgba
SIZE 4 4 4 4
TYPE F F F U
COUNT 1 1 1 1
WIDTH 620
HEIGHT 1
VIEWPOINT 0 0 0 1 0 0 0
POINTS 620
DATA ascii
0.017430188 -0.017447293 0.0056891926 4290066958
0.021360947 -0.024438031 0.012211796 4290393868
0.018433504 -0.023403801 0.0086775385 4289998873
0.022378322 -0.030415639 0.015181087 4288427308
0.02320111 -0.035702363 0.017439902 4287119669
0.023356086 -0.04300712 0.015877508 4286268224
0.0053076819 -0.038269356 -0.0087972339 4287905069
0.0021483526 -0.035591155 -0.013603089 4288233253
0.0048243813 -0.038436219 -0.011320165 4287642164
0.0020148195 -0.037234232 -0.014763406 4287577393
0.0041677617 -0.037846729 -0.014511592 4287185204
0.001710102 -0.038127467 -0.016597457 4287250738
0.012538195 0.00075702369 0.050568338 4282542928
0.013162859 0.0062354654 0.044274602 4279675963
0.015943924 0.0037073866 0.046760503 4279350584
0.020977622 -0.0068206266 0.058005419 4280001853
0.0087528639 0.0049188286 0.043213535 4282477649
0.0088429302 0.012423534 0.034741614 4281175108
0.010137089 0.015238542 0.031391419 4280719933
0.012325309 0.014706235 0.031692281 4281111104
0.01619068 0.0081531703 0.038550545 4280004403
0.021051696 -0.0017403215 0.049038213 4280719933
0.025610782 -0.010290928 0.058053661 4281044548
0.029464329 -0.016162805 0.06414628 4281370438
0.0060524717 0.0050914884 0.040257018 4282084439
0.0063406117 0.01195002 0.032527257 4281109828
0.0076406486 0.014774233 0.029182132 4280002874
0.0089193843 0.01759709 0.025841635 4280654398
0.011091277 0.017061386 0.0261444 4281176384
0.01382526 0.014512453 0.028627448 4280589628
0.017521907 0.0086097196 0.034738924 4280002874
0.020693976 0.0047229901 0.038662184 4281176639
0.024091741 0.00016791373 0.043304045 4281307453
0.026938191 -0.002372995 0.045763392 4281242174
0.029010294 -0.0022310019 0.045321058 4281567554
0.031485632 -0.0034291819 0.046326224 4280784449
0.03642308 -0.012666158 0.056007039 4280001598
0.0038500577 0.01148656 0.030317109 4280979014
0.0051559806 0.014319934 0.026977099 4281045058
0.0066179633 0.01647792 0.02436899 4280524093
0.0082440302 0.017961048 0.022491116 4279742519
0.010407597 0.017422594 0.022793997 4279677749
0.012947347 0.015537616 0.024546966 4279938103
0.015879309 0.012307264 0.027746558 4280916028
0.018456575 0.010425076 0.029491603 4281243194
0.020663105 0.009889923 0.02978557 4281047099
0.022678934 0.010027967 0.02935518 4281111613
0.024098529 0.012183782 0.026756722 4279939124
0.026710641 0.010304354 0.028494596 4280719679
0.030767523 0.0037207082 0.035280257 4280133179
0.036532052 -0.0082352534 0.047822621 4279481654
0.041764475 -0.018168993 0.058183197 4279155254
0.0015404336 0.010356404 0.028838556 4281696584
0.0025112219 0.014552321 0.024049386 4281307199
0.0041480772 0.016040411 0.02217228 4281371203
0.0061286874 0.016175386 0.02174893 4281241409
0.0081093684 0.016310457 0.021325633 4281110848
0.010090113 0.016445633 0.020902392 4280915773
0.012441318 0.015229508 0.021927193 4280915518
0.014991157 0.013338659 0.023673229 4280915773
0.017175965 0.012799699 0.023970153 4280916284
0.018979721 0.013611514 0.022821438 4280916283
0.020582248 0.015098047 0.020952169 4279873078
0.021975543 0.0172587 0.018364154 4281567299
0.024560262 0.015370749 0.020103045 4281827908
0.027976705 0.010786265 0.024718668 4281502273
0.032463513 0.0028332919 0.032923512 4281372224
0.037642285 -0.0071374103 0.043271396 4281307454
0.044172846 -0.021145664 0.057911996 4281307198
-9.7841024e-05 0.0065146163 0.030267987 4282020688
5.2943826e-05 0.014120527 0.021853782 4279809073
0.0016899481 0.015612982 0.019979741 4280201010
0.00581716 0.015203599 0.019859441 4279157804
0.0079747438 0.014660131 0.020160332 4281177149
0.010320067 0.013439074 0.021183092 4281046843
0.01267615 0.012218799 0.022203662 4280851003
0.014479879 0.013032664 0.021056373 4280916028
0.016278315 0.013846215 0.019910324 4280915773
0.017685352 0.016014297 0.017324023 4281046079
0.01946781 0.016826943 0.016181529 4278960944
0.021046558 0.018316343 0.014320675 4278829873
0.023820993 0.015744109 0.016776197 4280068664
0.026616812 0.013173442 0.019227225 4280459323
0.030878864 0.0058690906 0.026698798 4280525114
0.036036037 -0.0041362718 0.037027072 4281112633
0.043390941 -0.020897023 0.054505628 4281503293
-0.0017290302 0.010973088 0.022561789 4281565769
-0.00075639039 0.015195575 0.017791461 4280981564
0.00087016076 0.016691726 0.015922859 4281567808
0.0031827241 0.015463673 0.016949229 4280720698
0.0058597066 0.012875039 0.019418482 4280590648
0.0080196448 0.01232956 0.019717209 4280916283
0.010367163 0.011104196 0.020736262 4280916028
0.012355752 0.011239983 0.0203114 4280981308
0.014156882 0.012055829 0.019166309 4280915263
0.01538215 0.014910817 0.01586327 4281110849
0.017164646 0.015725579 0.014722295 4281176129
0.018941825 0.016540084 0.013582543 4281045058
0.020911885 0.016675081 0.013161983 4280849984
0.023283703 0.015452087 0.014176358 4280784959
0.026276879 0.012193259 0.01733911 4280392513
0.030946575 0.0035068095 0.026226595 4280654398
0.036730256 -0.0085673034 0.038677949 4281176893
-0.0038485825 0.0091841444 0.021818321 4281240133
-0.0031909645 0.014788281 0.015607364 4280263993
-0.001732856 0.016972192 0.013019208 4280850749
0.00039446726 0.016421963 0.013323065 4281371458
0.0028751716 0.014505945 0.015069 4281241918
0.0053719878 0.012591179 0.016811527 4280330038
0.0075262785 0.01204307 0.01710983 4280785468
0.0098679811 0.010812856 0.018126946 4281112124
0.01185111 0.010948256 0.017703243 4280851004
0.013459615 0.012448173 0.01584214 4281045824
0.014487468 0.015993495 0.01182897 4279156019
0.016259339 0.01680975 0.010691881 4279481653
0.018611947 0.015580762 0.01170703 4279676729
0.02117327 0.013671193 0.013436347 4280915519
0.023951348 0.011081494 0.015878201 4280588864
0.027157545 0.0071311668 0.019746121 4280589373
0.032250203 -0.0029451773 0.030039825 4280720189
0.038675301 -0.017100267 0.044601355 4280785469
-0.0049613267 0.011646729 0.016316667 4281241154
-0.0036553331 0.014523998 0.01300858 4280719933
-0.0020337142 0.016028546 0.011147387 4279157039
-8.046627e-05 0.016161401 0.010729697 4279809073
0.0022204444 0.014923651 0.01175208 4279418413
0.0048850402 0.012316439 0.014211077 4280069429
0.0070336908 0.011765737 0.014508974 4280980799
0.0091877505 0.011215493 0.014805783 4280915518
0.010978267 0.012034923 0.013666101 4280654908
0.012389179 0.014222976 0.011093315 4280198969
0.013594281 0.017094273 0.0078074485 4279417139
0.015740514 0.016543854 0.0081062615 4279873844
0.021433961 0.010658607 0.013704643 4281047353
0.024417043 0.0073768571 0.016853373 4280981818
0.0282396 0.001363717 0.022851367 4280785468
0.033962987 -0.010794327 0.035257529 4280850749
0.040199645 -0.02431158 0.04906838 4281111360
-0.005620975 0.0036766902 0.022071149 4282152013
-0.004931435 0.0093182698 0.015879024 4281371969
-0.0034565702 0.011516497 0.013296805 4281305668
-0.0019976273 0.013713714 0.010718107 4281307709
-0.00021276623 0.014534499 0.0095808282 4280915263
0.0017404482 0.014667422 0.0091632009 4280719678
0.0042225756 0.012738306 0.010899223 4280915773
0.0063629076 0.012184806 0.01119728 4280849984
0.0081454031 0.013005797 0.010060839 4280915263
0.0097383223 0.014513347 0.0082094669 4280523839
0.011133626 0.016706973 0.0056448374 4280849984
0.013081856 0.016840156 0.0052287113 4281697859
0.015414748 0.015600912 0.0062415134 4281306688
0.018538302 0.011618014 0.010107577 4280590138
0.021496277 0.0083233714 0.013253536 4280981054
0.025282318 0.0022877008 0.019244753 4281112634
0.030131478 -0.0071723387 0.028786521 4281177658
0.03608384 -0.020053983 0.0418703 4281111614
0.041304365 -0.030187786 0.052088443 4281501763
-0.0052752569 -5.5260956e-05 0.023057971 4282087244
-0.0044136345 0.00491409 0.017595891 4281503039
-0.0027622506 0.0064293742 0.015734673 4280982329
-0.0014576167 0.009324275 0.012439851 4280787509
-3.5092235e-06 0.011527926 0.0098670349 4281503549
0.0019549243 0.011661194 0.0094482861 4280980544
0.004089538 0.011104986 0.0097458735 4280653889
0.0060507916 0.011238635 0.0093266591 4280654143
0.0076492429 0.012750898 0.0074772537 4280784703
0.008868821 0.015640665 0.0042010136 4280850239
0.01044064 0.017151337 0.0023573916 4279612724
0.012380734 0.017283976 0.001943009 4279873844
0.014897252 0.015351165 0.0036672913 4280720699
0.017819434 0.012042895 0.0068127699 4280395319
0.021558259 0.0059839636 0.01279949 4280199733
0.02614579 -0.0028234199 0.021620627 4281047354
0.03161408 -0.014377065 0.033269327 4281111613
0.036967743 -0.025236733 0.044188675 4281240643
0.041366085 -0.032653339 0.051542688 4281370948
-0.0049305521 -0.0038003176 0.024035603 4281892423
-0.0038972236 0.00049238652 0.019300383 4281894463
-0.0024001524 0.0027053654 0.016723037 4281374518
-0.00075110793 0.004224956 0.014865641 4281180210
0.0008873418 0.0057439655 0.013010543 4280919598
0.0026884452 0.0065703094 0.011873096 4280986154
0.0043083653 0.0080882311 0.01002216 4281113908
0.0060962476 0.0089139342 0.0088876523 4281503294
0.007153824 0.012505215 0.0049000997 4281568319
0.0085526034 0.014712181 0.0023443457 4280980289
0.010121986 0.016227107 0.00050445646 4280525368
0.012059283 0.016359549 9.0667978e-05 4280655674
0.014572462 0.014419854 0.0018108208 4280655929
0.017685551 0.010409743 0.0056597572 4280590648
0.022211775 0.0015692636 0.014472965 4280916283
0.027607352 -0.010027088 0.026109744 4280915008
0.033296421 -0.02230709 0.038436208 4281045569
0.037849829 -0.030441411 0.046491574 4281304904
0.04121948 -0.034433395 0.050286148 4282085458
-0.0050660111 -0.0054729655 0.022854283 4281566788
-0.004031729 -0.0011669397 0.018128496 4281764923
-0.0022041388 -0.00033690035 0.016986769 4281571123
-0.000381805 0.00049291551 0.015846185 4281440308
0.0014352947 0.0013224408 0.014706846 4280919089
0.0030740723 0.002845943 0.012855001 4281114929
0.0045265034 0.0050629154 0.010292321 4280526133
0.0061413869 0.0065850019 0.0084457435 4280006953
0.0077456385 0.0081065297 0.0066014696 4280461618
0.0091555156 0.010320924 0.0040481258 4280133688
0.01073584 0.011840977 0.0022091623 4281437758
0.01211641 0.014053572 -0.0003377758 4281567808
0.014439823 0.01280034 0.0006674137 4281568318
0.017940575 0.0073912665 0.0059252661 4281242430
0.023258071 -0.004248105 0.017551225 4280981053
0.029265789 -0.017958455 0.031281941 4280981053
0.034570571 -0.028892361 0.042160142 4281044804
0.038114741 -0.033591904 0.046658415 4281759568
0.041072898 -0.036213137 0.049029838 4282607443
-0.005201418 -0.007145308 0.021673162 4282222904
-0.0040039793 -0.003523156 0.017671235 4281701173
-0.0021736734 -0.0026907474 0.01653051 4281440563
-0.00034860894 -0.0018585995 0.015390985 4281440564
0.0016414188 -0.0017233193 0.01496537 4281375284
0.0032857656 -0.0001949966 0.013115499 4281310003
0.0049195141 0.0013326854 0.011268016 4281441073
0.0065426379 0.0028598011 0.0094228424 4281245489
0.0081551522 0.0043862462 0.0075800605 4281245744
0.0099405944 0.0052163452 0.0064494703 4280984623
0.011348266 0.0074373335 0.0039014965 4280854063
0.013117772 0.0082665533 0.0027744714 4280918324
0.015265133 0.0077051818 0.0030649453 4280788019
0.01916616 0.00088921934 0.009722542 4281111613
0.024499139 -0.010786749 0.021317881 4281305668
0.030521765 -0.024540253 0.035013199 4281435973
0.034830835 -0.032036208 0.042332973 4282086733
0.037764095 -0.03466814 0.044703234 4282672724
-0.0062928386 -0.0046197921 0.016211677 4283659828
-0.0044625923 -0.0037853122 0.01507248 4282294303
-0.0024728961 -0.0036502928 0.014646765 4281766963
-0.00065045431 -0.002816081 0.013509359 4281440564
0.0013367645 -0.0026810169 0.01308433 4281636659
0.0031513758 -0.0018471628 0.011948794 4281376814
0.0049607269 -0.0010135323 0.010814473 4281506608
0.0065867528 0.00051817298 0.0089718811 4281636914
0.0087443106 -4.5210123e-05 0.0092582852 4281441328
0.010540485 0.0007878691 0.0081269667 4281506354
0.01251743 0.00092288852 0.0077046156 4281572654
0.013928242 0.003150776 0.0051609147 4281637168
0.016088648 0.0025880709 0.0054469835 4280984623
0.019807003 -0.0035520047 0.011380058 4281179189
0.025344182 -0.015962087 0.023651879 4281243958
0.03117696 -0.029062323 0.036608107 4280981818
0.03488832 -0.034492001 0.041795511 4282412368
-0.0055677891 -0.0012316704 0.0096350163 4283405594
-0.0034297407 -0.0017992258 0.0099234432 4281967648
-0.0014534295 -0.0016650185 0.0095006637 4281507118
0.00069283321 -0.0022318363 0.0097875409 4282292009
0.0028445199 -0.0027981251 0.0100733 4282160173
0.004826434 -0.00266321 0.0096495599 4282290224
0.0068084113 -0.0025281981 0.0092258789 4282030379
0.0087904595 -0.002393052 0.0088022687 4281636404
0.010772567 -0.002257809 0.0083787255 4281766963
0.012382962 -0.00072240829 0.0065429285 4281636659
0.014171274 0.00011251867 0.0054151081 4281636659
0.016336707 -0.00045205653 0.005698489 4281636404
0.020640317 -0.0087101609 0.013729651 4281636404
0.025794297 -0.019760802 0.024562638 4281962039
0.031033793 -0.030805498 0.035377499 4281830458
0.034541626 -0.035554044 0.039849605 4282804303
0.0013316795 0.001177609 0.0032490976 4283082764
0.003642112 -9.4890594e-05 0.0042436887 4282750243
0.0063186511 -0.0027720183 0.0066485945 4282618664
0.0086559355 -0.0040424764 0.0076376051 4282160173
0.010820922 -0.004609637 0.0079192258 4281832498
0.012434233 -0.003069669 0.0060860664 4281376304
0.014225243 -0.0022322983 0.0049592294 4281702704
0.016584083 -0.0035008341 0.0059439577 4281570868
0.02069699 -0.011083543 0.013252281 4281701939
0.025850601 -0.02216962 0.024059653 4281765689
0.030890645 -0.032548383 0.034147099 4282025279
0.03459879 -0.038013659 0.039309446 4282869583
0.005119659 -0.000186719 0.0012589376 4284314158
0.0076205879 -0.002167508 0.0029524118 4283470364
0.01013758 -0.0041470677 0.0046424866 4282552109
0.011928611 -0.0033076555 0.0035172012 4281833519
0.0142789 -0.0045813024 0.0045004655 4281571379
0.016639892 -0.0058540702 0.0054814778 4281636914
0.020946864 -0.014164984 0.013473324 4281441328
0.02590655 -0.024582528 0.023553722 4281571123
0.030747524 -0.034290917 0.032916941 4282350404
0.034050979 -0.038367264 0.03666757 4283000909
0.014144208 -0.0062279403 0.0033378676 4283075623
0.016695369 -0.0082114488 0.0050160661 4282094383
0.021002691 -0.016548857 0.012988545 4281701428
0.025962168 -0.026999556 0.023044866 4281832499
0.030405747 -0.035327382 0.030988429 4282676804
0.033906639 -0.040122837 0.035428248 4283590214
0.016560022 -0.0098644197 0.0038490221 4283799313
0.020671856 -0.017520189 0.01110455 4282617899
0.025821621 -0.028712563 0.021835521 4282552364
0.030064361 -0.036359109 0.029063281 4283264833
0.0086692125 -0.03981702 -0.01333728 4282479433
0.008534506 -0.041468695 -0.014503538 4281956173
0.011251606 -0.044328168 -0.012241906 4282280023
0.00552864 -0.039498702 -0.018600689 4282216019
0.0080417469 -0.041617602 -0.017010979 4281821534
-0.016621698 0.0037208796 0.0060339868 4285033514
-0.015274726 0.0066621676 0.0027617645 4285557538
-0.013179854 0.0060912669 0.003059132 4285557284
-0.010453537 0.0027128607 0.0062051509 4285491494
-0.0078595579 3.8161874e-05 0.0086336359 4285033003
-0.019286513 0.0047842488 0.0024518482 4285295909
-0.018235728 0.0091438666 -0.0022393558 4285558559
-0.016461935 0.0099784806 -0.0033635888 4285820699
-0.014386058 0.0094040707 -0.0030637737 4285886234
-0.01183578 0.0067174435 -0.0006324593 4285886488
-0.0094230026 0.0047364086 0.0010840613 4285493279
-0.0069941022 0.0027566403 0.0027971696 4285296419
-0.0045490675 0.00077801943 0.0045069437 4285428509
-0.0024219081 0.00020760298 0.0047961641 4285627408
-0.020580247 0.0088261515 -0.0043819137 4285690139
-0.019253612 0.011783637 -0.0076370742 4285689629
-0.017344981 0.011912562 -0.0080458671 4285557793
-0.015436232 0.012041613 -0.0084546097 4285623583
-0.012746681 0.0086385459 -0.0053168442 4285623838
-0.010506727 0.0073561892 -0.0043108705 4285624348
-0.0080945231 0.0053686202 -0.0025990326 4285493533
-0.0059944838 0.0047940388 -0.0023057032 4285427999
-0.0042226315 0.0056313574 -0.0034274571 4285427999
-0.0024560392 0.0064684302 -0.0045480076 4285034024
-0.0005225502 0.0065999031 -0.0049615037 4284968234
0.0021103397 0.0039107949 -0.0025537442 4284902188
-0.022912949 0.0085185617 -0.0065202955 4285559069
-0.021289952 0.010066345 -0.0083503146 4285690139
-0.019973382 0.013031971 -0.0115969 4286018324
-0.018226184 0.013869166 -0.012712254 4285886743
-0.016024344 0.01257959 -0.011701562 4285886998
-0.013499785 0.0098735243 -0.0092776176 4285953044
-0.01095375 0.0071689934 -0.0068582054 4285690139
-0.0088701397 0.0065909699 -0.0065630581 4285558813
-0.0067810938 0.0060133785 -0.0062689576 4285559068
-0.0051865205 0.0075601339 -0.0080923103 4285558813
-0.0036025383 0.0091062486 -0.0099132787 4285886744
-0.0015132241 0.0085290596 -0.0096190255 4285951769
0.00093080476 0.0065375045 -0.007918397 4285885978
0.0037455633 0.003132768 -0.0048148185 4285754908
0.0062271059 0.0011440441 -0.003122082 4285493278
0.0089073889 -0.0015503466 -0.00073065236 4285630978
-0.025233798 0.0082210228 -0.0086544082 4285098793
-0.023468263 0.0090613142 -0.0097723305 4285558813
-0.021707959 0.0099013746 -0.010889054 4285624093
-0.020100608 0.011452645 -0.012712492 4285624093
-0.018353358 0.012292035 -0.013826264 4285689628
-0.016152009 0.010997996 -0.012818688 4285689883
-0.013939846 0.0097047612 -0.011813303 4285624093
-0.011558451 0.0077017024 -0.010104622 4285558558
-0.0096442923 0.0078314021 -0.010514319 4285558558
-0.0077300221 0.0079612061 -0.010923961 4285690139
-0.0061485656 0.0095114559 -0.012741253 4285690139
-0.0045777075 0.011061072 -0.014556207 4285689373
-0.0023302659 0.0097709298 -0.013557941 4285623838
0.00010241196 0.0077719837 -0.0118597 4285820699
0.002905447 0.0043553784 -0.0087616686 4285689628
0.0053756163 0.0023592487 -0.0070713293 4285493534
0.008409325 -0.0017629415 -0.0032829586 4285362209
0.011475116 -0.0058827922 0.00049859844 4285034279
0.014009546 -0.0078742355 0.0021755081 4285169174
-0.027542785 0.0079335421 -0.010784317 4285230119
-0.025919631 0.0094899535 -0.012608182 4285885979
-0.023880236 0.0089037269 -0.012307362 4285754908
-0.021980286 0.0090317875 -0.012714501 4285820699
-0.020080194 0.0091599673 -0.013121595 4285689628
-0.01848048 0.010715187 -0.014940077 4285558303
-0.016126685 0.0087033659 -0.01323043 4285558813
-0.014067952 0.0081189722 -0.012933364 4285558813
-0.011845496 0.0068221465 -0.011933381 4285624348
-0.010256004 0.0083771199 -0.013749348 4285624348
-0.0085134804 0.0092189163 -0.01486012 4285624348
-0.0071087629 0.011485264 -0.017374314 4285952789
-0.0053820871 0.012326207 -0.018481536 4285689629
-0.0031458139 0.011030875 -0.017484097 4285623839
-0.00072450936 0.0090245008 -0.015788266 4285624094
0.002066806 0.005596064 -0.012695761 4285690139
0.0050645061 0.0014580786 -0.0089094741 4285493533
0.0086411983 -0.004811503 -0.0030333232 4285493279
0.01226601 -0.011077672 0.0028326437 4285427743
-0.02821669 0.0092168525 -0.014730778 4285493278
-0.026603989 0.010776959 -0.0165492 4285885978
-0.024433494 0.009471491 -0.015541741 4285886744
-0.022252187 0.0081669092 -0.014536561 4286018324
-0.020354897 0.0082948804 -0.014943072 4285755418
-0.018457472 0.0084229708 -0.015349528 4285624093
-0.016254425 0.0071201324 -0.014348727 4285624349
-0.01435142 0.0072488114 -0.014756221 4285624349
-0.012448311 0.0073776245 -0.015163656 4285559069
-0.011027358 0.0096514598 -0.017676668 4285624349
-0.0092954747 0.010494731 -0.018783569 4285558558
-0.007734932 0.012052398 -0.020590028 4285755929
-0.0060162172 0.012895003 -0.021693947 4285887253
-0.0037884563 0.011594668 -0.02069791 4285886999
-0.0012017302 0.0088670254 -0.018306036 4285821718
0.0019367598 0.0039993078 -0.013823296 4285755929
0.0054715723 -0.0022931471 -0.0079527553 4285558814
0.0097829811 -0.011436224 0.00069684349 4285493279
0.013239909 -0.017007753 0.005847957 4285427744
-0.030100249 0.006796889 -0.014731117 4285361954
-0.028889142 0.010518223 -0.018664483 4285493023
-0.027147651 0.01136335 -0.019772559 4285623839
-0.024985641 0.010052919 -0.018766552 4285623584
-0.022812843 0.0087433159 -0.017762791 4285886743
-0.020481974 0.0067164302 -0.016058063 4285820954
-0.018584684 0.0068445057 -0.0164645 4285689628
-0.016534701 0.0062549561 -0.016168879 4285624349
-0.014789741 0.0071009696 -0.01727722 4285624348
-0.013207909 0.0086641163 -0.019085234 4285624349
-0.01163666 0.010226682 -0.020890944 4285624094
-0.0097494945 0.010354608 -0.021294819 4285623839
-0.0078622326 0.010482654 -0.021698633 4285623838
-0.0059748851 0.010610834 -0.022102365 4285623838
-0.0037449449 0.0093061626 -0.021109981 4285623838
-0.0011564083 0.0065697879 -0.018724933 4285624349
0.0021599345 0.00097064674 -0.013556886 4285558813
0.0062361173 -0.0074891821 -0.0056126155 4285427998
0.01110417 -0.018807419 0.005100958 4285296163
-0.032382168 0.0065367669 -0.016848331 4284966958
-0.030895017 0.0088271499 -0.01936667 4285558813
-0.029423721 0.011116616 -0.021881567 4285690138
-0.027551122 0.011242546 -0.02228306 4285558558
-0.025678389 0.01136861 -0.022684487 4285558048
-0.023372345 0.0093332976 -0.02097936 4285755419
-0.02105017 0.0072992295 -0.019277647 4285821463
-0.018861562 0.0059864521 -0.018280284 4285689628
-0.016814556 0.0053944737 -0.017985644 4285624349
-0.015382353 0.0076820627 -0.020491622 4285624348
-0.013966039 0.0099686533 -0.022994064 4285689883
-0.012244835 0.010815471 -0.024095569 4285952533
-0.010039676 0.0095044076 -0.023101388 4285952533
-0.0076580122 0.0074751005 -0.021411804 4285820953
-0.0057654642 0.0076036006 -0.021816673 4285624094
-0.0035306923 0.0062948763 -0.020828584 4285624349
-0.00076393411 0.0028315037 -0.017755037 4285624860
0.0030880868 -0.0049398839 -0.010515227 4285493789
0.0077152215 -0.015579678 -0.00050897151 4285427998
0.011877246 -0.024059996 0.007397715 4285493789
-0.033293039 0.0093073919 -0.022179021 4285493023
-0.03168796 0.010879911 -0.02398633 4285559069
-0.029957183 0.011728581 -0.025089011 4285755928
-0.028231591 0.012577053 -0.026190542 4285821719
-0.026086569 0.011256561 -0.025187306 4285821719
-0.023786537 0.0092142373 -0.023485767 4285821718
-0.021176614 0.0057280511 -0.020387515 4285689884
-0.018988505 0.0044107884 -0.019393282 4285624093
-0.016941819 0.0038165748 -0.019100187 4285624348
-0.015664078 0.0068327859 -0.022299746 4285690138
-0.014250025 0.0091258213 -0.024796903 4285886998
-0.012531467 0.0099747032 -0.025896285 4285820953
-0.010492347 0.0093803778 -0.025601204 4285886743
-0.0079511516 0.0066228211 -0.023219181 4286018323
-0.0057249591 0.005308941 -0.022232508 4285689883
-0.0033171177 0.0032749996 -0.02055319 4285624348
-0.00019893423 -0.0016405433 -0.016099982 4285493278
0.0041903257 -0.011597246 -0.0067984685 4285493534
0.0088332966 -0.022269055 0.0031803157 4285493789
0.012103826 -0.027173936 0.00760125 4285163819
-0.033417575 0.0077499896 -0.023279369 4285492769
-0.031545542 0.0078756437 -0.023680912 4285427488
-0.029945403 0.0094523206 -0.02548389 4285492768
-0.0282171 0.01030311 -0.026584378 4285558814
-0.026493996 0.01115372 -0.027683703 4285558813
-0.024199955 0.0091043189 -0.025985662 4285493023
-0.021889783 0.0070561171 -0.024290998 4285493023
-0.019414112 0.0042846054 -0.021901868 4285558813
-0.017677151 0.0051365346 -0.023003805 4285624349
-0.016100101 0.0067124292 -0.024801275 4285821209
-0.014848366 0.0097357854 -0.027988782 4285623838
-0.013137762 0.010586299 -0.029084813 4285557538
-0.010944273 0.0092655644 -0.028094592 4285623584
-0.0080785118 0.0050517544 -0.024328727 4285755164
-0.005516734 0.0022868291 -0.021957403 4285689629
-0.0029335208 -0.00047652423 -0.01959059 4285624604
0.00071141496 -0.0075759292 -0.013071783 4285493534
0.0056421869 -0.019730896 -0.0017190445 4285493534
0.009770155 -0.028266683 0.006156316 4285296418
-0.034263119 -0.00048657507 -0.017669845 4285163563
-0.03288947 0.002552703 -0.020877881 4285558048
-0.031137414 0.0034070462 -0.021982027 4285558048
-0.029526398 0.0049888566 -0.023784144 4285624093
-0.028064415 0.0072975829 -0.026282577 4285492768
-0.026335925 0.0081506893 -0.027381431 4285493534
-0.024324916 0.0075492784 -0.027084175 4285559324
-0.02201543 0.0054944009 -0.02539419 4285559324
-0.019988164 0.0048943162 -0.025100255 4285558813
-0.018411025 0.0064745396 -0.026894676 4285558814
-0.016998935 0.0087805539 -0.029381875 4285821719
-0.01544559 0.010359377 -0.031171041 4285887253
-0.01374295 0.011211522 -0.032263786 4285689628
-0.011557955 0.0098857731 -0.031274907 4285689628
-0.0087014213 0.0056580901 -0.027516702 4285821209
-0.0056449138 0.00070717931 -0.02307298 4285755673
-0.0020393468 -0.0064171255 -0.016561851 4285558814
0.0021392554 -0.015713096 -0.0079885926 4285559069
0.0065632053 -0.025729224 0.0012605395 4285427489
-0.032493412 -0.0019362569 -0.019190632 4285491493
-0.030464649 -0.0025391281 -0.018899124 4285492003
-0.028837413 -0.00095186383 -0.020701535 4285557539
-0.027220689 0.00063486397 -0.022501646 4285492003
-0.025896497 0.0036800206 -0.025692295 4285557793
-0.024162494 0.0045358241 -0.026790706 4285493023
-0.022433691 0.0053913742 -0.027887866 4285427234
-0.020710096 0.0062466711 -0.028983833 4285493278
-0.019143395 0.0078305379 -0.030772775 4285558813
-0.017741613 0.01014249 -0.03325301 4285624858
-0.01619871 0.011725027 -0.035036735 4285821464
-0.014187325 0.011122063 -0.034740642 4285887254
-0.011845838 0.0090634301 -0.033061884 4285821463
-0.0089931786 0.0048221871 -0.02931245 4285690394
-0.0052700005 -0.0030554011 -0.022116065 4285559068
-0.00080661476 -0.013839103 -0.012171391 4285493533
0.0035638809 -0.023889899 -0.0029334035 4285362209
0.0073064044 -0.031026676 0.0035325065 4285031984
-0.032228895 -0.0057101697 -0.01821289 4285425959
-0.03019245 -0.0063147545 -0.01792465 4285426469
-0.028421491 -0.005454652 -0.019029591 4285491749
-0.026932031 -0.0031308755 -0.02152431 4285426213
-0.025317624 -0.0015398487 -0.023320608 4285557794
-0.023857236 0.00078220665 -0.025808929 4285492768
-0.022120386 0.0016404688 -0.026906224 4285492514
-0.020835243 0.0046921745 -0.030081902 4285624094
-0.019268326 0.006280452 -0.031867694 4285558813
-0.01786615 0.008599028 -0.034343217 4285559069
-0.016323023 0.010185994 -0.036123779 4285558814
-0.014471471 0.010311306 -0.036520176 4285492769
-0.012133304 0.008245796 -0.034845479 4285493023
-0.0091197044 0.0032609254 -0.030415088 4285493533
-0.0047286227 -0.0075609311 -0.020479143 4285493533
8.2947314e-05 -0.019836783 -0.0091829682 4285428254
0.0042939261 -0.02918791 -0.00065837614 4285428253
0.0071702786 -0.032698929 0.0023516547 4285493278
-0.032355353 -0.0072929934 -0.019331226 4285426214
-0.030451857 -0.0071653277 -0.019739591 4285426469
-0.028548211 -0.0070375428 -0.020147903 4285426214
-0.026782401 -0.0061754733 -0.021250058 4285426468
-0.025021791 -0.0053135902 -0.02235106 4285492004
-0.02340968 -0.0037182197 -0.02414359 4285426468
-0.021954104 -0.0013897792 -0.026625998 4285492514
-0.020514406 0.00093765557 -0.029104885 4285492513
-0.019090585 0.0032641813 -0.031580314 4285558304
-0.017374679 0.0041235611 -0.032671288 4285624094
-0.015977327 0.0064485297 -0.035140887 4285493024
-0.014117908 0.0065743774 -0.035538964 4285361443
-0.011772424 0.004502736 -0.033870656 4285295653
-0.0082582496 -0.0026941746 -0.027388368 4285296163
-0.0036866814 -0.014280379 -0.016791679 4285296419
0.0011403561 -0.026592672 -0.0055260975 4285361954
0.0045042261 -0.032312371 -0.00045820512 4285164329
-0.032092348 -0.011086233 -0.018367222 4285491749
-0.030180991 -0.010958046 -0.018777279 4285492004
-0.028674893 -0.0086201206 -0.021266008 4285360679
-0.027046859 -0.0070194677 -0.023058962 4285426213
-0.025007911 -0.0076280385 -0.022774203 4285426469
-0.02324979 -0.0067640319 -0.023872998 4285492004
-0.021351069 -0.0066361204 -0.024279932 4285492258
-0.020046107 -0.0035654753 -0.027447047 4285492259
-0.018460087 -0.0019671097 -0.029230531 4285492514
-0.017038435 0.00036597997 -0.031700619 4285426468
-0.015476197 0.0019629747 -0.033478841 4285426469
-0.01360625 0.0020895153 -0.03387918 4285426724
-0.011412598 0.00074671209 -0.032905065 4285361443
-0.0078923441 -0.0064718798 -0.026440073 4285493279
-0.0031486452 -0.018827401 -0.015184076 4285427488
0.0013462268 -0.029708296 -0.0053183343 4285295909
-0.031571068 -0.016370766 -0.016027333 4285294633
-0.030043423 -0.014024876 -0.018516023 4285360423
-0.028666571 -0.01094117 -0.021692568 4285294888
-0.027035639 -0.0093359649 -0.023482902 4285360423
-0.024994351 -0.0099465474 -0.0232003 4285492514
-0.023233533 -0.0090802312 -0.024298048 4285492259
-0.021477908 -0.0082140788 -0.025394626 4285492259
-0.020024076 -0.005872488 -0.027866933 4285492259
-0.018284231 -0.0050071776 -0.028959969 4285492258
-0.016549572 -0.0041421354 -0.030051753 4285492258
-0.014820162 -0.0032773465 -0.031142345 4285426723
-0.012937021 -0.0031499192 -0.03154552 4285426724
-0.010568894 -0.0052332729 -0.029891698 4285295398
-0.0070345886 -0.01247292 -0.0234458 4285360934
-0.0027789809 -0.022655264 -0.014273264 4285361189
0.0012121387 -0.031359583 -0.0064844731 4285229609
-0.026474938 -0.014619797 -0.021152962 4285228843
-0.024560764 -0.014491096 -0.021563388 4285361188
-0.023074798 -0.012140945 -0.024037998 4285426979
-0.021459244 -0.010532036 -0.025821587 4285426724
-0.020150483 -0.0074435323 -0.028976709 4285426468
-0.018410601 -0.006576024 -0.030068155 4285426724
-0.016522471 -0.0064484999 -0.030472578 4285426723
-0.014634233 -0.0063208565 -0.030876936 4285426724
-0.012745906 -0.0061930791 -0.031281225 4285426723
-0.010373134 -0.0082827806 -0.029633239 4285361188
-0.0068354271 -0.015544251 -0.023204111 4285360933
-0.0027439371 -0.025018439 -0.014737514 4285295398
0.00090862438 -0.032271869 -0.0083327945 4285163563
-0.022346318 -0.018180877 -0.021037977 4285360679
-0.02115038 -0.01433903 -0.024879657 4285295398
-0.019833043 -0.011241131 -0.028030207 4285295143
-0.018386319 -0.0088867098 -0.030491304 4285360678
-0.016648944 -0.0080170482 -0.031580519 4285426468
-0.014760856 -0.0078894272 -0.031984858 4285492259
-0.012555465 -0.0092448816 -0.031022964 4285426723
-0.010016765 -0.012082249 -0.028698273 4285426979
-0.0063090734 -0.020106561 -0.021604553 4285360933
-0.0027092174 -0.027385727 -0.01520467 4285295143
0.00060551986 -0.033179462 -0.010177711 4285229099
-0.018925592 -0.018029854 -0.024357662 4285031984
-0.017760664 -0.014178857 -0.02818452 4285229098
-0.016316105 -0.011817813 -0.030640297 4285360423
-0.014575928 -0.010945693 -0.031728398 4285492514
-0.012682557 -0.01081761 -0.032133792 4285492258
-0.010144729 -0.013663866 -0.029815339 4285426723
-0.0066029131 -0.020969138 -0.023419164 4285426468
-0.003007669 -0.028270647 -0.017034324 4285294888
-0.013769355 -0.016995251 -0.028755944 4285359914
-0.012018383 -0.016120099 -0.029844675 4285426214
-0.0096289925 -0.018228501 -0.028214671 4285360678
-0.0064056218 -0.0240639 -0.023194039 4285426469
-0.0033057369 -0.029150851 -0.018860647 4285229099
