# .PCD v0.7 - Point Cloud Data file format
VERSION 0.7
FIELDS x y z rgba
SIZE 4 4 4 4
TYPE F F F U
COUNT 1 1 1 1
WIDTH 965
HEIGHT 1
VIEWPOINT 0 0 0 1 0 0 0
POINTS 965
DATA ascii
-0.026189607 -0.010243438 0.029020516 4286399549
-0.027493265 -0.01628498 0.032526515 4287118139
-0.026183058 -0.012614436 0.028536165 4286333758
0.0026890486 0.0022648722 0.0090067405 4287119668
0.0067291874 -0.0053349286 0.016303869 4287642929
0.011019355 -0.013633698 0.024289528 4287970094
0.014792006 -0.019819118 0.030160291 4287839788
-0.027771059 -0.017253689 0.030611308 4286202943
-0.026462737 -0.013572365 0.026629513 4286268223
-0.0079352781 0.010690257 -0.001023503 4287775019
-0.0054764748 0.0087045357 0.00067165866 4288101673
-0.0031819269 0.0074261129 0.0016617514 4288100654
-0.00051060691 0.004736796 0.0040518641 4288297003
0.0027391911 -6.7956746e-05 0.0085390918 4288100653
0.0065914858 -0.0069864243 0.015118266 4288166443
0.010688266 -0.014606401 0.02238548 4288101419
0.013681661 -0.017991491 0.025447315 4288167208
0.016112683 -0.019259833 0.026408801 4288102693
-0.02575298 -0.0094138384 0.019343721 4286202689
-0.011918608 0.0088310242 -0.0013444275 4287316274
-0.0098209418 0.0082549304 -0.001054287 4287642928
-0.0077178627 0.0076793432 -0.00076526962 4288035373
-0.0052544065 0.0056873932 0.00092396885 4288297259
-0.0029550083 0.0044048503 0.0019098092 4288297004
-0.00046205521 0.0024151504 0.0035929084 4288100399
0.0029744841 -0.0031127855 0.008767413 4288165678
0.006453814 -0.008637622 0.013932871 4288231724
0.010357585 -0.015574433 0.020484855 4288231724
0.013153736 -0.018263444 0.02284213 4288231724
0.0155789 -0.019536547 0.023801582 4289214749
-0.025742825 -0.011772767 0.018867353 4286333504
-0.026118647 -0.00023382902 0.0071552061 4286136644
-0.018471275 0.0096873045 -0.0040630875 4287577649
-0.016392887 0.009107329 -0.003770709 4287904559
-0.013975825 0.0071051419 -0.0020767525 4288428074
-0.011711933 0.0058153197 -0.0010868981 4288623914
-0.0094372928 0.0045263693 -9.932369e-05 4288230958
-0.0075011589 0.0046599433 -0.00051321089 4288100654
-0.0050330274 0.0026616529 0.0011701845 4288100654
-0.00290877 0.0020855591 0.0014532115 4288297003
-0.00059647858 0.00079966336 0.0024330802 4288100399
0.0026531443 -0.0040358901 0.0068975594 4288296749
0.0061281864 -0.0095786229 0.012050921 4288231213
0.0096459817 -0.015118241 0.017195182 4288428074
0.012239911 -0.017107137 0.018852213 4288754983
0.014457887 -0.01767607 0.019115726 4289672729
0.01687989 -0.018953718 0.020072715 4288758809
-0.026023146 -0.012705699 0.016979365 4286137153
-0.026103351 -0.0025613457 0.0067007076 4286202178
-0.025806885 0.0054338425 -0.0014522597 4286398273
-0.024650473 0.0091380775 -0.0053768801 4287903283
-0.022897597 0.0099832937 -0.0064875018 4288492333
-0.020674657 0.0086858496 -0.0054925187 4288492843
-0.018279824 0.0066752657 -0.0037988164 4288820009
-0.016196422 0.0060934573 -0.0035091881 4288558379
-0.013941128 0.0047985315 -0.0025208443 4288427308
-0.011675075 0.00350447 -0.0015347637 4288296749
-0.0093982592 0.0022113025 -0.00055088848 4288231213
-0.0074595883 0.0023450106 -0.00096534193 4288100399
-0.0053437166 0.0017659739 -0.00068219565 4288035119
-0.0032224469 0.0011874512 -0.00040017255 4288035119
-0.00073086843 -0.00081554055 0.0012734551 4288296749
0.0025173277 -0.0056665689 0.0057268646 4288362028
0.0058029573 -0.010514893 0.010172356 4288296749
0.0087450556 -0.013936624 0.013220655 4288231724
0.011327596 -0.015932851 0.014875198 4289016869
0.013534555 -0.01650475 0.015139433 4289737498
0.016143851 -0.018498927 0.016788485 4289018654
-0.026383508 -0.003458865 0.0048388913 4286333504
-0.025787372 0.0031266287 -0.0018928424 4286725694
-0.024627518 0.0068420768 -0.005810081 4288361008
-0.022716347 0.006973125 -0.0062192222 4288492333
-0.020646807 0.006387949 -0.0059284214 4288885544
-0.018410902 0.0050870478 -0.0049393475 4288950824
-0.016164221 0.0037870407 -0.0039525479 4288624169
-0.013740502 0.0017720535 -0.0022697523 4288689448
-0.011638533 0.0011895448 -0.0019855686 4288296749
-0.0093595423 -0.00010794401 -0.0010053813 4288427564
-0.0077668764 0.0014564693 -0.0028133392 4288231469
-0.0056540072 0.00087505579 -0.0025312304 4288166188
-0.0035357215 0.00029407442 -0.002250161 4288035374
-0.0010474995 -0.0017157495 -0.00058069825 4288297514
0.002011653 -0.0058679283 0.0031680278 4287904304
0.0052905045 -0.010732055 0.0076035503 4287903794
0.0078456271 -0.012736961 0.0092590135 4287969328
0.010416787 -0.014740571 0.010911101 4289409824
0.012612745 -0.015315473 0.011176098 4289802524
0.01540895 -0.018030569 0.013513984 4289998618
-0.025918234 0.0015344024 -0.003036404 4286725948
-0.024604876 0.0045419335 -0.006246252 4288099633
-0.022691172 0.0046731383 -0.006655952 4288230959
-0.020619262 0.0040858686 -0.006367255 4288427308
-0.018220458 0.0020623952 -0.0046842182 4288820519
-0.016132336 0.0014764518 -0.0043988368 4288951333
-0.01403879 0.00089104474 -0.0041145617 4289278243
-0.012108553 0.0010239333 -0.0045273872 4288493354
-0.0098354109 -0.00027831644 -0.0035492573 4288101164
-0.0080737658 0.00057262927 -0.0046579624 4288100654
-0.0063173845 0.0014233366 -0.0057654483 4288035373
0.0097002629 -0.014246508 0.0076508354 4289083169
0.012083318 -0.015540116 0.0086062569 4290062879
0.014675193 -0.017548695 0.010249268 4290325783
0.016881518 -0.018124789 0.010510558 4289736989
-0.025749277 -0.0015001819 -0.0027828552 4286922553
-0.024429988 0.001516521 -0.0059874905 4288034353
-0.022511076 0.001648061 -0.0063983193 4288427564
-0.020592045 0.0017797202 -0.0068090921 4288623658
-0.018191244 -0.000250265 -0.0051313238 4288886054
-0.016264003 -0.00011781603 -0.0055436874 4289082148
-0.01417077 -0.00070545077 -0.0052609826 4288820518
-0.012240678 -0.00057258457 -0.0056737894 4288232488
-0.0099680461 -0.0018792674 -0.004698799 4287904813
-0.0083802491 -0.00030647963 -0.006499189 4287316274
0.0089848675 -0.013738841 0.0044002607 4291112203
0.011359407 -0.015037477 0.0053542927 4290652183
0.013744628 -0.016335212 0.006306082 4290913814
0.01614055 -0.017632052 0.0072557088 4289867293
0.018140603 -0.017492831 0.0068290811 4289083679
-0.025880393 -0.0030962229 -0.0039291698 4286661688
-0.024712887 0.00065259635 -0.007823729 4287904303
-0.022951815 0.0015071407 -0.0089297006 4288231724
-0.020722847 0.0001924336 -0.0079490105 4288428073
-0.01864348 -0.00039859861 -0.0076651471 4289017634
-0.016558673 -0.00098913908 -0.0073823566 4288429094
0.0080781989 -0.01249703 0.00047171861 4289018399
0.010246459 -0.013080403 0.00073770434 4290456854
0.013211077 -0.016544178 0.0037490074 4290063644
0.015601134 -0.017845854 0.0046966095 4290260249
0.017595703 -0.01770699 0.0042711589 4290064153
0.019178756 -0.016128726 0.0024760794 4289216279
-0.02484319 -0.00093212724 -0.0089618852 4287643949
-0.023082074 -7.5414777e-05 -0.010066264 4288167974
-0.021011125 -0.00066938996 -0.0097822724 4288037414
0.0075574815 -0.01268287 -0.002071647 4289606938
0.0097200759 -0.013268828 -0.0018060692 4290128923
0.012480713 -0.016021565 0.00051345117 4290717719
0.014862243 -0.017328218 0.0014596302 4289670943
0.016645759 -0.016467869 0.00035208836 4290260248
0.018629495 -0.016329646 -7.0961192e-05 4290064408
0.031612728 -0.025729708 0.0073414072 4288887328
0.035406385 -0.031354085 0.012349976 4288166954
0.040139727 -0.039857537 0.020066733 4287773999
0.0048859697 -0.012270451 -0.0048746858 4287972133
0.0070375297 -0.012859493 -0.0046084654 4288950568
0.0091944598 -0.013448104 -0.0043432731 4289539363
0.011948861 -0.016209997 -0.0020289496 4289604899
0.01432455 -0.017521486 -0.0010847319 4289932064
0.016508188 -0.018107817 -0.00082500465 4289539363
0.018697161 -0.018693641 -0.00056631677 4289408294
0.021515634 -0.021450654 0.0017347354 4288362284
0.02414472 -0.023482367 0.0033507682 4287904304
0.02657639 -0.024789274 0.0042834654 4287904303
0.02923478 -0.026818685 0.0058934428 4288165679
0.03212788 -0.029569983 0.0081789494 4287969073
0.036149308 -0.035934396 0.013851469 4287838004
0.040442795 -0.043018088 0.020191548 4287838258
0.0049399976 -0.014617547 -0.005353922 4288626464
0.0072857626 -0.015935868 -0.0044068377 4289081638
0.0094476938 -0.016526252 -0.0041443612 4289147174
0.012403745 -0.02002351 -0.0011556391 4289015849
0.01438719 -0.01988554 -0.0015787948 4288950313
0.016775711 -0.021200396 -0.0006404724 4288819754
0.019174887 -0.022514336 0.00029562972 4288296238
0.022000477 -0.025279611 0.0025886819 4288230958
0.02421578 -0.025865555 0.0028403141 4287838004
0.026862819 -0.027902469 0.0044477396 4288034864
0.029525829 -0.029938072 0.0060518309 4287773489
0.03242337 -0.032697819 0.008329913 4287838513
0.036005877 -0.037631437 0.012633679 4287903794
0.040297344 -0.044737205 0.018957956 4287641654
0.0051827058 -0.017698377 -0.0051541273 4288298279
0.0075332746 -0.019020706 -0.0042113503 4289081638
0.010088898 -0.021071412 -0.0025899205 4289016359
0.012660546 -0.023120895 -0.00097182579 4288492844
0.014848853 -0.023711413 -0.00071643293 4288427309
0.017244849 -0.025030077 0.00021701679 4288492589
0.019651521 -0.026347928 0.0011483245 4288034864
0.022276536 -0.028393164 0.0027553551 4288034353
0.024496838 -0.028980941 0.0030043013 4287772979
0.026935484 -0.030296169 0.0039290786 4288165679
0.029384768 -0.031610489 0.0048516318 4288230958
0.03228141 -0.03437908 0.0071234107 4288165679
0.035862461 -0.039328143 0.011416137 4287838515
0.040151913 -0.046455957 0.017724631 4287641653
0.0083545409 -0.024308905 -0.001982566 4288492843
0.010922799 -0.026365325 -0.00036870316 4288231214
0.013113435 -0.026957996 -0.00011552125 4288100399
0.015309419 -0.027550161 0.00013662875 4288296493
0.017308582 -0.027410969 -0.00028979406 4288231214
0.01992223 -0.029463738 0.0013147481 4288034609
0.022136876 -0.030054219 0.0015631951 4287969073
0.024356842 -0.030644208 0.0018105991 4287772979
0.027007801 -0.032693982 0.0034074672 4288361518
0.029459238 -0.034012586 0.0043263584 4288623659
0.032357644 -0.036789775 0.0065912381 4287969073
0.035939902 -0.041754082 0.010872349 4287772468
0.040006492 -0.048174389 0.016491538 4287706933
0.008600099 -0.027417406 -0.0018040016 4288492843
0.011172976 -0.02948004 -0.00019603968 4288100399
0.013171978 -0.029341102 -0.00062260404 4288034863
0.015370302 -0.029935353 -0.00037254393 4288034864
0.017371975 -0.029795989 -0.00079949945 4287904048
0.019782931 -0.03112226 0.00012436509 4287969328
0.022204552 -0.032447666 0.0010460429 4287969328
0.02484682 -0.034504749 0.0026398078 4288165679
0.027505077 -0.03656058 0.0042302758 4288295983
0.030179298 -0.038615137 0.0058173761 4288361518
0.033087492 -0.041400433 0.0080737285 4288034353
0.036458313 -0.045647673 0.011669574 4287445303
0.0084627103 -0.029062331 -0.0029848181 4288492844
0.01064731 -0.029659942 -0.0027336925 4288362028
0.013033725 -0.030992679 -0.0018081143 4288100143
0.015032575 -0.030853644 -0.002234567 4287903794
0.017435018 -0.032185063 -0.0013121776 4287838515
0.020257045 -0.034985781 0.00095558167 4287707953
0.02310041 -0.037784889 0.0032188818 4287772979
0.025755301 -0.039847612 0.0048050545 4287772468
0.028638646 -0.042643659 0.0070600361 4288295728
0.005769901 -0.028629772 -0.0057673194 4289085973
0.0085162725 -0.031445175 -0.0034903847 4288558123
0.010509612 -0.031306759 -0.0039158389 4288492844
0.012699232 -0.031906091 -0.0036673099 4288231213
0.014695257 -0.031767227 -0.0040931441 4288231469
0.017497711 -0.034578204 -0.0018277913 4287838258
0.020934341 -0.039599508 0.0024497211 4287446324
0.024201361 -0.04388091 0.0060476996 4287249464
0.0052571185 -0.028786212 -0.0082910247 4288103458
0.0078065023 -0.030870348 -0.0066927597 4288362793
0.0099851023 -0.031472802 -0.0064435415 4288036394
0.012169046 -0.03207469 -0.0061954111 4287775273
-0.019200739 0.039159544 0.021754591 4282542929
-0.018249843 0.04329811 0.016933924 4281436738
-0.017330915 0.047434606 0.012120107 4281372223
-0.016443949 0.051568918 0.0073132273 4280395830
-0.014396947 0.051031329 0.0076452065 4281177913
-0.010787822 0.044491768 0.014569247 4280983094
-0.028516393 0.043742254 0.014893794 4280914499
-0.026619237 0.043872625 0.014487861 4280980543
-0.024413794 0.042662214 0.015551886 4281307708
-0.0228245 0.044133596 0.013676053 4281437504
-0.021564581 0.046944499 0.010334857 4280851258
-0.020163845 0.049084134 0.0077315103 4280721208
-0.018779024 0.051222712 0.0051316712 4279873333
-0.017745011 0.054699317 0.0010710284 4281502274
-0.0158871 0.054827511 0.00067387894 4281632834
-0.013165202 0.05161006 0.0039316546 4281438015
-0.0083110593 0.040367007 0.015948603 4281177914
-0.032726247 0.04325521 0.013104426 4281695563
-0.032293517 0.050117023 0.0053485632 4279481654
-0.030874293 0.052264087 0.0027458966 4280263994
-0.028563675 0.050373174 0.0045503788 4280004659
-0.026082985 0.047810763 0.0070848726 4279809839
-0.023893908 0.046594828 0.008149216 4281307199
-0.022490166 0.048741177 0.0055500418 4281307708
-0.021264244 0.051558599 0.0022226684 4280981564
-0.019895013 0.053702727 -0.00036901049 4279809073
-0.018541712 0.055845797 -0.0029571801 4279678003
-0.016524661 0.055301689 -0.0026220884 4279612979
-0.013984401 0.052743919 -9.9932775e-05 4280004913
-0.010195788 0.04548949 0.0075193811 4280395828
-0.0056365095 0.035555184 0.018039187 4280720444
-0.035167608 0.043584183 0.010178765 4281242683
-0.034285564 0.048442513 0.0046369955 4280919089
-0.033149395 0.051947512 0.00057030842 4281634109
-0.031594712 0.053425036 -0.0012918059 4281698114
-0.029446457 0.052201748 -0.00022216886 4281046589
-0.026979964 0.049629524 0.0023088269 4280916283
-0.024648331 0.04773353 0.0041040592 4281047863
-0.022936732 0.048536733 0.0029732753 4281177403
-0.021553792 0.050688308 0.00038347766 4281047099
-0.020186778 0.052838869 -0.0022028498 4280981819
-0.019002773 0.055662356 -0.0055146404 4281176894
-0.016991343 0.055115584 -0.0051799566 4280851004
-0.014457263 0.05254861 -0.0026630536 4281176383
-0.011201371 0.047289565 0.0027582627 4281307709
-0.0080803819 0.042706758 0.007443836 4281307964
-0.0031175949 0.031396423 0.019382225 4281307964
-0.03594153 0.035789769 0.016063007 4281694288
-0.036137033 0.046090387 0.0046587233 4281242173
-0.035269845 0.050963089 -0.00086847693 4280136238
-0.033857886 0.053122766 -0.0034599639 4280200498
-0.032165449 0.053926513 -0.0045852708 4280460599
-0.03002565 0.052698158 -0.0035170652 4279874354
-0.027721528 0.050793596 -0.0017209668 4279549228
-0.025245041 0.048213296 0.00080140494 4281047609
-0.023223653 0.047664709 0.0011320356 4281112379
-0.021681394 0.049146153 -0.0007238891 4281046843
-0.020478141 0.051979676 -0.0040333495 4281242429
-0.018795516 0.05278331 -0.0051561398 4281111870
-0.016609479 0.051558733 -0.0040974608 4281111870
-0.014240436 0.04965917 -0.002314778 4281111869
-0.012030173 0.048436426 -0.0012611561 4281241918
-0.010164287 0.048565365 -0.0016598701 4279353898
-0.0066761076 0.042617202 0.0044618715 4280200499
-0.035984386 0.04318171 0.0050096828 4281173833
-0.035538618 0.050110318 -0.002700204 4281242939
-0.034128893 0.052276414 -0.0052863508 4280655163
-0.03243902 0.053082153 -0.0064095017 4280329019
-0.030302372 0.051849194 -0.0053439476 4280394299
-0.028001565 0.049937725 -0.003552001 4280916028
-0.025528587 0.047348335 -0.0010354258 4281242173
-0.023668826 0.047476247 -0.0014332756 4281242429
-0.021808945 0.047604248 -0.0018310901 4281112123
-0.020277012 0.049089484 -0.0036815461 4280981818
-0.018422265 0.049217291 -0.0040781451 4281046333
-0.016567416 0.049345203 -0.0044746948 4280916028
-0.014540434 0.048795141 -0.0041465648 4280982074
-0.012857467 0.049601264 -0.0052676797 4280459833
-0.011357147 0.051084697 -0.007111026 4280199479
-0.0086070187 0.047825307 -0.0038917623 4280133944
-0.0036372654 0.036440562 0.0079897996 4279873078
0.0045753755 0.013551746 0.032121845 4280133944
-0.034853805 0.035487391 0.010463644 4281759059
-0.035094637 0.045850977 -0.00088204071 4280915009
-0.034399446 0.051434737 -0.0071093943 4280849475
-0.032564376 0.051560596 -0.0075022262 4280849729
-0.030428197 0.050323159 -0.0064398609 4280915008
-0.028281178 0.049086519 -0.0053796992 4281110849
-0.026435003 0.049213387 -0.0057747224 4280916029
-0.024588712 0.049340334 -0.0061697168 4280981564
-0.022419959 0.048105478 -0.0051140673 4280785724
-0.020568091 0.048232991 -0.0055101234 4281242430
-0.018549606 0.047679998 -0.0051819878 4281177148
-0.016525671 0.047127426 -0.0048549082 4281112124
-0.015183743 0.049296267 -0.0074210688 4280396084
-0.013857778 0.051464103 -0.0099837463 4280785724
-0.012370557 0.052951016 -0.01182105 4281697604
-0.0098146945 0.050359264 -0.0093281716 4281502274
-0.0061420836 0.043692168 -0.002515398 4281110593
-0.00019325688 0.028877217 0.012928037 4281110593
0.0077522136 0.0072793365 0.035542361 4281110593
-0.033940602 0.038151857 0.0045621563 4281630538
-0.033799861 0.046492051 -0.0045662271 4280783174
-0.03224678 0.047986962 -0.0064150505 4280457029
-0.030553956 0.04879738 -0.0075355992 4280523073
-0.028866325 0.049607459 -0.0086549446 4280719424
-0.025665026 0.051910184 -0.011614358 4279025203
-0.023351796 0.04998659 -0.0098347515 4278830638
-0.021186069 0.048747137 -0.0087816268 4279808054
-0.019175895 0.04819135 -0.008453358 4281046589
-0.01783628 0.050366536 -0.011014213 4281046589
-0.016340937 0.051858231 -0.012850126 4280329528
-0.014856212 0.053349324 -0.014683751 4279612979
-0.01320507 0.054157671 -0.015794717 4280068664
-0.010660741 0.051556293 -0.013305907 4280459834
-0.0075478703 0.046911415 -0.0086641898 4280328764
-0.0034723245 0.038861588 -0.00043749623 4280132924
0.0023568459 0.024684303 0.014237614 4280132924
0.011154108 0.00029773265 0.039650284 4280132924
-0.032221366 0.027666472 0.012882387 4282086733
-0.033057261 0.040840998 -0.0013132375 4281304904
-0.032225113 0.045772947 -0.0067872396 4280718913
-0.030829776 0.047957949 -0.0093555879 4280719168
-0.029450316 0.050141901 -0.011920432 4280915008
-0.028086763 0.052324891 -0.01448185 4280589374
-0.026264716 0.052450135 -0.014871685 4280719423
-0.023799341 0.04983389 -0.012372967 4279676983
-0.021639436 0.048589654 -0.011321919 4280981309
-0.019801039 0.048716273 -0.011715066 4280916028
-0.018468995 0.050897479 -0.014269382 4280915773
-0.016981415 0.052393068 -0.016100436 4281046334
-0.01533027 0.053203508 -0.01720985 4280785724
-0.013507567 0.053329401 -0.01759938 4280655163
-0.011146255 0.051403064 -0.015834462 4280524860
-0.0080401339 0.04674229 -0.011202724 4280915264
-0.0048965253 0.042084157 -0.0065788813 4280914755
-0.00096534565 0.034694552 0.00090265274 4280783938
0.006067913 0.016375307 0.019825241 4280783938
-0.031738404 0.032408793 0.0048167165 4282218569
-0.032056499 0.042866215 -0.0064390684 4281241409
-0.031105179 0.04712319 -0.011172231 4280590393
-0.029880557 0.050001755 -0.014454016 4280720189
-0.028366622 0.05150298 -0.016287807 4281240898
-0.026705313 0.052315827 -0.017398208 4281436228
-0.024246112 0.049690336 -0.014904698 4281305923
-0.021928731 0.047753822 -0.013135675 4280133688
-0.019927148 0.047192998 -0.012808859 4280850749
-0.018426023 0.048693776 -0.014639582 4280849473
-0.016764197 0.049507052 -0.01574973 4280784704
-0.015281621 0.051006779 -0.017576398 4281110849
-0.013279699 0.050446332 -0.017249392 4281306944
-0.010734383 0.047827393 -0.014773838 4281438269
-0.0078036375 0.043837771 -0.01087089 4281438523
-0.0048407465 0.039850436 -0.0069746813 4281374009
-0.0014710724 0.034493946 -0.0016556848 4281437504
0.0038415864 0.022284728 0.010796845 4281240644
0.010406651 0.0059698746 0.027511014 4281110339
0.016123215 -0.0069098771 0.04063227 4281436228
0.018376736 -0.0074521378 0.040906109 4281698878
0.01842783 -0.00046075881 0.033347182 4284508468
-0.030278724 0.023241632 0.01163747 4282217038
-0.031594392 0.038569413 -0.0046534259 4282087244
-0.031230409 0.045602575 -0.012264289 4281307199
-0.030310009 0.049870692 -0.016981015 4279938869
-0.028801169 0.051375978 -0.018810524 4279547443
-0.026987348 0.051500611 -0.019198634 4279611958
-0.024531662 0.048866048 -0.016710905 4279742264
-0.022217605 0.046922676 -0.014946076 4280133179
-0.020053208 0.045669995 -0.013902465 4280719168
-0.017878018 0.044418097 -0.012861056 4280849729
-0.016034305 0.044545218 -0.013255239 4281111614
-0.014190514 0.044672437 -0.013649372 4280783683
-0.012170177 0.044111066 -0.013327926 4281240899
-0.0096070021 0.041484535 -0.010862722 4281045058
-0.0068405718 0.03817125 -0.0076876525 4280914753
-0.0040473603 0.034859918 -0.0045182332 4280915263
-0.0012273826 0.031550519 -0.0013544708 4280979013
0.0037075132 0.020677391 0.0096429568 4281109574
0.0087279826 0.0098102689 0.02062224 4281632578
0.013053285 0.0016988888 0.028737178 4281697859
0.015266422 0.0011515915 0.029018058 4284121635
-0.030252289 0.030097462 0.0014409553 4281956174
-0.031056453 0.042696688 -0.011916908 4281371458
-0.030586448 0.049056184 -0.018782476 4280653123
-0.029080015 0.050565641 -0.020608183 4281046079
-0.026953805 0.04930564 -0.019559873 4280915263
-0.024496295 0.046662375 -0.01707907 4280915008
-0.021854375 0.043328851 -0.013886007 4281110594
-0.019185644 0.039997239 -0.010698628 4281110338
-0.016994908 0.038742002 -0.0096638082 4281045058
-0.014964331 0.038178928 -0.0093463343 4280849218
-0.013101947 0.038307413 -0.0097444514 4280849984
-0.010886911 0.037054121 -0.0087146256 4280586823
-0.0083032139 0.034420244 -0.0062603671 4280717128
-0.0056980737 0.031787902 -0.003810579 4280979524
-0.0032557882 0.029847499 -0.0020775069 4281175109
-0.00061045587 0.027218126 0.00036383979 4281239623
0.0037631281 0.018380299 0.0092003811 4281435719
0.0085908659 0.0081677809 0.019443145 4281828164
0.012328852 0.0020986944 0.025409261 4282155839
0.014138326 0.0029275194 0.024271512 4284116023
-0.028326888 0.018800866 0.01037826 4282152268
-0.030136216 0.03630729 -0.0079853749 4282022473
-0.029950101 0.044077501 -0.0162756 4281175874
-0.028739523 0.046981528 -0.019534828 4281045823
-0.026290972 0.044328731 -0.017058704 4281110338
-0.023820948 0.041677549 -0.014587145 4281306179
-0.021003958 0.037639752 -0.010689648 4281175618
-0.018651064 0.035685942 -0.008942903 4280980034
-0.016282026 0.033733301 -0.0071994904 4280914753
-0.014238395 0.033168904 -0.0068864562 4281045059
-0.011842474 0.031218298 -0.0051486585 4281110084
-0.0097826533 0.030655213 -0.0048389351 4281305924
-0.0073598661 0.02870667 -0.0031067319 4281175109
-0.005102437 0.027452134 -0.0020891298 4281174854
-0.0028342567 0.026198387 -0.0010737125 4281305414
-0.00036855787 0.024253137 0.00064949319 4281501508
0.0040078424 0.015386883 0.0094642509 4281632068
0.0090301838 0.0044494718 0.020391027 4281632324
0.012774395 -0.0016389489 0.026341105 4281959489
0.013802018 0.0019592866 0.022372158 4284247348
-0.028770868 0.027795624 -0.0019265339 4282218569
-0.029011782 0.037683018 -0.012352692 4281565768
-0.027781885 0.040597145 -0.015609561 4281437503
-0.025158282 0.037240125 -0.012429036 4281110848
-0.022507839 0.033885039 -0.0092541846 4281045313
-0.019993138 0.031228151 -0.0067986054 4281045314
-0.017952666 0.030661132 -0.006486672 4280980034
-0.015738837 0.029398642 -0.005463331 4280979269
-0.013514251 0.028137036 -0.0044422671 4281110084
-0.011278886 0.026876226 -0.0034233909 4281240644
-0.0092086755 0.026311643 -0.003117526 4281240133
-0.0071330592 0.025747523 -0.0028127525 4281109829
-0.0050520338 0.025183897 -0.0025090482 4281174853
-0.0027816705 0.023925897 -0.0014973599 4281370693
-0.0001273565 0.021279521 0.00092902593 4281240644
0.0042518601 0.01238491 0.0097219814 4281240644
0.0096603557 2.3975968e-05 0.022036856 4281175619
0.01341348 -0.0060836747 0.027970424 4281959489
0.014255296 -0.0017797872 0.023300985 4284248114
-0.027558122 0.019939374 0.0033858474 4282348364
-0.027924273 0.030558571 -0.0077375052 4281890639
-0.026672389 0.033482973 -0.010992591 4281500488
-0.024342507 0.031514015 -0.0092508867 4281435974
-0.021836787 0.028847642 -0.0068000248 4281240134
-0.019634336 0.027579758 -0.0057776636 4281305414
-0.017751195 0.027709346 -0.0061804643 4281370438
-0.01570024 0.027140923 -0.0058723446 4281435973
-0.01347347 0.025875054 -0.0048550107 4281435973
-0.010889795 0.023214497 -0.0024204142 4281501254
-0.0088118687 0.0226482 -0.0021177884 4281370949
-0.0069069415 0.022779774 -0.0025248881 4281370693
-0.0053641126 0.024305884 -0.0043479893 4281436228
-0.0027294196 0.021649249 -0.0019239988 4281371203
0.00029954314 0.017600555 0.0019092374 4281371203
0.0052515529 0.0065877587 0.012798844 4281436484
0.010480857 -0.005115442 0.024375951 4281567553
0.014634429 -0.012634635 0.031702772 4281828928
0.015298819 -0.0076200664 0.026334258 4284312629
-0.026646283 0.013446804 0.0072432607 4282412623
-0.027294148 0.025503308 -0.0052857278 4281956429
-0.026182495 0.029138677 -0.0092494506 4281761354
-0.02415631 0.028565954 -0.0089379568 4281370183
-0.02164609 0.025891032 -0.0064945361 4281305414
-0.019438785 0.02461911 -0.0054765278 4281370694
-0.017550424 0.024749041 -0.0058804546 4281370183
-0.015661966 0.024879068 -0.0062843338 4281435719
-0.013433002 0.023608893 -0.0052706944 4281632069
-0.010847513 0.020939637 -0.0028430093 4281501508
-0.0087672323 0.020371318 -0.0025425795 4281567554
-0.006859757 0.020503074 -0.0029502194 4281371203
-0.0047713295 0.019935526 -0.0026513766 4281632324
-0.0023103654 0.017969988 -0.0009418577 4281697349
0.0010978542 0.012510512 0.0042907335 4281762628
0.0058712438 0.0021620542 0.014447385 4281763393
0.011107964 -0.0095780045 0.025995241 4281894718
0.015658559 -0.018517762 0.034709483 4282417214
0.016930923 -0.015581496 0.031457737 4283528759
-0.0266289 0.011146542 0.0068083853 4282934863
-0.026817139 0.021129839 -0.0035607629 4282021964
-0.025848024 0.025480472 -0.0082294066 4281565768
-0.023814112 0.024906002 -0.0079211723 4281436484
-0.021615408 0.023628972 -0.0069046644 4281175874
-0.019405928 0.022352781 -0.005890388 4281306433
-0.017350327 0.021780111 -0.005586572 4281566789
-0.015289295 0.021207944 -0.0052838875 4281697093
-0.01322284 0.020636261 -0.0049822861 4281697094
-0.010805562 0.018660679 -0.0032686274 4281762118
-0.0085475557 0.017388336 -0.0022643562 4281893443
-0.0064568259 0.016818639 -0.0019677132 4282155584
-0.0041799732 0.015547767 -0.0009672679 4282808893
-0.001709003 0.013576303 0.00073521957 4283068993
0.0018943548 0.0073986202 0.0066565461 4284180284
-0.026794974 0.018856566 -0.0039769374 4282217293
-0.0258222 0.023220554 -0.0086365873 4281698113
-0.023785934 0.022644069 -0.0083305435 4281307708
-0.021585055 0.021362774 -0.0073177712 4281110848
-0.019049726 0.018672049 -0.004892692 4280979778
-0.016821928 0.017392751 -0.003885489 4281174853
-0.014750518 0.016819105 -0.0035866499 4281631558
-0.012843527 0.016950473 -0.0039944462 4281892933
-0.010763939 0.016377583 -0.0036972202 4282219078
-0.0083285607 0.014396764 -0.0019922294 4282481219
-0.0060549527 0.013121191 -0.00099448115 4282678079
-0.026622158 0.015871067 -0.0036881622 4282347853
-0.025489442 0.019540787 -0.0076320423 4281305923
-0.023445472 0.018962622 -0.0073292824 4281109829
-0.021078087 0.016969867 -0.005615118 4281306434
-0.018694572 0.014978342 -0.0039043166 4281110084
-0.016623583 0.014402322 -0.0036071241 4281435974
-0.014380161 0.01311985 -0.0026064888 4282285889
-0.029518817 -0.021200418 0.031969339 4283197514
-0.025311161 0.016558088 -0.0073425714 4282089029
-0.023262177 0.015978042 -0.0070425337 4281958979
-0.020890113 0.013978999 -0.005334259 4282742339
-0.01834048 0.011271693 -0.0029253121 4283722304
-0.029930931 -0.021454953 0.029346386 4282870348
-0.024980299 0.012854595 -0.0063550817 4283526208
-0.0229236 0.012272816 -0.0060582915 4283919164
-0.030068118 -0.023131542 0.028142074 4282347344
-0.028182644 -0.022277869 0.027002519 4282477393
-0.030205239 -0.024807818 0.026937978 4281890129
-0.028459284 -0.023234352 0.025096131 4282216784
-0.026866075 -0.020944037 0.022553312 4283067208
-0.030615743 -0.025043719 0.024328308 4281761099
-0.028874893 -0.023466282 0.022490824 4282021198
-0.027286608 -0.021169752 0.019953908 4282282064
0.0044039488 -0.0095070451 0.0036572535 4283984443
0.0071377978 -0.012235656 0.0060017202 4283853373
-0.030888919 -0.025992751 0.022426518 4282284614
-0.029011305 -0.025133148 0.021293508 4282413644
-0.0275645 -0.022108167 0.018061223 4282216528
-0.026861575 -0.015476108 0.011335667 4282804048
-0.0045195445 -3.990531e-05 -0.0073243165 4283787073
-0.0020433851 -0.0020637438 -0.0056620399 4283004225
0.00063343346 -0.004805319 -0.0033120587 4282481219
0.0037061609 -0.0089828223 0.00041434169 4282218824
-0.031025331 -0.027661487 0.021227812 4282871878
-0.029147666 -0.026799701 0.020096401 4282609994
-0.027700271 -0.023765929 0.016870478 4282217038
-0.026995871 -0.017114043 0.010159196 4282411858
-0.012541141 -0.0014465675 -0.0075128218 4284311609
-0.010442723 -0.0020358264 -0.0072326856 4283003459
-0.0086863302 -0.0011808798 -0.0083370479 4282088519
-0.0067588128 -0.0010478497 -0.0087490464 4281827653
-0.004652191 -0.0016361997 -0.0084704133 4281631558
-0.002358444 -0.0029453784 -0.0075028623 4281566534
0.00031482056 -0.0056959838 -0.0051586265 4281500999
0.0031965636 -0.0091659427 -0.0021300334 4281762118
-0.03116167 -0.029329896 0.020029331 4283919163
-0.029422823 -0.027739465 0.018201923 4282937668
-0.027977508 -0.02469711 0.014982963 4282217038
-0.027274277 -0.018025585 0.0082865339 4282412624
-0.014931206 -0.0017236322 -0.0096287252 4282547008
-0.012841206 -0.0023157969 -0.0093485126 4281959233
-0.010574911 -0.0036317855 -0.0083786519 4281696839
-0.0088184737 -0.002774626 -0.00948139 4281304903
-0.0067148991 -0.0033655018 -0.0092038149 4281305414
-0.0047848038 -0.003232196 -0.0096162995 4281370693
-0.0023100264 -0.0052693188 -0.0079634814 4281435463
-3.3862889e-06 -0.0065819174 -0.0070018051 4281631813
0.0030614994 -0.010786265 -0.0032932665 4281827909
-0.031297956 -0.030997992 0.018831069 4284507703
-0.029558893 -0.029403172 0.017006842 4283722558
-0.028112996 -0.026352033 0.013794238 4282478669
-0.027408283 -0.019660667 0.0071120951 4282412878
-0.027338099 -0.010059968 -0.0023367312 4282739534
-0.021299001 -0.0015264526 -0.011612189 4284442168
-0.019225609 -0.0021223575 -0.01133027 4282480964
-0.017146781 -0.0027177259 -0.011049473 4282023239
-0.015393209 -0.0018589348 -0.012150236 4281697859
-0.013308872 -0.0024536997 -0.011870454 4281435973
-0.011048432 -0.0037744418 -0.010902637 4281305924
-0.008777231 -0.0050943494 -0.0099369762 4281371203
-0.0068473406 -0.0049611703 -0.010349506 4281371203
-0.0047386885 -0.005553782 -0.010074566 4281631813
-0.002624657 -0.0061459243 -0.0098007033 4281696838
4.6860427e-05 -0.0089142025 -0.0074690841 4281631304
0.0029264651 -0.01240629 -0.0044562835 4281892424
-0.028248433 -0.028006643 0.012605725 4283067974
-0.027542237 -0.021295473 0.005937852 4282412623
-0.027616333 -0.010935798 -0.0041830149 4282347853
-0.027019221 -0.0042318106 -0.010827326 4282413899
-0.025559124 -0.0019107834 -0.013312167 4281826633
-0.023496937 -0.0025098547 -0.013029703 4281696584
-0.021272141 -0.0038380548 -0.01205789 4281631814
-0.01919641 -0.0044359565 -0.011778145 4281631813
-0.017115247 -0.0050333813 -0.011499488 4281435973
-0.015358966 -0.0041722283 -0.012599223 4281371203
-0.013440106 -0.0040401891 -0.013009663 4281501763
-0.011009667 -0.0060940608 -0.011357429 4281371203
-0.0089094862 -0.006689705 -0.011082481 4281436228
-0.0068039 -0.0072848424 -0.010808604 4281436228
-0.0046929158 -0.0078795031 -0.010535797 4281501508
-0.0025765337 -0.0084736496 -0.010264045 4281892934
-8.7078661e-05 -0.010522872 -0.0086239912 4281761864
0.0027914681 -0.014025979 -0.0056190696 4282088263
-0.028242853 -0.030393854 0.012109643 4283656514
-0.027532507 -0.023662649 0.005455479 4282413133
-0.027747851 -0.012539417 -0.0053348243 4282217548
-0.027149256 -0.0058156252 -0.011964876 4281891913
-0.025688734 -0.0034879968 -0.014444944 4281434954
-0.023626875 -0.0040892884 -0.014164035 4281369929
-0.021402594 -0.0054219365 -0.013195384 4281435463
-0.01932719 -0.0060220733 -0.012917206 4281566789
-0.017084032 -0.0073531494 -0.011952462 4281567044
-0.015160065 -0.0072208643 -0.01236408 4281632578
-0.013068359 -0.0078195781 -0.01208909 4281567299
-0.010971244 -0.0084177405 -0.011815207 4281632324
-0.0086957365 -0.0097461194 -0.010857029 4281371203
-0.0065851398 -0.01034312 -0.010585854 4281369928
-0.0044691376 -0.010939673 -0.010315701 4281500998
-0.0023477487 -0.011535689 -0.010046652 4282024768
0.00014634058 -0.013591126 -0.0084124971 4282220353
0.0028428249 -0.016375139 -0.006099131 4282481473
-0.027810004 -0.024564125 0.0035900213 4283133508
-0.028025445 -0.013407968 -0.0071759745 4282022984
-0.027279239 -0.0073991269 -0.013102211 4281826888
-0.025818314 -0.0050649121 -0.015577512 4281500233
-0.023602668 -0.0064026192 -0.014610393 4281434954
-0.021533001 -0.0070055127 -0.014332661 4281304649
-0.019298453 -0.0083416998 -0.013369413 4281436228
-0.017215267 -0.0089433789 -0.013094442 4281502274
-0.015126642 -0.0095446259 -0.012820521 4281763138
-0.013032604 -0.010145329 -0.01254769 4281828673
-0.01093315 -0.010745533 -0.012275936 4281828418
-0.0088282898 -0.01134526 -0.01200526 4281827908
-0.0065425374 -0.012677252 -0.011052389 4281762883
-0.0044242032 -0.013275787 -0.010784402 4282155583
-0.0023004822 -0.01387383 -0.010517476 4284381734
-0.027943801 -0.026197985 0.0024164356 4283853628
-0.028156679 -0.015008777 -0.0083257798 4282024258
-0.027409177 -0.0089823306 -0.014239339 4281892424
-0.025796581 -0.0073780939 -0.016023105 4281696839
-0.023424808 -0.009456493 -0.01437347 4281500489
-0.021350149 -0.01006119 -0.014098471 4281435719
-0.019110758 -0.011401489 -0.013139486 4281697094
-0.017184507 -0.011269189 -0.013551692 4281371204
-0.01509355 -0.011872433 -0.013279932 4281698113
-0.01299718 -0.012475185 -0.013009248 4281763393
-0.010895383 -0.013077453 -0.012739632 4281894209
-0.0086155497 -0.014414348 -0.011788832 4282352699
-0.0066755675 -0.014280513 -0.012203539 4284051253
-0.0045575611 -0.014881283 -0.011937115 4284640304
-0.028287876 -0.016609281 -0.0094753783 4283332154
-0.027390633 -0.011304177 -0.014690496 4281892168
-0.025775161 -0.009695366 -0.016471639 4281500999
-0.023401406 -0.011780232 -0.014827313 4281566534
-0.0213244 -0.012386985 -0.014554461 4281697859
-0.019082863 -0.013731517 -0.013599167 4281828674
-0.016992323 -0.014337108 -0.013329035 4282548794
-0.014896359 -0.014942206 -0.013059979 4283595823
-0.028127875 -0.01969222 -0.0092552407 4283722813
-0.027224187 -0.014371298 -0.014460437 4281892168
-0.025452223 -0.013498761 -0.015555892 4281892679
-0.023224737 -0.01484891 -0.014601042 4282024769
-0.021298971 -0.014716923 -0.015013356 4282548538
-0.019373108 -0.014584795 -0.015425583 4283594039
-0.017285567 -0.015192799 -0.015156439 4284639793
-0.027206462 -0.016703613 -0.014919048 4282547264
-0.025431808 -0.015828677 -0.016013516 4282546499
-0.023202155 -0.017183058 -0.015062366 4283134783
0.017560063 -0.036975458 -0.002346348 4284048959
0.021201994 -0.042751476 0.0025901869 4283656258
0.011639617 -0.032234132 -0.0087170117 4283394373
0.014021801 -0.033580244 -0.007800132 4282676548
0.017823312 -0.040118717 -0.002198182 4282480708
0.021468926 -0.045911983 0.0027245451 4282937923
0.00030159205 -0.029344052 -0.012479059 4283985208
0.0024527386 -0.02995313 -0.012227554 4283202104
0.0042338297 -0.029071689 -0.013318844 4282090049
0.0061999969 -0.028935291 -0.013738599 4282155073
0.0087453201 -0.031032711 -0.012149077 4282089029
0.011306677 -0.033128932 -0.010562841 4281696329
0.01408243 -0.035968214 -0.0083113573 4281695818
0.017683737 -0.041782245 -0.0033921935 4281891913
0.020716563 -0.045361415 -0.00048441999 4282543439
-0.0048264563 -0.026751503 -0.016833998 4284573748
-0.0023380257 -0.028860137 -0.015237641 4283658298
0.00016646832 -0.030967526 -0.01364461 4282024769
0.0025021359 -0.032326221 -0.012724802 4281632578
0.0042859204 -0.031442396 -0.013815049 4281567300
0.0062545948 -0.031305842 -0.01423534 4281631814
0.0086090118 -0.032662839 -0.013319243 4281762118
0.010974135 -0.034019023 -0.012405299 4281762119
0.013746319 -0.036867291 -0.010159526 4281630794
0.017142443 -0.041952826 -0.0059188949 4281760843
0.020372393 -0.046289548 -0.0023519527 4282476628
-0.007083796 -0.027745694 -0.018243756 4283203124
-0.004783459 -0.029111631 -0.01731988 4282613819
-0.0024724118 -0.030476689 -0.016398266 4282286144
3.1374395e-05 -0.032590687 -0.014809944 4281631813
0.002366513 -0.033953816 -0.013893276 4281436229
0.0043376684 -0.033817232 -0.014314201 4281239623
0.0064988658 -0.034429714 -0.014067877 4281566279
0.0086654276 -0.035041779 -0.013822585 4281696839
0.010641985 -0.034904405 -0.01424437 4281892679
0.013410604 -0.037761666 -0.012004305 4281761864
0.016401246 -0.041365832 -0.0091038579 4281825869
-0.01484061 -0.030642584 -0.017061375 4284248113
-0.01305721 -0.029755443 -0.018149052 4283137078
-0.011110578 -0.029621437 -0.018565401 4281959743
-0.0091638714 -0.029487327 -0.018981688 4281829948
-0.0070432834 -0.030105621 -0.018728912 4281828419
-0.0049172938 -0.030723453 -0.018477153 4281762373
-0.0024276115 -0.032845095 -0.016890824 4281762374
-0.00010368973 -0.034213543 -0.015975043 4281435719
0.0020464286 -0.034829259 -0.015728187 4281435209
0.0042019226 -0.035444498 -0.015482385 4281304649
0.0065526143 -0.036810681 -0.014572032 4281238858
0.008721482 -0.037424728 -0.014328901 4281434444
0.010505386 -0.036536127 -0.015415628 4281434189
0.012877442 -0.037900396 -0.014509588 4281368400
0.016262673 -0.043017372 -0.010289268 4281562964
-0.016120873 -0.03616412 -0.014448646 4283465009
-0.014647488 -0.033762813 -0.016877599 4282156603
-0.012858734 -0.032873124 -0.01796481 4281893699
-0.011075236 -0.031983614 -0.019050848 4281435718
-0.0091260225 -0.03184931 -0.019467656 4281305924
-0.0071767457 -0.031714901 -0.019884404 4281435973
-0.0048747845 -0.033089511 -0.018967371 4281435208
-0.0025621168 -0.034463212 -0.018052582 4281304394
-0.00023872778 -0.035836078 -0.017139927 4281303883
0.0017267466 -0.035700008 -0.017559737 4281369164
0.0038792267 -0.036317639 -0.017314915 4281369674
0.0058474243 -0.0361811 -0.017735098 4281499723
0.0080079511 -0.036797926 -0.017491803 4281434445
0.010173824 -0.037414208 -0.017249536 4281171284
0.012740344 -0.039536223 -0.015683752 4281040213
-0.018059045 -0.038676709 -0.01452278 4282610758
-0.016094297 -0.038541868 -0.014943291 4282285889
-0.014780656 -0.035376117 -0.018036149 4281566788
-0.012991875 -0.034484252 -0.019121759 4281631049
-0.011208359 -0.033592574 -0.020206187 4281434953
-0.0090884976 -0.034215465 -0.019956551 4281303883
-0.0073101744 -0.033323862 -0.021039661 4281238604
-0.0051848665 -0.033946134 -0.020791009 4281173069
-0.0028753914 -0.035324439 -0.019878782 4281303629
-0.00055518746 -0.036701903 -0.018968686 4280910674
0.0014074557 -0.036566034 -0.019387893 4281106258
0.0033701286 -0.036430031 -0.019807007 4281236053
0.0055222958 -0.037049741 -0.019563638 4281431639
-0.018192597 -0.040298514 -0.015687507 4282869583
-0.016387947 -0.039403602 -0.016775072 4282284613
-0.014751185 -0.037749022 -0.018527977 4281762884
-0.012959711 -0.036854774 -0.019612543 4281565258
-0.011005543 -0.036720291 -0.020030525 4281369164
-0.0092219263 -0.035826333 -0.021113221 4281434445
-0.0074435845 -0.034932561 -0.022194736 4281302863
-0.0054945648 -0.034798019 -0.02261132 4281564239
-0.0033668764 -0.035422184 -0.022364691 4281499214
-0.00087127462 -0.037562996 -0.020794116 4280844119
0.0010885485 -0.037427306 -0.021212712 4281822554
-0.016840983 -0.039498329 -0.019269008 4282544713
-0.015046898 -0.038601853 -0.020352617 4281762118
-0.013423171 -0.036943659 -0.022099402 4281826378
-0.011306725 -0.037571311 -0.021852374 4281237328
-0.0095257573 -0.036675304 -0.022932932 4281367379
-0.0077500455 -0.035779573 -0.024012215 4281102178
-0.015342221 -0.039449982 -0.022173874 4281694034
-0.013556041 -0.038551696 -0.023254123 4281824339
-0.011439934 -0.039181553 -0.023008637 4280842589
-0.0098291896 -0.037519641 -0.024749231 4281755489
0.039389171 -0.00090119988 0.040189162 4285294378
0.033722039 -0.00507617 0.042416222 4285032749
0.033370629 0.0025382563 0.034152985 4285426979
0.034295153 0.0060751513 0.030165954 4285689373
0.036318578 0.0062166378 0.029734807 4285754908
0.040164422 0.00092988461 0.034979396 4285886233
0.027752852 -0.0016214475 0.036378279 4285295144
0.029369203 -0.00011544675 0.034520835 4285426978
0.030757913 0.0020713583 0.031955652 4285427743
0.031471707 0.0063011497 0.0272652 4285821209
0.032820228 0.0084853545 0.024708742 4285623838
0.034827504 0.0086257234 0.024281049 4285623583
0.038428068 0.0040009245 0.028808473 4285623328
0.04275687 -0.0026628748 0.035449907 4285623838
0.019035606 0.0044730678 0.027933909 4285623839
0.020636238 0.0059820563 0.026082909 4285820443
0.023061069 0.0047533363 0.027075285 4285951769
0.025707981 0.0028413311 0.028775172 4285952279
0.027514612 0.003666155 0.027635226 4285624604
0.029532608 0.0038069934 0.027205037 4285558814
0.03045347 0.0073655769 0.023235025 4285690138
0.031791732 0.0095557347 0.020685604 4285953044
0.033788197 0.0096953586 0.02026022 4285886998
0.036921777 0.0064202398 0.023366304 4285821208
0.040772349 0.0010987297 0.028583916 4285886489
0.045131151 -0.0055848733 0.035202764 4285755418
0.016883323 0.0026659518 0.027166648 4285099813
0.018083159 0.0055533797 0.023897981 4285557794
0.019879214 0.0063793808 0.022761697 4285558049
0.022086997 0.0058321431 0.02304397 4285558048
0.024933754 0.003226459 0.025449501 4285755164
0.027160199 0.0026807189 0.02572793 4285558558
0.028742287 0.0041932166 0.02388444 4285558558
0.030094404 0.0063908547 0.021336885 4285558558
0.031430446 0.0085874051 0.018792862 4285624349
0.0336487 0.0080415085 0.019073347 4285689629
0.036553983 0.0054404959 0.021466838 4285689629
0.039710492 0.0021560937 0.024559984 4285558558
0.042428467 0.00024326891 0.026240448 4285558814
0.046573967 -0.0057760328 0.032135397 4285493278
0.015541783 0.0051346421 0.021717379 4285886743
0.0167262 0.0080298036 0.018458525 4286345488
0.018711966 0.0081680119 0.018034929 4285952023
0.021114441 0.0069288984 0.019025603 4285886744
0.023949627 0.0043136477 0.021427048 4285821463
0.026378788 0.0030765831 0.022412183 4285624349
0.027953096 0.0045929849 0.020573562 4285558813
0.029735733 0.0054207742 0.019442158 4285559068
0.031291258 0.0069360286 0.017607735 4285559069
0.033509202 0.0063879117 0.017886659 4285558814
0.03595949 0.0051528811 0.018867625 4285624349
0.038879871 0.0025442392 0.021251479 4285624348
0.040427115 0.0040593222 0.019419124 4285689884
0.043138966 0.002139613 0.021096038 4285886489
0.048244271 -0.0066453815 0.029777905 4285886234
0.014802929 0.0055557713 0.018408986 4285361443
0.016182788 0.0077679008 0.015864888 4285623839
0.017957579 0.0085968673 0.014736364 4285689629
0.02055971 0.0066618621 0.016431088 4285623838
0.023177858 0.004728049 0.018122466 4285558559
0.025598492 0.0034860522 0.019106129 4285624094
0.02738123 0.0043159425 0.017976252 4285624349
0.029815156 0.0030750781 0.018957229 4285624604
0.031595137 0.0039049685 0.017828086 4285624604
0.033818115 0.0033550262 0.018104332 4285558813
0.035819504 0.0034951568 0.017678017 4285690139
0.037591279 0.0043247789 0.016550845 4285755674
0.038893204 0.0065325871 0.014024192 4285755418
0.041118562 0.0059832036 0.014300214 4285820189
0.045012109 0.00061228871 0.019469814 4285820443
0.051590901 -0.012330987 0.032315806 4285951769
0.014865102 0.003215678 0.017932849 4285427233
0.01604541 0.0061281621 0.014687898 4285558558
0.017820261 0.0069593266 0.013560982 4285624349
0.020421712 0.005017668 0.015250968 4285624348
0.022196554 0.0058490261 0.014124272 4285558559
0.024179351 0.0059873387 0.013701538 4285623838
0.026162114 0.0061257631 0.013278896 4285755418
0.029238205 0.002802372 0.016364479 4285755418
0.031455588 0.0022497401 0.016640211 4285624348
0.033454243 0.0023895651 0.016214402 4285558558
0.03477278 0.0046049654 0.013688957 4285624093
0.036533918 0.005436115 0.012565659 4285887253
0.038057622 0.0069583803 0.010744859 4285689628
0.040039964 0.0070974827 0.010322833 4285426723
0.042971712 0.0044723898 0.0126915 4285492514
0.047845103 -0.0036781579 0.020632306 4285493024
0.054481529 -0.016659014 0.033435151 4285493023
0.015526254 -0.0012161955 0.019565756 4285688353
0.016515408 0.0024015829 0.015621455 4285361189
0.018298352 0.0032354742 0.014494492 4285624348
0.020283736 0.0033737719 0.014071064 4285624603
0.021848164 0.0049024671 0.012244234 4285689628
0.023188734 0.0071255267 0.0097185522 4285886744
0.025376495 0.0065684319 0.0099988226 4285886744
0.028225033 0.0039280057 0.012378173 4285952279
0.03109489 0.0012891814 0.014753068 4285886999
0.032866925 0.0021230429 0.013628969 4285558558
0.034180544 0.0043447465 0.011109423 4285558559
0.035248891 0.0072592497 0.0078956205 4285690138
0.036991328 0.0080913603 0.0067780595 4285887253
0.038728349 0.0089231953 0.0056617297 4285886999
0.041883051 0.0055950582 0.0087229833 4285755674
0.045304231 0.0015757829 0.012474114 4285690394
0.050455078 -0.0072915107 0.021083014 4285493023
0.056901265 -0.019617446 0.033149004 4285492769
0.01698434 -0.0084579661 0.023996001 4285883939
0.017186597 -0.0020359308 0.017247612 4285557029
0.018570406 0.0001963824 0.014717406 4285624094
0.019938167 0.002427727 0.012190649 4285689884
0.021289874 0.0046580434 0.0096673965 4285952534
0.022412574 0.0075845495 0.0064480714 4285623583
0.024592023 0.0070246384 0.0067285374 4285623584
0.027213361 0.0050716326 0.0084047932 4285886489
0.030071661 0.0024232194 0.010775648 4285886744
0.031833068 0.0032585561 0.0096554533 4285624093
0.033589069 0.0040936321 0.008536499 4285558558
0.034881681 0.0063205659 0.0060263816 4285558813
0.036389858 0.0078505725 0.004215423 4285690394
0.038121585 0.0086842999 0.0031018183 4285756184
0.041269884 0.0053447336 0.0061563179 4285690138
0.044444822 0.002007097 0.0092052538 4285558813
0.048131026 -0.0027187616 0.01363522 4285492768
0.05381462 -0.01300136 0.023599489 4285493024
0.018022709 -5.1431358e-05 0.01213525 4285623074
0.018970696 0.0035856813 0.0082161557 4285689118
0.020522255 0.0051222891 0.0063985903 4286280464
0.021850329 0.0073576793 0.0038853493 4285754909
0.024024105 0.0067952275 0.0041653551 4285623583
0.026421312 0.0055342019 0.0051412135 4285689373
0.029049929 0.0035752356 0.0068111308 4285755928
0.030800711 0.0044120401 0.0056948345 4285558559
0.032546088 0.0052485913 0.0045797806 4285558813
0.033828449 0.0074814111 0.0020767469 4285558813
0.035557657 0.008317031 0.00096528605 4285559068
0.037515581 0.0084544867 0.00054850429 4285559069
0.040894296 0.0044057965 0.0042891111 4285558814
0.044304974 0.00035941601 0.0080230404 4285558813
0.047989741 -0.0043818876 0.012441954 4285492258
0.053180743 -0.013303384 0.021000111 4285558049
0.017884914 -0.0016944408 0.010955954 4286803213
0.018419227 0.0033576712 0.0056497362 4285689118
0.019755758 0.0056001469 0.003139494 4285820698
0.021501418 0.0064383745 0.0020256117 4285952023
0.023241691 0.007276386 0.00091291219 4285952534
0.025848307 0.0053091422 0.0025826022 4285821208
0.028029701 0.0047452524 0.0028595328 4285624603
0.030439669 0.0034809336 0.0038295779 4285558814
0.032182433 0.0043195039 0.0027167127 4285559068
0.034148399 0.0044573322 0.0022980794 4285559068
0.035882995 0.0052955747 0.0011870563 4285559068
0.038080107 0.0047332793 0.0014610849 4285690648
0.041228957 0.0013718009 0.0044992194 4285756184
0.044643715 -0.002687417 0.0082224887 4285755929
0.048090417 -0.0067442805 0.011939051 4285623329
0.053770784 -0.017093003 0.021855233 4285623329
0.01920012 0.0053875446 0.00058550201 4285623584
0.020728093 0.0069314316 -0.0012204405 4285624349
0.022890553 0.0063637942 -0.00094126165 4285558813
0.025276072 0.0050931871 3.0599535e-05 4285559069
0.027892629 0.0031202137 0.0016933382 4285559069
0.030079009 0.0025545433 0.0019677058 4285493278
0.032270662 0.0019893944 0.0022409856 4285427234
0.034467597 0.0014247224 0.0025132224 4285426469
0.036669791 0.00086052716 0.0027844235 4285426468
0.038877256 0.00029681623 0.0030545834 4285558048
0.04203574 -0.0030749887 0.0060825907 4285492514
0.044981696 -0.0057428032 0.008415807 4285492004
0.048674274 -0.010514334 0.012810359 4285426723
0.054115269 -0.020194083 0.022013096 4285492259
0.019692956 0.0016529858 0.0015071854 4285557539
0.021229181 0.0032018423 -0.00029725768 4285558814
