# .PCD v0.7 - Point Cloud Data file format
VERSION 0.7
FIELDS x y z rgba
SIZE 4 4 4 4
TYPE F F F U
COUNT 1 1 1 1
WIDTH 304
HEIGHT 1
VIEWPOINT 0 0 0 1 0 0 0
POINTS 304
DATA ascii
-0.0025161132 0.00051998347 0.026596788 4281305668
-0.00051283091 0.00066937506 0.026129702 4279481144
0.0018912032 -0.0013840273 0.027742285 4279217728
0.0049922243 -0.0071067438 0.032814253 4280582490
-0.0046670809 -0.0012868941 0.025858378 4281434445
-0.0035602152 0.0040206984 0.020541202 4279935043
-0.0018369555 0.0056420639 0.018693989 4281109829
0.00054248422 0.0035802647 0.020307368 4280720189
0.0033459738 -0.00068922341 0.023990143 4280786234
0.006181471 -0.0049561784 0.027665485 4281306688
0.0084839091 -0.0062769577 0.028574359 4281632834
0.011085004 -0.0090682879 0.03085912 4281566534
0.012974583 -0.008180283 0.029696334 4282086479
-0.0069400296 -0.0023537353 0.024427652 4281824848
-0.0059413612 0.0037095174 0.018426109 4280326724
-0.0046014711 0.0075524226 0.014508241 4280522564
-0.0027660728 0.0084379166 0.013359156 4281240388
-0.00053638965 0.0071069375 0.014281481 4281176383
0.0022471845 0.0028228983 0.017958965 4280786489
0.0047859475 1.7933547e-05 0.020251505 4280980799
0.0070639551 -0.0013090521 0.021162771 4281176128
0.0094965249 -0.0033730641 0.022759188 4281110594
0.011213221 -0.0017471984 0.020917259 4281436229
0.013217546 -0.0015970096 0.020450473 4280457539
0.01552546 -0.0029212907 0.021355122 4280129609
0.018615939 -0.0079303011 0.025682788 4280718148
0.021586724 -0.012199424 0.029317353 4281107024
-0.0080659539 0.0019250065 0.017696904 4281566023
-0.0067121908 0.0057797208 0.01378392 4280718658
-0.0053847209 0.0096325949 0.0098771499 4279024949
-0.0034322217 0.0097781122 0.0094218357 4279937083
-0.0013466179 0.009182848 0.0096549895 4279808054
0.0012868047 0.0056253001 0.012638194 4280394299
0.00394696 0.0020698532 0.015615263 4280849984
0.0060702935 0.0014777556 0.015839875 4281045824
0.0081991032 0.00088616461 0.016063292 4280915264
0.0096024424 0.0039946064 0.012858855 4280785724
0.011133537 0.0063619092 0.010344082 4280656439
0.013709404 0.0035515502 0.012621811 4280394043
0.016923301 -0.0022142977 0.017628554 4279090483
0.020023022 -0.0072377548 0.021942656 4280654654
0.022841122 -0.010780446 0.024883624 4281305158
0.025685914 -0.014321022 0.027818482 4281304394
0.028722189 -0.018597953 0.031428218 4281955154
-0.010190018 0.00014100224 0.016967941 4281762119
-0.0090665817 0.0054953173 0.011681171 4280979524
-0.0072314441 0.0063848421 0.010535279 4280718659
-0.0057836771 0.0095045567 0.0073264036 4280849984
-0.0037065372 0.0089063719 0.0075597931 4280849983
-0.0016238913 0.0083086416 0.0077920239 4280719679
0.0010057613 0.0047398806 0.010767886 4280915518
0.003248021 0.0034013316 0.011680784 4280980289
0.0053604096 0.0028062016 0.011906283 4281045569
0.007191591 0.0036961809 0.010761885 4280980289
0.0085796416 0.0068122223 0.0075675156 4280785214
0.010095268 0.0091848448 0.0050613005 4281437249
0.012502976 0.0071062297 0.006653836 4281241409
0.015234672 0.0035458878 0.009606516 4281307198
0.018462934 -0.0022362694 0.014596895 4280916538
0.021415271 -0.0065328702 0.018216114 4280850494
0.024399612 -0.010826968 0.021828037 4281175363
0.027580537 -0.015859194 0.026111957 4282086478
-0.011289798 0.0044746622 0.010270918 4281567554
-0.0096986517 0.0068583935 0.0077511352 4280914753
-0.0076248944 0.0062574968 0.0079835448 4280980034
-0.0058000758 0.0071485415 0.0068417061 4281175618
-0.0035907403 0.0058027878 0.0077587944 4281305668
-0.0016356707 0.0059485659 0.0073029306 4280980799
0.00072515011 0.0038591921 0.0089009311 4280980544
0.0026885569 0.0040057972 0.0084432866 4280849729
0.0045116618 0.0048972145 0.0073023085 4280914753
0.0063296407 0.0057883635 0.006162608 4280393533
0.0077050626 0.0089121535 0.0029777272 4278829873
0.0095047802 0.0098021701 0.0018424524 4280068409
0.011752672 0.0084602088 0.0027511662 4280068664
0.014472634 0.0048880801 0.0056983624 4280134964
0.017532133 -0.00016895682 0.0099988151 4280981308
0.02078801 -0.0059663877 0.014969707 4281241409
0.023924775 -0.011017315 0.019252319 4281563728
-0.013041101 0.00046458095 0.011612257 4281503039
-0.011910111 0.0058498234 0.0063465815 4279615019
-0.010207362 0.007491 0.0045202207 4279678259
-0.0077687427 0.0046430901 0.0068093855 4279091249
-0.0055627748 0.0032926276 0.0077238176 4280785213
-0.003346011 0.0019430965 0.0086358208 4281111104
-0.0013831034 0.0020894334 0.0081781093 4281110848
0.00071498007 0.0014885515 0.0084034968 4280849984
0.0022679791 0.0038766041 0.0058980118 4280784704
0.003805235 0.0062635839 0.0033962668 4280914754
0.0056126565 0.0071561038 0.0022606535 4280980034
0.0074149296 0.0080483332 0.001126321 4280719678
0.0092120469 0.0089403167 -6.7220535e-06 4280589628
0.01145675 0.0075937584 0.00089943968 4280589629
0.01401937 0.004756324 0.0031606124 4280784703
0.017384462 -0.0018078759 0.0088072913 4281175874
0.020797484 -0.0083683655 0.01444291 4281240388
0.02409691 -0.014179833 0.019390631 4282085714
-0.014808938 -0.0035592914 0.012947922 4282149208
-0.013882868 0.0033448115 0.0063156951 4280981308
-0.012528777 0.0072428286 0.0024352132 4281177659
-0.010714851 0.0081371292 0.0012990555 4281372734
-0.0084092915 0.0060300454 0.0028997862 4280590393
-0.0060875937 0.0039243475 0.0044968147 4281046334
-0.0037498176 0.0018198714 0.0060901884 4281176639
-0.0016602203 0.0012161061 0.0063157734 4281176638
0.00030009449 0.0013623312 0.0058587398 4281046079
0.0015733317 0.0052550733 0.0019976774 4280980289
0.0029603317 0.0083968937 -0.0011769737 4280915008
0.0047545433 0.0092905685 -0.002307886 4281110593
0.0068344101 0.0086866319 -0.0020796151 4281241664
0.0087716952 0.0088316798 -0.0025308707 4281111358
0.01101055 0.0074802786 -0.0016265903 4281176638
0.013873674 0.0031374916 0.0019836517 4280980545
0.017548881 -0.0049422458 0.0089689614 4280979780
0.021123976 -0.012269832 0.015264907 4281305159
0.024429612 -0.018098228 0.020197997 4282215509
-0.016087584 0.0023419708 0.004913507 4281112634
-0.01472225 0.0062515736 0.0010385048 4280395828
-0.013027139 0.0079007745 -0.00077961187 4281176638
-0.011221118 0.0087966695 -0.0019123459 4281372224
-0.0090481937 0.0074348524 -0.00099683367 4280851513
-0.0068644807 0.006073989 -8.3794817e-05 4279613744
-0.0045406893 0.0039619282 0.001507906 4281176638
-0.0023327172 0.0026031062 0.0024154575 4281111869
-0.00038316101 0.0027484968 0.001960905 4280981309
0.0010175705 0.0058999136 -0.0012104904 4280590139
0.0025371611 0.0082985684 -0.0036982428 4279417393
0.0043261349 0.0091940239 -0.0048263166 4278961453
0.0066907704 0.0070857406 -0.0032436643 4280199989
0.0089236274 0.0057293698 -0.0023413841 4281242174
0.01131779 0.0036235154 -0.00076543377 4281243194
0.014187537 -0.00073192269 0.0028334383 4281242939
0.017712571 -0.0080851242 0.0091244997 4281436229
0.021290835 -0.015434228 0.015403246 4282542674
-0.018175557 0.00058875233 0.0041972855 4281760078
-0.017135896 0.0067765042 -0.0017224383 4280981309
-0.015443385 0.008429721 -0.0035367664 4280785468
-0.01364278 0.0093272403 -0.0046666544 4280460599
-0.011726148 0.0094696209 -0.00511395 4280525368
-0.0095617026 0.0081028566 -0.0041997749 4280460599
-0.0072600245 0.0059824958 -0.0026079323 4280981309
-0.0050713494 0.0046177283 -0.0016992746 4281112124
-0.0030036122 0.004007943 -0.0014718941 4281046078
-0.0011992007 0.0049063563 -0.0026021956 4280720444
0.0003259778 0.0073118359 -0.005086435 4280524603
0.0019751042 0.0089628175 -0.006889971 4280981309
0.0038985312 0.0091065913 -0.0073381867 4280655163
0.0064021498 0.00623817 -0.005083276 4280068663
0.0087795034 0.0041243657 -0.0035083799 4281112123
0.011623882 -0.00024612993 8.6412998e-05 4281243194
0.014653236 -0.0053666309 0.0043477947 4281241664
0.0178755 -0.011236407 0.0092738466 4282152013
-0.018759541 0.0020113885 0.00029819598 4281761863
-0.017390072 0.0059429333 -0.0035614874 4280980798
-0.015699953 0.0076003149 -0.005371986 4281373753
-0.013901919 0.0084997863 -0.00649965 4281371969
-0.011867106 0.0078849122 -0.0062665734 4281436738
-0.009703204 0.0065137222 -0.0053555835 4281045569
-0.007528469 0.0051434115 -0.0044470001 4281045569
-0.0054718703 0.004530482 -0.0042187627 4280915519
-0.0036728829 0.0054305345 -0.0053462628 4280849984
-0.001879029 0.0063303858 -0.0064725038 4280459069
-0.00036400557 0.0087416098 -0.0089494754 4280980289
0.0014142841 0.0096404776 -0.01007189 4281305923
0.0033296123 0.0097836107 -0.010518231 4281111104
0.0059691742 0.0061505809 -0.0075936336 4281046334
0.0089303553 0.0010095239 -0.0033280873 4280721209
0.011928849 -0.0041286573 0.00092890952 4281569594
0.015117399 -0.01001852 0.0058495821 4281502529
0.018037699 -0.014396228 0.0094170682 4282410838
-0.018791176 -0.00034826994 -0.00018483656 4281827909
-0.017305396 0.0028345436 -0.0033571073 4281241663
-0.015494265 0.0037370846 -0.0044863317 4281371458
-0.013688229 0.0046393052 -0.0056142304 4281371459
-0.011645772 0.0040228292 -0.0053845774 4281305668
-0.009721227 0.0041658655 -0.0058336612 4281110083
-0.0077965036 0.0043090209 -0.0062827189 4281044803
-0.0060002878 0.0052109361 -0.0074080136 4280981819
-0.0042091832 0.0061125904 -0.0085320268 4280914753
-0.0022892132 0.0062557161 -0.0089797173 4280784959
-0.00091570616 0.0094311982 -0.012125118 4279872059
0.0007153675 0.011089467 -0.013917874 4280198459
0.0027619228 0.010474145 -0.013688534 4280264248
0.0053923875 0.0068295226 -0.010770036 4280329528
0.0086386427 0.00015797466 -0.0051698154 4281046334
0.011782877 -0.0057528242 -0.00025200029 4281242428
0.015274882 -0.01317402 0.0059974231 4281632834
0.017888688 -0.016051136 0.0082139038 4282214488
-0.018823154 -0.0027120784 -0.00067081582 4281827908
-0.01710885 -0.0010442883 -0.0024805579 4281370949
-0.015289687 -0.00013903528 -0.0036099725 4281240389
-0.013593525 0.0015275627 -0.0054152929 4280979269
-0.011787243 0.0024321005 -0.0065415967 4280912713
-0.0098628178 0.0025751293 -0.0069906544 4280979268
-0.0080640689 0.003479287 -0.0081149954 4281045058
-0.0063989609 0.0051439926 -0.0099127498 4281110595
-0.0047442615 0.0068080872 -0.011708027 4281044803
-0.0028323829 0.006950587 -0.012153855 4281045569
-0.0013297126 0.0093739256 -0.014618129 4280849218
0.00043542683 0.010276191 -0.01573425 4281240644
0.0024789795 0.0096584037 -0.015505831 4281111104
0.0052501187 0.0052429587 -0.011923684 4280915263
0.0086415261 -0.0022077784 -0.005667421 4281111614
0.011936426 -0.0088951662 -9.3198847e-05 4281436994
0.015279226 -0.015578859 0.0054699555 4282347599
-0.020690158 -0.0059882924 -2.8240727e-05 4282607444
-0.01885546 -0.0050799325 -0.0011598236 4281826634
-0.017025828 -0.0041718408 -0.002290125 4281304394
-0.015316367 -0.0024999753 -0.0040954119 4281369673
-0.013617307 -0.00082883984 -0.0058981469 4281304394
-0.011808269 7.8037381e-05 -0.0070234118 4281108554
-0.010004364 0.00098466873 -0.0081474474 4281108808
-0.0082055405 0.0018909946 -0.0092701782 4281109573
-0.0066684857 0.0043230802 -0.011737822 4281044549
-0.0047542527 0.004465647 -0.012184279 4280980034
-0.0028398558 0.0046083257 -0.012630699 4280979778
-0.0011978224 0.0062760338 -0.014419591 4281241153
0.0007116124 0.0064185783 -0.014864678 4280913479
0.0027627945 0.0057992116 -0.014639718 4280848454
0.0055405572 0.0013711601 -0.01106892 4280848964
0.0086440668 -0.0045775995 -0.006167992 4280979268
0.01208923 -0.012046032 5.9478218e-05 4281891914
0.014978856 -0.016465314 0.0036044454 4282673233
-0.021046303 -0.0060622767 -0.0025505826 4282084438
-0.019216806 -0.0051520988 -0.003679364 4281433933
-0.017392419 -0.0042422339 -0.0048068305 4281303883
-0.015573129 -0.0033326447 -0.0059330193 4281108298
-0.013876438 -0.0016573295 -0.0077319248 4281304139
-0.012069993 -0.00074846298 -0.0088550104 4281173324
-0.010023035 -0.0013711378 -0.0086312545 4281369674
-0.0083469748 0.00030300766 -0.010425149 4281304649
-0.0065532252 0.0012112185 -0.011544986 4281501508
-0.0047646016 0.0021191612 -0.012663549 4281436738
-0.002847679 0.0022620186 -0.013110561 4281175874
-0.0010666624 0.0031696334 -0.014227169 4280914244
0.00084795058 0.0033125356 -0.014673481 4280652869
0.0029040724 0.0026913658 -0.014451316 4281044039
0.0055418015 -0.00098540634 -0.011559138 4281239369
0.0084995627 -0.0061876997 -0.0073387166 4281434698
0.011942625 -0.013678037 -0.0011271386 4282281808
-0.021294892 -0.0068961605 -0.0043915501 4281888343
-0.019358605 -0.0067527965 -0.0048437966 4281367889
-0.017646171 -0.0050721988 -0.0066432757 4280911184
-0.015714779 -0.0049290285 -0.0070942519 4281041998
-0.013900496 -0.0040175393 -0.0082175573 4281173324
-0.012091354 -0.0031063557 -0.0093396148 4281303884
-0.010164671 -0.00296323 -0.0097892536 4281238348
-0.008488372 -0.0012847334 -0.011579934 4281369164
-0.0066945478 -0.00037436187 -0.012698164 4281369419
-0.0047752932 -0.00023143739 -0.013145803 4281239369
-0.0027226359 -0.00085539371 -0.012924744 4281370184
-0.00080037117 -0.00071202964 -0.013372922 4281239623
0.00098352134 0.00019805878 -0.014488494 4281239879
0.0030446202 -0.00042493641 -0.014269145 4281174598
0.0053988546 -0.0025798753 -0.012718535 4281370439
0.0085015893 -0.0085635707 -0.007843609 4281891914
0.011646889 -0.014543943 -0.0029785745 4282019158
-0.019609526 -0.0075822696 -0.0066806963 4281560669
-0.018011302 -0.0051267818 -0.0091483956 4280844628
-0.016085327 -0.0049840137 -0.0095980978 4281106513
-0.014159158 -0.0048411265 -0.01004777 4281368908
-0.01211305 -0.0054683164 -0.0098272478 4281369164
-0.010306284 -0.0045550242 -0.010947029 4281433933
-0.0085046217 -0.0036419407 -0.012065562 4281434189
-0.0067081153 -0.0027292073 -0.013182799 4281695308
-0.0047863349 -0.0025861114 -0.013631049 4281695308
-0.0028643832 -0.0024428815 -0.014079246 4281304138
-0.0008065924 -0.0030685589 -0.013860944 4281239368
0.00084168464 -0.0013872907 -0.015641354 4281239368
0.0027614683 -0.0012439117 -0.016088806 4281436228
0.0052559525 -0.0041740164 -0.013877715 4281240133
0.0085032657 -0.010943465 -0.008351516 4282087499
0.011500552 -0.016173162 -0.0041631795 4282476629
-0.012254678 -0.0070620105 -0.010986454 4281365083
-0.010447837 -0.0061465427 -0.012104615 4281498450
-0.0087710246 -0.0044593439 -0.013888891 4281629519
-0.0069770887 -0.0035446286 -0.015003889 4282086734
-0.0047977194 -0.0049448833 -0.014119267 4281955153
-0.002740413 -0.0055729374 -0.013902548 4281824848
-0.00081313401 -0.0054292157 -0.014351911 4281760588
0.00097615272 -0.004514344 -0.015465523 4281565258
0.0029010996 -0.0043705776 -0.015914179 4281305669
0.0052565262 -0.0065384731 -0.014373678 4281305414
0.0085045844 -0.013327457 -0.008862406 4282217549
-0.0089122877 -0.0060462132 -0.015043068 4281756253
-0.0069909617 -0.0059032962 -0.015491317 4282085968
-0.0049394593 -0.0065340176 -0.015275004 4282086223
-0.0028824806 -0.0071642622 -0.015059839 4281955409
-0.0012259409 -0.0054737851 -0.016835783 4281824593
0.00083401054 -0.0061035231 -0.016621172 4281695053
0.0027588084 -0.0059597716 -0.017069802 4281566278
0.0052567497 -0.0089070424 -0.014872639 4281631049
0.0082137361 -0.014170386 -0.010697883 4282216529
0.00055413693 -0.006917052 -0.018437687 4282084694
0.0027569532 -0.0083238855 -0.017564733 4281629518
0.0049705207 -0.0097297505 -0.016694229 4281759058
0.004827559 -0.011324979 -0.017854195 4281757018
0.028252736 -0.016307853 0.040997822 4282732904
0.02502241 -0.018393002 -0.0097470284 4282667113
-0.0053470135 -0.016699143 -0.03180616 4282667878
-0.0056177303 -0.017472513 -0.033595093 4281880948
-0.0060183331 -0.017441399 -0.036025491 4282209133
-0.0094873533 -0.017367207 -0.045244772 4282797928
-0.010005251 -0.016480051 -0.048281346 4282666859
