# .PCD v0.7 - Point Cloud Data file format
VERSION 0.7
FIELDS x y z rgba
SIZE 4 4 4 4
TYPE F F F U
COUNT 1 1 1 1
WIDTH 293
HEIGHT 1
VIEWPOINT 0 0 0 1 0 0 0
POINTS 293
DATA ascii
0.0014261529 -0.0044973642 0.032983646 4282739023
-0.0039693043 -0.0007539615 0.027113618 4281958213
-0.0027107149 0.0029859766 0.023114024 4279676473
-0.0007127896 0.0031326637 0.022641538 4280328764
0.0022200644 -0.0010291114 0.026390316 4280197439
0.0051849 -0.0051883683 0.030131573 4282151758
0.0078595504 -0.0079097673 0.03246082 4282346579
-0.0056913197 -0.0047541559 0.028527351 4281631049
-0.0054443255 0.0040446743 0.01960339 4280915519
-0.0042087734 0.0077939704 0.015617207 4280981053
-0.0020819157 0.0072183236 0.015853027 4281306433
0.00067279488 0.0037619546 0.018895533 4279416373
0.0037707016 -0.0011326 0.023334488 4280915008
0.0061014071 -0.0024246573 0.024261134 4281241664
0.0084428489 -0.0037157908 0.025185255 4281111104
0.010628834 -0.004286468 0.02540748 4281306690
0.012482554 -0.0034179315 0.024230825 4281762118
0.013988033 -0.0011113659 0.021659018 4281958468
0.01652278 -0.003119573 0.023276607 4281631304
0.019780889 -0.0080014542 0.027678328 4282088009
-0.0074306875 0.0015066192 0.019615132 4281501253
-0.0066209063 0.007437475 0.013525952 4280655928
-0.0051029101 0.0097506419 0.01095527 4281176383
-0.003142409 0.0098945275 0.010491597 4281176384
-0.00056011975 0.0071483478 0.012829706 4280589884
0.0025177225 0.0022367761 0.017262273 4280198203
0.004829295 0.00093888491 0.018190168 4281176128
0.0069882795 0.000363864 0.018417079 4281046078
0.0089866817 0.00051111728 0.017944869 4280915264
0.010647893 0.0021016374 0.016078133 4280459579
0.012127265 0.0044129267 0.013517272 4280393789
0.014460757 0.0031172112 0.014440484 4280262973
0.017688151 -0.0017824695 0.018838255 4279546934
0.021311402 -0.0081208572 0.024616932 4281567809
0.024436712 -0.012293793 0.028301897 4282154309
0.027224779 -0.015023448 0.030592365 4282804048
-0.0095641911 -0.00031002611 0.018923175 4281435719
-0.0087319687 0.0056400523 0.012841344 4280916284
-0.0072057322 0.0079603419 0.010273417 4279612724
-0.0056952387 0.010279544 0.007709336 4280589884
-0.0035902783 0.0096978471 0.0079470631 4280198969
-0.0011694282 0.0076671317 0.0095813219 4280133943
0.0020568222 0.0020147786 0.014703188 4281047099
0.0040415376 0.0021607801 0.014234029 4281178169
0.0060263798 0.0023069009 0.013764922 4281047609
0.0076797381 0.0039011165 0.01190313 4280851769
0.0091541186 0.0062185302 0.0093481392 4281242174
0.010954965 0.0070876703 0.0081872232 4281502528
0.01344578 0.0050628856 0.0098055899 4281372223
0.016481958 0.00086981803 0.01350183 4281308218
0.019908287 -0.0047668293 0.018577108 4281307964
0.023195431 -0.0096773282 0.022949802 4281176129
0.02651985 -0.014585011 0.027313815 4281892679
0.029133275 -0.016600035 0.02890365 4282869329
-0.010700755 0.0031151697 0.012857424 4281239879
-0.0095968768 0.007626079 0.0081921108 4280784703
-0.0076422766 0.0077692792 0.0077296519 4281241665
-0.0058372244 0.0086399689 0.0065686465 4281371714
-0.0037325993 0.0080560222 0.0068048392 4281371713
-0.0013124719 0.0060185865 0.0084344726 4281242174
0.0015967488 0.0018019602 0.012150548 4281242683
0.0034156963 0.00267414 0.010986596 4281243194
0.0052294545 0.0035461113 0.0098239109 4281243194
0.0067068078 0.0058702156 0.007272948 4280723248
0.0083366446 0.0074672773 0.0054199439 4279874610
0.010126919 0.0083378181 0.0042630997 4280849729
0.012779985 0.0055799261 0.0065722917 4280719933
0.015454389 0.0028237477 0.0088765323 4280656438
0.019044623 -0.0035569817 0.014634246 4280721209
0.022682764 -0.0099340156 0.020380767 4281241664
0.026184544 -0.01558248 0.025425611 4282086988
-0.011692993 0.0058416352 0.0075125438 4281110339
-0.010027163 0.0074447095 0.0056534451 4280522818
-0.0077842772 0.006127812 0.0065875971 4281045569
-0.0056801289 0.005541496 0.0068222214 4281306433
-0.0034183636 0.0042262375 0.0077520269 4281241408
-0.0014554635 0.0043703541 0.0072878222 4281111869
0.00098002702 0.0023274645 0.008909151 4281047099
0.0026309341 0.0039300993 0.0070541347 4281177148
0.0042713508 0.0055321008 0.005201627 4281242939
0.0060667396 0.0064050034 0.0040449989 4281307709
0.0078569427 0.0072776154 0.0028896746 4280589884
0.0098127052 0.0074219182 0.002427679 4280719423
0.012288779 0.0053827912 0.0040398915 4280720189
0.015309073 0.0011619106 0.0077207605 4280850494
0.018897399 -0.0052388608 0.013464576 4280914498
0.022714984 -0.012363233 0.019886678 4281435464
-0.012817599 -0.0010706708 0.011719143 4281370694
-0.012117408 0.0056654438 0.0049759098 4279285558
-0.010600649 0.0080047175 0.0024244753 4279154998
-0.0058224052 0.0038980469 0.0056788283 4279676983
-0.0034091696 0.0018466488 0.0073004509 4281111104
-0.0015983954 0.0027224198 0.0061413827 4281176639
0.00036450475 0.0028666407 0.00567726 4281111869
0.0020077005 0.0044731125 0.0038272361 4281046588
0.0036404133 0.0060789362 0.0019797874 4281241918
0.0054278746 0.0069534555 0.00082655298 4281241408
0.0075459667 0.0063667074 0.0010569063 4281306433
0.0096694902 0.0057805106 0.0012860191 4281240898
0.012144826 0.003734678 0.0028936113 4281045058
0.015339639 -0.0012294725 0.007254425 4280914243
0.018928729 -0.0076501295 0.012983693 4281109828
0.022746854 -0.014796592 0.019389717 4281826123
-0.013930105 0.0024169311 0.0056914981 4281372733
-0.012823358 0.0069677383 0.0010540416 4280784704
-0.011172935 0.008578442 -0.00079502864 4281436994
-0.008946985 0.0072514638 0.00013669254 4280459323
-0.006262891 0.0037230924 0.003147814 4280198203
-0.0037039071 0.00093074888 0.0054593231 4280915518
-0.0017412901 0.0010748059 0.0049951593 4281046334
-9.2692673e-05 0.0026859716 0.0031469571 4280981564
0.0015454367 0.0042964742 0.0013013142 4280981309
0.0030106679 0.0066394433 -0.0012326129 4280785724
0.004790239 0.0075155571 -0.002382338 4280198969
0.0072354153 0.0054606125 -0.00077258795 4280133179
0.0096966624 0.0034069195 0.00083349226 4281045313
0.012346935 0.00062222034 0.0031241695 4280914498
0.015194211 -0.0028928891 0.006097551 4280979524
0.018959712 -0.010065518 0.012499942 4281043274
0.022416454 -0.015770651 0.017517062 4282216018
-0.015753679 -0.00084071606 0.0064035649 4282216273
-0.015039891 0.0059360415 -0.00031431019 4279937593
-0.013386719 0.0075512379 -0.0021609324 4280719679
-0.01160036 0.0084291026 -0.0033113542 4281241665
-0.0095265359 0.0078337342 -0.0030744742 4281111359
-0.0070004389 0.0050299615 -0.00076161325 4280264248
-0.0044529662 0.0022278652 0.001546267 4280785724
-0.0023468584 0.0016352162 0.0017757635 4280916538
-0.00039219856 0.0017787889 0.0013135518 4280916794
0.0012435094 0.0033935681 -0.00052837655 4280981308
0.002544336 0.0064783245 -0.0037462525 4278831148
0.0041537881 0.0080913752 -0.0055817664 4280265269
0.0065902993 0.0060290769 -0.0039747283 4278831403
0.0093831643 0.0024986491 -0.00099664554 4279220788
0.012202669 -0.0010297224 0.0019752192 4281241663
0.0152243 -0.0052903071 0.0056270058 4281110595
0.018812228 -0.011750899 0.011327831 4281369674
-0.017114736 0.0041701943 -0.00098663568 4280979780
-0.016008787 0.0087472796 -0.0056048483 4280524094
-0.014089696 0.0088875294 -0.0060591544 4280002619
-0.012026995 0.0082890093 -0.0058213361 4280394044
-0.0098126903 0.0069522485 -0.0048932172 4280134198
-0.0074389055 0.0048778951 -0.0032767914 4280655418
-0.0048976615 0.002066493 -0.00097382115 4281046589
-0.0027971864 0.0014711991 -0.00074458914 4281112124
-0.0010046735 0.0023522973 -0.001894474 4281047099
0.00046397001 0.0047086552 -0.0044197366 4280459578
0.0020788237 0.0063263774 -0.0062534474 4281111358
0.0036832169 0.007943444 -0.0080845915 4281568319
0.0062810034 0.0051369742 -0.0057945028 4281046078
0.0090701021 0.0015951321 -0.0028234762 4280915263
0.012231082 -0.0034180805 0.0015116888 4281241918
0.015429311 -0.0084284768 0.0058381916 4281306434
0.019020639 -0.014908738 0.011523852 4281955919
-0.018393166 -0.0020467117 0.002499606 4282345814
-0.017795801 0.0055128261 -0.0048866346 4281175618
-0.016423509 0.0086193904 -0.0081093907 4281175363
-0.014509864 0.0087592378 -0.0085624196 4281240899
-0.012309529 0.0074169263 -0.0076343417 4281371204
-0.0099525154 0.0053345487 -0.006018769 4281306433
-0.0078765526 0.0047350079 -0.0057855137 4280981053
-0.0057951361 0.0041359663 -0.0055534765 4281111358
-0.0037082657 0.0035374463 -0.0053226463 4281177148
-0.0017724484 0.0036796108 -0.0057804137 4281047099
4.3287873e-06 0.0045618489 -0.0069249123 4280525368
0.0014523193 0.0069234297 -0.0094404407 4280394554
0.0033779368 0.0070652068 -0.0098955333 4281045823
0.0058050193 0.004988946 -0.0082958341 4280719679
0.0085876845 0.0014356002 -0.0053313151 4280198203
0.012086697 -0.0050716177 0.00036163209 4280719423
0.015633572 -0.0115752 0.0060433471 4281044803
0.019050568 -0.01733651 0.011031469 4281369418
-0.01879891 -0.0021956861 -2.2810418e-05 4281823574
-0.017799713 0.003153801 -0.0053195842 4281043784
-0.016286403 0.0055257306 -0.0078465566 4281109573
-0.014367573 0.0056659356 -0.0083008222 4281044293
-0.012448587 0.0058062524 -0.0087550543 4281110084
-0.010092281 0.0037171766 -0.0071440972 4280718403
-0.0081650242 0.0038583353 -0.00760011 4281175874
-0.0059355795 0.0025140792 -0.0066818669 4281373755
-0.0043100342 0.0041410476 -0.0085120089 4281373499
-0.0026949644 0.0057674274 -0.010339618 4281306944
-0.00093138218 0.0066509098 -0.0114794 4281177148
0.00082702935 0.0075341165 -0.012617882 4280654398
0.0029088035 0.006933488 -0.012387104 4280719679
0.0053298622 0.0048501119 -0.010790784 4280393278
0.0081060976 0.0012852401 -0.0078327022 4280783938
0.011770133 -0.0059836283 -0.0014703097 4280914499
0.015487339 -0.013248466 0.0048795999 4280913478
0.018547542 -0.017545931 0.0084936451 4282542419
-0.018939279 -0.0038281977 -0.0011588829 4282019924
-0.017938882 0.0015368313 -0.0064447974 4281565769
-0.016287573 0.0031694248 -0.0082784146 4281435719
-0.014226012 0.0025640428 -0.008045204 4281304903
-0.012301855 0.0027047321 -0.0085006654 4281370183
-0.010232016 0.0021001026 -0.0082692243 4281304649
-0.008304894 0.002241239 -0.0087252222 4281696584
-0.0062267929 0.001637511 -0.0084956028 4281305159
-0.0046036616 0.0032687634 -0.010322034 4281435718
-0.0029910058 0.0048992932 -0.012145869 4281108553
-0.0012300164 0.0057847872 -0.013283458 4281173833
0.0006872043 0.0059257969 -0.013736676 4281174089
0.0027686357 0.0053229108 -0.013507411 4281239368
0.0050222352 0.0039767399 -0.012597539 4281174089
0.007964097 -0.00034315884 -0.0089653432 4280717129
0.011626039 -0.0076342896 -0.002618392 4280717129
0.015341144 -0.014921404 0.0037160763 4281108299
-0.018947542 -0.0062089786 -0.0016063349 4281693014
-0.017673835 -0.0023250058 -0.0055064792 4281500998
-0.016014315 -0.00068745017 -0.0073388261 4281435208
-0.014085159 -0.00054650754 -0.0077955504 4281369928
-0.01244121 0.0010901839 -0.0096240751 4281435208
-0.010226369 -0.00026428699 -0.0087088905 4281369673
-0.0082967356 -0.00012297928 -0.0091654845 4281500489
-0.0062163249 -0.00072875619 -0.0089380108 4281564748
-0.004743591 0.0016541108 -0.011445358 4281369418
-0.0029747486 0.0025422648 -0.012583293 4281107023
-0.0013696477 0.004176788 -0.014402065 4281041743
0.00070866197 0.003571339 -0.014173754 4280978248
0.0026285276 0.0037126541 -0.014627524 4280913223
0.0047150478 0.0031080544 -0.01440097 4281043273
0.0076529384 -0.0012253597 -0.010777436 4281043275
0.011481982 -0.0092846826 -0.0037662736 4281238603
0.01502049 -0.015848584 0.0018743821 4281825614
-0.019088022 -0.0078431368 -0.002743558 4281692503
-0.017678961 -0.0046986639 -0.0059497068 4281370948
-0.015879355 -0.0038068965 -0.007093952 4281435208
-0.01408489 -0.0029153824 -0.0082368823 4281369928
-0.012153059 -0.002774179 -0.0086941877 4281369929
-0.010366201 -0.0018829778 -0.009835151 4281434954
-0.0085845068 -0.00099207461 -0.010974836 4281630795
-0.0066575035 -0.0008508414 -0.011430725 4281565003
-0.0047303662 -0.00070948154 -0.011886563 4281565004
-0.0028030872 -0.00056801736 -0.01234236 4281303883
-0.0010340661 0.00032251328 -0.013478719 4281238603
0.00072976947 0.001212731 -0.014613722 4281303884
0.0026521459 0.001354225 -0.015068088 4281303628
0.0047409609 0.000747554 -0.014843691 4281369164
0.0076802 -0.0035990551 -0.011229989 4281303884
0.011166316 -0.010186844 -0.0055913865 4281237839
-0.019491859 -0.0079709664 -0.0052512186 4281693013
-0.017818779 -0.0063236579 -0.0070805186 4281369674
-0.015745118 -0.0069350302 -0.0068550454 4281173833
-0.01380565 -0.0067933723 -0.0073142396 4281239368
-0.012008317 -0.0058992878 -0.0084562311 4281043019
-0.010361053 -0.0042534545 -0.01027906 4281173068
-0.0087242424 -0.0026082918 -0.012099337 4281303884
-0.0069476441 -0.0017153695 -0.013236165 4281434444
-0.0048704073 -0.0023257732 -0.013011027 4281434444
-0.0027877241 -0.002935566 -0.012787107 4281434444
-0.0010160133 -0.0020426959 -0.013922483 4281369164
0.00075054169 -0.0011500493 -0.015056595 4281434444
0.0025119036 -0.00025767088 -0.016189333 4281303884
0.0046003982 -0.00086656958 -0.015966445 4281499469
0.0073695034 -0.0044761971 -0.013038573 4281368143
0.010679606 -0.010334112 -0.0080891298 4281953623
-0.01989489 -0.0080895424 -0.0077525089 4281561689
-0.018226862 -0.0064382553 -0.0095774094 4281107279
-0.016158842 -0.0070521906 -0.0093522305 4281238094
-0.014224812 -0.0069109574 -0.0098101543 4281369419
-0.012148499 -0.0075240359 -0.0095867598 4281435209
-0.010501012 -0.0058738068 -0.011406478 4281173579
-0.0088639483 -0.0042241961 -0.01322363 4281173323
-0.0072373524 -0.0025751963 -0.015038267 4281108044
-0.0050104037 -0.0039417222 -0.014135269 4281173324
-0.0029280558 -0.00455378 -0.013912884 4281238603
-0.00099828839 -0.0044120103 -0.014369187 4281173834
0.00044964254 -0.002010718 -0.016856071 4281434443
0.0023717061 -0.0018692762 -0.017310381 4281434444
0.004459843 -0.0024804175 -0.017089013 4281630540
0.007227838 -0.0061011687 -0.014168833 4281434443
0.010022458 -0.0097198859 -0.011254814 4282149463
-0.010785468 -0.0067373589 -0.01321279 4280973149
-0.0088564008 -0.0065961331 -0.013669283 4281040214
-0.0070770532 -0.005698666 -0.014803548 4280976719
-0.0051503479 -0.0055573732 -0.015259312 4281042253
-0.0030683577 -0.0061716884 -0.015038447 4281173578
-0.0012965426 -0.0052744001 -0.016170662 4281370184
0.00063055009 -0.0051327199 -0.016626261 4281174088
0.0023946539 -0.0042357147 -0.017756522 4281173579
0.0046508685 -0.0056038871 -0.016863186 4281304649
0.00708621 -0.0077258423 -0.015298882 4281303119
-0.0075161681 -0.0057973191 -0.01728004 4282148953
-0.0055949166 -0.0056564361 -0.017734513 4281234523
-0.0036735237 -0.0055154338 -0.018188946 4281107023
-0.001752004 -0.0053742602 -0.018643297 4281108044
0.00016964227 -0.0052329823 -0.019097604 4281303884
0.0022543296 -0.0058489293 -0.018878708 4281173068
0.0045100152 -0.0072215647 -0.017988423 4281434444
0.0069446191 -0.0093502179 -0.016428748 4281236308
-0.0097949505 -0.017207973 -0.032442439 4282470509
-0.032217681 -0.018779792 -0.037215792 4281944955
0.0051454827 -0.019174837 -0.048313703 4282470763
