# .PCD v0.7 - Point Cloud Data file format
VERSION 0.7
FIELDS x y z rgba
SIZE 4 4 4 4
TYPE F F F U
COUNT 1 1 1 1
WIDTH 798
HEIGHT 1
VIEWPOINT 0 0 0 1 0 0 0
POINTS 798
DATA ascii
-0.015359662 -0.013736613 0.0063095186 4286463809
-0.013882272 -0.011481028 0.0038077927 4287706423
-0.012138046 -0.010651115 0.0027257747 4288165423
-0.010254972 -0.010533694 0.002352644 4288165423
-0.0086653084 -0.0089920051 0.00056518835 4288231214
-0.0069368333 -0.0081627853 -0.00051342841 4287838003
-0.0052136183 -0.0073337853 -0.0015909257 4287184439
-0.0031860806 -0.0079281479 -0.0012560873 4286988344
-0.0016255416 -0.0063878037 -0.0030375118 4287054643
-0.013721712 -0.014475476 0.0041192714 4287968053
-0.011689611 -0.01507232 0.0044512004 4288099124
-0.0097959489 -0.014954265 0.0040759575 4288230959
-0.0080487803 -0.014121782 0.0029951574 4288099888
-0.0061575994 -0.014003646 0.0026205683 4288427308
-0.0042663179 -0.013885405 0.0022460427 4288035119
-0.0023749694 -0.013767041 0.0018715821 4287970094
-0.0007981509 -0.012221307 9.0172573e-05 4287970094
0.00092799962 -0.011389542 -0.00098611589 4288035373
0.0028115436 -0.011271331 -0.0013587846 4287970094
0.0048604943 -0.011866186 -0.0010294374 4287970094
0.0067468211 -0.011747565 -0.0014024861 4287839279
0.0088039078 -0.012341619 -0.001074614 4287970094
0.011386558 -0.015073117 0.0013533009 4287969839
0.016279556 -0.027065013 0.012874526 4287969583
0.023229916 -0.046886232 0.03206991 4287969583
0.029604666 -0.063849434 0.048440766 4287838003
0.033346429 -0.070125118 0.054312978 4287642164
0.035455354 -0.069991603 0.053896554 4287379258
-0.013561755 -0.017478522 0.00442468 4288426034
-0.011665672 -0.017360423 0.0040488746 4288360754
-0.0096257031 -0.017958943 0.0043777591 4288361264
-0.0078731626 -0.017123897 0.0032974256 4288295983
-0.0059767589 -0.017005455 0.002921795 4288099888
-0.0040802695 -0.016886901 0.0025462224 4288296493
-0.0023381449 -0.016052198 0.0014682577 4288034608
-0.00060131401 -0.015217718 0.00039140298 4288034608
0.0012900606 -0.015099149 1.7093262e-05 4288099633
0.0031814985 -0.014980447 -0.00035714751 4288165423
0.005072996 -0.014861632 -0.00073131378 4288230959
0.0069645457 -0.014742699 -0.0011054149 4288231214
0.0091972165 -0.016053665 -8.0852129e-05 4288231214
0.011787094 -0.018793564 0.0023392304 4287968818
0.016685139 -0.030822802 0.013832309 4288099889
0.023460116 -0.049991246 0.032284588 4288099889
0.029473498 -0.065578759 0.047222443 4288164403
0.032661773 -0.069731936 0.050990622 4287968054
0.034762509 -0.069598958 0.0505758 4287379003
-0.013678886 -0.01905166 0.0033158578 4288294964
-0.011782929 -0.018933605 0.0029400564 4288491569
-0.0097432658 -0.019534361 0.0032673918 4288361264
-0.0076981559 -0.020134639 0.0035936825 4288361518
-0.0057965368 -0.020015892 0.0032170073 4288099888
-0.0040464438 -0.01917861 0.0021389569 4288296493
-0.0023016334 -0.018341508 0.0010619923 4288296238
-0.00040511042 -0.018222738 0.00068656867 4288230959
0.0014914796 -0.018103834 0.00031122705 4288230448
0.0033881404 -0.017984811 -6.4045656e-05 4288164913
0.0052848533 -0.017865691 -0.00043926248 4288099634
0.0071816221 -0.01774643 -0.00081439549 4288230958
0.0094191916 -0.019061562 0.0002060415 4288099888
0.012186665 -0.022527065 0.0033160255 4288099888
0.01691401 -0.033876661 0.014084216 4288034354
0.023868069 -0.053821575 0.033189364 4288034354
0.029161261 -0.066591173 0.045308694 4288033588
0.03197816 -0.069325089 0.047677878 4287771959
-0.013657898 -0.021346014 0.0029098012 4288229684
-0.011900149 -0.020506475 0.0018314545 4288491824
-0.010004222 -0.020388316 0.0014557329 4288361518
-0.0079620853 -0.020991039 0.0017810457 4288361518
-0.006063275 -0.020872485 0.0014049124 4288231214
-0.0043158419 -0.020033125 0.0003289443 4288165679
-0.0024195388 -0.019914489 -4.6523928e-05 4288165423
-0.0003663376 -0.020516071 0.00027692434 4288230959
0.0020112544 -0.022557389 0.0019959146 4288165423
0.003756322 -0.021717768 0.00092078478 4288230448
0.0056609362 -0.021598134 0.00054401823 4288164913
0.0073980726 -0.020758789 -0.00052938121 4288230959
0.0096405149 -0.022077974 0.00048685365 4288099888
0.012412366 -0.025554296 0.0035879675 4287838004
0.017493371 -0.038377371 0.015720326 4287837748
0.02374031 -0.055507999 0.03200122 4287837748
0.028849399 -0.06759885 0.043398354 4287837238
0.031479195 -0.069623217 0.045068327 4287836983
-0.014050893 -0.021473374 0.00039786019 4287642163
-0.012298472 -0.020632025 -0.00067780609 4288231468
-0.010408036 -0.020514216 -0.0010524455 4288362283
-0.0082256421 -0.021842662 -2.8292532e-05 4288166189
-0.0061810315 -0.022447344 0.000295003 4288427563
-0.0042822771 -0.022328686 -8.1044564e-05 4288231469
-0.0022294745 -0.022932585 0.00024075154 4288231469
-0.0003278777 -0.02281351 -0.0001356834 4288427563
0.00189244 -0.024138998 0.00088138029 4288231469
0.0036375225 -0.023297172 -0.00019215513 4288427308
0.0055419914 -0.02317756 -0.0005689105 4288362029
0.00744652 -0.02305783 -0.00094558019 4288230959
0.0096911639 -0.024381381 6.7041139e-05 4288230959
0.012810145 -0.029311631 0.0045479722 4287968819
0.017720619 -0.041452866 0.015957061 4288164914
0.023612577 -0.057194125 0.030813303 4288164914
0.028176395 -0.067159727 0.040106438 4288033589
0.030980906 -0.069912091 0.042465232 4288294453
-0.012555674 -0.021474097 -0.0024817185 4287185204
-0.010811154 -0.02063093 -0.0035541549 4287446578
-0.008488819 -0.02268957 -0.0018342501 4287577903
-0.0064472035 -0.023296628 -0.0015120087 4287708208
-0.0047023818 -0.022453073 -0.0025842404 4287969329
-0.0026552491 -0.023059551 -0.0022629267 4288101164
-0.00060266256 -0.023665603 -0.0019425647 4287773489
0.0014553405 -0.024271172 -0.0016232311 4287707188
0.0033569261 -0.024151873 -0.0019995058 4288231979
0.0052585714 -0.024032447 -0.0023757042 4288100909
0.0074946582 -0.02536102 -0.0013647035 4288035118
0.0097415037 -0.026688848 -0.00035570498 4288100654
0.012689292 -0.030910771 0.0034212621 4288100399
0.017596766 -0.043089796 0.014803763 4287968819
0.023306957 -0.058156487 0.028934127 4287903283
0.027685001 -0.067430168 0.037515 4287838004
0.030300077 -0.069468737 0.039178282 4287968564
-0.015015721 -0.003522642 -0.0014823257 4282869328
-0.013154048 -0.0034066439 -0.0018512738 4282412114
-0.011436529 -0.0025804825 -0.0029295087 4281626714
-0.010018107 -0.0003348738 -0.0054241065 4281364318
-0.0084660724 0.0012001917 -0.0072072754 4281494879
-0.0067723542 0.0020251572 -0.0082805157 4281559649
-0.01590734 -0.026187424 -4.3188455e-05 4282609739
-0.014559649 -0.023156885 -0.0032108771 4281567553
-0.012812529 -0.02231146 -0.0042823115 4281829948
-0.01064188 -0.023649629 -0.0032623289 4282156604
-0.0086060241 -0.02425937 -0.0029406352 4282222394
-0.0067129992 -0.024141204 -0.0033156434 4282807364
-0.0048198849 -0.024022926 -0.0036905957 4282742339
-0.0027730539 -0.024631638 -0.0033708245 4282742594
-0.00087709725 -0.024512928 -0.0037461529 4282874174
0.00070095435 -0.022940543 -0.005508597 4283789368
0.0027533509 -0.02354854 -0.0051896581 4284050744
0.0046468228 -0.023429628 -0.0055642417 4284114748
-0.016024277 -0.027761269 -0.001152569 4281955663
-0.014401264 -0.026182573 -0.0029214558 4281110594
-0.012648761 -0.025334623 -0.0039923703 4281305923
-0.01061599 -0.025946889 -0.0036717572 4281305668
-0.0088686347 -0.025099028 -0.0047414852 4281240134
-0.0069784224 -0.024981048 -0.005115944 4281565768
-0.0050881244 -0.024862949 -0.0054903375 4281696839
-0.0030442812 -0.025474068 -0.0051715812 4281827398
-0.00099500641 -0.026084732 -0.0048538139 4281957703
0.00058323145 -0.024507906 -0.0066130972 4282153544
0.0026353151 -0.025118154 -0.0062957173 4282022984
0.0045286417 -0.024999257 -0.0066702729 4282022474
0.0067557357 -0.026337299 -0.0056638466 4281695563
0.0084849745 -0.025489446 -0.0067292536 4282087754
0.011414394 -0.0297391 -0.002967793 4282349894
0.017174248 -0.045634668 0.011809009 4282480964
0.022519264 -0.059339162 0.024497619 4282415684
0.02652408 -0.067215741 0.031663865 4282742594
0.029124433 -0.06926851 0.033320472 4283066953
-0.016141184 -0.029334817 -0.002261735 4282218569
-0.014380731 -0.028484259 -0.0033327709 4281437248
-0.012485623 -0.028366338 -0.0037084664 4281306179
-0.010447793 -0.028980564 -0.0033904179 4281175363
-0.0088403374 -0.027398054 -0.0051527685 4281305668
-0.0070955344 -0.026548032 -0.0062203174 4281305668
-0.0053559989 -0.025698218 -0.0072867377 4281305158
-0.003315147 -0.026311766 -0.0069690039 4281435974
-0.0014248379 -0.026193421 -0.0073432261 4281631814
0.00030688941 -0.025343735 -0.0084078414 4281566278
0.0021946542 -0.02522533 -0.0087813931 4281566278
0.0042464808 -0.025837693 -0.0084654791 4281566278
0.0063037202 -0.026449572 -0.0081505356 4281566533
0.0081969984 -0.026330452 -0.0085249124 4281697093
0.011466675 -0.032054383 -0.0033966654 4281828928
0.017050646 -0.047268409 0.01065795 4281763393
0.022392318 -0.061015081 0.023316888 4281763393
0.026215045 -0.068186224 0.02977973 4281828674
0.028812036 -0.070245773 0.03143217 4282674253
-0.01612363 -0.031643014 -0.0026770325 4282284104
-0.014223419 -0.031524908 -0.0030538363 4281567298
-0.012323089 -0.031406682 -0.0034305768 4281436484
-0.01056508 -0.030553889 -0.0044993348 4281240388
-0.0089574307 -0.028966952 -0.0062585287 4281305669
-0.0070648342 -0.028848838 -0.0066334791 4281305669
-0.0051721483 -0.028730612 -0.0070083588 4281370439
-0.0031262487 -0.029346038 -0.0066932123 4281305414
-0.0012307316 -0.029227402 -0.0070684887 4281435974
0.00034788251 -0.027641732 -0.0088214679 4281566534
0.0022381768 -0.027523171 -0.0091955261 4281500999
0.0042923763 -0.028137598 -0.0088816797 4281566024
0.0061854571 -0.028018598 -0.0092561012 4281500998
0.0082477778 -0.028632279 -0.0089436909 4281501254
0.011690527 -0.035106402 -0.003142206 4281763393
0.017450728 -0.051099155 0.011564258 4281763393
0.022619847 -0.064155236 0.02350674 4281698369
0.026266186 -0.070616126 0.029268268 4281567299
0.028500021 -0.071218342 0.029547248 4282804048
-0.01597216 -0.034692507 -0.0024031475 4281957704
-0.014066726 -0.034574088 -0.0027809888 4281501509
-0.012300774 -0.033718716 -0.0038498137 4281371458
-0.010682322 -0.032126877 -0.0056080204 4281436739
-0.0089295581 -0.031272043 -0.006674096 4281371458
-0.0070344284 -0.031153794 -0.0070495587 4281240134
-0.0049889088 -0.031771619 -0.0067359842 4281305158
-0.0030909404 -0.031652953 -0.0071118344 4281370184
-0.0013485476 -0.030798282 -0.0081755072 4281369928
0.00023026019 -0.02920818 -0.0099253273 4281435463
0.0021204054 -0.029089641 -0.010299369 4281370183
0.0041742846 -0.02970631 -0.009987059 4281304903
0.006233573 -0.030322496 -0.0096757254 4281370183
0.0084673017 -0.031673264 -0.0086801182 4281369928
0.011913739 -0.038167033 -0.0028937426 4281173834
0.017501056 -0.053473558 0.011093112 4281173834
0.02249261 -0.065834954 0.022323327 4281435208
0.025777798 -0.070847213 0.026704617 4281565514
-0.016089417 -0.036271807 -0.0035163874 4282090813
-0.014320888 -0.035414185 -0.0045842137 4281633853
-0.012557589 -0.034556787 -0.0056509245 4281503039
-0.01094164 -0.032960657 -0.0074054897 4281438523
-0.0091915205 -0.032103818 -0.0084694065 4281307198
-0.0071517676 -0.032724332 -0.0081564412 4281304903
-0.0049564391 -0.034082782 -0.0071570482 4281434698
-0.0029031374 -0.034702163 -0.0068465751 4281631049
-0.00099988282 -0.034583058 -0.0072233882 4281305414
0.00058713555 -0.032988045 -0.0089716595 4281370694
0.0023243241 -0.032131251 -0.010032527 4281566789
0.0042197369 -0.032012258 -0.010407522 4281370439
0.0061151907 -0.031893145 -0.010782439 4281240134
0.0083484352 -0.033248346 -0.0097899269 4281370184
0.011793219 -0.039762098 -0.0040175919 4281173579
0.017202649 -0.054378357 0.00925388 4281173579
0.022011619 -0.066040948 0.019776015 4281303883
0.025290092 -0.071069002 0.024147432 4281238604
-0.017586775 -0.040936168 -0.0014934752 4283263048
-0.016474463 -0.036367591 -0.0060073528 4283006263
-0.014711253 -0.035508107 -0.0070725437 4282549304
-0.012814038 -0.035390105 -0.00744869 4282157879
-0.01091671 -0.035271976 -0.0078247692 4281765433
-0.0091639087 -0.034412753 -0.0088876858 4281634874
-0.007269077 -0.034294534 -0.0092630982 4281566533
-0.0052241832 -0.034916837 -0.0089526121 4281697349
-0.0034791455 -0.034057718 -0.010013711 4281762629
-0.0012734383 -0.035419714 -0.0090194102 4281632324
0.00046906993 -0.034560535 -0.010079781 4281501763
0.0023669526 -0.03444152 -0.010455357 4281697094
0.0042648911 -0.03432237 -0.010830851 4281566023
0.0063288957 -0.034942698 -0.010523656 4281762628
0.0083982982 -0.035562556 -0.01021743 4281632068
0.011844102 -0.04209609 -0.0044596465 4281566789
0.01673054 -0.054539327 0.0067369621 4281631558
0.021354575 -0.065498754 0.016554659 4281631558
0.024623692 -0.070542917 0.020916793 4281629009
0.00066667423 -0.037617397 -0.0098224375 4284577828
0.0025697574 -0.037498053 -0.010199042 4284446248
0.0043097287 -0.036636602 -0.011257147 4284184618
0.0063760877 -0.037258979 -0.010952013 4283791408
0.0084478557 -0.037880909 -0.010647856 4283464754
0.011552267 -0.042951304 -0.0062646279 4283203123
0.01625913 -0.054691028 0.0042264927 4282939708
0.020522008 -0.064201817 0.012663961 4283069249
0.023958314 -0.070003152 0.01769571 4283131469
-0.015300527 -0.058738057 -0.0036001636 4284573749
-0.0026659779 0.033640277 0.047535069 4279586968
-0.0063487217 0.038972188 0.038450811 4279062689
-0.0055242628 0.043576077 0.032774705 4278603179
-0.0041180924 0.045615353 0.030133843 4278600119
-0.0019405074 0.044451591 0.031278301 4278599864
0.0045641325 0.033805359 0.043380465 4278796979
0.0074711889 0.030086437 0.047530986 4278864299
0.0099058896 0.028288778 0.049412314 4278800039
0.011844054 0.028410917 0.049029198 4278735014
0.012393594 0.033648297 0.04262026 4278668968
0.01272396 0.03952226 0.035467155 4278471854
0.017599165 0.03592791 0.039229028 4278272443
-0.0090889595 0.04049737 0.03393143 4279981199
-0.0065531172 0.045876697 0.027141985 4278864554
-0.0050079897 0.047278829 0.02526439 4279652248
-0.0030015521 0.046752352 0.025653511 4279192229
-0.00050968677 0.044298928 0.028304461 4278667694
0.0048694648 0.038111944 0.035100307 4278995879
0.0069272183 0.037588995 0.035479426 4278996389
0.0081367493 0.04027544 0.03209658 4278734248
0.0093248524 0.042960603 0.028718017 4278406064
0.010491528 0.045644477 0.025343733 4279585439
0.012530692 0.045120601 0.025726698 4279455643
0.015119676 0.042673741 0.028358852 4278930088
0.018650923 0.037023541 0.034734465 4278995624
-0.010231167 0.043454774 0.02754334 4278997409
-0.0089707561 0.0461528 0.024156488 4278275504
0.0013986006 0.042221047 0.027595863 4278733229
0.0034291893 0.041694082 0.027978685 4278537643
0.00496158 0.043100145 0.026107026 4278799783
0.0068244338 0.04321751 0.025738779 4278602923
0.0098465718 0.046027187 0.022004217 4278274484
0.01187744 0.045500558 0.022387214 4278865318
0.014276303 0.043687634 0.02426615 4278537644
0.017243266 0.039946169 0.028385878 4278341039
-0.010932248 0.044500262 0.023438871 4278866084
-0.0096819699 0.047206517 0.020060435 4278996388
-0.0076950118 0.046674207 0.020450076 4278996134
-0.0058568753 0.046789616 0.020086426 4278536879
-0.0035477243 0.044963785 0.021977849 4278602669
-0.0012223721 0.043138988 0.023866154 4278602668
0.0011191592 0.041315317 0.025751267 4279061669
0.0028167702 0.042079121 0.024632862 4278341548
0.0043413825 0.043489091 0.022766 4278472874
0.005855307 0.044898484 0.020901242 4278538409
-0.01090157 0.042313714 0.023108322 4278800549
-0.0097967759 0.04567888 0.018983945 4278538408
-0.0081129484 0.046443693 0.017869625 4278341548
-0.0061261356 0.045909226 0.018257672 4278275759
-0.0036634393 0.043427117 0.020895053 4278537898
-0.0011791848 0.040946431 0.023528222 4278603433
0.00051576272 0.041712213 0.022411898 4278603944
0.0020405464 0.043126587 0.020548102 4278603689
0.0037222169 0.043891665 0.019434497 4278603689
0.0055688024 0.044007976 0.019069443 4278603944
0.0072425343 0.044772685 0.017957503 4278407594
0.0089109465 0.045537122 0.016846662 4278669224
0.010752305 0.045653302 0.016482783 4279258529
0.013136577 0.043826111 0.018354952 4279193249
0.016271565 0.039409325 0.023203274 4278734503
0.022425434 0.024635233 0.03995271 4278734503
-0.011162989 0.041427378 0.021273438 4278473128
-0.0017735772 0.04135526 0.020195216 4278798764
0.00039941818 0.040168993 0.021324519 4278668969
0.0020891502 0.040936716 0.020210862 4278668968
0.003773585 0.041704211 0.019098263 4278538154
0.0052826628 0.043122128 0.017240923 4278865573
0.0066083111 0.04519004 0.014640351 4278537644
0.01633719 0.037204951 0.022851335 4278603434
0.022675924 0.021729933 0.040306762 4278603434
-0.012551669 0.037157014 0.023554755 4282405738
-0.011715494 0.041854665 0.017943662 4278604198
-0.0104715 0.044587117 0.014585692 4278734248
-0.0089466609 0.046010014 0.012728044 4278667948
-0.0074324347 0.047432262 0.010872584 4278864554
-0.0051465034 0.045584902 0.01275409 4278272698
-0.0026852265 0.043084949 0.015378918 4279060903
-0.00020240247 0.040586423 0.017999537 4278341293
0.0018084049 0.040049251 0.018379791 4278668969
0.0034902394 0.040818747 0.017269339 4278472363
0.0048270039 0.042893905 0.014671375 4278537643
0.0059751384 0.045620956 0.011332816 4278273719
-0.014096379 0.042181037 0.014985569 4279521943
-0.009664312 0.047119632 0.0086739697 4278733739
-0.0081605688 0.048545659 0.0068237865 4279257763
-0.0058859512 0.046690855 0.0087027429 4278405553
-0.00064149871 0.04036171 0.0154285 4278668458
0.0011993349 0.040477484 0.015064457 4278865318
0.0027061664 0.041904092 0.013213871 4278799784
0.0053429976 0.046065513 0.0080348244 4279126694
0.0068124272 0.047489937 0.0061918329 4279586714
0.0091599897 0.045640334 0.0080567272 4279193248
0.016284339 0.033437729 0.021398352 4278799528
-0.014781371 0.043295212 0.010926845 4279521943
-0.013689779 0.046703812 0.0068370784 4278668713
-0.0037092865 0.043321393 0.0095104147 4278733738
-0.0014028959 0.041462053 0.011378356 4278603689
0.00026293844 0.04223489 0.010274217 4278603433
0.0017565936 0.043665085 0.0084294304 4278668713
0.004884135 0.045866374 0.0054870844 4278403513
0.0085124597 0.046095181 0.0047699902 4278340529
-0.015322424 0.043766115 0.0076257419 4279259804
-0.014238127 0.047185343 0.0035454335 4278603689
-0.012588859 0.047958899 0.0024458414 4278603434
-0.010493059 0.046749696 0.0035772629 4278733994
-0.008539699 0.046201862 0.003963856 4278471854
-0.0061129816 0.043672949 0.0065761507 4278602669
-0.0038233772 0.04180583 0.0084424801 4278276013
-0.0020015799 0.041920293 0.0080821188 4278538664
-0.00050772727 0.043354828 0.0062404964 4278669734
0.00097544119 0.044788808 0.0044009946 4278341548
0.0027867109 0.044902828 0.0040428741 4278799784
0.01057259 0.043382719 0.0048232973 4278340784
0.015134096 0.033615351 0.015518012 4278341294
-0.01515048 0.040932674 0.008050926 4279390618
-0.014205143 0.045026813 0.0032345804 4278669734
-0.012553122 0.045802739 0.002136033 4278603688
-0.010755926 0.045915343 0.0017803116 4279127203
-0.0084992796 0.044039283 0.0036482674 4278996643
-0.0063822456 0.042827085 0.0047723586 4278603943
-0.0042543821 0.041615609 0.0058944141 4278472874
-0.0027603768 0.04305454 0.0040558558 4278604199
-0.00094933063 0.043168388 0.0036976652 4278538409
0.00052873418 0.044606432 0.0018624191 4278604199
0.0023345463 0.044720102 0.0015053726 4278472874
0.0036247149 0.04681905 -0.0010641328 4278734759
0.0055971518 0.046270818 -0.00068254257 4278800549
0.0077522658 0.045061585 0.00043450145 4278735014
0.010457978 0.041869469 0.0037571641 4278538663
0.0146516 0.033390693 0.012957574 4278669734
-0.015548043 0.04075383 0.005502874 4279259548
-0.014462262 0.044195302 0.001438285 4278472363
-0.0043680556 0.040104937 0.0048299143 4278604199
-0.0027128011 0.040883645 0.0037325926 4278538663
-0.0010628551 0.041662134 0.0026363246 4278603944
0.00024909154 0.04376892 6.7261804e-05 4278603689
0.0018830746 0.044546567 -0.0010257295 4278341803
0.0031682961 0.046651807 -0.0035894089 4278340784
0.010163609 0.041019872 0.0019568549 4279126948
0.014717169 0.031185361 0.012604961 4278866339
-0.015944876 0.040584087 0.0029612971 4279128223
-0.014863707 0.044036347 -0.0010943667 4278799783
-0.0075414702 0.043818153 -0.0017753977 4278405553
-0.0051142797 0.041262638 0.00081754755 4278799783
-0.003308855 0.041376021 0.00046039012 4278735013
-0.0015033633 0.041489489 0.00010327395 4278603688
-0.00036257505 0.044269163 -0.0031954537 4278538408
0.0014323145 0.044382129 -0.0035503532 4278734504
-0.017583445 0.037629329 0.0037390667 4282012528
-0.016908541 0.043104596 -0.002528311 4278537899
-0.013920121 0.046008125 -0.0061868904 4278669223
-0.012291905 0.046789236 -0.0072759017 4279259548
-0.010211125 0.045561306 -0.0061543649 4278865064
-0.0079642199 0.043664668 -0.0042989198 4278274994
-0.0055431649 0.041099906 -0.0017112345 4278733993
-0.0039038658 0.041882012 -0.0028022216 4278537898
-0.0021065138 0.041994959 -0.0031577332 4278603943
-0.00064114854 0.043445479 -0.0049808715 4278471854
0.00098226219 0.044226848 -0.0060685286 4278733994
0.002600342 0.045007981 -0.0071551288 4279782299
0.0042131096 0.045788825 -0.0082405787 4279521433
0.0097553879 0.038666841 -0.00090267957 4278470324
0.015211608 0.025426483 0.013352124 4278733994
-0.018252134 0.038814709 -0.0002721452 4281619063
-0.017586723 0.044307102 -0.0065248329 4278800549
-0.0064447671 0.042960778 -0.0064351354 4278603434
-0.004818812 0.043744259 -0.0075218845 4278603433
-0.0028717965 0.043185189 -0.0071419468 4278538154
-0.0010852106 0.043297514 -0.0074952887 4278471854
0.002145689 0.044863719 -0.0096642207 4278273974
0.0037531704 0.045646451 -0.010747017 4279192229
0.0058850758 0.044418 -0.0096382927 4278406064
0.0091033801 0.039169408 -0.0041539026 4278274483
0.014548071 0.025883915 0.010071074 4278274483
-0.019058309 0.040693037 -0.0050066365 4280701063
-0.018121958 0.044852961 -0.0097731594 4278407594
-0.01664073 0.046312682 -0.011593502 4278996389
-0.014876299 0.046423048 -0.011942877 4278865319
-0.013261363 0.047207754 -0.01302613 4278602924
-0.011042573 0.045295916 -0.011174833 4278799528
-0.008962553 0.044059053 -0.010059495 4278931109
-0.0067140907 0.042149279 -0.0082139969 4278734504
-0.0050907433 0.042934805 -0.0092986329 4278669224
-0.003309682 0.043046691 -0.0096509475 4278538409
-0.0015285611 0.043158665 -0.010003216 4278799783
0.0016917512 0.044728622 -0.012166859 4278337468
0.0029464513 0.04685868 -0.014705244 4278272444
0.0080942065 0.041030325 -0.0088516083 4278405299
0.014067367 0.025682736 0.0075271726 4278405299
-0.019307949 0.039885376 -0.0067875078 4280242573
-0.018232003 0.043381523 -0.010810178 4278538154
-0.016894609 0.045522504 -0.01336078 4278668968
-0.015132949 0.045632668 -0.013709622 4278668713
-0.013221756 0.045066427 -0.013326083 4278996389
-0.011000894 0.043148078 -0.011480068 4278538664
-0.0090734176 0.042583019 -0.011099636 4278735269
-0.0071405061 0.042018428 -0.01072026 4278538663
-0.0055224523 0.042805821 -0.011802257 4278669479
-0.0039097108 0.043593008 -0.012883184 4278538664
-0.0021367371 0.043704454 -0.01323385 4278603944
-0.0005319044 0.044491265 -0.014313053 4278538409
0.0012384988 0.044602718 -0.014663089 4278669479
0.0030089468 0.044714268 -0.015013069 4278603689
0.0051319413 0.043476317 -0.013908968 4278538664
0.0081603453 0.038866159 -0.0091745993 4278472874
0.013950583 0.024141867 0.0064415969 4278472874
-0.019557208 0.039082412 -0.0085650776 4279849619
-0.018624425 0.043268684 -0.013311687 4278668968
-0.0090296306 0.040428873 -0.011409946 4278669479
-0.0072516054 0.040540375 -0.011761802 4278669734
-0.0054735057 0.040651962 -0.012113612 4278866339
-0.0040206872 0.042119369 -0.013921567 4278473128
-0.0025785081 0.043586142 -0.015727313 4278473129
-0.0011470206 0.045052372 -0.017530929 4278342058
0.0084049329 0.036020942 -0.0087756738 4278669479
0.014741056 0.01921792 0.0089780642 4278669479
-0.019944444 0.038965724 -0.011070629 4279914899
-0.019016132 0.043165036 -0.0158068 4278668969
-0.015937939 0.045428067 -0.018692505 4278599354
-0.011677302 0.042243451 -0.015742622 4278271679
-0.0094495043 0.040312275 -0.013907569 4278996389
-0.0078340881 0.041103814 -0.014985926 4278735269
-0.0059043206 0.040534653 -0.014609092 4278603943
-0.0042941161 0.041326042 -0.015686288 4278472363
-0.0028543994 0.042797085 -0.017488353 4278668969
0.0052604787 0.039166227 -0.014540856 4278403003
0.0086488798 0.033167001 -0.0083828233 4278534329
0.014986031 0.016308632 0.0093305781 4278534329
-0.02060739 0.040225863 -0.015029196 4278669224
-0.019407131 0.043070521 -0.018295404 4278340529
-0.017941065 0.044546999 -0.020100022 4278865319
-0.016339369 0.045339547 -0.021174314 4278997154
-0.014296144 0.044082388 -0.020064699 4278603179
-0.012393709 0.043509014 -0.019684259 4278537389
-0.010022953 0.040887605 -0.017125223 4278406319
-0.0082585551 0.040998213 -0.017474409 4278800039
-0.0063344166 0.040426455 -0.01709808 4278800294
-0.0045671873 0.040537428 -0.017447691 4278603178
-0.0018710233 0.044169478 -0.021766193 4278799274
-0.00011702999 0.044279873 -0.022113001 4279979414
0.0019831359 0.04302711 -0.021014135 4279125673
0.0081784539 0.033029638 -0.010883163 4278668714
0.01523035 0.013390642 0.0096770301 4278928814
-0.021406978 0.042190101 -0.019703178 4278735014
-0.016740084 0.045260131 -0.023649644 4278864809
-0.014851429 0.044683568 -0.023268158 4278602669
-0.0088391155 0.041586671 -0.020680912 4278734248
-0.0072422735 0.04238154 -0.02175235 4278734248
-0.0056507215 0.043176174 -0.022822663 4278406319
-0.0026510544 0.045448929 -0.025682313 4278930853
-0.00090789422 0.045558631 -0.02602699 4278932384
0.0010082051 0.044984583 -0.02565036 4278866083
0.003807582 0.040992502 -0.021671131 4278734759
-0.022995211 0.039249562 -0.018927373 4282340459
-0.022204891 0.044176888 -0.024361344 4278538664
-0.020608656 0.044973314 -0.025431506 4278276014
-0.01085883 0.040704623 -0.022085031 4278603688
-0.009418644 0.042188738 -0.023877833 4278669224
-0.0078297853 0.042985305 -0.024946097 4278407083
-0.0062462203 0.043781653 -0.026013233 4278407083
-0.0035970733 0.047432877 -0.030306429 4278404278
-0.023373961 0.039172102 -0.021406628 4279587733
-0.022450246 0.043424167 -0.026103539 4278801059
-0.020716242 0.043532304 -0.026447121 4278866338
-0.019268252 0.045020837 -0.02823855 4279128479
-0.017102152 0.043058857 -0.026410762 4279062943
-0.015216723 0.04247757 -0.026031831 4278997408
-0.013023622 0.040517457 -0.024209261 4278866338
-0.011121918 0.03993737 -0.023833422 4278669734
-0.0095277168 0.040736433 -0.024901252 4278669734
-0.0080979504 0.04222437 -0.026688686 4278538664
-0.0066788383 0.04371177 -0.028473983 4278538664
-0.005270388 0.045198534 -0.030257072 4278865829
-0.0040398091 0.047373425 -0.032757185 4278406573
0.0027099922 0.041505858 -0.027321555 4278341549
0.0069493055 0.031984478 -0.017628325 4278472363
0.015056387 0.0080239251 0.0070971381 4278341549
-0.023077711 0.035639379 -0.020259617 4281357179
-0.022007525 0.039212517 -0.02422522 4278997664
-0.020262904 0.039321288 -0.024570925 4278735779
-0.018661074 0.040122539 -0.02563896 4278932639
-0.016773343 0.03953911 -0.025262211 4279391384
-0.014880151 0.038956117 -0.024886476 4279325849
-0.012830555 0.037681643 -0.023790931 4278998429
-0.011077393 0.037791394 -0.024138005 4278801314
-0.009636756 0.039284382 -0.0259245 4279194269
-0.0078887939 0.039393991 -0.026270408 4279063198
-0.0061407685 0.039503712 -0.026616257 4279128733
-0.0047213696 0.040995587 -0.028398318 4279194013
-0.0034796707 0.043177817 -0.030895825 4279194013
-0.0019145869 0.043977667 -0.031955935 4279325084
0.0001623407 0.042705681 -0.030865308 4278867104
0.0027752556 0.039363287 -0.027628647 4278670754
0.0070147738 0.02981087 -0.017957905 4278735523
0.014938079 0.0064625964 0.0059971474 4278670754
-0.022243634 0.029313022 -0.016232183 4281815923
-0.021153949 0.032898434 -0.020193657 4278997664
-0.019530743 0.033703156 -0.021264451 4278932129
-0.01791279 0.03450761 -0.022334093 4278342824
-0.016009249 0.033922937 -0.021962089 4278277544
-0.0010059066 0.038381528 -0.028676489 4278276524
0.0031899959 0.035831373 -0.026509872 4278276524
0.0074350834 0.026248278 -0.016862661 4278276524
0.015540846 0.0021324903 0.0077508949 4278276524
0.036956184 -0.063361228 0.074675091 4278276779
-0.021815404 0.025047807 -0.014389062 4282142578
-0.020577088 0.027947811 -0.017624518 4279914389
-0.019080311 0.029452583 -0.019416146 4278866593
-0.01730901 0.029563064 -0.019767104 4278735779
-0.015537597 0.029673645 -0.020118019 4278735779
-0.013618156 0.029087791 -0.019750664 4278604709
-0.011843864 0.02919874 -0.020102011 4278801314
-0.010222789 0.030005997 -0.021170458 4278866849
-0.008762937 0.031508982 -0.022954326 4278735524
-0.0068377964 0.030923894 -0.022587875 4278735524
-0.0049072281 0.03033925 -0.022222428 4278866594
-0.002971217 0.029754998 -0.021857942 4278801059
-0.001363188 0.030561926 -0.022923453 4278604453
7.0165843e-05 0.032063715 -0.024701739 4278604453
0.0018369481 0.032174967 -0.025051041 4278407849
0.0037784912 0.031591494 -0.024687417 4278407849
0.0080318339 0.0219779 -0.015064268 4278538918
0.016322389 -0.0029096268 0.010204103 4278407849
0.028827105 -0.043059867 0.051082689 4278407849
0.036635481 -0.064448297 0.072709501 4278407849
-0.020412952 0.025073452 -0.017227093 4279717783
-0.018770888 0.025883695 -0.018298408 4278801314
-0.016849257 0.025295587 -0.01793329 4278735779
-0.014922164 0.024707923 -0.017569181 4278801314
-0.013285134 0.025518138 -0.018639294 4278801314
-0.011653356 0.02632813 -0.019708289 4278801314
-0.0098737366 0.026439494 -0.020060631 4278801314
-0.0080940314 0.026550962 -0.02041292 4278670244
-0.0063142516 0.026662527 -0.020765161 4278538918
-0.0046955608 0.027472096 -0.02183128 4278801059
-0.0029183291 0.027583698 -0.022182869 4278932129
-0.00097452104 0.026997851 -0.021821512 4278538918
0.00046709552 0.028504586 -0.02359823 4278669989
0.0024136826 0.027919123 -0.023237271 4278735524
0.0041911043 0.028031128 -0.023588615 4278801058
0.0086272545 0.017689982 -0.013278226 4278866593
0.017102271 -0.0079737268 0.012641824 4278669989
0.029245257 -0.046859164 0.052007407 4278669989
0.036685709 -0.066923335 0.072165638 4278735524
-0.020660065 0.024295295 -0.018987248 4279324828
-0.018881068 0.024406118 -0.019339828 4278866849
-0.016817495 0.02311448 -0.018260168 4278669989
-0.015032917 0.02322584 -0.01861372 4278735779
-0.013248242 0.023337316 -0.018967211 4278670244
-0.011613749 0.024149664 -0.020035166 4278670244
-0.0095256455 0.022859907 -0.018960034 4278866849
-0.0077380203 0.022971848 -0.019313907 4278473638
-0.0059503242 0.023083901 -0.019667717 4278801059
-0.0046455376 0.025296444 -0.022158654 4278801059
-0.0028657429 0.025408195 -0.02251076 4278473638
-0.001085896 0.025520055 -0.022862801 4278669989
0.00069400668 0.025632011 -0.023214784 4278735524
0.0024739504 0.025744075 -0.023566699 4278735779
0.0044283271 0.025156979 -0.023208814 4278604709
0.0088671967 0.014782771 -0.012922986 4278866593
0.017520972 -0.011661928 0.013646722 4278604709
0.029297533 -0.049273949 0.051506601 4278735779
0.035995156 -0.066608116 0.068788417 4278735779
0.038319573 -0.067171305 0.06907358 4278866593
0.040649354 -0.067734033 0.069357775 4278801314
-0.020359963 0.020706432 -0.017881684 4279063454
-0.018712431 0.021521453 -0.018950948 4278932383
-0.016928092 0.021632686 -0.01930454 4278736289
-0.01514364 0.021744028 -0.019658072 4278736289
-0.013506502 0.022558656 -0.020725021 4278735779
-0.011724532 0.022670034 -0.021077925 4278866849
-0.0096368901 0.021375796 -0.020005925 4278866849
-0.007693924 0.020785036 -0.019647909 4278735779
-0.0059036613 0.020897252 -0.020002229 4278670244
-0.0045958161 0.023116611 -0.02248898 4278670244
-0.0029769689 0.023930693 -0.023551876 4278604709
-0.0011972375 0.024042526 -0.023903906 4278801314
0.0007513985 0.023452632 -0.023546645 4278801059
0.0028770119 0.022161482 -0.022481645 4278735779
0.0048391409 0.021572663 -0.022126891 4278670244
0.0091064908 0.01186689 -0.012573787 4278538918
0.017759088 -0.014662001 0.013935268 4278670244
0.029167233 -0.050991867 0.050296314 4278735779
0.035490572 -0.066980034 0.066126816 4278735779
0.037621688 -0.066845134 0.065705992 4278538918
0.040323742 -0.068811595 0.067400254 4278735524
0.042655881 -0.06937626 0.067682475 4278538664
-0.020918459 0.012049135 -0.011427625 4282406758
-0.019924268 0.016398471 -0.016071359 4278932638
-0.018126756 0.016510416 -0.016427636 4278736289
-0.016329125 0.01662245 -0.016783873 4278866848
-0.014675975 0.017440181 -0.017852474 4278998429
-0.012880817 0.017552268 -0.018208073 4278735779
-0.011085574 0.017664466 -0.018563615 4278736289
-0.0091376156 0.017071698 -0.018208267 4278736289
-0.0074948147 0.017889183 -0.019274529 4278736289
-0.0055413395 0.017296951 -0.018920137 4278736033
-0.0040644109 0.018818876 -0.020694466 4278670754
-0.002271466 0.018931439 -0.021049187 4278670754
-0.00081049278 0.020452565 -0.022820208 4278866849
0.0011459067 0.01986094 -0.02246609 4278604709
0.002936326 0.019973652 -0.022820083 4278735779
0.0050749034 0.018679027 -0.021760825 4278735524
0.0093451291 0.0089424402 -0.012230698 4278735524
0.01799657 -0.017670702 0.0142178 4278801058
0.029036952 -0.052709479 0.04908625 4278800803
0.034986708 -0.067342728 0.063471779 4278866338
0.037112311 -0.067208186 0.063052043 4278866593
0.039808355 -0.069181666 0.064742699 4278735524
0.042327635 -0.070451424 0.065727331 4282143853
-0.01502309 0.008050371 -0.010721643 4279984258
-0.013343107 0.0088720024 -0.011794025 4279655563
-0.011815473 0.010400984 -0.013575582 4279786123
-0.010148689 0.011221953 -0.014645159 4279654288
-0.0083347186 0.011335406 -0.015004346 4279391383
-0.0066757984 0.012156088 -0.016072217 4279391639
-0.0047065392 0.011562649 -0.015722537 4279326103
-0.003052827 0.012383211 -0.016789226 4279260824
-0.0012412444 0.012496941 -0.017147638 4279588244
0.0002386868 0.01402371 -0.018919269 4279456409
0.0018764883 0.014843598 -0.019982575 4278866593
0.0038513951 0.014251027 -0.019633643 4279062943
0.0060056001 0.012952901 -0.018580636 4278670499
0.010466002 0.0024804063 -0.0083711073 4278801568
0.018771153 -0.022804838 0.016606178 4278670499
0.029088641 -0.055132251 0.048579887 4279194268
0.034852762 -0.069106728 0.06222906 4278997663
0.036978215 -0.0689722 0.061809346 4278932638
0.039483618 -0.070247412 0.062793434 4279194524
0.041807093 -0.070817068 0.063074216 4282536809
-0.0014022551 0.0030806623 -0.01008128 4281033073
0.00043867528 0.0031962208 -0.010445505 4280902258
0.0019483007 0.0047292337 -0.012219772 4280769914
0.0032788776 0.0069702268 -0.01469641 4280507518
0.0051065683 0.0070852749 -0.015057782 4279720079
0.0076291934 0.0043677241 -0.012605194 4279916428
0.012290146 -0.0068444647 -0.0017215176 4279851148
0.020618588 -0.032207932 0.023193553 4279916428
0.02950353 -0.058974426 0.049474318 4279981963
0.034534398 -0.070162937 0.060285218 4279916428
0.036469892 -0.069321185 0.059165228 4279850638
0.038779654 -0.069894075 0.05944702 4279981454
0.047200922 -0.073587805 0.055986024 4282863974
-0.016591333 -0.037941854 -0.0071170535 4285098028
-0.014828101 -0.03708018 -0.0081806649 4285360678
-0.012931041 -0.036962193 -0.0085567813 4285426468
-0.011033855 -0.036844093 -0.0089328494 4285295653
-0.0091365799 -0.036725853 -0.0093088392 4285164839
-0.0073863491 -0.035864469 -0.010369565 4285099303
-0.0051919781 -0.037231844 -0.0093763862 4285033768
-0.0032917708 -0.037113022 -0.0097526778 4285099559
-0.016441025 -0.041007902 -0.006854848 4285294634
-0.014672428 -0.040143695 -0.0079179248 4285557539
-0.012631223 -0.040771078 -0.0076102922 4285425958
-0.010726169 -0.04065251 -0.0079879398 4285425958
-0.0086767375 -0.041279223 -0.0076817321 4285360934
-0.007062722 -0.039669733 -0.0094261747 4285360679
-0.0050104484 -0.040295985 -0.009120401 4285295144
-0.0032573417 -0.039432 -0.010179887 4285295399
-0.0010445677 -0.040802386 -0.0091933571 4285033769
0.00070599467 -0.039938267 -0.010252196 4285033768
0.0026115999 -0.03981879 -0.010629311 4285033513
0.0043542609 -0.038954955 -0.011686353 4285230119
0.0064229816 -0.039579403 -0.011383291 4285164328
0.0084971115 -0.040203426 -0.011081152 4285098283
0.01160286 -0.045289148 -0.0067094015 4285032749
0.016135849 -0.056320678 0.0030783173 4284967214
0.020219997 -0.065116912 0.010818151 4284967214
-0.01642473 -0.043334294 -0.0072829174 4285360424
-0.014653452 -0.04246768 -0.0083449865 4285558049
-0.012609869 -0.043097194 -0.0080393935 4285492003
-0.010560855 -0.043726217 -0.0077348324 4285492003
-0.0085063949 -0.04435477 -0.0074312678 4285426468
-0.0065932795 -0.044235442 -0.0078103235 4285426213
-0.0046800785 -0.044115994 -0.0081893122 4285426468
-0.002766788 -0.04399639 -0.0085682115 4285426468
-0.00085343421 -0.043876667 -0.00894704 4285361189
0.00090250373 -0.043010067 -0.010005307 4285360933
0.002653148 -0.042143676 -0.011062444 4285360933
0.0045613348 -0.042023893 -0.011439969 4285426468
0.006304048 -0.041157689 -0.012495391 4285360423
0.0085460506 -0.042530026 -0.011517395 4285425703
0.01148228 -0.046885189 -0.00783394 4285491494
0.016012602 -0.057949971 0.0019303875 4285359914
0.020094573 -0.066772833 0.0096515054 4285359914
-0.016275495 -0.046415228 -0.0070312237 4285360679
-0.014498845 -0.045546148 -0.0080927322 4285426723
-0.012311641 -0.046927672 -0.0071081175 4285426468
-0.01053746 -0.04605848 -0.0081689609 4285557794
-0.0083366968 -0.047438916 -0.0071868589 4285557538
-0.0064183734 -0.047319274 -0.007566954 4285492003
-0.0044999719 -0.047199499 -0.0079469671 4285491749
-0.0025814883 -0.047079574 -0.0083269021 4285492004
-0.00081757829 -0.04621039 -0.0093852421 4285491749
0.00094104558 -0.045341406 -0.010442453 4285492004
0.0028543733 -0.045221452 -0.010821107 4285492004
0.0047677644 -0.045101356 -0.011199667 4285491749
0.0065158494 -0.04423267 -0.012254522 4285426213
0.0085946806 -0.044860747 -0.011956538 4285360423
0.011703141 -0.049977254 -0.0076076258 4285360424
0.016062763 -0.06032699 0.0014574728 4285228588
0.019969169 -0.068428457 0.0084850686 4285228588
-0.016259976 -0.048752081 -0.0074667437 4285294888
-0.014480628 -0.047880623 -0.008527196 4285361188
-0.012429658 -0.048514064 -0.0082263118 4285426724
-0.010514352 -0.04839487 -0.0086059971 4285492259
-0.0084551759 -0.049027558 -0.008306562 4285492258
-0.0063905418 -0.049659807 -0.0080080675 4285426469
-0.0043204874 -0.050291587 -0.0077106114 4285492004
-0.0023968145 -0.050171342 -0.0080915783 4285492004
-0.00078202784 -0.048548263 -0.0098263724 4285491749
0.00097928941 -0.047676902 -0.010882518 4285426214
0.0028951429 -0.047556769 -0.011261656 4285426213
0.0049735531 -0.048187371 -0.010965391 4285426214
0.0065618157 -0.046565477 -0.012694526 4285360424
0.0086430013 -0.047195625 -0.012398607 4285426214
0.011923343 -0.053077806 -0.0073873643 4285294634
-0.015845984 -0.053357791 -0.0058663245 4285294633
-0.01405593 -0.052483473 -0.0069273133 4285360933
-0.012271106 -0.051609349 -0.0079871695 4285361444
-0.010350607 -0.051489849 -0.0083678979 4285295398
-0.0082863942 -0.052124437 -0.0080710631 4285426724
-0.0060704537 -0.053512607 -0.0070982482 4285426723
-0.0041416511 -0.05339219 -0.0074803364 4285426723
-0.002364412 -0.052517917 -0.0085382359 4285360934
-0.00059245527 -0.051643845 -0.0095950002 4285360423
0.0013312027 -0.051523361 -0.0099757882 4285360424
0.0034145974 -0.052155998 -0.0096822055 4285360679
0.0050163716 -0.050528947 -0.011410897 4285360679
0.0067724921 -0.0496553 -0.012464195 4285360679
0.0088587143 -0.050287392 -0.012170826 4285360679
0.01180217 -0.054681804 -0.0085175168 4285294634
-0.013497088 -0.057860699 -0.0046622064 4285426724
-0.011698883 -0.056983564 -0.0057231393 4285361188
-0.0096243881 -0.057619836 -0.0054300297 4285360424
-0.0076878928 -0.057499204 -0.0058138277 4285294888
-0.0056051873 -0.058134731 -0.005522171 4285360678
-0.0038146377 -0.057257552 -0.006581204 4285360423
0.0074771047 -0.055019099 -0.010224761 4285163819
0.009408839 -0.054897603 -0.010606779 4285228589
