# .PCD v0.7 - Point Cloud Data file format
VERSION 0.7
FIELDS x y z rgba
SIZE 4 4 4 4
TYPE F F F U
COUNT 1 1 1 1
WIDTH 935
HEIGHT 1
VIEWPOINT 0 0 0 1 0 0 0
POINTS 935
DATA ascii
-0.0055128857 0.015929274 0.051967215 4286725439
-0.0039850585 0.018796962 0.04870471 4289603624
-0.0020819083 0.019604329 0.047617529 4290257953
0.00076054782 0.015608035 0.051594581 4290127139
-0.0085477717 0.018973183 0.046019755 4288817968
-0.0070276223 0.021848984 0.042765215 4289407274
-0.0055288561 0.024723556 0.039514609 4290127649
-0.0035231821 0.024842776 0.039156504 4288819243
-0.00097827986 0.022208568 0.04168513 4288819243
0.0026880652 0.014069855 0.049979631 4289277224
-0.016999699 0.018234309 0.044784598 4287378239
-0.015326146 0.020428982 0.042253137 4290387238
-0.013194706 0.01985668 0.042616308 4290387749
-0.011300039 0.020667512 0.041533679 4289605154
-0.0094106086 0.021478109 0.040452056 4290063388
-0.0079060681 0.02436164 0.037206959 4289931808
-0.006293714 0.026553102 0.034686748 4290716444
-0.0043015927 0.026671488 0.034331042 4290520093
-0.0017708838 0.024027687 0.036855556 4290258464
0.0013307221 0.018623605 0.042254508 4290454814
0.004615508 0.012531951 0.048364896 4290454814
-0.019910924 0.021336619 0.038854312 4288490039
-0.018360853 0.024231087 0.03560742 4290126119
-0.016485281 0.025042754 0.034529716 4289930278
-0.01414169 0.023079351 0.036338158 4290388768
-0.012144815 0.023197655 0.03598132 4290192928
-0.010147799 0.023316059 0.035624526 4289997089
-0.0084034204 0.024821036 0.033828065 4289997088
-0.0065405965 0.025632367 0.032752965 4290520348
-0.004419513 0.02505767 0.033116616 4290192928
-0.0020240024 0.023097862 0.034916177 4289800483
0.00052491948 0.020446513 0.0374308 4290062369
0.0029556267 0.018488966 0.039224207 4289866784
0.0056876466 0.015147939 0.042448677 4289931809
0.009172827 0.0083480924 0.049250785 4289735969
-0.023822039 0.018084873 0.039793573 4289146663
-0.0220301 0.019596394 0.037991479 4289539363
-0.020578973 0.023196448 0.034028105 4289734948
-0.018929049 0.025402557 0.031510808 4289342759
-0.017064191 0.026215766 0.03043662 4289015594
-0.014731951 0.024245147 0.032242056 4289669925
-0.012625106 0.023667067 0.0326063 4290258718
-0.010512732 0.023089387 0.032969613 4290258718
-0.0087735206 0.024598334 0.031177435 4289997088
-0.0065292865 0.023325767 0.032258075 4289997088
-0.0042741559 0.022053886 0.03333687 4290193439
-0.0018738508 0.020087827 0.035130549 4289931810
0.00013172626 0.020207141 0.034772538 4289997088
0.0021374039 0.020326551 0.034414575 4289997089
0.0042855442 0.019751612 0.034771971 4289669923
0.0070194341 0.01639992 0.037987821 4290389279
0.010962423 0.007496886 0.046913784 4290585118
-0.024671525 0.021350931 0.033526845 4288623148
-0.022898197 0.022865608 0.031731427 4289604643
-0.021355309 0.025776859 0.028499044 4289996833
-0.019495927 0.026591759 0.027427465 4290193184
-0.017641775 0.027406473 0.026356835 4290192928
-0.015084896 0.024032477 0.029595293 4290585629
-0.013225064 0.024847694 0.02852378 4290651419
-0.011123713 0.024267137 0.028887428 4289670179
-0.009269014 0.025082219 0.027816955 4289800994
-0.0067757517 0.022409905 0.030327942 4289800994
-0.0046551973 0.021830779 0.030688308 4289932063
-0.0022608638 0.01985782 0.03247802 4289866273
-0.0005344525 0.021370672 0.030691721 4289800738
0.0013208129 0.022186238 0.029621493 4290127903
0.003313005 0.022304919 0.029265996 4290193184
0.005740013 0.020334262 0.031050153 4290389278
0.0089212582 0.014883116 0.036395058 4289669669
0.013047416 0.0052577704 0.046005756 4289996069
-0.024474889 0.017637275 0.034470968 4287903539
-0.023121566 0.021960288 0.029804222 4289080873
-0.021910146 0.026982237 0.02442544 4289931554
-0.020061485 0.027798641 0.023357414 4290127903
-0.018102907 0.027914423 0.023007225 4289931553
-0.015554987 0.024529066 0.026238889 4290258718
-0.013703179 0.025345903 0.025170494 4289800993
-0.011733387 0.025462609 0.024818502 4289670433
-0.0098894015 0.026279207 0.023751598 4289474083
-0.0074076504 0.023597497 0.02625794 4289408804
-0.0050355494 0.021616604 0.028046533 4289735969
-0.0029151589 0.021035362 0.028405312 4289670179
-0.0011993051 0.022551898 0.02662421 4289473828
0.00050587207 0.024067946 0.024845053 4290455324
0.0023424365 0.024884596 0.023779932 4290847514
0.0044631921 0.024303745 0.024138927 4289604644
0.0071791671 0.02092934 0.027341321 4289081384
0.010522686 0.014763325 0.033381369 4289408549
0.014678847 0.0051094666 0.042963404 4289342759
-0.024174899 0.013207585 0.036122546 4287248699
-0.023237675 0.020356525 0.02859712 4287838258
-0.02213484 0.02609659 0.022513658 4289996578
-0.02040112 0.027617741 0.020732027 4290062369
-0.018218048 0.026327983 0.021813229 4289931809
-0.015788715 0.023634095 0.024321966 4290258974
-0.014059916 0.025155224 0.022541415 4289931808
-0.012341753 0.026675776 0.020762883 4289735714
-0.010634214 0.028195832 0.018986277 4290651418
-0.0081666782 0.025504563 0.021488454 4290651418
-0.0056774952 0.022814672 0.023986846 4290520603
-0.0035681427 0.022230588 0.024345908 4289997343
-0.0018628463 0.023750827 0.022570021 4289866273
-0.00030743703 0.0259717 0.020085193 4290455068
0.0015157163 0.026789714 0.01902413 4290913048
0.0037673265 0.025505032 0.020093799 4290847769
0.006177064 0.023520399 0.021871079 4290520859
0.008902967 0.020135824 0.025063425 4290258973
0.012113847 0.01465188 0.030376472 4289997343
0.016921449 0.0021687672 0.042761859 4289538853
-0.023563921 0.006644547 0.039907634 4286986814
-0.022819906 0.015226796 0.030965224 4287707444
-0.021921381 0.022395242 0.023463398 4288688684
-0.020515792 0.026035946 0.019541495 4289604133
-0.018562809 0.026151333 0.019192252 4289997088
-0.016257115 0.024152976 0.020982318 4290128159
-0.014295764 0.024269037 0.020631723 4289866529
-0.012702979 0.026498068 0.01814479 4290389788
-0.010875031 0.027317971 0.017084099 4290651418
-0.0086674914 0.02602572 0.018157903 4290520604
-0.0061871372 0.023326658 0.020651143 4290782234
-0.0042198002 0.023443516 0.020299818 4290062368
-0.0025250614 0.024967451 0.018529139 4290193439
-0.00084100664 0.026490826 0.016760428 4290193183
0.00097410381 0.027310558 0.015702408 4289931809
0.0032172129 0.026020978 0.016770292 4289735458
0.0054711476 0.024732184 0.017836273 4289866274
0.008335188 0.020633314 0.021729693 4290193438
0.011231579 0.01653653 0.025617387 4289735459
0.015867509 0.0047157109 0.037269317 4289409058
-0.02229704 0.0093681663 0.034030493 4286986814
-0.021162346 0.01514475 0.027967967 4287249464
-0.020070508 0.020918902 0.021913178 4288165423
-0.018448181 0.023155849 0.01942578 4289669923
-0.016489789 0.023271609 0.019075613 4289866274
-0.014891386 0.025507379 0.016592599 4290389533
-0.01343175 0.028448734 0.01340204 4289604644
-0.011617206 0.029269975 0.012345388 4289146408
-0.0092954412 0.027266402 0.014127831 4289408038
-0.0066957772 0.023851935 0.017325509 4289669668
-0.0046031252 0.023262478 0.017684191 4290193183
-0.0027773753 0.024084751 0.016625818 4290127904
-0.0010958128 0.025612351 0.014860832 4290258718
0.00099981576 0.025023304 0.015219239 4290258463
0.0032451674 0.023729559 0.016283337 4290193184
0.0056483336 0.021731474 0.018051755 4289735204
0.0083670169 0.018324748 0.02122869 4289408293
0.011265013 0.014215045 0.025106076 4289211944
0.015900793 0.002357319 0.036729675 4288884778
-0.021669574 0.0027740598 0.037787993 4286855998
-0.020514891 0.0085690841 0.031735238 4287248953
-0.019514903 0.015071012 0.024979439 4287642164
-0.018448666 0.020861059 0.018942613 4288492333
-0.016956493 0.023812804 0.01575274 4289669925
-0.015605584 0.027472194 0.011857464 4289996834
-0.014036305 0.029712789 0.0093846982 4290323999
-0.012232482 0.030535545 0.0083316145 4290127648
-0.0099220648 0.028524768 0.010111067 4290062369
-0.0073340796 0.025098737 0.013302469 4290323998
-0.0049857721 0.023090385 0.01507529 4290324254
-0.0027572587 0.021790992 0.016138822 4289800994
-0.00093407184 0.022615369 0.015082642 4290389789
0.0011666566 0.022024486 0.015438412 4289996833
0.0035610721 0.02001927 0.017203309 4290127648
0.0061185099 0.017307926 0.01966989 4289539109
0.0089965276 0.013183899 0.023540746 4288885033
0.011906907 0.0090618953 0.027405914 4288492844
0.016398422 -0.0021253526 0.038296197 4288427054
-0.021469384 -0.0010031909 0.038682427 4286921788
-0.019760616 0.0012516677 0.03618934 4286987324
-0.018737808 0.0077743679 0.029444471 4287052603
-0.017763257 0.014294371 0.022708271 4287445813
-0.016836971 0.020811606 0.015980776 4288100399
-0.015958965 0.027326081 0.0092619797 4289996834
-0.014517114 0.030283682 0.0060878983 4290454558
-0.012721322 0.031108104 0.0050378954 4289997089
-0.010291763 0.028379831 0.0075200675 4290127903
-0.007449083 0.023521852 0.012115785 4290128158
-0.0049681887 0.020796768 0.014588972 4290193949
-0.0027374178 0.019493155 0.015648752 4289735968
-0.00049578771 0.018190231 0.016706713 4289670688
0.0018979385 0.016178392 0.018466588 4289670433
0.0043078959 0.014167599 0.020223696 4289604644
0.0068807267 0.01144848 0.022680856 4289146919
0.0093258172 0.0094399676 0.024431851 4288361518
0.012243178 0.0053053498 0.028285749 4288034098
0.016430642 -0.0044984519 0.037745491 4287902773
-0.021482334 -0.0033652782 0.038150303 4286725694
-0.019661702 -0.0018176064 0.036369648 4286856509
-0.018409215 0.0032977462 0.03105348 4287183929
-0.017536804 0.010551415 0.023623105 4287314743
-0.016601145 0.017088685 0.016908914 4287642163
-0.015713759 0.023623206 0.010203426 4288754219
-0.014385596 0.027302962 0.0063289134 4290258208
-0.012584381 0.028129853 0.0052795885 4289931554
-0.010150194 0.025393117 0.0077542895 4289800994
-0.0074337088 0.021232728 0.011633419 4289800993
-0.0048178434 0.017786723 0.014803213 4289670688
-0.002446413 0.015766807 0.016561955 4290128924
-0.00019716099 0.014460035 0.017615158 4290259994
0.0022040457 0.01244209 0.019368738 4289278243
0.0046214797 0.010425203 0.021119501 4289212453
0.0070551261 0.0084094256 0.0228674 4288885544
0.0095049925 0.0063946918 0.024612535 4289081639
0.012274791 0.0029585436 0.027755391 4288034098
0.016617125 -0.0075866878 0.037891503 4287903283
-0.018304504 0.00023555756 0.031237938 4286921788
-0.016969107 0.0046486482 0.026644465 4287314743
-0.016016018 0.011206441 0.019942135 4287445814
-0.015111193 0.017761476 0.013248517 4287707954
-0.014010429 0.022883411 0.0079714293 4288492588
-0.012198426 0.023713086 0.0069218287 4289212454
-0.0097542405 0.020968247 0.0093880566 4289866784
-0.0071582347 0.017510101 0.01255297 4290521369
-0.0046680868 0.014768191 0.01501114 4290521623
-0.0024274439 0.013456449 0.016062457 4290129178
-0.00017593428 0.012145422 0.017111961 4290129179
0.00236829 0.0094070658 0.019560661 4289540129
0.0046468712 0.0080978498 0.020605493 4288754473
0.0069362819 0.0067894086 0.021648414 4288492843
0.0093855374 0.0047681108 0.023388647 4288231469
0.012306113 0.00060765445 0.027221959 4287969329
0.016648602 -0.0099700838 0.037333045 4287969329
-0.018200397 -0.0028350055 0.03141601 4287054134
-0.016631037 0.00015577674 0.028238848 4287446324
-0.015432741 0.0052983835 0.022955861 4287314998
-0.014510483 0.011873931 0.016274098 4287380788
-0.013270654 0.016294636 0.011707922 4287969584
-0.011564426 0.017844807 0.0099547589 4289343524
-0.0093595013 0.016526248 0.011008927 4290325274
-0.0070137009 0.01449161 0.012762018 4290586903
-0.0046516433 0.012458004 0.014512331 4290652438
-0.0024087504 0.011142038 0.015559901 4290325273
-0.00015499443 0.0098267794 0.016605653 4289932573
0.0022503696 0.0077960715 0.018348414 4289474594
0.0046719797 0.0057664141 0.020088404 4288885544
0.0069636405 0.0044537261 0.021127641 4288100654
0.0094149709 0.0024260804 0.022862442 4287838768
0.012034059 -0.00031611323 0.025291488 4288166189
0.016371319 -0.010926694 0.03537849 4287904303
-0.015084129 0.00080417097 0.024546925 4287184439
-0.014030717 0.0066802278 0.018579107 4287315254
-0.012898408 0.011834331 0.01331968 4287838768
-0.01118122 0.013389416 0.011567918 4288558379
-0.0090931579 0.012786366 0.011917169 4290521369
-0.0068697445 0.011464648 0.012964764 4290587159
-0.004768014 0.010862596 0.013311722 4290456598
-0.0025255755 0.009542264 0.014356027 4290129433
-0.00027226657 0.0082226321 0.015398514 4290325783
0.0021324977 0.0061853752 0.017136376 4290063898
0.0044101812 0.0048674121 0.018174682 4288820519
0.0066986904 0.003550224 0.01921108 4287904303
0.0091467313 0.001515843 0.020941522 4287512624
-0.015085492 -0.0015410408 0.024025183 4286988343
-0.013909303 0.0036306903 0.018769469 4287511603
-0.012770653 0.0088002533 0.013520584 4288035119
-0.011047892 0.010360017 0.011771099 4288623658
-0.0089547373 0.0097550377 0.012117802 4290521369
-0.0067263916 0.0084292963 0.013161114 4290129434
-0.0047519654 0.0085464343 0.012808417 4290260504
-0.0026423559 0.0079427883 0.013152377 4290522899
-0.00038949773 0.006618768 0.014191599 4290195479
0.0020146593 0.004574962 0.015924562 4290326549
0.0041487403 0.0039730594 0.016264446 4288689958
0.0061424226 0.0040918589 0.015908707 4287513644
-0.014144845 0.0027448088 0.016859941 4287184439
-0.013007883 0.0079294145 0.011623004 4287707953
-0.011163473 0.0087696388 0.010574172 4289016359
-0.0090706013 0.0081624389 0.010919237 4290651928
-0.0067131668 0.0061089471 0.012655218 4290783509
-0.0047361851 0.0062261969 0.012302036 4290391319
-0.0026241578 0.0056204647 0.012643931 4290457873
-0.00064430013 0.0057381094 0.012290404 4289674258
-0.013002142 0.0056111291 0.011120369 4287381299
-0.011279017 0.0071795285 0.0093774432 4289540384
-0.0091864355 0.006570138 0.0097208852 4290587413
-0.0069589838 0.0052356571 0.010757678 4290130198
-0.0049848221 0.005352743 0.010404998 4289934613
-0.01323897 0.0047452226 0.0092264945 4286989109
-0.011518352 0.0063177943 0.0074873315 4289475613
-0.0094287544 0.0057060868 0.0078295888 4290587924
-0.0074628964 0.0058225617 0.007478294 4288429603
-0.0048759431 -0.002094619 -0.0043141367 4289543699
-0.010226917 -0.0077472106 -0.0010544145 4288757278
-0.0077476315 -0.010611333 0.0013122177 4289738264
-0.0057693571 -0.01049415 0.00095868763 4290130964
-0.010217205 -0.010083981 -0.0015721554 4289476378
-0.0079916194 -0.01146201 -0.00056842063 4289475614
-0.005885683 -0.012092195 -0.00024395995 4289736478
-0.0049728975 -0.0059989393 -0.0060132416 4290326548
-0.0120579 -0.013291158 -0.0010629892 4287448108
-0.010207757 -0.012424789 -0.0020929221 4288820773
-0.0081076026 -0.013057552 -0.0017692279 4289736479
-0.0060019679 -0.01368992 -0.0014463793 4289997599
-0.0045559742 -0.010576002 -0.0045011947 4290718228
-0.011929315 -0.016390316 -0.00091231056 4286988853
-0.010323398 -0.014017828 -0.0032918844 4287446323
-0.0084785298 -0.013149515 -0.0043191407 4288951079
-0.0062483996 -0.014535807 -0.0033227894 4289735969
-0.0045388788 -0.012916073 -0.0050231237 4290196498
-0.011557404 -0.021006115 0.00058004819 4287119670
-0.010065053 -0.01787252 -0.0024700407 4287118903
-0.0084667802 -0.015493892 -0.004843181 4287773744
-0.0063644573 -0.016130753 -0.0045231227 4288951079
-0.0042566471 -0.016767226 -0.0042039137 4289477653
-0.0098076388 -0.021739885 -0.0016578119 4287184694
-0.0083281361 -0.018598355 -0.0046988409 4287380533
-0.0062207468 -0.019237094 -0.0043813493 4288231214
-0.0042404272 -0.019119717 -0.0047351923 4289347094
-0.0095511116 -0.025620006 -0.00085510593 4287250228
-0.0080630854 -0.02246929 -0.0038910573 4287708208
-0.0060776472 -0.022351749 -0.004245921 4288296749
-0.0043568835 -0.020718403 -0.0059383083 4287316273
-0.0096680038 -0.027231328 -0.0020678481 4287249974
-0.0079257898 -0.025592647 -0.0037609441 4288035118
-0.0060646832 -0.024714611 -0.004784449 4287511349
-0.0044732988 -0.022316791 -0.007141205 4287184693
-0.0028979667 -0.019919746 -0.0094950367 4287513134
-0.0096608698 -0.029604994 -0.0026133647 4287839023
-0.0079157911 -0.027961843 -0.0043036705 4287445558
-0.0059225969 -0.02784387 -0.0046599275 4287249464
-0.0043255463 -0.025439195 -0.0070127724 4287118904
-0.0026097484 -0.0237974 -0.0086975489 4287119413
-0.0081591643 -0.028805755 -0.0061791753 4286661688
-0.0060395859 -0.029452465 -0.0058705499 4286922553
-0.0044422075 -0.027041309 -0.0082184812 4286988088
-0.0025916547 -0.026159368 -0.009236536 4286922299
-0.0010209829 -0.023749545 -0.011579501 4287249975
-0.0061565377 -0.031060733 -0.0070809308 4286661179
-0.004295323 -0.030176155 -0.0080993464 4287053624
-0.0024394095 -0.029291727 -0.0091167642 4287118138
-0.00086303055 -0.026875131 -0.011455725 4287052859
0.00055746734 -0.023693308 -0.014452613 4287511604
-0.0045438521 -0.031013258 -0.0099685341 4287184949
-0.0026906058 -0.030126862 -0.010983772 4287707699
-0.0011166036 -0.027703948 -0.013317334 4288099889
0.00044134259 -0.025281832 -0.015647991 4287903284
0.0019832365 -0.02286052 -0.017975675 4287315254
0.0036541075 -0.021207973 -0.019642105 4286858293
-0.0030755922 -0.030186705 -0.013505834 4287314744
-0.0012330189 -0.029298671 -0.014517411 4287183929
0.00032524019 -0.026870057 -0.016843144 4287183418
0.002151832 -0.02598273 -0.017851686 4286987068
0.0038282238 -0.024325475 -0.019515818 4287183929
-0.0014860742 -0.030120358 -0.016373739 4286923064
6.9834292e-05 -0.027685463 -0.018694032 4286987833
0.001893729 -0.026796065 -0.019700449 4287052860
0.0038570203 -0.026679128 -0.020050816 4287183418
0.0056729689 -0.025790036 -0.021055609 4287119670
-4.6055764e-05 -0.029270932 -0.019887112 4287054135
0.0019197129 -0.02915398 -0.020238016 4287184439
0.0037409738 -0.028262466 -0.02124222 4287183928
0.0058514103 -0.028919674 -0.02093954 4287184184
0.0073675439 -0.026480116 -0.023247413 4287250484
0.0015202686 -0.029185697 -0.02273529 4287642418
0.0034805648 -0.029068947 -0.023085117 4287772978
0.0058821514 -0.03128124 -0.021481063 4287511348
0.007700827 -0.030387528 -0.022482913 4287119668
0.0014045984 -0.030766256 -0.023924645 4287314744
0.0033647269 -0.030649506 -0.024274435 4287249208
0.0060595162 -0.034425408 -0.021376003 4287707189
0.0036811531 -0.034572437 -0.023518085 4287248699
0.0062362812 -0.037577979 -0.021277193 4286202434
-0.025174275 -0.0088373646 0.041176774 4282934863
-0.023536168 -0.0058516115 0.037980411 4282675273
-0.025293924 -0.010497928 0.039926801 4282870093
-0.023758441 -0.0067850053 0.036031295 4282545224
-0.021614797 -0.007383436 0.036371719 4282872133
-0.025513783 -0.011437416 0.03797254 4282739533
-0.023877397 -0.0084344447 0.034789708 4282349129
-0.021839678 -0.0083145797 0.034424916 4282283849
-0.019910127 -0.0074742734 0.033357132 4282740299
-0.025533028 -0.013818175 0.037427478 4282347088
-0.023996249 -0.010083586 0.03354834 4281955663
-0.021958649 -0.0099637508 0.033183545 4281825613
-0.02013728 -0.0083988309 0.031415984 4281956173
-0.018326499 -0.0068343878 0.02965036 4282674764
0.011490997 -0.0021497384 0.021441005 4283331133
0.01612564 -0.014265507 0.032866362 4283331133
-0.025652491 -0.015477873 0.036178119 4282085968
-0.024115056 -0.011732444 0.032307167 4281956429
-0.022393614 -0.009438172 0.029841624 4281825868
-0.020472102 -0.0085940361 0.028778516 4281956428
-0.018666491 -0.0070256293 0.027017169 4282283594
-0.016871497 -0.0054577515 0.025257789 4282871878
0.0037446544 0.0038059726 0.013664129 4283528759
0.0058785044 0.0032019988 0.014002404 4282939709
0.0083145536 0.001153864 0.015724968 4282481729
0.011522125 -0.0045038015 0.020905171 4282219333
0.016002847 -0.015934467 0.031610634 4282219588
-0.024131283 -0.014108196 0.03176536 4282479943
-0.022301644 -0.012534246 0.03000281 4282088008
-0.020482585 -0.010960862 0.028242283 4281957450
-0.01867412 -0.0093879402 0.026483685 4281891913
-0.017102763 -0.0063624755 0.023332734 4282022219
-0.015668705 -0.0026118234 0.019488987 4282871368
0.0014988035 0.0028048977 0.012116841 4282679353
0.0037697442 0.0014735237 0.013146271 4282222649
0.0059060007 0.000867486 0.013482499 4282156859
0.0081959032 -0.00046253949 0.014508716 4282220608
0.011402063 -0.0061376318 0.01967584 4282154564
0.01588008 -0.017603129 0.030355129 4282219844
-0.02425012 -0.015758634 0.030522984 4283526973
-0.022630356 -0.012722008 0.027369771 4282088008
-0.020816505 -0.011144586 0.025613431 4281891913
-0.019013233 -0.0095677152 0.02385911 4281761353
-0.017220557 -0.0079913065 0.022106741 4281891659
-0.015670057 -0.0049583912 0.018966284 4282349384
-0.003261663 0.0046009272 0.0081593143 4283660084
-0.0010155477 0.0032635331 0.0091896793 4282549303
0.0012414157 0.001926817 0.010218213 4282027829
0.0035092086 0.0005909279 0.011244877 4282027829
0.0057878383 -0.00074426085 0.012269723 4281962548
0.0082253367 -0.0028052554 0.013981986 4282156859
0.011131287 -0.0070446804 0.017757941 4282417214
0.015603913 -0.018545151 0.028411541 4282482239
-0.022748634 -0.014363483 0.026134156 4283593784
-0.021042168 -0.012050547 0.023686241 4282480964
-0.0190209 -0.011931583 0.023324445 4281761098
-0.017225355 -0.010350756 0.021574907 4281957450
-0.015671682 -0.0073089674 0.018440478 4281891148
-0.014849242 0.00011504441 0.011152294 4282283595
-0.013354432 0.0031535551 0.0080285473 4283918143
-0.0095443353 0.0041165426 0.0066333013 4284117043
-0.0075786188 0.0042329878 0.0062820194 4283334193
-0.0054810308 0.0036197305 0.0066213747 4282943533
-0.0033779666 0.0030069649 0.0069597913 4282224179
-0.00099516287 0.00093569607 0.0086764982 4281963314
0.0012640283 -0.00040515512 0.0097012771 4282158898
0.0035340525 -0.0017452762 0.010724192 4282289713
0.0058149174 -0.0030846596 0.01174531 4282093619
0.0081065968 -0.0044232532 0.012764539 4282223158
0.011162024 -0.0094043761 0.017217867 4282353463
0.015328098 -0.019482531 0.026471447 4282418233
-0.023076311 -0.014537565 0.023511324 4284508723
-0.021160051 -0.013685234 0.022455771 4283331643
-0.019249022 -0.012833096 0.02140123 4281826633
-0.017343201 -0.011981159 0.020347714 4281891403
-0.015904505 -0.0081978217 0.016528051 4282087754
-0.014965165 -0.0014849901 0.0099480161 4282087498
-0.013590708 0.0022948161 0.0061399797 4282349383
-0.011995949 0.0046082363 0.0037175687 4282156348
-0.0099123195 0.003991805 0.0040575257 4282549558
-0.007823199 0.0033758059 0.0043965904 4282550069
-0.0054653957 0.001296334 0.0061125895 4282290224
-0.0032256581 -5.0246716e-05 0.0071373237 4282290224
-0.00097506493 -0.0013961121 0.0081602549 4282160428
0.0012863576 -0.0027411953 0.0091812825 4282290479
0.0034162626 -0.0033542067 0.0095134927 4281832753
0.0056966692 -0.004697971 0.010531354 4281897778
0.0078401528 -0.0053099543 0.010861306 4282354738
0.010590773 -0.0088448003 0.013932574 4282746673
0.01336835 -0.012377925 0.016999118 4283074094
0.01601705 -0.015178822 0.019376379 4283590724
-0.019366831 -0.014465339 0.020172615 4283462204
-0.017573647 -0.012876004 0.018430073 4282677059
-0.016136974 -0.0090819895 0.014619076 4282021708
-0.015081029 -0.0030847266 0.0087439613 4282088008
-0.013705932 0.00070592016 0.0049441131 4282285124
-0.012110829 0.0030258372 0.0025266139 4281830714
-0.010153554 0.0031416342 0.0021767309 4282027574
-0.0080674216 0.0025232807 0.0025146594 4282158898
-0.0055814758 -0.00029700994 0.0049135042 4282420274
-0.0032080598 -0.0023819581 0.0066217976 4282420529
-0.00081842393 -0.0044657812 0.0083272411 4282550833
0.0013084076 -0.0050812736 0.0086582368 4282746929
0.003582906 -0.0064298436 0.0096737249 4283205419
0.0052886717 -0.0048443154 0.0079478538 4283858729
-0.019704171 -0.014622129 0.017565239 4284508468
-0.017803699 -0.013766222 0.016515978 4283462968
-0.016369067 -0.009961538 0.01271364 4281891914
-0.015079018 -0.0054212287 0.0082281595 4281892168
-0.013821103 -0.00088267028 0.0037484718 4282284868
-0.012225673 0.0014437363 0.0013358882 4281765434
-0.010268524 0.0015595034 0.00098601077 4281897269
-0.0080541 0.00020252168 0.0020084186 4282223923
-0.005697526 -0.0018900484 0.003714635 4282290224
-0.0031907484 -0.0047176555 0.006103185 4282486319
-0.00093570352 -0.0060719028 0.0071185948 4282878509
0.0011908337 -0.0066895857 0.007447972 4283270189
0.0028967112 -0.0050999001 0.0057253493 4284251683
-0.018033385 -0.014651813 0.014605359 4283462204
-0.016370811 -0.012315266 0.012185442 4282545989
-0.015194949 -0.0070225373 0.0070229145 4282350914
-0.013936237 -0.0024709776 0.0025530355 4282090049
-0.012340464 -0.00013806671 0.00014537759 4281244978
-0.010257713 -0.00076109171 0.00048046932 4282028593
-0.008041054 -0.0021222979 0.0014991341 4282159153
-0.0056824088 -0.0042212456 0.0031999787 4282421038
-0.0034413449 -0.0055808276 0.0042144964 4283858984
-0.0163728 -0.014673069 0.011654242 4284706858
-0.015428361 -0.0078821108 0.0051331287 4282482238
-0.014051311 -0.0040589646 0.0013578339 4282221374
-0.012455218 -0.0017195717 -0.0010449095 4281898033
-0.010247178 -0.0030857399 -2.8126873e-05 4282485299
-0.0078999996 -0.0051919892 0.0016696742 4282552363
-0.0056675673 -0.0065564886 0.002682264 4284056354
-0.015661426 -0.0087370276 0.0032467833 4283335214
-0.014406472 -0.0041597933 -0.0012024296 4282548284
-0.012692675 -0.0025575086 -0.0029171379 4282290478
-0.010362342 -0.0046713203 -0.0012214566 4283662889
-0.020090207 -0.029017784 0.011707823 4284442933
-0.020099372 -0.031406499 0.011154381 4282740809
-0.018741436 -0.026758812 0.0067362385 4283068738
-0.020433918 -0.031528004 0.0085735926 4282348618
-0.019080549 -0.026867636 0.0041662315 4283200828
-0.01753179 -0.023722582 0.0011123018 4284377144
-0.020767778 -0.031640507 0.0059995735 4282217803
-0.019197211 -0.028485678 0.0029482702 4282088774
-0.017534383 -0.026090898 0.00057306979 4283265343
-0.021209046 -0.030982561 0.0027607651 4282020688
-0.019424558 -0.029342137 0.0010595294 4281760078
-0.017650686 -0.02770216 -0.0006397469 4281760333
-0.015655186 -0.027584635 -0.0009968793 4283133764
-0.021433532 -0.031838529 0.00087175611 4282150993
-0.019430384 -0.031720825 0.00051305164 4281824848
-0.017766945 -0.02931311 -0.0018523326 4281824848
-0.015771601 -0.029195614 -0.0022094538 4282283083
-0.013776142 -0.029077999 -0.0025664968 4282936393
-0.021873169 -0.031158306 -0.0023502884 4281888089
-0.019878224 -0.031041093 -0.0027075252 4282020434
-0.017996274 -0.030158289 -0.0037319576 4281889873
-0.016119555 -0.029275678 -0.0047553731 4281955408
-0.014129635 -0.029158406 -0.0051114438 4281825614
-0.012139577 -0.029040985 -0.0054674288 4283068484
-0.019994259 -0.032651402 -0.0039196825 4281823573
-0.018112302 -0.031766467 -0.0049424684 4282020688
-0.016235605 -0.03088171 -0.0059642298 4281694544
-0.014482476 -0.029229797 -0.0076496741 4281759823
-0.012618959 -0.028345577 -0.0086688837 4282216783
-0.018453911 -0.031834722 -0.0074808109 4281692248
-0.016582556 -0.030948125 -0.0084999539 4281629008
-0.014834639 -0.029292263 -0.010181117 4281694544
-0.013097361 -0.027636856 -0.011860318 4281825359
-0.011000078 -0.028289504 -0.011551186 4282152524
-0.0086448789 -0.030479617 -0.0099197514 4282544204
-0.016928859 -0.031005628 -0.011028892 4281562963
-0.01506814 -0.0301174 -0.012044403 4281825104
-0.01333338 -0.028457835 -0.013719833 4281890639
-0.011485875 -0.027570143 -0.014732792 4281956174
-0.0092654303 -0.02899611 -0.013764768 4282742083
-0.0070341341 -0.030421354 -0.012798543 4283852354
-0.017389677 -0.030280158 -0.014211397 4281689953
-0.015419148 -0.030164063 -0.014564021 4281496918
-0.013689596 -0.028500549 -0.01623518 4281694034
-0.01172423 -0.028384507 -0.016586695 4281693779
-0.0097587593 -0.028268322 -0.01693812 4282021708
-0.0075360015 -0.029698327 -0.015973721 4282284358
-0.015769485 -0.030201808 -0.017076865 4281690208
-0.01392477 -0.02931004 -0.018086135 4281497429
-0.011962242 -0.029194191 -0.018437151 4281759314
-0.010251127 -0.027527206 -0.020101517 4281956938
-0.008036904 -0.028962031 -0.019138914 4282152779
-0.0056807138 -0.031171329 -0.017522365 4282677569
-0.016236737 -0.029452398 -0.020239521 4282017374
-0.014279827 -0.029337004 -0.020589627 4281365339
-0.012076989 -0.030777089 -0.019628517 4281758803
-0.01024013 -0.029883444 -0.020634506 4281956683
-0.0081519634 -0.030544974 -0.020330239 4282088263
-0.0060583428 -0.031206116 -0.020026814 4282024258
-0.0036919862 -0.033421107 -0.018417004 4282023748
-0.012559988 -0.030019768 -0.02278148 4281561433
-0.010480292 -0.030684091 -0.022477463 4281955154
-0.0082670078 -0.032127641 -0.021521352 4281826378
-0.0061737001 -0.032790944 -0.021219522 4281566533
-0.0039414614 -0.034233101 -0.020266596 4281763648
-0.0018345863 -0.034895293 -0.019967031 4282416704
-0.012919419 -0.030031271 -0.025272187 4281887324
-0.010720111 -0.031480134 -0.024316952 4282020178
-0.0083820224 -0.033710003 -0.022712238 4282087244
-0.0062890239 -0.034375481 -0.022412017 4281698878
-0.0041906014 -0.035040475 -0.022112716 4281699134
-0.0022227541 -0.034923665 -0.022464193 4282739534
-0.0087526217 -0.033724084 -0.025202345 4281430364
-0.0064043216 -0.035959721 -0.023604281 4281955919
-0.024471089 -0.016677223 0.028584965 4284967214
-0.024691679 -0.017591171 0.026650496 4285098029
0.018165912 0.011584252 -0.0066508995 4285623329
0.020782441 0.0087819993 -0.004267469 4285754398
0.025655787 -0.0035028085 0.0069744578 4285754399
-0.026447207 -0.022299781 0.028548572 4284966449
-0.024810031 -0.019236363 0.025412042 4285229099
-0.02308961 -0.016909786 0.0229715 4285097773
-0.021170646 -0.016055159 0.021917094 4284966958
0.0069837496 -0.0032593682 0.0062240129 4285753124
0.013973605 0.001610212 0.00071353093 4285164074
0.014815334 0.0068546757 -0.0044112671 4285427488
0.01545571 0.012829162 -0.010210768 4285624094
0.017051507 0.014408976 -0.011916296 4285689373
0.019312913 0.013060801 -0.010897645 4285820699
0.023131156 0.0051279739 -0.0037601031 4285952024
0.027531981 -0.0049957931 0.0054057585 4286017559
-0.026367933 -0.025429681 0.028686602 4285228843
-0.024826601 -0.021619268 0.024864737 4285294889
-0.023103155 -0.019286089 0.022428662 4285229099
-0.021395683 -0.016953699 0.019995477 4285163563
0.010643665 0.0057801604 -0.0055831447 4285427233
0.012116369 0.0081007928 -0.0079727229 4285493278
0.013572961 0.010420509 -0.010359315 4285624348
0.014522761 0.014942542 -0.014782618 4285755673
0.016437775 0.015057474 -0.015123687 4285689628
0.01852173 0.014438473 -0.0147857 4285623839
0.021812417 0.0086827874 -0.0096995793 4285623839
0.02497183 0.0036634579 -0.0052989423 4285623838
0.029230893 -0.0057548061 0.0031599747 4285558814
-0.024843432 -0.024006255 0.024314426 4285360423
-0.023012727 -0.022406422 0.022571538 4285295144
-0.021406472 -0.019327365 0.01945398 4285229608
-0.019711941 -0.016989194 0.017028224 4284901423
-0.0013259426 -0.0062014461 0.0045441138 4285558048
0.0033614635 0.010495491 -0.011855369 4285688609
0.00528422 0.010610223 -0.012198335 4285885469
0.0073596686 0.0099878982 -0.011861073 4285885979
0.0094405264 0.0093659982 -0.01152469 4285689118
0.011052761 0.010955103 -0.01322676 4285624094
0.012654264 0.012543686 -0.014926818 4285624349
0.013918236 0.015604831 -0.017981395 4285887509
0.015492868 0.017192073 -0.019676544 4285886998
0.017731845 0.015833847 -0.018660516 4285886999
0.020838885 0.010796167 -0.014262318 4285952788
0.023809429 0.0064967051 -0.010547023 4285755673
0.026458532 0.003670834 -0.0081891324 4285689628
0.030026793 -0.0028315112 -0.0024580928 4285624349
-0.023235142 -0.023308516 0.020646598 4285163564
-0.021631092 -0.020220958 0.01753607 4285163818
-0.019829452 -0.018618353 0.015801907 4285164074
-0.018038407 -0.017016232 0.01406967 4285098539
-3.0696392e-05 0.0057529733 -0.0096163601 4285491238
0.00089169666 0.011046983 -0.014721137 4285623838
0.0020707026 0.014859475 -0.018460147 4285820443
0.0041215979 0.014233403 -0.018120255 4285820189
0.0064828768 0.012129016 -0.016424181 4285952024
0.008705169 0.010764919 -0.01540893 4285952279
0.010306813 0.012357749 -0.017105835 4285689629
0.011897743 0.013950013 -0.018800694 4285558558
0.013477914 0.015541799 -0.020493582 4285558559
0.015213279 0.016394466 -0.021508321 4285624093
0.0174491 0.01503177 -0.020495091 4285624093
0.020552192 0.0099786744 -0.016107794 4285624093
0.023170946 0.0071421638 -0.013751201 4285624349
0.025104485 0.007258676 -0.014095213 4285559069
0.027396735 0.005899854 -0.013091668 4285493278
0.031702355 -0.0035716221 -0.004684099 4285427744
0.043709643 -0.035034791 0.023523156 4285296164
-0.023353256 -0.024950333 0.019410692 4285032239
-0.021748722 -0.021854095 0.016306717 4285097774
-0.019946903 -0.020247199 0.014575825 4285163818
-0.018155694 -0.018640749 0.012846873 4285098283
-0.016604461 -0.015547328 0.0097527085 4285032749
-0.0080157891 -0.0067841038 0.00047145877 4284968744
-0.0029112734 0.0085301474 -0.014522245 4285493279
-0.0014190339 0.010870703 -0.016900878 4285559068
-8.7119639e-05 0.013952412 -0.019954886 4285755164
0.00151724 0.015549242 -0.021649245 4285557794
0.0037093908 0.014178805 -0.020632185 4285557538
0.0062169954 0.011326067 -0.018263139 4285623584
0.0082811117 0.010698833 -0.01792711 4285755163
0.010035262 0.011554435 -0.018943802 4285689629
0.011784062 0.012409844 -0.019959435 4285559069
0.013690569 0.012524165 -0.020299073 4285559068
0.015265554 0.014120072 -0.021987628 4285559068
0.017503615 0.012753159 -0.020978078 4285558814
0.0200947 0.0099062026 -0.018623309 4285624349
0.022533452 0.0078009591 -0.016945355 4285624348
0.023929233 0.010137193 -0.019305604 4285755419
0.025667256 0.010992788 -0.02031876 4285951768
0.028673165 0.0066698715 -0.016629422 4286017049
0.033372559 -0.0043072626 -0.0069054822 4285951514
0.045672681 -0.036596201 0.021882374 4285885724
-0.020064309 -0.021875732 0.013349968 4285098029
-0.018161088 -0.021011062 0.012306743 4285098029
-0.016835734 -0.016416974 0.0078546992 4285229609
-0.015659686 -0.011078872 0.002727014 4285229863
-0.0038567223 0.011448741 -0.019753432 4285427233
-0.0023802705 0.013794787 -0.022124227 4285689884
-0.00077580661 0.015395865 -0.023815423 4285952789
0.00081796199 0.016996361 -0.025504589 4285755164
0.0029989071 0.015620947 -0.024488837 4285689374
0.0053428113 0.013502523 -0.022799663 4285886488
0.0078577325 0.010641687 -0.02043849 4285952789
0.0097640567 0.01075577 -0.02077827 4285624349
0.01183062 0.010126747 -0.02044416 4285559069
0.013739675 0.010241225 -0.020784246 4285624860
0.015483141 0.011098698 -0.021797104 4285624859
0.017557813 0.010470517 -0.021464165 4285558813
0.019637858 0.0098427683 -0.0211321 4285624348
0.021549612 0.0099578723 -0.021472313 4285689883
0.023108643 0.011557586 -0.023154292 4285755163
0.024656888 0.013156772 -0.024834331 4285820444
0.026921298 0.01178769 -0.023832355 4285819678
0.030302953 0.0059688613 -0.018815177 4285885723
0.0354116 -0.0065216571 -0.0077841887 4285951769
0.047250394 -0.036674671 0.018905848 4285623838
-0.020181671 -0.023503982 0.012124331 4285098028
-0.018390127 -0.021888904 0.010401939 4285097773
-0.016837917 -0.018778145 0.0073208725 4285295143
-0.015424132 -0.0149206 0.0035638576 4285230118
-0.003968887 0.0099136084 -0.020908639 4285558049
-0.0024921 0.012266167 -0.023274511 4285558813
-0.0011753254 0.015364245 -0.02631253 4285689883
0.00041324273 0.01696879 -0.027997494 4285886998
0.0024390481 0.016334668 -0.027658083 4285886998
0.0049262494 0.013463445 -0.025298756 4285887253
0.0075896904 0.0098478794 -0.022270018 4285690139
0.0094931796 0.0099617764 -0.022609301 4285558558
0.011396691 0.0100758 -0.022948489 4285559069
0.013462987 0.0094446838 -0.022615854 4285624604
0.015369222 0.0095591024 -0.022955358 4285624348
0.017443584 0.0089287385 -0.022624029 4285624349
0.019010872 0.010533072 -0.024304383 4285558558
0.020740908 0.011392251 -0.025312908 4285689628
0.02211317 0.013740033 -0.027659006 4285820953
0.024005925 0.013854228 -0.027995653 4285623328
0.025898652 0.013968535 -0.028332211 4285557538
0.028712653 0.010363288 -0.025329292 4285558049
0.032301292 0.0037847087 -0.019661443 4285558559
0.037265737 -0.0079960525 -0.009333645 4285558558
0.042893134 -0.022001855 0.0029782923 4285493278
-0.020190142 -0.025882483 0.011578583 4285031984
-0.018507272 -0.02351252 0.0091798091 4285229099
-0.016840361 -0.021143429 0.0067840228 4285360934
-0.01530635 -0.018024988 0.0037129382 4285229354
-0.0033890344 0.0046345666 -0.018691696 4285557283
-0.0024628192 0.0099891424 -0.023750685 4285427234
-0.0014304072 0.01459308 -0.02812947 4285493024
0.00015565008 0.016201802 -0.029810656 4285559068
0.0023276098 0.014817148 -0.028799918 4285624860
0.0048140325 0.011937223 -0.026447114 4285558814
0.0073220097 0.0090586543 -0.024098018 4285558558
0.0089082345 0.010667816 -0.02577883 4285624349
0.010483731 0.012276478 -0.027457688 4285624093
0.012536276 0.011642374 -0.027124271 4285755419
0.01475947 0.010261521 -0.026122183 4285689628
0.016993437 0.0088814273 -0.02512192 4285624094
0.018555531 0.010489725 -0.026797988 4285623838
0.019933511 0.012844272 -0.029140241 4285689883
0.021471392 0.014451355 -0.030811813 4285952788
0.022998499 0.016057886 -0.032481387 4285952534
0.02505905 0.015425123 -0.032148805 4285821464
0.027493138 0.013300613 -0.030484617 4285821464
0.030690476 0.0081933513 -0.026160093 4285624603
0.034114875 0.0023427457 -0.021176869 4285427743
0.03911953 -0.0094700232 -0.010882707 4285427998
-0.01862438 -0.025135837 0.0079579009 4284901423
-0.016957134 -0.022760235 0.0055670394 4285229353
-0.015305903 -0.020385437 0.0031790799 4285228844
-0.0023960099 -0.0029189587 -0.014472605 4285425703
-0.0018701144 0.0047046617 -0.021540809 4285360168
-0.0012543015 0.011574507 -0.027927563 4285426979
0.00033731386 0.013187826 -0.029606383 4285493534
0.0022162087 0.013299912 -0.029941544 4285493533
0.0047018453 0.010411285 -0.027595248 4285558813
0.0065915696 0.010524251 -0.027932163 4285624603
0.0084813274 0.010637321 -0.028269004 4285624348
0.0097321421 0.013749406 -0.031281386 4285952788
0.011936042 0.012362957 -0.030279271 4285952534
0.013985597 0.01172667 -0.029946938 4286018069
0.01654396 0.0088430643 -0.02761301 4285886744
0.018100852 0.010455362 -0.029284831 4285623838
0.01964698 0.012067199 -0.03095467 4285558558
0.02100648 0.014427193 -0.033288516 4285624349
0.022706935 0.01528918 -0.034288332 4285755674
0.024764506 0.014654048 -0.033956833 4285821463
0.027195277 0.012522854 -0.03229703 4285821973
0.03001539 0.0088964924 -0.029311718 4285493279
0.032862343 0.0052718818 -0.02633108 4285427998
0.037464123 -0.0050810501 -0.017386485 4285493278
0.044672061 -0.025148422 0.00015996862 4285493278
-0.015305724 -0.022749908 0.0026421854 4285163054
-0.013428945 -0.021877907 0.0016106116 4285359658
-0.0016816556 -0.0090004876 -0.011621659 4285229354
-0.0011381954 -0.0013542399 -0.018676408 4285163054
-0.0003615208 0.004783228 -0.024381161 4285492259
0.00066450238 0.0094128251 -0.02873878 4285427489
0.0022536479 0.011030436 -0.030413751 4285427743
0.0039836131 0.01189515 -0.031418007 4285559069
0.0058624409 0.012007453 -0.031752992 4285624604
0.0077413023 0.012119882 -0.032087881 4285689883
0.0093010068 0.013736255 -0.033757273 4285623583
0.011336803 0.013096862 -0.033424247 4285623328
0.013377994 0.01245787 -0.033092037 4285820953
0.015927494 0.0095651299 -0.030763224 4285821208
0.017646831 0.010430023 -0.031764958 4285624348
0.019187765 0.012045823 -0.033430517 4285558814
0.020717926 0.013661116 -0.035094116 4285558814
0.022415726 0.014525086 -0.036091734 4285558813
0.024832468 0.012386411 -0.034434464 4285493278
0.027449077 0.0094983801 -0.032117009 4285493279
0.030273616 0.0058615059 -0.02914077 4285559069
0.032935835 0.0029764771 -0.026831226 4285427488
0.037921555 -0.0089065731 -0.016586861 4285426724
-0.015538681 -0.023605175 0.00075561646 4285031984
-0.0012450144 -0.013597094 -0.010129066 4285098028
0.00067236647 -0.0027932078 -0.020188846 4285228843
0.0012827441 0.0041153058 -0.026544651 4285360678
0.0019934773 0.010266334 -0.032224119 4285427233
0.0032666773 0.01339671 -0.035227533 4285493533
0.0049805529 0.014262795 -0.036227208 4285624603
0.0071592964 0.012865894 -0.035227407 4285952788
0.0088705495 0.013732009 -0.036226392 4285689373
0.010900661 0.013090134 -0.035893999 4285557793
0.012936156 0.012448668 -0.035562489 4285623583
0.015312022 0.010300457 -0.033903383 4285689628
0.017363653 0.0096602291 -0.033574551 4285624348
0.019247793 0.0097736642 -0.033909854 4285558814
0.020956378 0.010640316 -0.034907825 4285559324
0.023016036 0.010000914 -0.034580149 4285559069
0.0254429 0.007856369 -0.032929663 4285559069
0.028069457 0.0049603581 -0.030620649 4285493023
0.03071749 0.0020657256 -0.028315311 4285558303
0.033575967 -0.001579769 -0.025353316 4285492514
0.038186342 -0.011992671 -0.016456759 4285360678
0.0017037466 -0.010404043 -0.01602242 4285228843
0.0020452514 -0.0019606724 -0.023700159 4285294889
0.0024761893 0.0057224855 -0.030701365 4285426213
0.0033070371 0.011132315 -0.035696488 4285427488
0.004715845 0.013513811 -0.03802494 4285558813
0.0062651373 0.015138038 -0.039685879 4285821718
0.0079629645 0.016005494 -0.040680826 4285887253
0.01014128 0.014604546 -0.039684117 4285887253
0.012495 0.012448423 -0.038026139 4285887509
0.014864847 0.010293402 -0.036370996 4285887254
0.017080816 0.0088950247 -0.035380676 4285559069
0.019134823 0.0082528889 -0.035053842 4285559069
0.021544972 0.0061006323 -0.033405539 4285427489
0.023615073 0.0054596961 -0.033081386 4285361188
0.026232816 0.0025543496 -0.030777488 4285426724
0.028688569 0.00040523708 -0.029137069 4285360678
0.03153269 -0.0032520369 -0.026180919 4285228844
0.034403652 -0.0069076121 -0.023229383 4285228843
0.039216548 -0.018104352 -0.013699753 4285228843
0.00187473 -0.013493024 -0.015873505 4285294379
0.0028058738 -0.0080623403 -0.020875081 4285294379
0.003402736 -0.001115635 -0.027198486 4285426214
0.003800232 0.0065871701 -0.034177009 4285558048
0.0046052076 0.012010746 -0.039155833 4285559069
0.0058418401 0.015156463 -0.042139247 4285559069
0.0075343028 0.016025752 -0.04313159 4285558813
0.009706784 0.014620095 -0.042137112 4285624348
0.012218971 0.011699088 -0.039821669 4285624604
0.014585506 0.0095373467 -0.038170874 4285558814
0.017138023 0.0066189691 -0.035862379 4285493278
0.019539488 0.0044595823 -0.034217615 4285493279
0.022132281 0.0015439019 -0.031916145 4285492769
0.024390744 0.00014412403 -0.030936439 4285492514
0.027021129 -0.0027690753 -0.028641418 4285360933
0.029489681 -0.0049238726 -0.02700825 4285294889
0.032160304 -0.0078344196 -0.024720211 4285228843
0.035041042 -0.011500143 -0.02177876 4285163563
0.039288051 -0.020459391 -0.014245393 4285163564
0.0019022971 -0.015828885 -0.016394461 4285294378
0.0031280965 -0.011905611 -0.020058779 4285229098
0.0041788779 -0.0072225705 -0.024380933 4285360678
0.004744824 -0.00025815517 -0.030683789 4285426214
0.0051088706 0.0074643791 -0.037639637 4285557539
0.0055754669 0.014423072 -0.043924619 4285427233
0.0072652549 0.015294373 -0.044914804 4285559069
0.00959621 0.013123795 -0.043262821 4285493533
0.012271933 0.0094338134 -0.040294047 4285493278
0.014473516 0.0080258548 -0.039307952 4285426978
0.017364614 0.003578946 -0.035688285 4285294888
0.020115573 -0.00010614097 -0.032732617 4285228843
0.022893406 -0.0037895516 -0.029781613 4285163053
0.02498707 -0.0044333637 -0.029464956 4285163054
0.027627401 -0.0073546097 -0.027178358 4285294634
0.030106068 -0.0095152855 -0.025551967 4285294888
0.032786638 -0.012433849 -0.023272326 4285294888
0.035865657 -0.016868554 -0.019685416 4285294888
0.040315188 -0.026611634 -0.011518962 4285163818
0.0031586885 -0.014234476 -0.020575119 4285294378
0.0046570674 -0.011828452 -0.022904789 4285426213
0.0055364892 -0.0063704029 -0.027873721 4285425959
0.005918093 0.0013748184 -0.034816146 4285426469
0.0065581985 0.0075910389 -0.040429648 4285492258
0.0082668029 0.0084656626 -0.041421577 4285427488
0.010454476 0.0070522949 -0.040436443 4285493788
0.012817059 0.0048772395 -0.038795002 4285624859
0.015195757 0.0027033314 -0.03715637 4285558304
0.018099174 -0.0017557815 -0.033548847 4285360679
0.020690402 -0.0046889856 -0.031260431 4285228844
0.022953305 -0.0060972497 -0.030288238 4285163054
0.025226926 -0.0075046942 -0.029317901 4285163054
0.027691562 -0.009672828 -0.027694032 4285294889
0.030538213 -0.013362445 -0.024763307 4285360424
0.033411689 -0.017050318 -0.021837262 4285426213
0.036877014 -0.023019351 -0.016954264 4285426213
0.0049861372 -0.015685849 -0.022100886 4285425959
0.0061757006 -0.011742905 -0.025741961 4285359914
0.0068786852 -0.0055057332 -0.03135353 4285294634
0.0075387135 0.00072899461 -0.036957346 4285360679
0.0094247609 0.00084196031 -0.03729343 4285492513
0.01147214 0.00019029528 -0.036972426 4285426978
0.013524909 -0.00046095252 -0.036652245 4285426469
0.015749732 -0.0018761307 -0.035676904 4285360423
0.018493412 -0.0055833831 -0.032736648 4285294889
0.021091901 -0.008524783 -0.030456167 4285229098
0.023187639 -0.009172909 -0.030143283 4285229099
0.025821026 -0.012111939 -0.027868809 4285228844
0.028475881 -0.015049569 -0.025598062 4285228843
0.031700604 -0.020276122 -0.021371478 4285228843
0.034777418 -0.024737008 -0.017804136 4285163308
0.0065125339 -0.01560165 -0.024940906 4285228843
0.0073777959 -0.010114096 -0.029883984 4285229098
0.008361239 -0.0053958669 -0.034163971 4285294889
0.010263253 -0.0052819401 -0.034502905 4285294889
0.012165289 -0.0051679015 -0.034841757 4285229354
0.014067337 -0.0050537363 -0.035180509 4285294888
0.016135924 -0.0057060644 -0.034864701 4285294889
0.018548286 -0.0078907758 -0.033241916 4285229099
0.020976771 -0.010074429 -0.031621866 4285228844
0.02342136 -0.012256972 -0.03000458 4285098028
0.026591118 -0.017502189 -0.025780031 4285163563
0.029618507 -0.021979235 -0.022214098 4285163309
0.0074168593 -0.012430795 -0.030392863 4285229099
0.0084038004 -0.0076994523 -0.03466348 4285294633
0.010150041 -0.0068160892 -0.035657126 4285229098
0.012051921 -0.006702058 -0.035995949 4285229098
0.014281169 -0.0081257746 -0.035028096 4285294889
0.016188441 -0.0080111697 -0.035367686 4285294379
0.018771909 -0.010970853 -0.033097882 4285228844
0.021548592 -0.014697544 -0.030179979 4285163308
0.024526544 -0.019190773 -0.026615405 4285163564
0.028245144 -0.026754394 -0.020452898 4285032749
0.0082906075 -0.0092354491 -0.035819121 4285228844
0.0098787062 -0.0075785443 -0.037463721 4285295144
0.011938572 -0.0082359239 -0.037149921 4285295399
0.014330864 -0.01043506 -0.035533659 4285295143
0.017071666 -0.014174961 -0.032617856 4285229353
0.020008231 -0.018683903 -0.029056011 4285228844
0.0084880218 -0.012318633 -0.03567167 4285163053
0.01023965 -0.011430688 -0.036662936 4285228843
0.012467917 -0.012863174 -0.035701677 4285295398
0.015197022 -0.016614683 -0.032792181 4285229864
0.01828507 -0.02191066 -0.02858826 4285294634
0.021916896 -0.029523022 -0.022443779 4285032238
0.013959073 -0.022161007 -0.030373035 4284901424
