# .PCD v0.7 - Point Cloud Data file format
VERSION 0.7
FIELDS x y z rgba
SIZE 4 4 4 4
TYPE F F F U
COUNT 1 1 1 1
WIDTH 771
HEIGHT 1
VIEWPOINT 0 0 0 1 0 0 0
POINTS 771
DATA ascii
0.0076706223 -0.0024206191 -0.0011947509 4288627228
0.0077149495 -0.004769288 -0.0016864296 4289214493
0.0096998028 -0.0046442822 -0.0020683836 4289018144
0.0054403804 -0.0057956502 -0.0031772908 4288954138
0.0075906739 -0.0063965097 -0.0028699469 4290325273
0.0097463764 -0.0069969594 -0.002563512 4289670434
0.011907455 -0.0075968876 -0.0022580549 4289408803
0.01442663 -0.0096465051 -0.00057890452 4288363049
0.0054818951 -0.0081482604 -0.0036712419 4290262288
0.007634569 -0.0087512061 -0.0033659395 4289343524
0.0099634416 -0.010081239 -0.0023749042 4289277988
0.012823567 -0.013592757 0.00067285076 4288362284
0.015182 -0.014920712 0.0016584415 4288231979
0.0078461133 -0.011839904 -0.0031793024 4288950569
0.01069181 -0.015363388 -0.00013701245 4287903539
0.013564363 -0.018885054 0.0029001981 4287184184
0.0085604116 -0.017133556 -0.00094662607 4287772724
0.011418529 -0.020667203 0.0020851046 4287118139
0.013957171 -0.022735409 0.003745731 4286660414
0.0092730671 -0.022448868 0.0012702942 4287053623
0.011802977 -0.024524316 0.0029276088 4286594623
0.014003012 -0.025130562 0.0032190308 4286529343
0.0046229288 -0.022146277 -0.0012012348 4286923574
0.0071279705 -0.02423007 0.00045573711 4286660924
0.0096491445 -0.026312761 0.0021097474 4286660159
0.011676008 -0.026185125 0.0017196983 4286333249
0.013702894 -0.02605737 0.0013297275 4286398783
0.0046593882 -0.024532631 -0.0017191283 4286857274
0.0070018359 -0.025883935 -0.00074720383 4286464063
0.0093550608 -0.027234495 0.00022277609 4286594879
0.011379089 -0.027107045 -0.00016672909 4286398528
0.013230473 -0.026241027 -0.0012344271 4286464574
-0.00011784211 -0.023467891 -0.0048621632 4286727223
0.0022025704 -0.024825208 -0.0038894452 4287446324
0.0043720119 -0.025440507 -0.0035973713 4287575864
0.0067112893 -0.026796393 -0.0026280917 4286659649
0.0090613365 -0.02815146 -0.0016608015 4286463554
-0.00024244189 -0.025107913 -0.0060551465 4286726713
0.0019185692 -0.025726005 -0.0057632141 4286791738
0.0039233938 -0.02560015 -0.0061493143 4287772468
0.0062568299 -0.026960827 -0.0051821396 4286856253
0.008601021 -0.028320633 -0.0042169765 4286398528
-0.007260628 -0.022644341 -0.010158967 4287644204
-0.0048228316 -0.024759196 -0.008509066 4286988344
-0.0025222711 -0.026126817 -0.0075391941 4286856764
-0.00021093711 -0.027493589 -0.0065713525 4286791484
0.0019524246 -0.028113745 -0.0062815174 4286726204
0.003959775 -0.027987741 -0.0066681132 4286988598
-0.0072358325 -0.025019191 -0.010665491 4287707953
-0.0047960095 -0.027140558 -0.0090208501 4287707443
-0.0026464872 -0.027764 -0.0087301508 4287053114
-0.00033564121 -0.029135175 -0.0077654719 4286857528
0.0016688183 -0.029009499 -0.0081516206 4286529853
-0.0096370354 -0.025269203 -0.012817383 4287512114
-0.0073590353 -0.026647225 -0.011849873 4287707698
-0.0050702505 -0.028024428 -0.010884408 4288034608
-0.0029237233 -0.028650276 -0.010594718 4287314743
-0.00061604753 -0.030026041 -0.0096326992 4287054134
0.0013855733 -0.029900528 -0.010018289 4286464828
-0.013445325 -0.028646894 -0.011883829 4287316529
-0.011742063 -0.02701617 -0.013616007 4287315253
-0.0099045672 -0.026139282 -0.014672194 4287970094
-0.0076297298 -0.027521871 -0.013707325 4287250229
-0.0050436854 -0.030409507 -0.011398908 4286988599
-0.0028948151 -0.031037383 -0.01111136 4287446579
-0.012006562 -0.027883552 -0.015469529 4287380278
-0.01002704 -0.027760096 -0.015851371 4287315000
-0.0079000816 -0.028391786 -0.01556142 4286922808
-0.0053175278 -0.031288378 -0.013258841 4286530363
0.017548312 0.015187398 0.034972005 4280002363
0.019586787 0.015316054 0.034579933 4280523073
0.023998814 0.0066227019 0.043553568 4280066878
0.01351504 0.012573987 0.035259068 4281370183
0.014161207 0.018153347 0.029103315 4280785979
0.01529555 0.021686561 0.025115484 4281044804
0.017661136 0.020451177 0.026168304 4281501509
0.020949541 0.015812375 0.030813335 4280784194
0.025571218 0.0064114332 0.040479392 4281176383
0.0086406656 0.013376445 0.031943738 4282021454
0.0099954754 0.016239733 0.028673759 4281174853
0.011328846 0.019101761 0.025407957 4281176638
0.012640765 0.021962542 0.022146365 4279546168
0.014284976 0.023455266 0.02032551 4280263484
0.016457126 0.022897821 0.020659992 4280263484
0.019545872 0.018925618 0.024579646 4280199224
0.023036707 0.013589799 0.029926626 4280135218
0.026945725 0.0068913922 0.036697783 4281046589
0.030718142 0.0008790046 0.04274302 4281111104
0.0046874732 0.019131821 0.023209909 4280392768
0.0063559115 0.020630132 0.021387341 4280914499
0.0083509572 0.02075566 0.021003334 4281046589
0.010346044 0.02088128 0.020619391 4280980543
0.011993144 0.022378493 0.018801188 4280849984
0.013806213 0.023189578 0.017701713 4280393788
0.015972722 0.022629548 0.018035693 4280524860
0.018690825 0.02001423 0.020515544 4280525369
0.021984681 0.015345171 0.025136637 4281046334
0.024566364 0.013418168 0.026892239 4281176638
0.026783885 0.012861766 0.027216638 4281111359
0.029392391 0.010936663 0.028967241 4281372734
0.033580963 0.0035375357 0.036419123 4280133688
0.0026124828 0.0082808584 0.03212776 4282607698
0.0024015941 0.01805184 0.021681698 4281371458
0.0034204572 0.022309113 0.016991267 4279611193
0.0054019094 0.022433687 0.016609805 4280001343
0.010220781 0.019242492 0.019427484 4280850238
0.011868093 0.020744096 0.017612508 4280915263
0.013681218 0.02155738 0.016514657 4280980798
0.015847445 0.020995129 0.016847054 4281046843
0.018382842 0.019058473 0.01860646 4281112889
0.021303542 0.015748337 0.021789866 4281242430
0.023502002 0.015188411 0.022116279 4281046589
0.024756014 0.018063646 0.01887933 4280850494
0.02598853 0.020937629 0.015646597 4279938868
0.028957501 0.017630931 0.01882101 4279936828
0.034527466 0.0054024458 0.031232366 4280067134
0.04139825 -0.010937355 0.047887668 4280067134
-0.00032394007 0.0099384338 0.027715961 4281827399
0.00027933344 0.016285807 0.020872986 4281112888
0.0013151281 0.020557206 0.016189033 4281372988
0.0028075837 0.022754189 0.013659405 4281567553
0.0047808699 0.022878241 0.013279511 4281241664
0.0075957477 0.019549873 0.016474659 4280981309
0.010095537 0.017603971 0.018235775 4280785724
0.01209043 0.017729655 0.017851925 4280981309
0.014085349 0.017855458 0.017468153 4281111869
0.016080279 0.017981347 0.017084448 4281112124
0.018256964 0.017417703 0.017413227 4281111613
0.020439029 0.016854435 0.017741071 4281242430
0.022439346 0.016980968 0.01735655 4281111869
0.023680497 0.019864179 0.014128631 4279873333
0.024900151 0.02274612 0.010904906 4281306688
0.027074091 0.022182774 0.011234568 4281697859
0.031231802 0.014733531 0.018656461 4281567554
0.036651723 0.0031573102 0.030319961 4281503038
0.041959658 -0.0077247322 0.041257732 4281437503
-0.001842577 0.014520191 0.020064497 4281633089
-0.00094726309 0.019499097 0.014671577 4280853043
0.00055088475 0.021702901 0.012145681 4280134964
0.0021957718 0.023212735 0.010337418 4280263994
0.0044917911 0.021950532 0.011386892 4279938103
0.0069667511 0.01999636 0.013147788 4279547954
0.0096286833 0.017350767 0.015618512 4280916029
0.011791587 0.016783752 0.015948078 4281046589
0.013783701 0.016909368 0.015564842 4281046333
0.015418068 0.01841918 0.013759 4280916028
0.017404839 0.018544648 0.013376934 4281176893
0.019391619 0.018670224 0.012994943 4281111358
0.021378394 0.018795896 0.012613026 4281307199
0.022796307 0.020995695 0.010103418 4279808308
0.024390385 0.022503439 0.0083056819 4279808308
0.026363682 0.022628549 0.007926574 4280198969
0.029720668 0.01791786 0.012501592 4280198969
0.033916622 0.01044701 0.019898223 4280655673
0.03837464 0.002289474 0.027990328 4281242174
0.044131387 -0.010005809 0.040307157 4281240898
-0.0024454631 0.0057957992 0.026405176 4281692759
-0.0021217503 0.013575874 0.018157111 4281698879
-0.0012280643 0.018570002 0.012775945 4281243449
0.00010785833 0.021475647 0.009542061 4280851514
0.0019101873 0.022294339 0.0084508266 4280263484
0.0042030774 0.02102749 0.009497663 4280068664
0.0066747256 0.01906652 0.011254286 4280394299
0.0093331672 0.016411975 0.013719095 4280915518
0.01131976 0.016537145 0.013336843 4280851004
0.012602285 0.019439984 0.010113729 4281046589
0.014220763 0.020953164 0.0083142053 4279353133
0.016191307 0.021077607 0.0079352614 4279288108
0.018530022 0.019814353 0.008973809 4281047354
0.020879464 0.018551912 0.010010315 4281242428
0.02248184 0.020064436 0.0082142334 4280916539
0.024073455 0.021576412 0.0064202398 4280785979
0.026043948 0.021701358 0.0060416814 4280916538
0.029199425 0.017668132 0.009899864 4281177659
0.033187844 0.010865532 0.016574392 4281176639
0.037229888 0.0040664673 0.023238646 4281175874
0.043175578 -0.0089618862 0.03623379 4281175874
-0.002268184 0.0027377158 0.026622919 4282478924
-0.0016286299 0.0091464296 0.019816993 4281762883
-0.00072316825 0.014156699 0.014444949 4281632833
0.00062406063 0.017071776 0.011215473 4281174853
0.0021122955 0.019288212 0.0087013599 4280979780
0.004244972 0.018714592 0.0090332385 4280522819
0.0063830577 0.018141419 0.0093641486 4280980799
0.0086970516 0.016871698 0.010403791 4280981053
0.010502301 0.017693121 0.0093139727 4280916539
0.011774631 0.02060413 0.0060993135 4278767144
0.013204042 0.022817459 0.0035969652 4279483439
0.015523493 0.021548528 0.0046358258 4279288618
0.020567819 0.0176211 0.0081207808 4281112124
0.022357009 0.018442113 0.0070345011 4281111614
0.024332773 0.018567286 0.0066548456 4281046333
0.026697811 0.017301757 0.0076853205 4280719424
0.030060226 0.012560725 0.012236403 4280719678
0.033860199 0.0064320788 0.018188281 4281242429
0.03811387 -0.0010832995 0.025537992 4281372733
0.043658845 -0.012763202 0.037094235 4281435208
-0.0020915531 -0.00032885373 0.026834415 4282609738
-0.001291018 0.0053998306 0.020753106 4282024259
-6.2651932e-05 0.0090259984 0.016812069 4281699133
0.0011389293 0.012650587 0.012876211 4281242429
0.002638299 0.014874257 0.010364907 4280849218
0.004451517 0.015698053 0.0092749465 4280783428
0.0062594004 0.016521655 0.0081860404 4280719168
0.0080619752 0.017344981 0.0070982836 4280980798
0.0096862111 0.018867057 0.0053040888 4280526133
0.011124037 0.021087389 0.0028049499 4281241918
0.012724163 0.022608135 0.0010155402 4281307199
0.015037782 0.021334458 0.0020522475 4280916793
0.017913371 0.017966639 0.0052034445 4280526133
0.02062938 0.015298739 0.0076445919 4280982329
0.022610407 0.015424162 0.0072638616 4281112379
0.025166806 0.0134563 0.0089950543 4280850494
0.02812824 0.010094322 0.012130054 4280523584
0.031707969 0.0046418235 0.017368687 4281436739
0.035330612 -0.00080789626 0.022599192 4281436229
0.039198674 -0.006951876 0.028523421 4282022983
0.044346295 -0.017274335 0.038646601 4282087243
-0.0022182651 -0.0019988939 0.025619553 4282675273
-0.00080033764 0.00093796849 0.022389309 4282416449
0.00059620664 0.0038735643 0.01916332 4281960254
0.0018119402 0.0075099692 0.015232949 4281570613
0.003162995 0.010442957 0.012015829 4281637169
0.0046574138 0.012673013 0.0095103998 4282158133
0.0059683137 0.015603684 0.0063011665 4281763904
0.0074279308 0.017831761 0.0038025882 4281241664
0.0088714883 0.020058889 0.001307223 4280329528
0.01082553 0.020182095 0.00093130395 4279678003
0.012423169 0.021707103 -0.00085441209 4280720954
0.014914539 0.019728135 0.00088406354 4280785978
0.017605588 0.017049797 0.0033234004 4280460343
0.020504363 0.013672583 0.0064620413 4280330293
0.023052093 0.011697479 0.008189911 4281242684
0.025999153 0.0083235279 0.011319431 4281373755
0.029361647 0.0035517663 0.015847502 4281567809
0.032958683 -0.0019172281 0.021069771 4281827909
0.035999589 -0.005284898 0.024181502 4282088008
0.039674375 -0.010748714 0.029389011 4282087498
0.044622313 -0.02040457 0.03878691 4282087498
-0.0021937303 -0.0043734014 0.025113421 4282413643
-0.0010803491 -1.8432736e-05 0.020473128 4282222904
0.0004706122 0.0022213832 0.017961508 4281896759
0.0018462949 0.0051645711 0.014746102 4281506098
0.0035244413 0.0066984072 0.012947692 4281572653
0.0051919036 0.0082316473 0.011151472 4281311533
0.0063467957 0.011875503 0.007241223 4281179953
0.0073048845 0.016221359 0.0026313197 4281306178
0.0085761584 0.019158464 -0.00056355819 4281045314
0.010352019 0.019984733 -0.0016428065 4280524860
0.012122551 0.020810738 -0.0027209036 4280134198
0.01442988 0.019527841 -0.0016894862 4280199479
0.017481565 0.015434958 0.0021490529 4280526388
0.020751536 0.010641657 0.0066832248 4280982074
0.023870312 0.0065531507 0.01050905 4281176894
0.027212728 0.0017646626 0.015029458 4281046588
0.030398563 -0.0023193583 0.01884258 4281306434
0.033616558 -0.006401211 0.022649543 4281631558
0.036268201 -0.0083758086 0.024352828 4281956939
0.039542478 -0.012453906 0.028149189 4282021708
0.044487897 -0.022140592 0.0375247 4282021453
-0.0029246584 -0.0032173097 0.021069845 4283334194
-0.0013599955 -0.00097013265 0.018560359 4282746928
0.00034505874 0.00056951493 0.016759915 4281964589
0.0018803552 0.0028150603 0.014256248 4281637168
0.003884919 0.0029409081 0.013870204 4281637168
0.0055606402 0.0044790208 0.012075638 4281637424
0.0068914182 0.0074284747 0.0088756476 4281833518
0.0078611225 0.011788212 0.0042733103 4281768494
0.0089711659 0.015440412 0.00038002245 4281765433
0.010229584 0.018385615 -0.0028058123 4281110339
0.012000149 0.019213803 -0.0038822908 4281044548
0.014668118 0.016516365 -0.0014516674 4280784450
0.017907266 0.01170563 0.0030769575 4280981054
0.021741731 0.0047831759 0.0096989069 4281502274
0.024875455 0.00068251044 0.013512013 4281697094
0.028041368 -0.0034159794 0.017319025 4282087754
0.031045495 -0.006808117 0.020421328 4282217548
0.033879772 -0.0094943866 0.022820467 4282217548
0.035938129 -0.0093636066 0.022425218 4281955918
0.039410591 -0.014158785 0.026909588 4282085713
0.044148788 -0.023172766 0.035566159 4282150738
-0.0019463599 -0.0004991591 0.015241461 4283468578
0.00021953881 -0.0010820553 0.015558546 4282356523
0.0019141212 0.00046145171 0.013763411 4281897778
0.0039212331 0.00058744103 0.013376864 4281768748
0.0055998378 0.002130121 0.011585018 4282028593
0.0072677545 0.0036722794 0.009795269 4281963314
0.0085856915 0.0066297874 0.0066043586 4282159408
0.0097098686 0.010293834 0.0027165134 4281767728
0.010632217 0.014663897 -0.0018667132 4280917814
0.012588575 0.014787354 -0.0022430066 4281241153
0.015266467 0.012081757 0.00017916411 4281044293
0.018881161 0.0058420673 0.0060926862 4280717383
0.022544159 -0.00039444864 0.011996998 4281371458
0.025501722 -0.0038007051 0.015099915 4281566534
0.028486103 -0.007205151 0.018197762 4282021199
0.031303495 -0.0099013597 0.020593533 4282282064
0.033945836 -0.0118898 0.02228873 4282151248
0.036405083 -0.013171062 0.023284992 4282217039
0.03948056 -0.016569279 0.026365677 4282151249
0.04381001 -0.024200171 0.033611022 4282412624
-0.00053020194 0.00011069328 0.011546804 4284716039
0.0016300902 -0.00047461689 0.011863345 4283271208
0.0037958138 -0.0010594726 0.012178937 4283010089
0.0054746233 0.00048758835 0.010390306 4282486064
0.0073095486 0.0013237745 0.0093043912 4282420529
0.0088001788 0.0035800859 0.0068194438 4282224433
0.010274747 0.0058354959 0.0043376647 4281833519
0.011558399 0.0087998211 0.0011600424 4281767473
0.013353195 0.0096339136 8.2172453e-05 4281308729
0.016223906 0.0062108934 0.0031933766 4281242428
0.01948726 0.0013710037 0.0076944698 4282023493
0.023159336 -0.0048846677 0.013582336 4282153288
0.025750114 -0.0068832859 0.01528229 4282153034
0.028356988 -0.0088808015 0.016979286 4281955919
0.030786304 -0.010168515 0.017977836 4282020943
0.033422634 -0.012163959 0.019669326 4282086733
0.035876032 -0.013449915 0.020663423 4282676039
0.039348513 -0.018275753 0.025124928 4283853884
0.0036704279 -0.0027060956 0.010981223 4284317728
0.0055133812 -0.001867339 0.0098952968 4283074094
0.0071843863 -0.0003162697 0.008111516 4282813483
0.0086753927 0.0019466355 0.005631404 4282355503
0.010494322 0.0027842149 0.004550349 4281832498
0.012307905 0.0036216155 0.0034703761 4281766454
0.01429351 0.0037469193 0.0030884575 4281701429
0.016999302 0.0010255501 0.0054921862 4281763904
0.020092025 -0.00311739 0.0092836563 4282088263
0.023216939 -0.0072581396 0.013068983 4282022218
0.025621664 -0.0085520223 0.014068818 4282022474
0.02803712 -0.0098451599 0.015066711 4281956174
0.030656727 -0.011848286 0.01675641 4282021708
0.033292416 -0.013850309 0.018443143 4282218313
0.035944164 -0.0158512 0.020126889 4284115768
0.0048967265 -0.0013667271 0.0066057537 4283860004
0.0068927966 -0.0012412295 0.0062214751 4283271208
0.0085506402 0.00031349063 0.0044435821 4282550578
0.010369599 0.001153253 0.0033641532 4281897778
0.012357727 0.0012785941 0.0029816665 4282092598
0.014700256 -2.4050474e-05 0.0039898492 4281700919
0.017233415 -0.0020398274 0.005690882 4282024259
0.020147784 -0.0054818988 0.008777434 4282218568
0.023088986 -0.0089221522 0.011858912 4282153034
0.025493233 -0.010220446 0.012855576 4282086988
0.028098814 -0.012231179 0.014543029 4282414408
0.030527169 -0.013527706 0.015535237 4283265599
0.033358179 -0.016249202 0.017908884 4284311608
0.0082569346 -0.00060261041 0.0025607217 4283597354
0.010244898 -0.00047741085 0.0021781716 4282289969
0.012058537 0.00036438555 0.0011014547 4282223668
0.014574938 -0.0016591325 0.0028007198 4281962039
0.017287157 -0.0043976009 0.005190162 4281827653
0.020385612 -0.0085664168 0.0089608897 4282022218
0.023146123 -0.011301614 0.011341209 4282087499
0.025552586 -0.01260417 0.012334241 4282349129
0.028160185 -0.014621302 0.014016362 4283723579
0.030976988 -0.017352574 0.016386123 4284442169
0.0099487267 -0.0013889223 0.00029925071 4283205164
0.011933893 -0.0012637749 -8.2675368e-05 4282420019
0.014449652 -0.0032939091 0.0016118176 4282027064
0.017340586 -0.0067594647 0.0046864692 4281893954
0.020440567 -0.010941312 0.0084471125 4281956939
0.023202943 -0.013685144 0.010820547 4282022218
0.025799189 -0.015709721 0.012499915 4282937669
0.028221235 -0.017015509 0.01348673 4284573493
0.014324386 -0.0049283728 0.00042313524 4283792684
0.017214328 -0.0084049404 0.0034898128 4282810168
0.020495217 -0.013320364 0.0079303887 4283199808
0.023259453 -0.016072825 0.010296943 4284181048
0.017267298 -0.010772787 0.0029817652 4284246329
0.026332159 -0.030866273 0.0099623781 4284507703
0.030284071 -0.038043775 0.01636613 4283919419
0.022856928 -0.027550913 0.0043753907 4283330369
0.026575014 -0.034020193 0.010092964 4282675273
0.030152272 -0.03975331 0.015123034 4282673743
0.020326268 -0.027880482 0.0021952502 4284312119
0.023095431 -0.030693822 0.0045151487 4282544969
0.026444746 -0.035711832 0.0088628549 4282347853
0.029642664 -0.039992101 0.012526682 4282542929
0.017629316 -0.027461998 -0.00065753236 4283656003
0.020198192 -0.029547594 0.00098289549 4282806344
0.022783149 -0.031632006 0.0026202761 4282217294
0.025942372 -0.035927966 0.0062816627 4282216528
0.028945018 -0.039484434 0.0092618521 4282804304
0.015124969 -0.02776929 -0.0028274357 4282543694
0.017324079 -0.028381929 -0.0025404803 4282087498
0.019889606 -0.030474253 -0.00090435147 4282152268
0.022471223 -0.032565482 0.00072881952 4282085969
0.02525481 -0.035395302 0.0030330718 4282084438
0.028059829 -0.038223617 0.0053332876 4282345048
0.014823105 -0.028682128 -0.0047059134 4282282829
0.017196886 -0.030039631 -0.0037460253 4281761098
0.019401027 -0.030653961 -0.003461618 4282021964
0.022159662 -0.033494219 -0.0011591874 4282150738
0.024939731 -0.036333017 0.0011392049 4282345558
0.010151558 -0.028354146 -0.0071533807 4282479944
0.012333887 -0.028972454 -0.0068667084 4282152268
0.01469643 -0.030335099 -0.0059080571 4281956174
0.01742474 -0.033186279 -0.0036065057 4281696074
0.019633913 -0.033802487 -0.0033246949 4282152524
0.02203133 -0.03516259 -0.0023724101 4282082908
0.0076824836 -0.028631657 -0.0093095228 4282413389
0.010025732 -0.030000187 -0.0083505549 4282020943
0.012207733 -0.030620717 -0.0080654621 4281955664
0.014569778 -0.031987727 -0.0071099475 4281954898
0.017119912 -0.034100868 -0.0054855682 4281695309
0.019506095 -0.035466127 -0.0045345239 4282020944
0.0033872426 -0.029774912 -0.010403819 4282805579
0.005388964 -0.029649131 -0.01078923 4282219079
0.0075571798 -0.030272953 -0.010503292 4281891403
0.0097307824 -0.030896321 -0.010218307 4281890384
0.01190979 -0.031519242 -0.0099342018 4281954898
0.014268659 -0.032890849 -0.0089813406 4282410838
0.01663826 -0.034261644 -0.0080304528 4282213979
0.0029405951 -0.029909194 -0.012937251 4282415429
0.005100403 -0.030535854 -0.012651417 4282217803
0.0072656088 -0.031162053 -0.01236653 4281890639
0.0096051767 -0.032539517 -0.011413419 4282151504
0.011612199 -0.032413036 -0.011799575 4282346323
-0.0013311841 -0.031038858 -0.014027093 4283787073
0.00066207722 -0.030913882 -0.014411084 4282480453
0.0029769205 -0.032297716 -0.013456729 4282283593
0.004975643 -0.032172143 -0.013841574 4282151758
0.0069744103 -0.032046445 -0.01422634 4282347343
0.0091420002 -0.032674544 -0.01394345 4282150484
-0.0036007017 -0.03203807 -0.015498921 4282611523
-0.001610335 -0.031913407 -0.015882466 4282285633
0.00022217259 -0.03103184 -0.016933959 4281828418
0.0025311597 -0.032420345 -0.01598176 4281826124
0.0048509203 -0.033808097 -0.015031499 4282282319
0.0070154704 -0.034438707 -0.014749748 4282148444
-0.0043338351 -0.030629717 -0.019353889 4282479944
-0.0020441972 -0.032024138 -0.018401388 4282088773
9.8463148e-05 -0.032658689 -0.018117335 4281893189
0.0022465214 -0.033292793 -0.017834235 4281890893
0.0045631118 -0.03468509 -0.016886611 4281890894
-0.00018280372 -0.033524036 -0.019965328 4281626968
0.012642995 -0.038973063 -0.019477785 4282406759
-0.016168017 0.0040383413 0.018218862 4285295399
-0.011686742 -0.0085372925 0.030632013 4285229353
-0.022755388 0.015603751 0.0042865537 4285623839
-0.020805564 0.015725017 0.0039101951 4285885978
-0.018046014 0.011598758 0.0077937879 4285885978
-0.01456606 0.0039357319 0.015218543 4285951769
-0.010606054 -0.0058463588 0.024758833 4285951768
-0.024445157 0.011750072 0.0056280978 4285361443
-0.023005184 0.014713608 0.0024124682 4285623838
-0.021322347 0.016255297 0.00061886013 4285623839
-0.019111041 0.014955856 0.0016608536 4285755164
-0.016476519 0.011527255 0.0048244484 4285754909
-0.013394643 0.005971007 0.010104971 4285689373
-0.010555387 0.0018367991 0.013963634 4285558304
-0.005965434 -0.00075066835 0.016016068 4284900913
-0.028601568 0.010613441 0.0045055114 4285098794
-0.027142581 0.013586693 0.0012925752 4285427488
-0.025451783 0.015133016 -0.00049947947 4285624348
-0.023771573 0.016678825 -0.0022894554 4285821209
-0.021838084 0.016799033 -0.0026626885 4285689118
-0.019904479 0.016919345 -0.0030358732 4285689628
-0.017284337 0.013478883 0.00012231618 4285755418
-0.014777206 0.010752194 0.0025696307 4285755674
-0.012248509 0.008026965 0.0050128791 4285493023
-0.010134257 0.0074382275 0.0053378865 4285427743
-0.0078665055 0.0061384067 0.0063661598 4285295909
-0.0055879541 0.004839398 0.0073923748 4285822228
-0.031267773 0.012465723 0.00017419085 4285229608
-0.029569019 0.014016688 -0.0016163029 4285493278
-0.027509701 0.013421483 -0.0012829602 4285558814
-0.025824074 0.01497189 -0.0030708052 4285624094
-0.024278086 0.017236561 -0.0055627003 4285821463
-0.022616286 0.018785685 -0.0073457919 4285886998
-0.020561788 0.018190593 -0.0070112087 4285952788
-0.01795331 0.014738373 -0.0038589165 4285887509
-0.015317913 0.011287995 -0.0007117819 4285624348
-0.013367992 0.011409625 -0.0010878891 4285624349
-0.011563148 0.012245275 -0.0021670833 4285558813
-0.0097635575 0.013080649 -0.0032451451 4285558813
-0.0072165914 0.010348096 -0.00081173703 4285426723
-0.0043416619 0.0061902851 0.0030207075 4285558304
-0.0011226647 0.00060815364 0.0082491133 4286084113
-0.034020554 0.015060052 -0.004853243 4285689119
-0.032096114 0.01517915 -0.0052251443 4285885979
-0.029929783 0.013863191 -0.0041846968 4285951768
-0.027876128 0.013265409 -0.0038519204 4285755164
-0.026321862 0.015537046 -0.0063406006 4285624094
-0.024783548 0.017807834 -0.008826171 4285624094
-0.022998009 0.018643878 -0.0099003734 4285624094
-0.020680625 0.016612753 -0.0081592072 4285624094
-0.018073115 0.013149507 -0.0050149113 4285558558
-0.015578311 0.010404535 -0.0025783479 4285624349
-0.013915837 0.011958443 -0.0043579638 4285624348
-0.012554001 0.014943972 -0.00753849 4285755674
-0.010918144 0.016496435 -0.0093128085 4285952024
-0.0085411295 0.014469676 -0.0075826682 4285885978
-0.0055357404 0.0095816478 -0.0030557066 4285885979
-0.0024927333 0.0046961606 0.0014640596 4285492003
0.00027108192 0.0012435913 0.0045788251 4285689883
0.0025785156 -6.198138e-05 0.005593311 4285825289
-0.037436839 0.0096405596 -0.0017255638 4285295909
-0.036288086 0.014802173 -0.0070430003 4285558559
-0.034715321 0.017081074 -0.009530697 4285689374
-0.032686386 0.016479358 -0.0091949301 4285689373
-0.030289825 0.013718717 -0.0067464598 4285886744
-0.028241824 0.013118386 -0.0064142272 4285755419
-0.026314367 0.013237938 -0.0067865048 4285624093
-0.024515528 0.014076881 -0.0078617325 4285559068
-0.022853334 0.015634745 -0.0096384045 4285559068
-0.020665307 0.014316209 -0.008605008 4285559068
-0.018466439 0.012998506 -0.0075736493 4285559069
-0.01611726 0.010962926 -0.0058433376 4285559069
-0.014746945 0.013957635 -0.0090190545 4285690139
-0.01339798 0.016951092 -0.012190582 4285689629
-0.011775341 0.018507093 -0.013959102 4285623328
-0.0092621744 0.015754916 -0.011532307 4285623838
-0.0062688142 0.010850839 -0.0070144441 4285755163
-0.0032378398 0.0059492365 -0.0025038049 4285689884
-0.00080221146 0.0039198473 -0.00078958087 4285427489
0.0014886521 0.0026088357 0.00022481382 4285427488
0.0064352974 -0.0014446154 0.0036391243 4285297439
-0.040028181 0.011544935 -0.0060359631 4285296163
-0.038433958 0.013831541 -0.0085231178 4285558813
-0.037080612 0.017562218 -0.012416141 4285755674
-0.03529321 0.018402092 -0.013487933 4285623584
-0.033275288 0.017797478 -0.013151695 4285623583
-0.030769702 0.014305376 -0.010004592 4285689373
-0.028606821 0.012980506 -0.008969971 4285886998
-0.026433054 0.011656374 -0.0079373214 4285689884
-0.024377014 0.011054523 -0.0076081473 4285624349
-0.022578005 0.011895753 -0.0086817127 4285559068
-0.020784218 0.012736745 -0.0097541939 4285624858
-0.018859055 0.012856551 -0.010125732 4285559068
-0.01693378 0.012976475 -0.010497214 4285559068
-0.01529238 0.014537841 -0.012266301 4285690138
-0.013950929 0.017539583 -0.015429858 4285820953
-0.012188789 0.018379159 -0.016495826 4285557539
-0.0099818297 0.017058052 -0.015468866 4285557793
-0.0070005171 0.012137912 -0.010960169 4285623583
-0.0042923652 0.0086598322 -0.0078511098 4285755674
-0.0018734671 0.0066227987 -0.0061385632 4285558813
0.00072233751 0.0038674325 -0.0037338603 4285427744
0.0035031028 0.00039424747 -0.0006385278 4285295909
0.033684362 -0.021776579 0.017519979 4284900914
-0.040466685 0.012141116 -0.0092968922 4285427489
-0.038989764 0.015158646 -0.012481112 4285493533
-0.037534129 0.018174931 -0.01566116 4285756183
-0.035754729 0.019016467 -0.016729793 4285887508
-0.033745129 0.018409133 -0.016393596 4285886999
-0.031248536 0.014905497 -0.013252935 4285952789
-0.028971095 0.012851648 -0.011519073 4285690139
-0.026677433 0.010798909 -0.0097882692 4285624349
-0.024752785 0.010918356 -0.01015996 4285624349
-0.02309018 0.012484953 -0.011930212 4285624348
-0.021438181 0.014050968 -0.013698289 4285624093
-0.019660342 0.014893256 -0.014765996 4285624093
-0.01760947 0.014289312 -0.014437145 4285624094
-0.015836764 0.015131511 -0.015503688 4285689629
-0.014502827 0.018141516 -0.018659281 4285821464
-0.01289589 0.01970531 -0.020418307 4285887254
-0.010550268 0.017656781 -0.0186968 4285821719
-0.0075783022 0.012720712 -0.014197741 4285821209
-0.0047239363 0.0085090622 -0.010400438 4285690394
-0.0023110509 0.0064651296 -0.0086916806 4285558813
0.00043917447 0.0029789507 -0.005598722 4285558558
0.0030529983 0.00021607429 -0.0032039378 4285426979
0.011635276 -0.0021708086 -0.0019575991 4285621798
0.033748973 -0.024189927 0.016975211 4284966704
-0.040476892 0.0098419711 -0.0097385952 4285426723
-0.039106261 0.013595439 -0.013618756 4285493278
-0.03765009 0.016620502 -0.016792394 4285559068
-0.035870653 0.017464198 -0.017859425 4285690139
-0.033861343 0.016854621 -0.017524825 4285624348
-0.031606112 0.014792703 -0.015791666 4285624094
-0.029334653 0.012731902 -0.014061563 4285558558
-0.027298111 0.012124322 -0.01373199 4285624349
-0.025512557 0.012968935 -0.014799807 4285689884
-0.023994114 0.015264772 -0.017261943 4285886998
-0.022090781 0.01538308 -0.017629374 4285952533
-0.020051055 0.014776133 -0.017300097 4285952534
-0.017866861 0.013444386 -0.016275626 4285755164
-0.016096823 0.014288627 -0.017340081 4285624093
-0.014620695 0.01658234 -0.019793598 4285624349
-0.012866545 0.017425805 -0.020854831 4285558558
-0.010668576 0.016095363 -0.019832686 4285624350
-0.0076979138 0.011143886 -0.0153448 4285558558
-0.0049997419 0.0076432154 -0.012250111 4285558814
-0.0021169521 0.0034203678 -0.0084680365 4285624604
0.00063765794 -7.6502562e-05 -0.0053841006 4285755418
0.0034191459 -0.0035715476 -0.0023052339 4285492258
0.025728684 -0.019779764 0.010752263 4284900914
0.034203857 -0.028050736 0.017798094 4284900913
-0.040060777 0.004621096 -0.0073802713 4285492769
-0.038676072 0.0083863363 -0.011255027 4285493023
-0.037429977 0.012879118 -0.015824262 4285559069
-0.035757143 0.014454417 -0.017590482 4285559068
-0.033860151 0.014571674 -0.017957179 4285559069
-0.031962994 0.014689036 -0.018323835 4285558813
-0.029820237 0.013349682 -0.01729512 4285624349
-0.028042834 0.014195837 -0.018359834 4285690139
-0.026398744 0.015769899 -0.020120095 4285821209
-0.024765242 0.017343372 -0.021878181 4285689373
-0.022742022 0.016733073 -0.021547459 4285689118
-0.020441052 0.014668062 -0.01982755 4285886488
-0.018123887 0.012604207 -0.018110733 4285755419
-0.016215011 0.01272317 -0.01847901 4285624348
-0.014594357 0.014296383 -0.020234212 4285624604
-0.012543797 0.013688348 -0.019908344 4285559068
-0.010188721 0.011627264 -0.018198457 4285559069
-0.0072086379 0.0066610351 -0.013723833 4285493279
-0.0043458231 0.0024236217 -0.0099477591 4285559069
-0.0014507696 -0.0018115863 -0.0061778426 4285426214
0.0011560209 -0.0045925528 -0.0037948489 4285294634
0.0034584291 -0.0059202239 -0.002795713 4285228843
0.022818314 -0.01868666 0.0071834605 4284966704
0.025599668 -0.021455415 0.0095337611 4285032238
0.028592223 -0.024946891 0.012564758 4284966959
-0.039646257 -0.00062146783 -0.005037738 4285360424
-0.038138289 0.0024240837 -0.0082084117 4285492513
-0.036987137 0.0076622888 -0.013469317 4285558304
-0.035415221 0.0099738985 -0.015932502 4285492768
-0.033859219 0.012284577 -0.018392483 4285493278
-0.032199275 0.013863638 -0.020152813 4285559068
-0.03042734 0.014711529 -0.021214925 4285559068
-0.0285354 0.014828764 -0.021580432 4285690139
-0.026771229 0.015676387 -0.022640886 4285755419
-0.025012281 0.016523793 -0.023700245 4285557794
-0.022992041 0.01591111 -0.023370584 4285557794
-0.020694394 0.013839342 -0.021654993 4285623838
-0.018519182 0.01249826 -0.020635337 4285689884
-0.016333155 0.011157997 -0.019617729 4285624094
-0.014424317 0.011277057 -0.019985914 4285624604
-0.011928648 0.0084797964 -0.017588474 4285559068
-0.0092620812 0.0049550757 -0.014504232 4285559069
-0.0062645264 -2.5443733e-05 -0.01004436 4285559068
-0.0035388172 -0.003546223 -0.006971335 4285558558
-0.00078622252 -0.0070652291 -0.0039034095 4285295399
0.0016730689 -0.0091259107 -0.002218185 4285097773
0.025657577 -0.02385731 0.0089991484 4284966448
0.029031005 -0.028812461 0.013387946 4284901169
-0.039126974 -0.0066195428 -0.0020133965 4285294378
-0.037602428 -0.0035642013 -0.0051808264 4285426723
-0.036322493 0.00095685571 -0.0097370753 4285492768
-0.035074551 0.0054760948 -0.014287104 4285492513
-0.033741537 0.0092602894 -0.018135352 4285493023
-0.032435182 0.013042949 -0.021978367 4285559068
-0.030788284 0.014625631 -0.023732798 4285624860
-0.02915198 0.016207807 -0.025485147 4285624349
-0.027398501 0.017056935 -0.026541917 4285887253
-0.025650252 0.017905831 -0.027597606 4285820953
-0.023774136 0.018022403 -0.02795982 4285755419
-0.021354727 0.01521118 -0.02555453 4285821464
-0.018913779 0.012401447 -0.023153365 4285821463
-0.016310114 0.0088614598 -0.020065367 4285624604
-0.01396722 0.0067862794 -0.018363159 4285559068
-0.011315119 0.0032495856 -0.015284377 4285559069
-0.0084869154 -0.0010164976 -0.011521392 4285558813
-0.0056264736 -0.0052803904 -0.007764576 4285426214
-0.0030428879 -0.008080557 -0.0053903405 4285360678
-0.0007522814 -0.0094179735 -0.0043956526 4285228843
-0.039034251 -0.009699665 -0.0017919261 4285360423
-0.037503827 -0.0066352338 -0.0049539804 4285492769
-0.035994668 -0.0035720095 -0.0081118476 4285492259
-0.034620959 0.00022551417 -0.011959908 4285361443
-0.033273865 0.0040214956 -0.015802734 4285492259
-0.032072973 0.0085510835 -0.020333704 4285558814
-0.030781861 0.012343831 -0.02416555 4285427489
-0.029392477 0.015400194 -0.027299853 4285493278
-0.027896833 0.017720688 -0.029738151 4285624604
-0.026156593 0.018571272 -0.030790662 4285755929
-0.024288651 0.0186873 -0.031151319 4285690139
-0.021742463 0.015132599 -0.028060613 4285690394
-0.019031044 0.010845691 -0.024285275 4285558813
-0.016146369 0.0058270395 -0.019826815 4285493278
-0.013655089 0.0030118674 -0.017441683 4285493024
-0.010849562 -0.0012688413 -0.013684247 4285360933
-0.0080117919 -0.0055474043 -0.0099329371 4285360169
-0.0054451898 -0.00835751 -0.0075620618 4285294378
-0.0031658374 -0.0097001716 -0.0065685082 4285426214
-0.00087570772 -0.011041991 -0.0055769831 4285294379
-0.03894211 -0.012788288 -0.0015765745 4285294888
-0.037623156 -0.008238703 -0.0061209705 4285427234
-0.035890769 -0.0066424757 -0.0078857671 4285426979
-0.034396995 -0.0035713688 -0.01103407 4285426724
-0.032807771 -0.0012389719 -0.013485899 4285360678
-0.031473253 0.0025672391 -0.017318092 4285361188
-0.030287433 0.007109113 -0.02183629 4285492514
-0.029258389 0.012386195 -0.027038982 4285624604
-0.027884435 0.015450388 -0.030163672 4285558814
-0.026401695 0.017776743 -0.032594517 4285493023
-0.024271008 0.016419537 -0.031576291 4285493023
-0.021723092 0.012854002 -0.028494073 4285558814
-0.018595703 0.0063454285 -0.022664376 4285493278
-0.015701603 0.0013120472 -0.018219162 4285559068
-0.013056908 -0.0022471324 -0.015155366 4285426468
-0.010239124 -0.0065401867 -0.011410078 4285294378
-0.0078356788 -0.0086245611 -0.0097291414 4285228588
-0.002980303 -0.012789838 -0.0063763615 4285360423
-0.00068528578 -0.014135785 -0.0053890068 4285360679
0.0017800964 -0.016215749 -0.0037196912 4285163053
0.020092282 -0.024745993 0.0020480454 4284966448
-0.037416909 -0.012062572 -0.0052110292 4285163819
-0.035898674 -0.0089813545 -0.0083576459 4285426724
-0.034173969 -0.0073811188 -0.010117618 4285426724
-0.032343287 -0.0065211281 -0.011184843 4285295398
-0.030756231 -0.0041822791 -0.013631258 4285360933
-0.029550817 0.00037396699 -0.018143509 4285361188
-0.028502006 0.0056675002 -0.023338588 4285426724
-0.027363289 0.010219775 -0.02783775 4285360934
-0.02573685 0.011814639 -0.029578282 4285427489
-0.023590546 0.010453977 -0.028566301 4285361953
-0.020892229 0.006139867 -0.024808105 4285493534
-0.018023666 0.0010894984 -0.020369519 4285559069
-0.015258133 -0.0032202303 -0.01662408 4285426979
-0.012747016 -0.0060516819 -0.014255824 4285360424
-0.010214377 -0.008881636 -0.011891682 4285229099
-0.0078088939 -0.010972433 -0.01021603 4285228844
-0.0052358732 -0.013799652 -0.0078594396 4285163053
-0.0029494613 -0.015150614 -0.0068738405 4285228843
-0.00049550831 -0.017238013 -0.0052072555 4285425959
-0.035573769 -0.013551071 -0.0067620948 4284966704
-0.033951875 -0.011203729 -0.0092105931 4285492514
-0.032229509 -0.0095991865 -0.010966787 4285492003
-0.030398641 -0.0087369457 -0.012032313 4285360678
-0.029059928 -0.004908517 -0.015848944 4285295398
-0.027747881 -0.0010816008 -0.019660404 4285295143
-0.026462477 0.0027437508 -0.023466572 4285360934
-0.024944175 0.0050853416 -0.025894482 4285426723
-0.022912044 0.0044623762 -0.025575329 4285426724
-0.020198781 0.0001360774 -0.021829808 4285492514
-0.017315432 -0.0049287155 -0.017405437 4285558048
-0.014956441 -0.0070293173 -0.015726028 4285426469
-0.012724433 -0.0083885565 -0.014733506 4285294634
-0.01033577 -0.010487065 -0.013059644 4285228844
-0.0077824146 -0.013324402 -0.010705899 4285163053
-0.030517887 -0.010333031 -0.013193825 4285360678
-0.029056918 -0.0072374493 -0.016316021 4285360933
-0.027493004 -0.0048866794 -0.018748084 4285294888
-0.026071955 -0.0017933249 -0.02186239 4285295143
-0.024412993 -0.00018779188 -0.023602674 4285360679
-0.022367772 -0.00081213564 -0.02328768 4285295143
-0.019642234 -0.0051508024 -0.019554323 4285360678
-0.017159734 -0.008001782 -0.017193774 4285492004
-0.014796022 -0.010108687 -0.015520122 4285360678
-0.012559138 -0.011471972 -0.014531863 4285294633
-0.010165758 -0.013576791 -0.012863762 4285228843
-0.030518357 -0.012674987 -0.013669769 4285163819
-0.028932799 -0.010316454 -0.016101232 4285295144
-0.027487267 -0.0072129741 -0.019213848 4285229099
-0.025936242 -0.0048564002 -0.021638419 4285229354
-0.024142299 -0.0039915815 -0.022693258 4285295144
-0.021957207 -0.005362995 -0.021698574 4285294889
-0.019356914 -0.0089690611 -0.018659106 4285229353
-0.016729686 -0.012573324 -0.015624752 4285294633
-0.014496073 -0.013941295 -0.014639198 4285294378
-0.01225163 -0.015308529 -0.013655621 4285491494
-0.0098508559 -0.01741945 -0.011993836 4285228588
-0.028688032 -0.014152132 -0.015209303 4285097773
-0.027357858 -0.010291412 -0.018999813 4285163564
-0.025927749 -0.00718005 -0.022102866 4285163564
-0.024001826 -0.0070606172 -0.022474864 4285294889
-0.021679897 -0.0091836154 -0.020803215 4285294889
-0.019072529 -0.012800157 -0.017773258 4285229098
-0.016575575 -0.015667707 -0.015428605 4285163053
-0.025666673 -0.011007905 -0.021209011 4285098284
-0.023991089 -0.0093882307 -0.022942809 4285229608
-0.021535344 -0.012267359 -0.020596849 4285294888
-0.019058045 -0.015145041 -0.018254973 4285294633
-0.01628492 -0.019519977 -0.014560043 4285294124
-0.023722742 -0.013224073 -0.022056649 4285098539
-0.021523032 -0.014607675 -0.02107464 4285229098
-0.018640939 -0.019749202 -0.016707178 4285228843
-0.015995231 -0.0233851 -0.013700832 4285228589
