# .PCD v0.7 - Point Cloud Data file format
VERSION 0.7
FIELDS x y z rgba
SIZE 4 4 4 4
TYPE F F F U
COUNT 1 1 1 1
WIDTH 318
HEIGHT 1
VIEWPOINT 0 0 0 1 0 0 0
POINTS 318
DATA ascii
-0.0037986264 0.0017988086 0.026535504 4288686898
-0.0013179332 -0.00094428658 0.028977271 4289341484
0.0014152378 -0.0051199272 0.032834079 4289668138
0.0042988434 -0.01001031 0.037393745 4290648868
-0.00659585 0.0043155998 0.021476455 4288688684
-0.0048024282 0.0058791265 0.01966262 4290324254
-0.0026817322 0.0052840039 0.019976577 4289408549
-9.4398856e-05 0.0018124357 0.023121648 4289474593
0.0025198683 -0.0016573593 0.026261497 4289997598
0.0052817315 -0.0058442131 0.030103128 4289015849
0.007705979 -0.0078728423 0.031819154 4289539108
0.0097685009 -0.0077446774 0.031414282 4289275949
0.011702493 -0.0068980232 0.030304063 4287967544
-0.0089408681 0.0039730668 0.019264551 4288163384
-0.0073615983 0.006984733 0.016037771 4289932063
-0.0054742768 0.0078298822 0.014937745 4289146919
-0.0034796894 0.0079532638 0.014545798 4288950569
-0.001139611 0.0059124902 0.016273193 4289211943
0.0013345033 0.0031515509 0.01870344 4289604643
0.0038302019 0.000392057 0.02112953 4289735204
0.0062243566 -0.0016450658 0.022846594 4288949549
0.0080056265 -7.7210367e-05 0.0210388 4289276205
0.0099048316 0.00076945871 0.01993702 4288948783
0.012061179 0.00017508119 0.020242905 4288883503
0.015026174 -0.0047404245 0.024764437 4289928748
0.018028811 -0.0096534491 0.029278617 4291039783
0.020929866 -0.013844088 0.033083804 4289011258
-0.0094805732 0.0052126199 0.015249493 4289080873
-0.0078045651 0.0075083002 0.012737585 4290127393
-0.0060348362 0.0090790913 0.010934817 4290455324
-0.0041633695 0.0099255964 0.0098395441 4289735714
-0.0018372908 0.0078773126 0.011564888 4289735714
0.00062263012 0.0051066503 0.013991436 4290389788
0.0029838458 0.0030607507 0.01571003 4289342759
0.0051153451 0.0024622604 0.016018907 4289342759
0.0068753809 0.0040331706 0.0142185 4289800228
0.0084965155 0.0063262805 0.01171805 4289538089
0.010625768 0.0057279989 0.012027634 4289799208
0.013295293 0.0022402853 0.015140958 4289669413
0.016400848 -0.003412582 0.02035108 4289669159
0.019271299 -0.0076183453 0.024152558 4290192673
0.022032276 -0.011099994 0.027248204 4288688683
0.024820171 -0.014579855 0.030338664 4289406508
0.027929135 -0.019501232 0.034821071 4287378749
-0.012004636 0.0063476935 0.01163779 4289080618
-0.010122985 0.0071966499 0.010541923 4289670690
-0.0082465038 0.0080454275 0.0094470996 4289342759
-0.0063751861 0.0088939443 0.0083534177 4289800483
-0.0045090243 0.0097422525 0.0072608255 4289146408
-0.0023037344 0.0084128305 0.0082791485 4289408038
2.9921532e-05 0.0063584819 0.0099982116 4289866019
0.0021395311 0.005756326 0.010309692 4289343013
0.0042546615 0.0051545277 0.010620182 4289473828
0.0059988126 0.0067288354 0.0088261086 4289670178
0.0077323988 0.0083025396 0.0070342198 4289539109
0.0097171105 0.008426033 0.006644737 4289473573
0.012102529 0.0063756332 0.0083540995 4289080873
0.01477658 0.0028772727 0.011458529 4289669413
0.017755292 -0.0020679981 0.015954891 4289341994
0.020771638 -0.0070107654 0.020443929 4289277734
0.023681365 -0.011227079 0.024228226 4289409059
0.026770256 -0.016165055 0.028703213 4288819499
-0.014012672 0.0038570613 0.011559075 4288817969
-0.012530766 0.0076239333 0.0076463707 4289343013
-0.010348067 0.0062882677 0.0086655784 4289539109
-0.0084742308 0.0071389973 0.0075729135 4289669668
-0.0063870326 0.0065327659 0.0078868251 4289342759
-0.0044062287 0.0066551939 0.0074975062 4289277223
-0.0023106411 0.0060496628 0.0078099817 4289538853
-0.00032681972 0.006172508 0.00742024 4289473828
0.0016571581 0.0062954724 0.0070305485 4289408549
0.003395997 0.0078737065 0.0052406434 4289277734
0.0051242784 0.0094513446 0.0034529297 4289735204
0.0067139715 0.011755697 0.00096826907 4290520093
0.0088104829 0.011150949 0.0012810146 4289277479
0.011045847 0.0098197088 0.0022908179 4289211943
0.013836201 0.0055824071 0.0060885195 4290062368
0.016797539 0.00062063336 0.010576984 4289866019
0.020079296 -0.0057914481 0.016451014 4289146663
0.022977144 -0.010021679 0.020227902 4289408803
-0.014625795 0.0058721527 0.0068672244 4289669669
-0.012853384 0.0074559227 0.0050733332 4290716188
-0.010676496 0.0061154589 0.0060904343 4290389279
-0.0088079795 0.0069680288 0.0050003976 4290847258
-0.0067264363 0.006359227 0.0053137876 4289931554
-0.0046393573 0.0057508647 0.0056261718 4289211944
-0.0024322942 0.0044126585 0.0066376962 4289211943
-0.00056574494 0.0052656159 0.0055483524 4289343013
0.0011757985 0.0068482384 0.0037610848 4289277478
0.0029068068 0.0084303096 0.0019759629 4289539364
0.0046272427 0.010011889 0.00019296911 4289604389
0.0064649507 0.010863446 -0.00089036021 4290127648
0.0084279552 0.010985553 -0.0012756074 4288819498
0.010657489 0.0096495822 -0.00026794244 4288623403
0.013305478 0.0061275885 0.0028254222 4289997089
0.016396016 0.00042103976 0.0079997722 4289473318
0.019812003 -0.0067398548 0.014555501 4289146409
0.022849955 -0.011711992 0.019017816 4287314233
-0.016815893 0.0048544854 0.0053861123 4289014318
-0.015040807 0.0064427182 0.0035947766 4289079854
-0.013276212 0.0080303624 0.0018056221 4289342503
-0.011211395 0.0074180886 0.0021205116 4289539109
-0.0092472956 0.0075392202 0.0017342791 4289931554
-0.0069561899 0.005462043 0.0034468845 4289539109
-0.0048720911 0.0048512742 0.0037582163 4289670179
-0.0026681796 0.0035085008 0.004767077 4289670178
-0.00080427527 0.0043634027 0.0036798734 4289474084
0.00069550425 0.007414557 0.00050131418 4289408549
0.0024186596 0.0090005249 -0.0012790533 4289408549
0.0045062378 0.0083905384 -0.00096798129 4289146408
0.0064716414 0.0085126534 -0.0013538059 4289604389
0.0083068386 0.0093663633 -0.0024349438 4288950314
0.010535896 0.0080259368 -0.0014304388 4288950314
0.013318617 0.0037616864 0.0023494046 4289342503
0.016548771 -0.0026933178 0.0082044061 4289145898
0.019968305 -0.0098760277 0.014743272 4288949803
0.02286654 -0.014132656 0.018500682 4285940804
-0.017508216 0.0076422617 1.6679987e-05 4289604898
-0.015650906 0.0084981546 -0.0010681953 4290062369
-0.01389949 0.010089345 -0.0028515491 4288754219
-0.011848353 0.0094740167 -0.0025356011 4288754219
-0.0096855685 0.0081239417 -0.0015221424 4289866018
-0.0074031204 0.0060396045 0.00018729083 4290323999
-0.0052158907 0.0046912208 0.0011961479 4289800993
-0.0031319261 0.004078351 0.0015059616 4289474084
-0.0012760237 0.0049349442 0.00042193942 4289866274
0.0002162382 0.007994391 -0.002748718 4289669668
0.0022980049 0.0073817298 -0.0024382155 4290716444
0.0042604581 0.0075035244 -0.0028235554 4290912538
0.0066055804 0.0054238662 -0.0011258554 4290258463
0.0084461346 0.0062801167 -0.0022064913 4289604133
0.010812949 0.0042020455 -0.0005128663 4289800484
0.013467018 0.00065840036 0.0025631394 4289734438
0.01697731 -0.0072825477 0.0097873062 4289472554
0.020264864 -0.01375366 0.015616592 4287903028
-0.019859843 0.0081230029 -0.0028531267 4289211943
-0.018008046 0.0089806318 -0.0039353999 4289670434
-0.016161412 0.0098381042 -0.0050166133 4290258463
-0.014420509 0.011433035 -0.0067946883 4289996833
-0.012483612 0.011552326 -0.007175683 4289342759
-0.010228731 0.0094595626 -0.0054657734 4290323999
-0.0079576299 0.0073679537 -0.0037590056 4289735204
-0.0057815611 0.0060144737 -0.0027511995 4289931808
-0.0037085935 0.0053986982 -0.0024408456 4289931808
-0.0018633828 0.0062567964 -0.0035211868 4289866274
-0.00026199967 0.0085878298 -0.0059890798 4290651164
0.0019334257 0.0072360411 -0.00498479 4290193184
0.0042643845 0.0051487759 -0.0032892395 4289996833
0.0066115409 0.0030626208 -0.0015967879 4290912538
0.0085848346 0.0031853095 -0.0019840989 4289800739
0.011089046 0.00036519021 0.00039543025 4289865764
0.014156304 -0.0053956732 0.005535448 4289799719
0.017542664 -0.012624584 0.012048494 4288426289
-0.020255275 0.0087374672 -0.0060980837 4288752688
-0.018316396 0.0088565424 -0.0064797192 4289473064
-0.016377322 0.0089757368 -0.0068613156 4289408038
-0.014538497 0.0098349527 -0.0079392884 4288884778
-0.01249864 0.0092144683 -0.0076243891 4288950314
-0.010559015 0.0093340203 -0.0080058519 4289800738
-0.0084023252 0.0079748034 -0.0069975681 4289735459
-0.0063458756 0.0073556602 -0.0066856872 4290062624
-0.0041701198 0.0059979036 -0.0056810174 4289670178
-0.0024493784 0.0075966194 -0.0074514351 4290323999
-0.00085835904 0.0099335834 -0.0099124769 4289538853
0.0012040734 0.0093152821 -0.0096014338 4289211944
0.0035210177 0.007220529 -0.0079079848 4289342759
0.0061084926 0.0036503747 -0.0048353281 4289211944
0.0084631816 0.0015582144 -0.003149109 4289735204
0.011496726 -0.0042225048 0.0019845637 4289538854
0.014573224 -0.01000037 0.0071098655 4288884013
0.017968476 -0.017250694 0.013604969 4287968308
-0.02177418 0.0025619194 -0.0026807543 4286985793
-0.02009628 0.0049096793 -0.005154809 4287968054
-0.018244416 0.0057716668 -0.0062339064 4288099378
-0.016397722 0.0066334754 -0.0073119532 4288754220
-0.014556177 0.0074950382 -0.0083888527 4288754219
-0.012616865 0.0076144412 -0.008770356 4289277224
-0.010782979 0.008475773 -0.0098455865 4289800484
-0.0089542642 0.0093368515 -0.010919739 4289997088
-0.0067978725 0.0079733506 -0.0099145938 4289670179
-0.0047442541 0.0073519573 -0.0096036997 4289604899
-0.0029176995 0.0082132593 -0.010677164 4290258463
-0.0014533475 0.011297293 -0.013823015 4290062113
0.0003547594 0.012157686 -0.014892691 4289669924
0.0027793348 0.0093146637 -0.012510711 4289408295
0.0056064948 0.0042516962 -0.0080641638 4290323998
0.0084712729 -0.00080887228 -0.0036248625 4289734948
0.011506025 -0.0066071078 0.001495664 4289211434
0.014988869 -0.014622457 0.0086718462 4289145644
0.017979853 -0.019674785 0.013086651 4286202178
-0.020030297 0.0018138066 -0.0049156863 4287706423
-0.018362522 0.0041676089 -0.0073828604 4287706933
-0.016418375 0.004287079 -0.007765485 4287904049
-0.014674224 0.0058953539 -0.0095346179 4288296238
-0.012632281 0.0052705705 -0.0092233773 4288688683
-0.010901138 0.0068782046 -0.010989765 4289015593
-0.0089642778 0.0069976524 -0.011370638 4289343014
-0.0070272535 0.0071172267 -0.01175146 4289735458
-0.0050900653 0.0072369203 -0.012132229 4289800994
-0.0033850148 0.008843407 -0.013893148 4290127903
-0.0020469874 0.012678958 -0.017720707 4289866018
-0.0002495572 0.013540871 -0.018786676 4289342759
0.0020393431 0.01143118 -0.017097425 4288885034
0.0049786717 0.0056091771 -0.011971256 4289735459
0.0083495453 -0.0024375543 -0.00479102 4289669669
0.011779435 -0.010480486 0.0023777196 4289407530
0.014998592 -0.017035283 0.0081621222 4287575863
-0.021654196 -0.0036522076 -0.0022159657 4286724163
-0.020056799 -0.00054355711 -0.0053759278 4287444028
-0.018291421 0.0010701418 -0.0071461517 4287772215
-0.016342066 0.001189895 -0.0075298194 4287968819
-0.014592357 0.0028028488 -0.0092967954 4288034609
-0.01254537 0.0021761358 -0.0089881811 4287838515
-0.010808676 0.0037885457 -0.010752486 4288165679
-0.0089745596 0.0046543404 -0.011824491 4287969329
-0.0071456283 0.0055199191 -0.012895396 4288361773
-0.0054351985 0.0071310103 -0.01465424 4289015849
-0.0037353039 0.0087415799 -0.016410979 4289081128
-0.0020459741 0.010351591 -0.018165506 4289669925
-0.00024586171 0.011215895 -0.019230455 4289211944
0.0020450875 0.0090997294 -0.017546443 4289015594
0.0049856305 0.0032602102 -0.012433426 4289669669
0.0086159483 -0.0063001141 -0.0038992641 4289276713
0.012051903 -0.01436685 0.003250543 4288295474
0.015142735 -0.020196639 0.0083343424 4286660413
-0.020175323 -0.0021558031 -0.0065308013 4287444028
-0.018315352 -0.0012867898 -0.0076066949 4287706423
-0.01646053 -0.00041799992 -0.0086815078 4287903284
-0.01441133 -0.0010468885 -0.0083750319 4287968819
-0.012459062 -0.00092676282 -0.0087591354 4288296239
-0.01061172 -5.8092177e-05 -0.0098322351 4288165168
-0.0087695569 0.0008103624 -0.010904228 4288296238
-0.0070430338 0.002426751 -0.012663146 4288296238
-0.0054402053 0.0047904626 -0.015107339 4288427053
-0.0037374571 0.0064055994 -0.016861411 4288492844
-0.0019267574 0.0072725862 -0.017926877 4289146664
-9.6857548e-08 0.0073919445 -0.018305356 4289081128
0.0022982359 0.0052696094 -0.016627656 4289211944
0.0052453429 -0.00058702379 -0.01152887 4288688173
0.0090105981 -0.010922514 -0.0023324406 4288622383
0.012323428 -0.018266119 0.0041141212 4287052859
-0.021714404 -0.0083972514 -0.0031568808 4287050819
-0.020110629 -0.0052706748 -0.0063052392 4287116608
-0.018151022 -0.0051504374 -0.006691034 4287706169
-0.016191222 -0.0050300807 -0.0070767915 4288098869
-0.014231242 -0.0049096197 -0.0074625118 4287903284
-0.012373358 -0.0040382221 -0.0085361591 4287903284
-0.010520644 -0.0031670108 -0.0096087595 4287968564
-0.0086731017 -0.002296038 -0.010680209 4287968819
-0.0068307444 -0.0014252812 -0.011750566 4288295728
-0.0051065534 0.00019541383 -0.01350568 4287903283
-0.0033929273 0.0018155947 -0.01525869 4288623403
-0.0014531836 0.0019356236 -0.015639836 4288296238
0.00036571175 0.0028054118 -0.016705228 4288296238
0.0025504082 0.0014265999 -0.015718175 4288361519
0.0056304559 -0.0051965341 -0.009950283 4288361009
0.0091459006 -0.014063969 -0.0021435432 4288491569
-0.017987631 -0.0090270266 -0.0057846485 4287509819
-0.016213492 -0.0073995441 -0.0075469417 4287771959
-0.014250979 -0.0072789267 -0.0079331649 4287837238
-0.012390383 -0.0064051971 -0.0090057468 4287575864
-0.010534965 -0.0055316761 -0.010077233 4287903284
-0.0087922066 -0.0039056614 -0.011833015 4288034099
-0.0070599467 -0.0022802353 -0.013586601 4288034098
-0.0049998239 -0.0029122978 -0.01328511 4288099889
-0.0030496642 -0.0027917698 -0.013668405 4288492844
-0.0010993555 -0.0026710927 -0.014051629 4288165679
0.00073026121 -0.0017984658 -0.01511752 4288296239
0.0029251873 -0.0031810254 -0.014135702 4288099634
0.0058881119 -0.0090718791 -0.0090657836 4287903284
0.0090228468 -0.01571127 -0.0033230484 4287903029
-0.015849605 -0.01279521 -0.005276456 4286855998
-0.014072403 -0.011163093 -0.0070360107 4287510329
-0.012203775 -0.010286696 -0.0081085814 4287706423
-0.010549568 -0.0079004019 -0.010548688 4287575863
-0.0088039488 -0.0062698349 -0.012301824 4287837748
-0.0070688352 -0.0046398491 -0.014052766 4288034609
-0.0048936903 -0.0060285255 -0.013070642 4287969328
-0.0029383227 -0.0059076771 -0.013454958 4288231214
-0.00098281354 -0.0057866946 -0.013839222 4288165423
0.00073147565 -0.0041575357 -0.01558573 4288099889
0.0029286146 -0.0055443421 -0.014607559 4288230449
0.0056407154 -0.0099452883 -0.010910972 4287968563
0.008385025 -0.014344059 -0.0072206631 4286464319
-0.0086017027 -0.010152318 -0.011409166 4287183929
-0.0068583861 -0.0085174516 -0.013158507 4287511094
-0.0049006417 -0.0083965734 -0.013543389 4287772979
-0.0029427633 -0.0082755908 -0.013928208 4288230959
-0.00098472089 -0.0081544742 -0.014312989 4288034608
0.00085294247 -0.0072769448 -0.015377308 4287968819
0.0030549541 -0.0086678937 -0.014403283 4288099634
0.0056453869 -0.012325801 -0.011395764 4287968309
0.0081341788 -0.015226178 -0.009071406 4286006084
-0.0045709312 -0.013045572 -0.011980373 4286987833
-0.0028325021 -0.01140634 -0.013725404 4287903539
-0.0011046007 -0.0097676888 -0.015468239 4287903283
0.00073307753 -0.008887969 -0.016530961 4288034098
0.0029346272 -0.010283366 -0.015560083 4288099633
0.0052727014 -0.012436099 -0.013914306 4287838258
0.0076269358 -0.014587633 -0.01227165 4286530619
0.0030600429 -0.013419516 -0.015364897 4287510838
0.0051517561 -0.014057912 -0.015075613 4287249463
0.028271884 -0.015572213 0.024983529 4283001418
0.03125577 -0.019796692 0.028743826 4282283083
0.027993783 -0.016552128 0.0230675 4282675783
0.031125784 -0.021518044 0.027511641 4282217038
0.028163359 -0.019718297 0.02323005 4282739533
0.03114761 -0.023969166 0.026970878 4282608209
0.012640756 -0.018000834 -0.00714292 4282804558
0.0098663084 -0.015980326 -0.01130794 4283132233
0.012250222 -0.018129773 -0.0096709207 4282544203
0.0094824657 -0.016093157 -0.013825741 4282609738
0.011860382 -0.018249623 -0.012192339 4282543439
0.00923004 -0.016959138 -0.015664253 4282478413
0.022421584 -0.025479697 -0.01247152 4282733158
-0.0054062828 -0.025322668 -0.034693692 4282863718
-0.0056371912 -0.026127033 -0.036492173 4282666093
-0.0060928836 -0.025343128 -0.039598182 4282797418
