# .PCD v0.7 - Point Cloud Data file format
VERSION 0.7
FIELDS x y z rgba
SIZE 4 4 4 4
TYPE F F F U
COUNT 1 1 1 1
WIDTH 478
HEIGHT 1
VIEWPOINT 0 0 0 1 0 0 0
POINTS 478
DATA ascii
-0.013486363 -0.00069561601 0.035027824 4289797424
-0.011030242 -0.0034594014 0.037432801 4289732653
-0.0088671744 -0.0040491298 0.037720077 4288359479
-0.0066985637 -0.0046383888 0.038006298 4287247934
-0.0047448277 -0.0037795305 0.036884751 4288359479
-0.0031349882 -0.00074994564 0.0336558 4288096828
-0.0015463307 0.0022783577 0.030431204 4288751668
0.00025767088 0.00385876 0.028614521 4289864234
0.0024139285 0.0032692179 0.028903656 4289930024
0.0050701275 -0.0002117008 0.031994402 4289733418
0.0081321001 -0.0058590621 0.037180189 4290779683
0.011366006 -0.012226097 0.043056924 4288883759
0.014779851 -0.019312255 0.049623009 4288948529
-0.020398222 0.0023192391 0.030096523 4288750648
-0.018840626 0.0060866252 0.026160102 4289211944
-0.016922697 0.0069447756 0.025047053 4290193439
-0.014811166 0.0063492879 0.025342949 4289997089
-0.012489974 0.0043011308 0.027044572 4290454813
-0.010257259 0.002980493 0.028040137 4289734693
-0.0083357841 0.0038393065 0.026926622 4289538854
-0.0064194351 0.0046978518 0.025814261 4289342759
-0.0046209842 0.0062820017 0.024001826 4289539618
-0.0027176291 0.0071399435 0.022892203 4289736479
-0.00070132315 0.0072721243 0.022483874 4289866784
0.0014359131 0.006679073 0.022775218 4289146664
0.003825523 0.0046362504 0.024463549 4289866274
0.0068618953 -0.001030229 0.029641286 4290127904
0.010327555 -0.008868143 0.036904279 4289015339
0.013983712 -0.017426692 0.044852886 4289211943
0.016899444 -0.021634243 0.048607204 4288491313
-0.021349601 0.0072240904 0.02253487 4288556083
-0.019721426 0.010271512 0.019314826 4289277479
-0.017728314 0.010401346 0.018910568 4289800483
-0.015635796 0.0098023936 0.019208629 4288884778
-0.013435811 0.0084751919 0.020207401 4289997089
-0.011224933 0.0071487352 0.021204073 4289866019
-0.0092175901 0.0072798803 0.020797219 4289604643
-0.0072100312 0.0074111447 0.020390399 4289735458
-0.0053148344 0.0082705542 0.019284021 4289604899
-0.0034248009 0.0091297626 0.018178731 4290193438
-0.0015399233 0.0099887028 0.017074604 4289932064
0.00058096647 0.009392418 0.017367546 4289081383
0.002953887 0.0073419139 0.019054338 4289408549
0.0058467463 0.0023839697 0.023525506 4290390044
0.0095488429 -0.0069332123 0.032167222 4290128414
0.013189394 -0.015518926 0.040099144 4289343780
0.016358472 -0.021193795 0.045237057 4289016103
-0.021842748 0.0085105449 0.0185141 4288557613
-0.020131022 0.010834552 0.016004454 4289931298
-0.018242404 0.011695057 0.014900577 4289604388
-0.016160838 0.011093177 0.015199191 4289081128
-0.013870351 0.0090298951 0.016897079 4289866019
-0.011772327 0.0084292814 0.017192502 4290062113
-0.0098828375 0.0092902482 0.01608875 4289539364
-0.0078887716 0.009420611 0.015684649 4289866528
-0.0058945119 0.0095510706 0.015280574 4289735714
-0.0039000586 0.0096816421 0.01487654 4290520604
-0.0021408796 0.01127211 0.013078722 4290324253
-3.1009316e-05 0.010672845 0.013372245 4290062623
0.0023305565 0.008615084 0.01505632 4289800993
0.0052113757 0.0036410987 0.019518368 4289539109
0.0087719411 -0.0049760938 0.027446527 4289278244
0.012396857 -0.013588987 0.035361782 4288951588
0.015952356 -0.021468692 0.04257042 4289606174
-0.022152789 0.0083472207 0.015907858 4289145389
-0.020446002 0.010677338 0.013404169 4290192164
-0.018562675 0.011539675 0.012302947 4290323999
-0.016585626 0.011668481 0.011901955 4289015593
-0.014303759 0.0095980987 0.013596627 4289931554
-0.012109861 0.00826177 0.014590093 4289866018
-0.01011882 0.0083917752 0.014186482 4289735459
-0.0082370862 0.0092545226 0.013085972 4289800995
-0.0060238838 0.0079197735 0.014075755 4289866274
-0.0041444451 0.0087825209 0.012975897 4289538853
-0.0022701621 0.009645097 0.011877135 4289538853
-0.00052128732 0.01123926 0.010084794 4289539109
0.0018315911 0.0091743395 0.011765701 4289473828
0.0045774356 0.0049160346 0.015524377 4289342759
0.0079968274 -0.0029967949 0.022742212 4289474339
0.011737064 -0.012368023 0.031333365 4289343779
0.015146192 -0.019541509 0.037834395 4288033079
-0.022552729 0.0089288428 0.01260922 4289406508
-0.020853572 0.011264995 0.010111961 4289733928
-0.018882185 0.011393301 0.0097120227 4289538598
-0.016811922 0.01078625 0.010009564 4289015593
-0.014634728 0.0094443485 0.011003011 4289408038
-0.012342639 0.0073681995 0.012690666 4289473574
-0.010354377 0.0074980035 0.01228761 4289538853
-0.0084752813 0.0083626732 0.011189287 4289539108
-0.0063772649 0.0077579692 0.011481599 4289604388
-0.0043884218 0.007888101 0.011078651 4289473318
-0.0025167763 0.0087526217 0.0099820932 4289408038
-0.00065030158 0.0096168891 0.0088866567 4289408038
0.0015791953 0.0082792863 0.0098701017 4289146409
0.0041957721 0.0047413632 0.012927595 4289211944
0.0073515922 -0.0017288551 0.018745754 4289277224
0.01068645 -0.0089291409 0.02524519 4289277224
0.013808101 -0.014659427 0.030353017 4287771703
-0.022680096 0.0073093846 0.011412884 4289079598
-0.021073714 0.010390036 0.0082235401 4289864488
-0.019200958 0.011255927 0.0071277497 4289800228
-0.01713632 0.010646321 0.0074247764 4290062113
-0.014863789 0.0085622296 0.0091113271 4290062113
-0.012574993 0.0064792708 0.010794719 4289669668
-0.010483019 0.0058717206 0.011086409 4289408293
-0.008713074 0.0074755102 0.0092960512 4289604644
-0.0066180229 0.0068683848 0.0095872851 4289539108
-0.0048610643 0.0084715113 0.0077997064 4289539108
-0.0028801933 0.0086012259 0.0073984424 4289800993
-0.0011389256 0.010203578 0.0056141587 4290650908
0.0013272017 0.0073888674 0.0079779821 4290912794
0.0038148612 0.004575707 0.010337529 4290847258
0.006707795 -0.00044310838 0.014762436 4290062368
0.0097689256 -0.0061949119 0.019869223 4289016104
-0.022897713 0.0064306185 0.0095208613 4289079344
-0.02147942 0.011000142 0.0049478887 4289472299
-0.019614637 0.01186765 0.0038553383 4289931298
-0.017656639 0.011995114 0.0034581423 4290847259
-0.015395418 0.0099036917 0.0051420676 4290585629
-0.013117976 0.007813476 0.0068227416 4290912538
-0.010930635 0.0064636841 0.0078076394 4289997344
-0.0090594813 0.0073321834 0.006714155 4289800993
-0.0070817843 0.0074614361 0.0063133417 4289670178
-0.0054469854 0.0098071471 0.0038396465 4289735458
-0.0035939664 0.010674737 0.0027501164 4289866273
-0.001506716 0.010065235 0.0030415123 4290062369
0.00083082914 0.0079796985 0.0047105765 4289669668
0.0033096448 0.005157195 0.0070652897 4290455324
0.0059377477 0.0015983433 0.010103998 4289539618
0.0087231398 -0.0026964024 0.013825127 4289212963
0.01114152 -0.0047761872 0.015478157 4287775275
-0.023114942 0.0055564418 0.0076322919 4288490804
-0.021698393 0.010138877 0.0030695656 4289538088
-0.019931719 0.011750586 0.0012859683 4289669668
-0.018077351 0.012619682 0.00019723922 4289277479
-0.015824795 0.010521136 0.0018779552 4289211943
-0.013556004 0.008423768 0.0035554552 4289800993
-0.011483327 0.0078105703 0.0038477285 4290193694
-0.0095139742 0.0079391524 0.0034485133 4289735969
-0.0077674687 0.0095501691 0.0016694879 4289801504
-0.0059172735 0.0104196 0.00058206636 4290455578
-0.0041891038 0.012029588 -0.001193041 4290324508
-0.0021128431 0.011417158 -0.00090109371 4289343268
9.1135502e-05 0.010064781 7.7568926e-05 4288950824
0.0025557503 0.0072326511 0.0024285512 4289539874
0.0051694736 0.0036619529 0.0054619098 4290652183
0.0076798424 0.00083304197 0.0078037987 4289604899
0.010211751 -0.0019943267 0.010141411 4288820518
-0.023511693 0.0061764047 0.0043619359 4287379259
-0.0221949 0.011515938 -0.00088163279 4289864998
-0.020343378 0.012386881 -0.0019682329 4289865764
-0.018398978 0.012513407 -0.0023627169 4289408294
-0.016353734 0.011896007 -0.0020667203 4289081128
-0.014096275 0.0097913444 -0.00039188657 4290062369
-0.012034595 0.0091752335 -9.9058263e-05 4289866273
-0.010076061 0.0093030855 -0.00049610157 4289604899
-0.0083400309 0.010917738 -0.0022697281 4289801248
-0.0063864589 0.011045478 -0.0026656073 4289801504
-0.004782781 0.013402261 -0.0051230513 4290586393
-0.0028368905 0.013529703 -0.0055172127 4289801503
-0.00076879561 0.012914665 -0.0052251951 4289277733
0.0016789511 0.010072701 -0.0028774058 4290521369
0.0040208399 0.0079745278 -0.001218955 4289670688
0.006639041 0.004393369 0.0018053288 4289343523
0.0094168559 7.2143972e-05 0.0055082077 4289213218
-0.024086982 0.0083036199 -0.00028065685 4287248188
-0.022689983 0.012910768 -0.0048197084 4289864999
-0.020849086 0.013783164 -0.0059025269 4290192673
-0.018817693 0.013162561 -0.0056054578 4289997089
-0.016780756 0.012542434 -0.0053094388 4289081128
-0.014635108 0.01117669 -0.0043261186 4289931554
-0.012584411 0.010557659 -0.0040327315 4289473574
-0.010528199 0.0099390969 -0.0037403842 4289800739
-0.0086887926 0.010812007 -0.0048224353 4289800993
-0.0067407042 0.010939367 -0.005217223 4289539364
-0.0052585155 0.014047518 -0.0083543677 4289408548
-0.0033207685 0.014174417 -0.0087468941 4288950824
-0.0012610108 0.013556637 -0.0084548499 4288623403
0.0011778772 0.010705359 -0.0061118924 4289474084
0.0036383048 0.0078556389 -0.0037732041 4289604899
0.0061202645 0.0050074458 -0.0014387807 4289539364
-0.023275934 0.015072264 -0.0094335359 4289931043
-0.021163419 0.013699688 -0.0084470399 4289669669
-0.019137651 0.013076536 -0.0081504919 4288884778
-0.017106354 0.012453832 -0.0078549962 4288361518
-0.015069529 0.011831582 -0.0075605516 4289277479
-0.012921475 0.010461748 -0.0065809437 4289342758
-0.010979235 0.010588467 -0.0069747292 4289211943
-0.0090368092 0.010715328 -0.0073684701 4288884778
-0.0070942044 0.010842294 -0.0077621662 4288819498
-0.0052677691 0.01171679 -0.0088398214 4288754218
-0.0032084584 0.011096612 -0.0085493941 4288950568
-0.0010219738 0.009729974 -0.0075771348 4288754219
0.001299724 0.0076172799 -0.0059245965 4288950824
0.0035105869 0.0062524602 -0.004957105 4288950313
0.0059917122 0.0033954978 -0.0026291227 4289146663
-0.023215175 0.011998154 -0.009220222 4289146409
-0.021287397 0.012123398 -0.0096114837 4288884778
-0.019164473 0.010747284 -0.0086303856 4288623148
-0.017230935 0.010873117 -0.009022655 4288688683
-0.015297204 0.010999054 -0.0094148871 4288885034
-0.013046846 0.0088744089 -0.0077534229 4288754219
-0.010996573 0.0082510561 -0.0074632079 4289015849
-0.0089407787 0.0076281652 -0.0071740327 4289146664
-0.0071064606 0.0085051581 -0.0082517033 4288754219
-0.0049288049 0.0071333572 -0.0072811348 4289016103
-0.0028591305 0.0065117329 -0.0069945073 4288819498
-0.00066243112 0.0051413402 -0.0060275896 4288754474
0.0015451089 0.0037718117 -0.0050628288 4288623403
0.0038903728 0.0016542673 -0.0034199236 4288492843
0.006251812 -0.00046209991 -0.001780197 4288754218
-0.022971146 0.0074090734 -0.0076419553 4288294963
-0.02103281 0.0075349882 -0.0080353757 4288295730
-0.018996954 0.0069080517 -0.0077441661 4288623403
-0.017055549 0.0070343688 -0.0081380559 4288688939
-0.015113942 0.0071607977 -0.0085319011 4288688938
-0.013066828 0.0065349415 -0.008242785 4288819753
-0.010906212 0.0051573291 -0.007272332 4288950568
-0.008845374 0.0045325905 -0.0069858273 4288819753
-0.00677903 0.0039082617 -0.0067003248 4288558123
-0.0047071576 0.0032844618 -0.0064159026 4288623403
-0.0023924336 0.0011580363 -0.0047720294 4288623659
-0.00030421466 0.00053554028 -0.0044907327 4288754219
0.0017895177 -8.648634e-05 -0.0042104716 4288296238
0.0038887411 -0.00070804358 -0.003931243 4288165678
0.006122835 -0.002079986 -0.0029749423 4288623659
-0.022728413 0.0028027967 -0.0060763243 4288164148
-0.020873986 0.0036846623 -0.0071553802 4288361009
-0.018733308 0.0023009479 -0.0061845179 4288492334
-0.016881146 0.0031828657 -0.0072629554 4288558379
-0.014829189 0.0025550276 -0.006976563 4288492844
-0.012876846 0.0026822463 -0.0073725278 4288558379
-0.010816492 0.0020551383 -0.0070876288 4288623913
-0.0086401552 0.00067428499 -0.0061235907 4288885543
-0.0065661073 4.8317015e-05 -0.0058413516 4288492843
-0.0046023503 0.00017672777 -0.0062392945 4288427308
-0.0026384369 0.00030525774 -0.0066371779 4288492844
-0.00055319071 -0.00031968206 -0.0063569131 4288427309
0.0015375465 -0.00094410032 -0.0060777101 4288165679
0.0036337823 -0.0015680194 -0.0057995166 4288427564
0.0058646947 -0.0029444918 -0.004845921 4288688938
-0.022853486 0.001209937 -0.0072530727 4288425779
-0.020999014 0.0020939484 -0.0083305081 4288426288
-0.018761851 -5.1490963e-05 -0.0066814902 4288491823
-0.01680734 7.5638294e-05 -0.0070780623 4288492334
-0.014648058 -0.0013110042 -0.0061141211 4288558124
-0.01289776 0.00033024698 -0.0078710951 4288492844
-0.01072742 -0.0010554492 -0.0069092209 4288492844
-0.0087668374 -0.00092751533 -0.0073067131 4288558123
-0.006693095 -0.0015556738 -0.007026061 4288558379
-0.0048451349 -0.00067123771 -0.0081015341 4288427309
-0.0028840452 -0.00054290891 -0.0084988549 4288492844
-0.00068078935 -0.0019259527 -0.0075431946 4288492844
0.0012859702 -0.0017970279 -0.0079414956 4288296493
0.0032528862 -0.0016679689 -0.0083397403 4288362029
0.0053489432 -0.0022939816 -0.0080630928 4288624679
-0.022887044 -0.0011424273 -0.0077487971 4288556593
-0.020935759 -0.0010157526 -0.0081449114 4288687918
-0.01888746 -0.0016484708 -0.0078612231 4288557359
-0.016734183 -0.003039971 -0.0068994425 4288361519
-0.014774293 -0.0029124171 -0.0072970577 4288295983
-0.012918986 -0.0020257756 -0.0083727092 4288296493
-0.010853916 -0.0026569292 -0.0080921389 4288361773
-0.0088934824 -0.0025290027 -0.008489605 4288558379
-0.0069328472 -0.002400957 -0.0088870339 4288820008
-0.0049720481 -0.0022727773 -0.0092843957 4288558123
-0.0031292513 -0.0013864115 -0.010357104 4288230958
-0.0010499805 -0.0020160675 -0.010078974 4288362028
0.00091128796 -0.0018875003 -0.010476172 4288100654
0.0029988736 -0.0025163814 -0.010199554 4288231213
0.0049631 -0.002387397 -0.010597177 4288166699
-0.022920914 -0.0034989342 -0.0082475208 4288360499
-0.020967074 -0.0033721179 -0.0086441562 4288556594
-0.018819809 -0.0047684759 -0.0076845512 4288229939
-0.016760938 -0.0054025427 -0.0074046254 4288099124
-0.014696538 -0.0060361847 -0.0071257092 4288099378
-0.012731254 -0.0059081987 -0.0075243488 4287838003
-0.010873079 -0.0050190687 -0.0085989088 4287903539
-0.009130016 -0.0033694282 -0.010347694 4288164913
-0.0072848424 -0.0024809763 -0.011419412 4288296238
-0.0054448321 -0.0015927032 -0.012490042 4288102439
-0.003374055 -0.00222525 -0.0122119 4287709739
-0.0014184266 -0.0020971969 -0.012608062 4287775783
-0.022681765 -0.0081520751 -0.0067165275 4287247679
-0.020623587 -0.0087885782 -0.0064382856 4287771704
-0.018656336 -0.0086608157 -0.006837592 4287575864
-0.016589776 -0.0092965662 -0.0065608961 4286987068
-0.01461947 -0.009168379 -0.0069606532 4286856508
-0.012544505 -0.0098033547 -0.0066854847 4286529853
0.019894302 -0.013516121 0.028404839 4282217548
0.022256054 -0.014844097 0.029362235 4282478669
0.025069047 -0.018368192 0.032380745 4282869583
0.027759414 -0.021158211 0.034706652 4281826124
0.013845086 -0.0059265271 0.019044627 4283983679
0.015467577 -0.0035870895 0.016569264 4280788274
0.017780535 -0.0049227849 0.017533097 4281113144
0.020392239 -0.0077270046 0.01986815 4280396593
0.02375862 -0.01420211 0.025629487 4281763904
0.027023975 -0.019939624 0.030695599 4281696073
0.012625813 -0.0016931221 0.01232144 4282091579
0.013950404 0.0021258295 0.0084829936 4281959998
0.016236126 0.00078394264 0.0094490768 4281243449
0.019251574 -0.004241325 0.01383818 4279418158
0.022743955 -0.011474058 0.020273268 4281110339
0.026140817 -0.017966621 0.02601368 4281500998
0.011816125 0.00035683066 0.007679441 4282617643
0.01326634 0.0034464002 0.0045363316 4282154819
0.015540861 0.0020994321 0.0055013085 4281632833
0.018544227 -0.0029418841 0.0098812887 4281372478
0.022024021 -0.010197245 0.01630247 4280785468
0.025408454 -0.016710214 0.022030536 4281044293
0.028234631 -0.020265825 0.025021739 4281955409
0.011414461 0.00020367652 0.0051041031 4283269424
0.012997951 0.0025600716 0.0026513794 4280330293
0.015269317 0.0012085065 0.0036137374 4280720954
0.017981775 -0.0023658648 0.0066194022 4280655418
0.021305516 -0.0089025721 0.012344769 4281111104
0.024528742 -0.014695041 0.017379738 4281110339
0.027491964 -0.019003205 0.021045819 4281238859
0.011148766 -0.00068436563 0.0032172464 4283593784
0.012867872 0.00093463808 0.0014511915 4281436229
0.014857564 0.0010658726 0.0010488452 4281436229
0.017277144 -0.0010330305 0.0026871562 4281175618
0.020296611 -0.0061036125 0.007040876 4281045569
0.023502231 -0.011914693 0.012066248 4281045313
0.026599478 -0.01697994 0.016404472 4282345813
0.011288635 -0.0038060471 0.0033744313 4283724599
0.012737837 -0.00069048256 0.00025121868 4281110338
0.014446575 0.00093223155 -0.0015093377 4280914754
0.016430896 0.0010632053 -0.0019105142 4281176894
0.019435603 -0.0040235743 0.0024346411 4281111104
0.022774722 -0.01059828 0.0081273159 4281110594
0.02601099 -0.016424589 0.013133391 4281497429
0.011023216 -0.0046912655 0.0014896393 4283593784
0.012470294 -0.0015671775 -0.0016265661 4280395573
0.013755865 0.0023035929 -0.0054158713 4279417138
0.016015142 0.00093828887 -0.0044609527 4278895153
0.01886756 -0.0034166127 -0.0008023642 4278636073
0.022196922 -0.010011509 0.0048774472 4281438014
0.025272667 -0.015108563 0.0091968914 4281567809
0.010488778 -0.0040708259 -0.0017456785 4283267384
0.011790983 -0.00018823892 -0.0055302228 4281177914
0.01320665 0.0029425919 -0.0086333966 4281501764
0.015457407 0.0015723184 -0.007680017 4280850493
0.018445995 -0.0035459623 -0.0033546984 4279808819
0.021768287 -0.010160886 0.0023117065 4281372224
0.024988055 -0.016023062 0.0072947247 4281632579
0.0096863434 -0.0019316226 -0.0063218209 4283071798
0.011113126 0.0012084842 -0.0094207563 4280982584
0.012798417 0.0028426424 -0.011166713 4281502529
0.015043322 0.0014676899 -0.010215494 4281371968
0.017734721 -0.0021623448 -0.0072467471 4280916539
0.020896681 -0.0080458745 -0.0022653267 4281111613
0.024252098 -0.014678024 0.0033796458 4281435974
0.02719599 -0.019052528 0.007000207 4282151759
0.0090200603 -0.00052515417 -0.01020788 4280917304
0.010573737 0.0018682405 -0.012624948 4278962218
0.012390904 0.0027517751 -0.013693403 4280460343
0.014487598 0.0021263435 -0.013416401 4280590394
0.017024904 -0.00076099485 -0.011125635 4280721208
0.020026874 -0.0059087053 -0.0068260022 4281504058
0.023367189 -0.012561418 -0.0011928203 4281437504
0.0262965 -0.016949959 0.0024207896 4281695563
0.0084894076 0.00014201552 -0.013408646 4280850494
0.010172293 0.0017846003 -0.015147674 4280849729
0.011984132 0.0026698932 -0.016213391 4281241408
0.014075153 0.0020419732 -0.015936915 4281176384
0.016461391 -9.8161399e-05 -0.014321476 4281438523
0.019158855 -0.0037494004 -0.011370346 4281242428
0.022484072 -0.010422669 -0.0057489318 4281174853
0.0062741861 -0.00082430989 -0.014863212 4283069503
0.0082278475 -0.00069578737 -0.015258513 4281110848
0.0097715929 0.0017099604 -0.017663702 4281044804
0.011717465 0.0018381849 -0.018057268 4281241153
0.013805486 0.0012078956 -0.017781846 4281306434
0.016188372 -0.00093898922 -0.016170673 4281371714
0.018734768 -0.0038430169 -0.013894852 4281502784
0.022052892 -0.010536283 -0.00828683 4281566278
0.025113791 -0.015710257 -0.0040219845 4282542419
-0.0038540959 -0.0015344992 -0.015407618 4283459908
-0.0017861575 -0.0021692589 -0.015130524 4283069249
0.00028728694 -0.0028035566 -0.014854442 4282807108
0.0023662224 -0.0034374148 -0.014579352 4282676294
0.0041936412 -0.0025472119 -0.015645344 4282155584
0.0061470196 -0.0024188608 -0.016040705 4281894209
0.0079666898 -0.0015289709 -0.017104909 4281240644
0.0099176392 -0.0014005378 -0.017499596 4281045059
0.011729546 -0.00051092356 -0.018562041 4280849984
0.013819911 -0.0011432394 -0.018288743 4280980288
0.016060267 -0.0025358424 -0.017349679 4281176128
0.018605806 -0.005448617 -0.015080284 4281305924
0.021622445 -0.010640807 -0.010818098 4281436228
0.024829164 -0.016590618 -0.0058982493 4282346578
-0.0093827099 -0.0065665767 -0.012709208 4282219078
-0.0078743473 -0.0033788458 -0.015792601 4281695308
-0.0062722191 -0.00095718354 -0.01820052 4280912714
-0.0042154193 -0.0015950277 -0.017922875 4280912968
-0.0021531358 -0.0022323504 -0.017646283 4281500998
3.7617981e-05 -0.0036334619 -0.016701251 4281435973
0.0018622577 -0.0027414635 -0.017765112 4281501508
0.003681697 -0.0018496811 -0.0188278 4281567044
0.0057578981 -0.0024856105 -0.01855367 4281371204
0.0079732314 -0.0038846359 -0.017613254 4281371203
0.0099267215 -0.0037560314 -0.018008448 4281305924
0.011741318 -0.0028640851 -0.019069806 4280979778
0.013834022 -0.003498435 -0.018798638 4281306179
0.015932199 -0.0041323677 -0.01852845 4281370949
0.018329855 -0.0062911287 -0.016930092 4281566279
0.021492142 -0.012261383 -0.012014546 4281695818
0.024697296 -0.018228658 -0.0071075493 4282476118
-0.0093995705 -0.008932054 -0.013219096 4282739533
-0.0078879669 -0.0057354346 -0.016296569 4281434443
-0.0061679929 -0.004074119 -0.018030662 4281239879
-0.0041061789 -0.0047137514 -0.017755724 4281109318
-0.002158992 -0.0045862868 -0.018150199 4281109828
-8.8877976e-05 -0.005225189 -0.017876778 4281240388
0.0018612817 -0.0050972924 -0.018271677 4281371458
0.0036834106 -0.0042031631 -0.019333281 4281305668
0.0057619661 -0.0048411414 -0.019061279 4281371203
0.007979475 -0.0062444136 -0.018124558 4281240644
0.010071643 -0.0068812296 -0.01785513 4281175109
0.011752762 -0.0052213222 -0.01958058 4281305668
0.013847832 -0.0058577582 -0.01931151 4281240388
0.01580416 -0.0057286173 -0.019707013 4281435463
0.018201139 -0.0078939423 -0.018113472 4281631559
0.021212351 -0.013116948 -0.01387322 4281630793
-0.0095259771 -0.010532074 -0.014400933 4282804814
-0.0079018772 -0.0080961064 -0.016803544 4281435974
-0.0061790496 -0.0064302459 -0.018534936 4281043528
-0.0039975867 -0.007840924 -0.017594807 4280978503
-0.0021651685 -0.0069443211 -0.018657129 4280979269
2.9951334e-05 -0.0083539039 -0.017719541 4281044548
0.0018599704 -0.0074571893 -0.018781245 4281240133
0.0036848113 -0.0065607354 -0.019841768 4280979013
0.0056350753 -0.0064326003 -0.020236515 4281239368
0.0077187791 -0.0070722848 -0.019967109 4281370184
0.0098079443 -0.0077115446 -0.019698691 4281304649
0.011763919 -0.0075826719 -0.020094316 4281174344
0.013719987 -0.00745368 -0.020489872 4281500234
0.015820164 -0.0080917701 -0.020223431 4281696329
0.01807246 -0.0094964355 -0.019296609 4281630793
0.020932939 -0.013967834 -0.015728433 4282153033
-0.0095432624 -0.012903497 -0.014915225 4282805324
-0.0079161227 -0.010460891 -0.017313484 4281435463
-0.0060759559 -0.0095618069 -0.018375963 4281108809
-0.0040067658 -0.010205403 -0.018105794 4281174344
-0.0021716431 -0.0093064085 -0.019167066 4281109318
-0.00021927059 -0.0091785342 -0.019562528 4281108043
0.0016081408 -0.0082798675 -0.020622019 4281369418
0.0035581067 -0.0081519112 -0.02101681 4281305159
0.0056386888 -0.0087940916 -0.020748537 4281369419
0.0075915977 -0.0086656809 -0.021143734 4281696583
0.0096804425 -0.0093071163 -0.020876881 4281631814
0.011497758 -0.0084084645 -0.021933917 4281761609
0.01359218 -0.0090492889 -0.021668017 4281696074
0.015548196 -0.0089201778 -0.022063468 4281891914
0.017943811 -0.011098638 -0.020479541 4282151758
0.020803083 -0.01558312 -0.016920984 4282347344
-0.0098876357 -0.012957402 -0.017429732 4281826633
-0.008265458 -0.01050856 -0.019822087 4281500743
-0.006430611 -0.0096077397 -0.020881824 4281695818
-0.0042501315 -0.01102715 -0.019948073 4281630794
-0.0025372654 -0.0093530789 -0.021670714 4281565769
-0.00059038401 -0.0092255697 -0.022065077 4281238094
0.0013566464 -0.0090979114 -0.022459373 4281172048
0.0035590604 -0.010515422 -0.021529704 4281563984
0.0055116937 -0.01038716 -0.021924946 4282085969
0.0074644461 -0.010258757 -0.022320122 4281694033
0.0094173253 -0.010130242 -0.022715226 4281302099
0.011370316 -0.010001585 -0.023110267 4281760079
0.013182417 -0.0091010407 -0.024164468 4281760079
0.015276603 -0.0097438842 -0.023900107 4281758803
0.017668877 -0.011929095 -0.022320393 4282542164
-0.010122523 -0.013778351 -0.019273456 4282083419
-0.0085026547 -0.011323191 -0.02166044 4282476373
0.023280978 -0.022547953 -0.01642804 4282209644
0.024681505 -0.021715425 -0.019990576 4282602599
-0.005105488 -0.021201454 -0.04153299 4282731884
