# .PCD v0.7 - Point Cloud Data file format
VERSION 0.7
FIELDS x y z rgba
SIZE 4 4 4 4
TYPE F F F U
COUNT 1 1 1 1
WIDTH 713
HEIGHT 1
VIEWPOINT 0 0 0 1 0 0 0
POINTS 713
DATA ascii
-0.0046736412 0.013503369 0.022117274 4289607703
-0.0022079758 0.011531293 0.023806455 4288822814
-0.011475962 0.015014719 0.018674808 4289933083
-0.0098550692 0.016565885 0.016847633 4289605918
-0.0077528916 0.015997238 0.017132767 4290782998
-0.0051454492 0.013310608 0.019524904 4290520093
-0.0030243732 0.012743495 0.019806111 4290782233
-0.00055397674 0.010765351 0.021489305 4291175698
0.0017579161 0.0094939992 0.022468163 4290393868
0.011222914 0.011606269 0.01895128 4291244804
-0.012563664 0.017674491 0.013279185 4289669669
-0.011280697 0.020646345 0.01005422 4289669668
-0.0093639493 0.020782553 0.0096406415 4289931554
-0.006781403 0.01808539 0.01203154 4289080873
-0.0040082969 0.014681678 0.0151184 4290324509
-0.0015519448 0.012695983 0.016799634 4289997343
0.00057165325 0.012127101 0.017078731 4289801248
0.0025235675 0.012266323 0.016657958 4289801503
0.004295785 0.013113037 0.01553902 4289736990
0.0058802776 0.014666714 0.013723666 4290194459
0.0076392628 0.015512697 0.012607733 4289997599
0.010144088 0.013531063 0.014278986 4290520604
0.013236362 0.0094306692 0.018034678 4290323999
0.016940091 0.0032133013 0.023869554 4290454558
0.022845682 -0.010769472 0.037336655 4290323998
0.029651998 -0.027568802 0.053557634 4290520093
-0.014471222 0.01524603 0.013228195 4287248954
-0.013332609 0.018938582 0.0093055926 4289604389
-0.012059677 0.021918409 0.0060894229 4290323999
-0.010317292 0.022764575 0.0049781147 4289408038
-0.0080814436 0.021478817 0.0059664324 4289211944
-0.0053281076 0.0180628 0.0090492442 4289996834
-0.0028911233 0.016069133 0.010729708 4290651419
-0.00078652427 0.015496712 0.011011235 4290193438
0.0011465661 0.015634563 0.010594497 4289997854
0.0027205758 0.017191719 0.0087846313 4289997854
0.0042839535 0.018748268 0.0069770869 4290717208
0.0062065609 0.018885687 0.0065628514 4289670178
0.0086920112 0.01689608 0.008233333 4289146663
0.011954572 0.012072407 0.012677625 4289342759
0.016219249 0.0037082061 0.020582614 4289669924
0.022308482 -0.011027396 0.03471224 4289669924
0.029303029 -0.02858796 0.051588178 4289473574
-0.015539482 0.017944794 0.0078569837 4289145643
-0.014416073 0.021647111 0.0039459318 4289734949
-0.012997806 0.023921371 0.0014387583 4290062113
-0.011105329 0.024055824 0.0010303948 4289996834
-0.0088806637 0.022764895 0.0020177905 4290454814
-0.0061390698 0.019337151 0.0050948244 4290127649
-0.0037134588 0.01733613 0.006772751 4290127904
-0.0014458075 0.016048573 0.0077511091 4289997088
0.00012570992 0.017609786 0.0059450082 4289932063
0.0018660128 0.018458568 0.0048362575 4290062624
0.0034189671 0.020018712 0.0030342788 4290847513
0.0051460303 0.020866737 0.0019285241 4290454814
0.0076174326 0.018869609 0.0035970528 4290192928
0.010675106 0.014740653 0.0073402338 4289800739
0.015114088 0.0056382045 0.015921388 4289931554
0.021772088 -0.011276305 0.032094561 4290258463
0.028756369 -0.028891951 0.048931167 4290258463
-0.016139891 0.018522955 0.0046011098 4288949549
-0.015023664 0.022235617 0.00069988705 4289996578
-0.01313141 0.022369929 0.00029147789 4290193183
-0.011239063 0.022504348 -0.00011687633 4289146664
-0.009014897 0.021209016 0.00086729601 4289539108
-0.0066114254 0.019199789 0.0025449358 4290127903
-0.0041918531 0.017191842 0.0042191297 4289800738
-0.0022777729 0.01732821 0.0038063936 4289866784
-0.00071668252 0.018893026 0.0020058611 4289800994
0.00083380193 0.020457182 0.00020768028 4289735203
0.0027374104 0.020593114 -0.00020255707 4289996578
0.0048256144 0.02001556 7.948e-05 4290062113
0.0072936341 0.018011697 0.0017437059 4289408038
0.0099676102 0.015295833 0.0040956587 4289408038
0.014395971 0.0061643496 0.012657534 4289800484
0.021236487 -0.011516154 0.029483577 4290127649
0.028606307 -0.030612171 0.047659598 4290127649
-0.016894106 0.01983244 0.00065817032 4289277734
-0.015630092 0.022837579 -0.0025362885 4290258463
-0.013745975 0.02297128 -0.002942971 4289735459
-0.011535753 0.021670505 -0.0019591814 4289866274
-0.0091490857 0.019653421 -0.00028299913 4289604644
-0.006914638 0.018354524 0.00069575384 4289539108
-0.0048404448 0.017773263 0.00097874831 4289539364
-0.0027608238 0.017192505 0.0012606578 4289670433
-0.0012048185 0.018761292 -0.00053547602 4289931809
0.00034055859 0.020329464 -0.0023292918 4289604644
0.002238702 0.020464998 -0.0027383603 4289604389
0.0043212548 0.019884862 -0.0024567656 4289735204
0.0069702677 0.017158404 -0.00010615401 4289342503
0.009640675 0.014433581 0.0022399239 4289473318
0.014063764 0.005273439 0.010781366 4289800228
0.021286773 -0.013891988 0.028944166 4289865763
0.028653983 -0.033046961 0.047075994 4289865763
0.033360139 -0.042186424 0.055556722 4289407274
-0.017182365 0.018999487 -0.0011856621 4289277479
-0.016077854 0.022733014 -0.0050678002 4290193439
-0.014199205 0.02286632 -0.0054733073 4290847513
-0.011669204 0.020121779 -0.0031044362 4290847513
-0.0096141808 0.019536719 -0.0028190864 4291043864
-0.0077218823 0.019671299 -0.0032273065 4289735458
-0.0056586862 0.019087065 -0.0029436126 4289932063
-0.0035900585 0.018503338 -0.0026609972 4289735969
-0.0018683337 0.019357175 -0.0037608808 4289670434
-0.0003307052 0.020929139 -0.0055497056 4289604644
0.0017408021 0.02034587 -0.0052674431 4289538853
0.0040018484 0.019045178 -0.004297317 4290454814
0.0066473037 0.016309761 -0.001952583 4290520093
0.0093141608 0.013575993 0.00038763508 4290389024
0.01411631 0.0029524043 0.01028315 4290127139
0.021141862 -0.015554704 0.027715059 4289930788
0.028503783 -0.03476876 0.045803256 4289930788
0.032806952 -0.042503044 0.05289194 4289408038
0.034937482 -0.042349972 0.052433506 4289667884
-0.017779429 0.019615732 -0.0044134716 4289145643
-0.016367543 0.02191548 -0.006899558 4289669668
-0.01465163 0.02277045 -0.007997008 4290520604
-0.012290467 0.020738378 -0.006325366 4289997088
-0.01007849 0.019429091 -0.0053485483 4290716699
-0.0080237016 0.018841971 -0.0050647836 4290455324
-0.0063047372 0.019697573 -0.006162575 4289801248
-0.004244443 0.019111041 -0.0058798487 4289670434
-0.0025306679 0.019966476 -0.0069763651 4289735458
-0.00046489388 0.019380562 -0.0066946479 4289866273
0.0012436807 0.020235851 -0.0077898717 4290454814
0.003682863 0.018210176 -0.0061344109 4290716444
0.0063247569 0.015465796 -0.0037955493 4290650908
0.0093666725 0.011283517 -8.8794157e-05 4290715933
0.014168497 0.00062730163 0.0097819213 4290650398
0.021386284 -0.018655889 0.027856303 4290781469
0.028156277 -0.03577099 0.043846227 4290781469
0.032254554 -0.042810559 0.050233863 4289341738
0.034176931 -0.04193902 0.049093239 4289013808
-0.018375318 0.020245366 -0.0076313857 4289537579
-0.016970985 0.022551052 -0.010110829 4290192928
-0.015422802 0.024131697 -0.011895888 4289473319
-0.013072997 0.022092286 -0.010226779 4289015593
-0.010872208 0.020777836 -0.0092508746 4289538853
-0.0086606219 0.019464225 -0.0082771778 4290193183
-0.0071200654 0.021044739 -0.010060272 4290127903
-0.0052438714 0.021178372 -0.010464863 4290063134
-0.0033676028 0.021312095 -0.010869407 4289670179
-0.0013128109 0.020723179 -0.010586941 4290258973
0.00056625158 0.020857323 -0.010991917 4289996834
0.0029967204 0.018824551 -0.009339598 4290062369
0.0056297109 0.016070846 -0.0070054471 4289538853
0.0088514723 0.011152841 -0.0026220158 4290454814
0.013836764 -0.00025834888 0.0079096388 4290454558
0.021046592 -0.019600786 0.025940975 4290454558
0.027809197 -0.036768578 0.041892715 4290389279
0.031503141 -0.042387784 0.046900153 4289276459
0.03362003 -0.042235687 0.046444662 4289668138
-0.020231079 0.017848864 -0.0076718959 4287967799
-0.019278508 0.022341665 -0.012220291 4289864999
-0.017887075 0.024652928 -0.014691995 4290519584
-0.016192406 0.025510728 -0.015781624 4290192673
-0.013853982 0.023463979 -0.014115042 4289996834
-0.011499442 0.021418467 -0.012451866 4290520093
-0.0092963912 0.020099934 -0.011479686 4290585884
-0.0075933225 0.020958714 -0.012570762 4290258974
-0.0058955215 0.021817226 -0.01366062 4289997088
-0.0042029731 0.02267547 -0.014749257 4290258974
-0.0023374446 0.022808537 -0.015151404 4290716699
-0.00065279379 0.023666468 -0.016238229 4290323999
0.0015773736 0.022350464 -0.015271365 4289277223
0.0043770485 0.018862322 -0.012256085 4288688428
0.0079591908 0.012479566 -0.0065145325 4289080873
0.013313835 -0.00041534752 0.0053584259 4289538854
0.020707315 -0.02054099 0.024029119 4289538854
0.027462527 -0.037761465 0.039942674 4290062114
0.030952502 -0.042674944 0.044257067 4290258464
0.033063903 -0.042523228 0.043802768 4288687153
-0.02096862 0.019226156 -0.011567621 4288686899
-0.019871656 0.023002442 -0.015415112 4289929768
-0.018331099 0.024591088 -0.017192006 4289995303
-0.016482309 0.0247222 -0.017591123 4289210924
-0.014309283 0.023396924 -0.016615905 4288884013
-0.011960793 0.021344498 -0.014956448 4289996324
-0.0099309646 0.020749003 -0.014672261 4290127393
-0.0082358681 0.021609414 -0.015760012 4289866020
-0.0068914592 0.023924477 -0.018216126 4289996578
-0.0050368086 0.024056643 -0.018616021 4289734948
-0.0031820834 0.024188936 -0.019015837 4289996834
-0.0016887896 0.025775187 -0.020781806 4290389278
0.00034410879 0.025180586 -0.020497836 4290062369
0.0029406138 0.022406884 -0.018169086 4289866019
0.0066909678 0.01527676 -0.011756679 4290323744
0.012408864 0.00088901073 0.0014522811 4290585374
0.020368442 -0.021476507 0.022120724 4290585374
0.027313013 -0.039475411 0.038675733 4290585374
0.03060209 -0.043678634 0.042299785 4290192928
0.032710668 -0.043527141 0.041846082 4289668394
-0.021251012 0.018427655 -0.013386756 4286855488
-0.020002041 0.021483645 -0.016538359 4286594624
-0.018148165 0.021615002 -0.016938668 4286921534
-0.016453378 0.02247712 -0.018025033 4287183419
-0.014440067 0.021878056 -0.017739106 4286921788
-0.012256809 0.02054929 -0.016769394 4287575863
-0.010062765 0.019221351 -0.015801881 4288426799
-0.0083676092 0.020083923 -0.016888004 4289080874
-0.0068502314 0.02167587 -0.018656049 4289473318
-0.005343467 0.023267195 -0.020421777 4289538853
-0.003491547 0.023399271 -0.020821001 4289538598
-0.0020006672 0.024989627 -0.022583105 4289473574
-0.0001539737 0.025121562 -0.022981033 4289015593
0.0024363101 0.022338711 -0.02065758 4289342759
0.0061792806 0.015186325 -0.014260154 4289734948
0.012079127 2.6158988e-05 -0.0004031593 4289931298
0.020029977 -0.022407301 0.020215748 4289931298
0.026966976 -0.040461093 0.036731012 4289931298
0.030252079 -0.044677638 0.040345982 4289996578
0.03215595 -0.04379876 0.039216027 4289014319
-0.021230955 0.016167074 -0.013830092 4288228663
-0.019517664 0.017032392 -0.014918935 4288556083
-0.017653245 0.017164484 -0.015321523 4288687664
-0.015947733 0.01802953 -0.016408553 4288622383
-0.014247451 0.018894263 -0.017494338 4288622638
-0.012223709 0.018293891 -0.0172123 4288688429
-0.010194529 0.017693974 -0.016931308 4288688173
-0.0081599317 0.017094608 -0.016651437 4288753709
-0.0066369884 0.018691313 -0.018417425 4288753964
-0.0051246397 0.02028732 -0.020181015 4288753963
-0.0032675155 0.020419762 -0.020581368 4288623149
-0.0015906915 0.021283593 -0.021661501 4288688684
8.0831349e-05 0.022147194 -0.022740457 4288557613
0.0024898648 0.02008687 -0.021103293 4288688429
0.0060451142 0.013643526 -0.015400697 4288622894
0.012131844 -0.0022930875 -0.00090005714 4288688173
0.019885626 -0.024063759 0.018991264 4288688173
0.026621344 -0.041442081 0.034789756 4288688173
0.029504403 -0.044212013 0.037043944 4288687153
0.031602003 -0.044061303 0.03659261 4288425524
-0.021060411 0.01316686 -0.013591886 4288425268
-0.019495215 0.014770083 -0.015364233 4288425524
-0.017315958 0.013431985 -0.01440056 4288557104
-0.015443552 0.013564732 -0.014804808 4288491823
-0.013571057 0.013697591 -0.015208993 4288492078
-0.011862613 0.01456517 -0.016294805 4288557868
-0.009992592 0.014698066 -0.01669829 4288557868
-0.0081224814 0.014831085 -0.017101707 4288885034
-0.0060801394 0.014230188 -0.016825099 4289015849
-0.0045568682 0.015831318 -0.018587723 4288819499
-0.0026892126 0.015964512 -0.018990353 4288884778
-0.0010016598 0.016831256 -0.020071154 4288884778
0.00068059191 0.017697796 -0.021150768 4288884778
0.0032850914 0.014898576 -0.01884364 4288884778
0.006475497 0.009902291 -0.014511444 4288819244
0.0125659 -0.0060817748 -4.8073009e-05 4288819244
0.019741304 -0.025719933 0.017766988 4288884523
0.025883762 -0.040953696 0.031502359 4288884523
0.028559064 -0.043000877 0.033077665 4288752688
0.030645838 -0.042850941 0.032628655 4288098359
-0.020739932 0.0094204247 -0.012676941 4287836728
-0.019166511 0.011028603 -0.01444781 4288360499
-0.01713571 0.010423996 -0.014170829 4288557359
-0.015099466 0.0098199248 -0.013894994 4288688683
-0.013057802 0.0092163533 -0.013620231 4288427053
-0.011502609 0.010823637 -0.015386788 4288558123
-0.0099580027 0.012430325 -0.017151015 4288492588
-0.0080853663 0.012563512 -0.017554983 4288623403
-0.0058686994 0.011224337 -0.016602157 4288623403
-0.0038159303 0.010622129 -0.016329357 4288558123
-0.0021123849 0.011492074 -0.017412042 4288492844
-0.0002341345 0.011626124 -0.017816873 4288558124
0.0014615059 0.012495764 -0.018897733 4288427053
0.0037078299 0.011159286 -0.017950851 4288492589
0.0069047585 0.0061482936 -0.01363171 4288557358
0.012998857 -0.009883292 0.0007944908 4288557358
0.019983662 -0.028845184 0.017890524 4288557358
0.025343338 -0.04118637 0.028898066 4288295219
0.027615273 -0.041771866 0.029124523 4288425779
-0.020420525 0.0056612417 -0.011771501 4286594114
-0.018991966 0.008014001 -0.014221581 4288491313
-0.016956177 0.0074075907 -0.013947397 4288426544
-0.015073378 0.007541053 -0.014353909 4288623404
-0.012868244 0.0061962977 -0.013402292 4288558379
-0.011471268 0.0085472688 -0.015845211 4288427308
-0.0095908493 0.0086808875 -0.016250955 4288558379
-0.0077103451 0.008814618 -0.016656639 4288558379
-0.0056579858 0.0082100928 -0.016385499 4288362029
-0.0036002174 0.0076060444 -0.016115449 4288362029
-0.0018912815 0.0084785372 -0.017197646 4288427308
-7.8417361e-06 0.0086129457 -0.017603606 4288362029
0.0020581111 0.0080098286 -0.017335055 4288231214
0.0043145791 0.0066697076 -0.016393691 4288427053
0.007332921 0.0023814663 -0.012761393 4288296494
0.013240237 -0.012960561 0.00095487572 4288295729
0.01983902 -0.030505069 0.016663503 4288295729
0.024607923 -0.04067333 0.025628967 4288295219
0.026871493 -0.041261576 0.025855506 4288556593
-0.020252455 0.0026312843 -0.011555235 4286855744
-0.018818151 0.0049909875 -0.014001644 4288295473
-0.016932931 0.0051245019 -0.014408766 4288361519
-0.015047606 0.0052581057 -0.014815847 4288558379
-0.013323117 0.0061331764 -0.015900277 4288623658
-0.011440266 0.0062668398 -0.016306646 4288296493
-0.0097235776 0.0071415976 -0.017389204 4288361773
-0.0076742917 0.0065345317 -0.017119169 4288361773
-0.0057911836 0.0066685751 -0.017525319 4288296749
-0.003733743 0.0060623214 -0.017256869 4288296493
-0.0018478371 0.0061967671 -0.017663458 4288427308
0.00021773577 0.0055913404 -0.017396577 4288362028
0.0021064207 0.0057262257 -0.017803583 4288558379
0.0043650381 0.0043819249 -0.016865982 4288100144
0.0075723566 -0.00065869838 -0.01257226 4288230958
0.013480878 -0.016046219 0.0011089863 4288230193
0.020080283 -0.033642761 0.016777754 4288230193
0.024460491 -0.042363487 0.024379613 4288164403
0.026723718 -0.042953916 0.024604579 4288426034
-0.020835478 0.0033143908 -0.014735836 4287707699
-0.019103263 0.0041918233 -0.015820552 4288035118
-0.017220851 0.0043251067 -0.016227087 4288297003
-0.015180256 0.0037147924 -0.015957182 4288363304
-0.013455708 0.0045920387 -0.017039977 4288363048
-0.011572998 0.0047256723 -0.017446324 4288166188
-0.009690199 0.0048594251 -0.017852606 4288231213
-0.0076385736 0.00425037 -0.017584724 4288558123
-0.0057529397 0.0043845698 -0.017991431 4288558379
-0.0038672425 0.004518874 -0.018398074 4288558379
-0.0021582134 0.0053957179 -0.019476986 4288362028
-9.5646828e-05 0.0047878921 -0.019211112 4288689449
0.0019723102 0.0041805655 -0.018946316 4288231724
0.0044151433 0.0020900592 -0.017341297 4288231469
0.0078110881 -0.0037073418 -0.012389318 4287969583
0.013340635 -0.017657414 -8.207839e-05 4288035373
0.01954983 -0.033823885 0.014210176 4288035373
0.023726834 -0.0418301 0.021125486 4287904304
0.026179802 -0.043164216 0.022018382 4288164404
-0.011705693 0.0031848103 -0.018585782 4287511859
-0.0099889152 0.0040638745 -0.019665079 4287838768
-0.0079402961 0.0034524053 -0.019398227 4287969329
-0.006057471 0.0035863966 -0.019804336 4287969073
-0.0041745789 0.0037205145 -0.02021037 4288231979
-0.0024681762 0.0045993105 -0.021287072 4288297769
-0.00040861219 0.0039891005 -0.021022212 4288166954
0.001656346 0.0033793971 -0.020758424 4288363304
0.0040957965 0.0012821406 -0.019157637 4288232234
0.0074874051 -0.0045329258 -0.014217969 4287839023
0.01339031 -0.020011909 -0.00060504582 4287839023
0.019405277 -0.035482801 0.01298387 4287773998
0.023384809 -0.042769827 0.019214729 4287707188
0.025636667 -0.043365397 0.019438846 4287901753
-0.021997999 0.00472074 -0.021067306 4281828418
-0.020129319 0.0048529059 -0.021470986 4281828418
-0.017950457 0.0034886375 -0.020527162 4281828674
-0.015760809 0.0021252334 -0.01958552 4281959489
-0.013881139 0.0022585392 -0.019991301 4281959744
-0.01216441 0.0031396449 -0.021069031 4282155074
-0.010287229 0.0032729805 -0.021474119 4282284614
-0.0082416013 0.0026591197 -0.021208279 4282088773
-0.0061905608 0.0020457804 -0.020943504 4282285124
-0.0046552084 0.0036737546 -0.022688922 4282678333
-0.0029541031 0.0045543835 -0.023762878 4283005753
-0.00090019405 0.0039415434 -0.023498412 4283462458
0.0013407879 0.0025828779 -0.022567086 4283526718
0.00359248 0.001225099 -0.021637976 4283788348
0.0071641281 -0.005353801 -0.016043205 4284245563
0.01324993 -0.021624684 -0.0017972803 4284245563
-0.021979455 0.0024406463 -0.021525115 4281566789
-0.020108249 0.0025729835 -0.02192935 4281304903
-0.018082086 0.0019549802 -0.021661416 4281240388
-0.016050465 0.0013374388 -0.021394521 4281240133
-0.014013432 0.00072045624 -0.021128744 4281501254
-0.012296658 0.00160373 -0.022204839 4281696328
-0.010419615 0.0017370582 -0.022609893 4281631049
-0.0087106787 0.0026200563 -0.023684155 4281303883
-0.0066652969 0.0020040646 -0.023419797 4281499978
-0.0049615502 0.0028869212 -0.024492763 4281826888
-0.00326306 0.0037694946 -0.025564454 4281892423
-0.0010333061 0.0024055168 -0.024634071 4281959233
0.00084413588 0.0025395975 -0.02503866 4281959489
0.0029057972 0.0019254014 -0.024777405 4282154819
0.0068412721 -0.0061700642 -0.017864957 4282088263
0.013109587 -0.023237132 -0.0029892726 4282088263
0.018539729 -0.036556266 0.0085397288 4282153543
0.022117451 -0.042392328 0.013413137 4282480199
-0.023248214 -0.0029887035 -0.018892113 4282803794
-0.02211057 0.00090950727 -0.022657584 4281566023
-0.020239506 0.0010418072 -0.023061808 4281566533
-0.018059 -0.00033105165 -0.022124909 4281371204
-0.016182393 -0.00019812584 -0.022530153 4281370949
-0.01414568 -0.00081732124 -0.022265974 4281239623
-0.012428861 6.8120658e-05 -0.023340423 4281369929
-0.010551967 0.00020142645 -0.023745459 4281369419
-0.0088429824 0.0010865852 -0.024818078 4281369673
-0.0067979358 0.0004684031 -0.024555299 4281239369
-0.0050941445 0.0013534278 -0.025626626 4281436229
-0.0030436292 0.00073588639 -0.025364842 4281371203
-0.0011663921 0.00086979568 -0.025769506 4281501764
0.0007109046 0.001003854 -0.026174072 4281567043
0.0025882423 0.001138024 -0.026578564 4281567554
0.0067054704 -0.0077320114 -0.01901966 4281501764
0.012969274 -0.024849243 -0.004181019 4281501764
0.018395836 -0.038207687 0.0073189661 4281370438
0.021582564 -0.042561613 0.010855714 4281565004
-0.023380082 -0.0045304373 -0.020032454 4281954643
-0.02209251 -0.001376532 -0.023119804 4281044294
-0.02021892 -0.0012440607 -0.023524579 4281174598
-0.01819073 -0.0018663257 -0.023260362 4281240389
-0.016314261 -0.0017334074 -0.023665577 4281370949
-0.01443769 -0.0016003624 -0.024070717 4281239368
-0.012561031 -0.0014672205 -0.024475809 4281304649
-0.010684282 -0.0013339221 -0.024880812 4281238858
-0.0089752562 -0.0004466027 -0.025951792 4281239369
-0.006930545 -0.0010669753 -0.025690604 4281304649
-0.0050535724 -0.00093332678 -0.026095387 4281370694
-0.0031765327 -0.00079952925 -0.026500091 4281436484
-0.0012994371 -0.00066562742 -0.026904721 4281436228
0.00039657205 0.0002213642 -0.027972441 4281370693
0.0026386976 -0.0011501685 -0.027051162 4281369928
0.0069426373 -0.010798752 -0.018850114 4281631813
0.01301812 -0.027213402 -0.0047111362 4281631813
0.017868381 -0.038354479 0.0047767647 4281434699
0.021242939 -0.043473825 0.0089652929 4281041233
-0.023365621 -0.0068294331 -0.020503584 4282150993
-0.021925818 -0.0044240654 -0.02291657 4280979269
-0.020047043 -0.0042912364 -0.023322469 4281175109
-0.018168155 -0.0041582733 -0.023728304 4281175364
-0.016132209 -0.0047819838 -0.023467364 4281174599
-0.014250454 -0.0046486035 -0.023873651 4281174088
-0.012368605 -0.0045150742 -0.024279846 4281304649
-0.010486674 -0.0043814331 -0.024685984 4281239369
-0.0089398772 -0.0027355626 -0.026420843 4281239368
-0.0070631169 -0.0026020557 -0.026825685 4281370439
-0.0053592399 -0.0017126873 -0.027893718 4281436229
-0.0033093989 -0.002334632 -0.027635109 4281501254
-0.0016107373 -0.0014454052 -0.028701842 4281435973
0.00044454262 -0.0020667315 -0.028444227 4281500743
0.0028724037 -0.004197292 -0.026865795 4281565513
0.0075516216 -0.01538334 -0.017366027 4281434444
0.013066623 -0.029581673 -0.0052442104 4281434444
0.017341712 -0.038492158 0.0022412157 4281303373
0.020515177 -0.042873077 0.0057610217 4281433168
-0.023059275 -0.010652021 -0.019642901 4282479179
-0.021908607 -0.0067204162 -0.023386424 4281436993
-0.020178739 -0.0058280677 -0.024459124 4281633088
-0.018299993 -0.0056951195 -0.024864927 4281633344
-0.016421147 -0.005562067 -0.025270682 4281632834
-0.014382783 -0.0061876699 -0.025011839 4281566023
-0.01250108 -0.0060541779 -0.025418026 4281239879
-0.01061929 -0.0059205517 -0.025824135 4281240644
-0.0089048445 -0.0050285682 -0.026892949 4281306434
-0.007025566 -0.004894875 -0.027298331 4281305923
-0.0051462203 -0.0047610626 -0.027703639 4281306179
-0.0032668188 -0.0046271309 -0.028108865 4281632578
-0.0013873503 -0.0044930428 -0.028514002 4281697603
0.00067291036 -0.0051161274 -0.028259141 4281697348
0.0031053983 -0.0072529167 -0.026686633 4281762119
0.0076008625 -0.017714381 -0.017870985 4281957959
0.012926016 -0.031197228 -0.0064385012 4281892679
0.016815834 -0.038620874 -0.0002876306 4281696073
0.01978858 -0.042258903 0.0025666039 4281956174
-0.021891732 -0.0090208426 -0.023859296 4283528759
-0.020310398 -0.0073646083 -0.025595564 4282940983
-0.018431801 -0.0072316751 -0.026001345 4282680119
-0.016396526 -0.0078598037 -0.025743598 4282221628
-0.014515068 -0.0077264681 -0.026149826 4282024258
-0.012633514 -0.0075929686 -0.026555972 4282024514
-0.010587305 -0.0082199648 -0.026300307 4282024514
-0.0085356869 -0.0088464394 -0.026045712 4281959744
-0.0066485628 -0.0087122023 -0.026452793 4281698368
-0.0047613718 -0.0085778311 -0.026859788 4281502273
-0.0030493475 -0.0076835081 -0.027926166 4281893954
-0.0013426021 -0.0067894086 -0.028991302 4282024514
0.00071998686 -0.0074144974 -0.028738607 4281892679
0.0027879551 -0.0080390796 -0.028486969 4281631558
0.0074638538 -0.019290388 -0.019036081 4281501508
0.012596868 -0.032053553 -0.0082891993 4281631813
0.016481975 -0.039499238 -0.0021537812 4281762374
0.0011274777 -0.011240236 -0.027907636 4284707114
0.0028370246 -0.010343552 -0.02897154 4284250154
0.0071411729 -0.020104803 -0.020856477 4283858218
0.011891402 -0.03138309 -0.01144632 4283529778
0.016148513 -0.040372871 -0.0040165158 4283530033
-0.00090495124 0.0093420297 0.052656904 4285493024
0.00061981007 0.011539459 0.050062299 4285755418
0.0028133541 0.010999531 0.050344594 4285885979
0.0058816113 0.0070406348 0.054214709 4285885723
0.0093350373 0.0017167777 0.05951228 4285885724
0.01229373 -0.0015534461 0.062650844 4285558048
0.014915496 -0.0034550577 0.064351641 4285427744
0.017368829 -0.0046723038 0.065333568 4285361953
0.018709654 -0.0017911121 0.062023841 4285295653
0.019839268 0.001771383 0.058004476 4285295398
0.021904971 0.0019193292 0.057559639 4285885979
0.025337297 -0.0027091056 0.062107019 4285754653
-0.0023741387 0.013168521 0.045681454 4285755674
-0.00070196018 0.014684495 0.043813676 4285623584
0.0014725961 0.014141016 0.044098385 4285557538
0.0043472312 0.0108537 0.047246613 4285623583
0.007424999 0.0068825036 0.051104695 4285689374
0.0098189078 0.005656451 0.052095965 4285624349
0.012041904 0.0051167756 0.052370504 4285493534
0.01371727 0.0066335499 0.050502397 4285493533
0.015382009 0.0081496015 0.048636675 4285493278
0.016846418 0.010349952 0.046060592 4285754654
0.019256664 0.0091255009 0.047048673 4285688864
0.022262733 0.0058482885 0.050169118 4285754399
0.026284089 -0.00084868073 0.056838758 4285885979
-0.0043623857 0.010687657 0.045612291 4285427489
-0.0030129589 0.013586156 0.042313427 4285821463
-0.0010122694 0.013728626 0.041881971 4285886744
0.00098852441 0.013871197 0.041450553 4285886489
0.0036832802 0.011260763 0.043877311 4285886744
0.0067517981 0.0072757676 0.047727451 4285886998
0.0091371872 0.0060447752 0.048717156 4285689883
0.010988895 0.0068776906 0.047566235 4285689884
0.012282867 0.009772867 0.044279821 4285689883
0.013742337 0.011979289 0.041709706 4285952279
0.015564837 0.012810409 0.040565282 4285689374
0.017766377 0.012267381 0.040843062 4285557793
0.02075268 0.0089778602 0.043959454 4285558048
0.024555789 0.0029441342 0.04990758 4285689629
0.030809287 -0.011322364 0.064350747 4285689884
-0.0051552467 0.011801757 0.041530751 4285493024
-0.0034853108 0.013326142 0.039669991 4285624094
-0.0014900826 0.013468195 0.03923969 4285689884
0.00084646419 0.012229063 0.040236384 4285755419
0.0033670813 0.010300294 0.041943766 4285755418
0.0060797669 0.0076825023 0.044360071 4285624093
0.0080994107 0.0078266561 0.043924779 4285624093
0.0099378452 0.0086607933 0.042778365 4285624093
0.011035133 0.012253456 0.038790733 4285624093
0.012479033 0.014465306 0.036228955 4285821464
0.014474887 0.014608134 0.035799071 4285952534
0.017046733 0.01268366 0.037495896 4285886743
0.020023946 0.0093825907 0.04060594 4285821209
0.024014529 0.0026398078 0.047248937 4285821208
0.03005855 -0.010984533 0.06095206 4285689883
-0.0054593049 0.01085338 0.039603159 4285492768
-0.0036267079 0.011688717 0.038459234 4285493278
-0.0016315915 0.011830747 0.038028933 4285689375
0.00087488815 0.0098943114 0.039734289 4285623839
0.0032243952 0.0086518228 0.040724933 4285623839
0.0055846795 0.007410191 0.041713312 4285624094
0.0075988695 0.0075539425 0.041279182 4285624094
0.0092509314 0.0090819448 0.039426006 4285624349
0.010524813 0.011993095 0.036157198 4285624094
0.011963837 0.014211074 0.033601485 4285623838
0.013954233 0.014353503 0.033172771 4285623839
0.016328245 0.013113402 0.034158617 4285623839
0.019296382 0.0098007768 0.037262298 4285624093
0.023474054 0.0023445636 0.04459694 4285624604
0.029708602 -0.012014791 0.058974393 4285624604
-0.0057629459 0.0099096596 0.037678994 4285493024
-0.004262723 0.012137823 0.035114452 4285821208
-0.002443295 0.012974463 0.03397508 4286018068
5.1822513e-05 0.011030674 0.035677887 4286018324
0.0027359612 0.0083932951 0.038086958 4285886744
0.0050904043 0.0071468726 0.039073266 4285689883
0.006920889 0.0079846829 0.0379318 4285624093
0.0085651912 0.0095165074 0.036083557 4285690139
0.010015298 0.011741713 0.033530369 4285624093
0.011821948 0.0125781 0.032394253 4285755163
0.013812225 0.01272051 0.031965561 4285820954
0.016377345 0.010782517 0.033653811 4285755418
0.019152805 0.0081524253 0.036043786 4285623839
0.023525214 -2.1077693e-05 0.044065148 4285624349
0.029758288 -0.014426239 0.058407992 4285624349
-0.0060661547 0.0089705884 0.035758257 4285558814
-0.004403457 0.010507509 0.033908933 4285755673
-0.0025839545 0.011346303 0.032771185 4285820954
-0.00025955215 0.010093138 0.033760533 4285689119
0.0024210177 0.0074468106 0.036163658 4285886489
0.0047723092 0.0061957538 0.037147358 4285755164
0.0066001974 0.0070355237 0.036008097 4285624094
0.0084228106 0.0078750849 0.034870006 4285624349
0.010056764 0.0094105601 0.033027425 4285689884
0.011494011 0.01164151 0.030482011 4285886489
0.013292771 0.012479603 0.029349321 4285952279
0.015851865 0.010534599 0.031033939 4285952279
0.018815182 0.0071998239 0.034122027 4285952279
0.023379257 -0.001695469 0.04282742 4285820953
0.029807612 -0.016841799 0.057838537 4285689373
-0.0070162937 0.010836139 0.031006029 4285755674
-0.0052021742 0.011676669 0.029870978 4285754654
-0.0033932701 0.012516879 0.028737171 4285491748
-0.00091021135 0.010559127 0.030432584 4285623584
0.0019339994 0.007204175 0.03353744 4285754909
0.0042794384 0.0059483573 0.034519009 4285689373
0.0062799118 0.006091103 0.034087807 4285624348
0.0079194009 0.0076312199 0.032247275 4285624348
0.0097314753 0.008472234 0.03111322 4285820953
0.011166509 0.010709561 0.028573258 4285689373
0.01315121 0.010851547 0.028145744 4285623584
0.015518397 0.0095978305 0.029123126 4285557793
0.018477967 0.0062519014 0.032203719 4285689374
0.023233326 -0.0033695921 0.041589893 4285558559
0.029458126 -0.017866813 0.055864751 4285493023
-0.0089756586 0.0083700567 0.03094033 4285164073
-0.0078028366 0.012021698 0.026977288 4285623838
-0.0059993155 0.012863584 0.025846215 4286082584
-0.0038670599 0.012301601 0.026128231 4286082583
-0.0013900325 0.010336913 0.027819915 4286017049
0.0012754463 0.0076720119 0.030213038 4286017304
0.0036123805 0.0064111874 0.031193154 4285623839
0.0057823882 0.0058522969 0.031467348 4285624348
0.0075971372 0.0066955686 0.030334288 4285689884
0.0094066076 0.0075385645 0.029202448 4285820699
0.010653738 0.010482684 0.025966009 4286083349
0.012444612 0.011324592 0.024838289 4285820188
0.014803281 0.010065913 0.025814174 4285754399
0.017947458 0.0060085505 0.029588619 4285819934
0.022694677 -0.0036440045 0.038953289 4285820189
0.028910009 -0.018187687 0.053195335 4285820189
0.0051081777 0.0063258037 0.02815148 4285425703
0.0067348294 0.0078737065 0.026320344 4285491494
0.0085336827 0.0087181032 0.025192445 4285491239
0.010141749 0.010264911 0.02336541 4285687588
-0.021875184 -0.011325337 -0.024335174 4285295654
-0.020290967 -0.0096645653 -0.026068768 4285492769
-0.018563572 -0.0087679401 -0.02713754 4285426979
-0.016528632 -0.0093982667 -0.02688138 4285427489
-0.014647316 -0.0092649311 -0.027287582 4285296164
-0.012604196 -0.0098944381 -0.027033001 4285099304
-0.010720041 -0.0097606555 -0.027439628 4285099304
-0.0085017011 -0.011151962 -0.026527008 4285099559
-0.0066120625 -0.011017539 -0.026934629 4284967468
-0.0030076429 -0.0099862739 -0.028407523 4284902953
-0.0011204854 -0.0098516718 -0.02881434 4284968999
-0.022007186 -0.012867801 -0.025476044 4285426723
-0.020120997 -0.012734495 -0.025883583 4285558558
-0.018234704 -0.012601048 -0.026291044 4285624348
-0.016192086 -0.013233051 -0.026038153 4285558304
-0.014302932 -0.013099171 -0.026446061 4285492769
-0.012252156 -0.01373031 -0.026194785 4285426978
-0.010360159 -0.013595961 -0.026603106 4285426723
-0.0083012171 -0.014226273 -0.026353404 4285360934
-0.0064063966 -0.014091477 -0.026762143 4285295653
-0.0046837106 -0.013192199 -0.027827617 4285230118
-0.0027914271 -0.013057359 -0.028235633 4285230119
-0.00089908764 -0.012922384 -0.028643552 4285164329
0.0011734813 -0.013551101 -0.028396323 4285164329
0.0028857253 -0.012652047 -0.029459152 4285164584
0.0066333674 -0.020151116 -0.023327425 4285033258
-0.023152936 -0.019153967 -0.022243377 4285163563
-0.021843109 -0.015946575 -0.025295932 4285492259
-0.019951735 -0.015812896 -0.025704592 4285492513
-0.018213604 -0.014911205 -0.026772402 4285558559
-0.016168673 -0.015545167 -0.026521713 4285558304
-0.014277007 -0.015411116 -0.026930157 4285492513
-0.011901207 -0.017578922 -0.025366008 4285492514
-0.010001361 -0.017444052 -0.025776032 4285492513
-0.008101441 -0.017309047 -0.026185986 4285426978
-0.006370794 -0.01640711 -0.027251665 4285361443
-0.004645396 -0.015505463 -0.028316062 4285426979
-0.0025759339 -0.016136803 -0.028069999 4285361188
-0.00050108135 -0.016767688 -0.027824957 4285426979
0.0015791394 -0.017398037 -0.027581029 4285361188
0.0034820735 -0.017262064 -0.027991053 4285361188
0.0068676807 -0.02325093 -0.023182329 4285295144
0.01104793 -0.032298304 -0.015775703 4285228843
0.015292177 -0.041341014 -0.0083827311 4285228844
-0.023431007 -0.019938283 -0.024052855 4285229099
-0.021975409 -0.017492823 -0.026439603 4285426979
-0.020084184 -0.01735916 -0.026848238 4285492513
-0.018346023 -0.016455323 -0.02791442 4285558303
-0.016145598 -0.017861359 -0.027008276 4285558048
-0.014092926 -0.018496819 -0.026760817 4285558304
-0.01171251 -0.020670816 -0.025202621 4285492514
-0.0098074861 -0.020535558 -0.025613759 4285426979
-0.0080688782 -0.019631073 -0.026679561 4285426979
-0.0065046772 -0.017957859 -0.028398342 4285426978
-0.00443561 -0.018591575 -0.028153896 4285426724
-0.0025356412 -0.018456198 -0.028563578 4285361188
-0.0004584752 -0.019089036 -0.028320726 4285361189
0.0016240664 -0.019721374 -0.028078947 4285295143
0.003711991 -0.020353206 -0.027838226 4285361189
0.0069161169 -0.025591321 -0.023694206 4285294889
-0.023273718 -0.023036376 -0.023885734 4285229354
-0.021812376 -0.020584032 -0.026268788 4285426979
-0.019915979 -0.020450011 -0.026678532 4285492513
-0.018325429 -0.018771388 -0.028400224 4285492513
-0.016278502 -0.019409552 -0.028153263 4285492514
-0.014067844 -0.02081912 -0.027252499 4285492513
-0.011685494 -0.022999428 -0.025699724 4285426723
-0.0097779669 -0.022864021 -0.026111424 4285427234
-0.0080366582 -0.021957174 -0.02717616 4285361189
-0.0064695552 -0.02027946 -0.028892215 4285361188
-0.0045698024 -0.020144217 -0.029301941 4285361189
-0.0026699901 -0.02000884 -0.029711576 4285361188
-0.00059317052 -0.02064389 -0.029470319 4285361188
0.0014890321 -0.021278404 -0.02923011 4285360934
0.0037588887 -0.022682577 -0.028341293 4285360934
0.006964203 -0.027935795 -0.02420909 4285294888
-0.021502595 -0.024458505 -0.025448605 4285360679
-0.019748483 -0.023549341 -0.026515026 4285426723
-0.017999575 -0.022640415 -0.027580224 4285295908
-0.016100459 -0.022505976 -0.02799039 4285360933
-0.013885017 -0.023919478 -0.027094003 4285492004
-0.011819612 -0.024558254 -0.026852503 4285295398
-0.0099122263 -0.024422847 -0.02726417 4285295909
-0.0080047771 -0.024287336 -0.027675759 4285295909
-0.0064347945 -0.022605091 -0.02938913 4285296163
-0.0043610968 -0.023242772 -0.029149044 4285427234
-0.00245611 -0.023107029 -0.029559799 4285361444
-0.00037429854 -0.02374386 -0.029321251 4285360934
0.0013540238 -0.022835158 -0.030381065 4285295144
0.003623344 -0.02424372 -0.029495446 4285360934
0.0066424161 -0.028740026 -0.026021965 4285294889
-0.017217029 -0.028852008 -0.024811346 4285098539
-0.015302066 -0.028716438 -0.025224932 4285163308
-0.013544966 -0.027804531 -0.026290072 4285228844
-0.011311311 -0.029220983 -0.025400836 4285229099
-0.009393435 -0.029084824 -0.02581476 4285229099
-0.0074754767 -0.028948553 -0.026228614 4285033514
-0.0057260357 -0.028036691 -0.027291719 4285164839
-0.0038106143 -0.027900331 -0.027704824 4285230373
-0.0018951185 -0.027763851 -0.028117858 4285295653
2.0422041e-05 -0.027627237 -0.028530795 4285295143
0.0015775226 -0.025941044 -0.030237755 4285294889
0.0040335543 -0.028128125 -0.028709959 4285229098
0.0070593096 -0.032636911 -0.025247883 4285163564
