# .PCD v0.7 - Point Cloud Data file format
VERSION 0.7
FIELDS x y z rgba
SIZE 4 4 4 4
TYPE F F F U
COUNT 1 1 1 1
WIDTH 972
HEIGHT 1
VIEWPOINT 0 0 0 1 0 0 0
POINTS 972
DATA ascii
0.0083555952 -0.017438825 0.0093893334 4283394628
-0.01143606 -0.0023891665 -0.006174203 4282349384
-0.010000948 -0.00013592467 -0.0086838491 4281828164
-0.0079417452 -0.0007190071 -0.0083707096 4281763139
-0.0052263737 -0.004136283 -0.0052414006 4281761864
-0.0023187846 -0.0082601644 -0.0014137439 4281957449
0.00028488785 -0.010965135 0.0010008812 4282413898
0.002910044 -0.013668615 0.0034112073 4282674509
0.0057300515 -0.017078508 0.0065192766 4283655749
-0.011097945 -0.0060997494 -0.0051918989 4283918654
-0.0094972476 -0.0045506321 -0.006994579 4282545988
-0.007587485 -0.0044241883 -0.0073884716 4281829439
-0.0048650913 -0.0078519918 -0.004268717 4281959233
-0.0017855018 -0.01269931 0.00024987757 4282154308
0.00066018105 -0.014701959 0.0019544177 4282480199
-0.0072342493 -0.0081423111 -0.0064155944 4283524934
-0.0045048371 -0.011580709 -0.0033053719 4283002948
-0.0015835986 -0.015730064 0.00049994141 4283329349
-0.026495829 -0.021878015 0.0073940605 4283197258
-0.026493266 -0.024214853 0.0069382358 4282151758
-0.024932072 -0.021927971 0.0044212397 4282023749
-0.02298101 -0.021799836 0.0040180627 4282220608
-0.021029815 -0.021671582 0.0036149286 4283267384
0.017086435 -0.03079715 0.0074571501 4282608974
0.019459441 -0.032095212 0.0084313694 4282935629
-0.026620716 -0.025833983 0.0057764612 4282218569
-0.025059126 -0.023540501 0.0032642335 4281827909
-0.023108207 -0.023412395 0.0028610695 4281567043
-0.021294884 -0.022562888 0.0017566141 4282024513
0.012601953 -0.031274881 0.0057116356 4283131723
0.014958374 -0.032578725 0.0066858903 4282674253
0.016953759 -0.032445494 0.0062751658 4282478414
0.018760618 -0.031594206 0.0051736664 4282936394
-0.026618563 -0.02817684 0.0053163078 4282153288
-0.025186136 -0.025152732 0.0021074321 4281696328
-0.023235351 -0.025024656 0.0017042775 4281630793
-0.021559551 -0.023449484 -9.8334625e-05 4281370183
-0.019754067 -0.022598196 -0.0011994746 4282414918
-0.017953802 -0.021747086 -0.0022994932 4282675783
0.0097694248 -0.030167658 0.002176797 4282216783
0.012469951 -0.032918472 0.0045329835 4282217294
0.014825869 -0.034226757 0.0055040922 4282348618
0.017006803 -0.034813832 0.0057832282 4282740044
0.01900474 -0.034680311 0.0053720661 4283852354
-0.026875459 -0.029071335 0.003453549 4281695054
-0.025445141 -0.026038628 0.00025156513 4281761609
-0.023766607 -0.024458978 -0.0015484523 4281631304
-0.02196122 -0.023605604 -0.0026481003 4281435208
-0.020161048 -0.022752482 -0.0037465394 4281500999
-0.018508811 -0.021174241 -0.0055408748 4282023239
-0.016430929 -0.021772135 -0.0052434364 4282611269
0.0076593645 -0.031933863 0.0014122855 4282543694
0.0098158121 -0.032525185 0.0016946103 4282086734
0.01251816 -0.035284672 0.004043933 4282021709
0.014876235 -0.036597151 0.005011322 4282217548
0.01705952 -0.037186299 0.0052883346 4282674764
-0.02661512 -0.032874931 0.0043871552 4281826633
-0.025308117 -0.029104564 0.00049214996 4281630793
-0.023624025 -0.027520198 -0.0013057999 4281761863
-0.022087708 -0.025208462 -0.0037981141 4281566023
-0.020427383 -0.023625415 -0.0055909799 4281500999
-0.018777609 -0.022042979 -0.0073816022 4281435719
-0.016847938 -0.021915887 -0.0077800909 4281891658
-0.014770258 -0.022515889 -0.0074841538 4283002694
0.0022166073 -0.02802467 -0.0044639595 4282283593
0.0046898201 -0.030071441 -0.0027990602 4282217548
0.0071791336 -0.03211708 -0.0011373591 4282217548
0.0098618641 -0.034886766 0.0012094472 4282152524
0.012206029 -0.036204699 0.0021763574 4282020689
0.014560945 -0.037521843 0.003141189 4282282574
0.016741231 -0.038113374 0.0034172069 4283526719
-0.026742876 -0.034499478 0.0032214709 4283463224
-0.025171742 -0.032179106 0.0007266365 4282482749
-0.02361647 -0.029859651 -0.0017648246 4281762118
-0.021802999 -0.029001441 -0.0028628986 4281697604
-0.02027417 -0.026683498 -0.0053487252 4281566279
-0.018761244 -0.024366532 -0.0078311469 4281435208
-0.016974099 -0.0235097 -0.0089235203 4281565768
-0.014896717 -0.02411193 -0.0086291507 4282088009
-0.012813874 -0.024713699 -0.0083358232 4282219078
-0.01133791 -0.022398654 -0.010810305 4283004224
-3.6139041e-05 -0.029042471 -0.0059086252 4282936904
0.0022565275 -0.030368764 -0.0049346648 4282022474
0.0045599453 -0.031694163 -0.0039628651 4282087499
0.0070485845 -0.033746425 -0.0023058727 4282086988
0.009553317 -0.03579751 -0.00065212138 4282086479
0.011894308 -0.037120048 0.00031221099 4282151758
0.014246039 -0.038441796 0.0012744535 4282478669
-0.026870593 -0.036123704 0.0020560045 4284573748
-0.025299072 -0.033796754 -0.00043407641 4284313649
-0.023609221 -0.032203216 -0.0022268016 4282221119
-0.021929897 -0.030610304 -0.0040172357 4281697348
-0.020261154 -0.029017966 -0.0058053974 4281696328
-0.018745176 -0.026694197 -0.0082836524 4281696328
-0.016665548 -0.027298618 -0.0079914611 4281696328
-0.014875583 -0.02643929 -0.009082716 4281892423
-0.013090853 -0.025580216 -0.010172816 4281827399
-0.011464272 -0.023990031 -0.011951881 4282087753
-0.0096927062 -0.023131583 -0.01303909 4282479944
-0.0074516237 -0.024466168 -0.012058087 4283592509
-0.0048779473 -0.027261373 -0.0097023677 4283329348
-0.0024463795 -0.029324498 -0.0080388319 4282480199
-0.00016497821 -0.030656014 -0.0070659239 4282218569
0.0021271855 -0.031986739 -0.0060951039 4281761864
0.0044301003 -0.033316586 -0.0051264558 4281696584
0.0067437738 -0.034645628 -0.0041598817 4282218569
0.009422116 -0.037433196 -0.0018251482 4282414154
0.011942238 -0.03948966 -0.00017936714 4282413899
0.014660757 -0.042274322 0.0021472648 4283329348
0.017030731 -0.043599118 0.003102608 4284311099
-0.021920078 -0.03295343 -0.004479548 4283921968
-0.020248428 -0.031356525 -0.0062650759 4282219588
-0.018587362 -0.029760163 -0.0080483817 4281761353
-0.016647425 -0.029632453 -0.0084490348 4281696583
-0.015002146 -0.028036941 -0.01022887 4281761353
-0.013067327 -0.027909327 -0.010628292 4281695818
-0.011437848 -0.026314627 -0.012404686 4281630283
-0.0095081851 -0.026187126 -0.012802875 4281695818
-0.0072622672 -0.027525742 -0.011826159 4281957193
-0.0045233332 -0.031062443 -0.0087909456 4281956938
-0.0020844191 -0.033131678 -0.0071337838 4281956938
3.8407743e-05 -0.033734504 -0.006851444 4281957194
0.0023354106 -0.035069246 -0.0058849035 4281891148
0.0043002926 -0.034938682 -0.0062898127 4281630283
0.0067875721 -0.037004221 -0.0046422658 4282218568
0.0092909411 -0.039068568 -0.0029979516 4283724088
0.011989854 -0.04186343 -0.00067384914 4284573748
-0.020236023 -0.033699173 -0.0067276973 4283593784
-0.01857207 -0.032098304 -0.0085083395 4282415683
-0.016774159 -0.031234186 -0.009598162 4281762373
-0.015128665 -0.029634286 -0.011374811 4281631049
-0.013193987 -0.029506687 -0.011774207 4281499978
-0.011564307 -0.027907606 -0.013547422 4281565259
-0.0096347779 -0.027780097 -0.013945572 4281761098
-0.0075472631 -0.028387818 -0.013657836 4281957450
-0.0048120171 -0.031935755 -0.010629965 4281957450
-0.0022132173 -0.0347468 -0.0082922606 4282022473
-9.0718269e-05 -0.035351831 -0.0080114594 4282022218
0.0020371936 -0.035956394 -0.0077316975 4281890893
0.0043417886 -0.037294958 -0.0067698313 4282022473
0.0068310536 -0.039366905 -0.0051275929 4282807108
0.0095130205 -0.042171802 -0.0028065704 4283918398
-0.017045185 -0.032097165 -0.011434069 4283268404
-0.015255138 -0.031231318 -0.012520529 4281959744
-0.013320602 -0.031103734 -0.012919905 4281500489
-0.011538345 -0.03023814 -0.014004568 4281696329
-0.0094512403 -0.030848224 -0.013718458 4281630283
-0.0073587 -0.031457815 -0.013433384 4281826633
-0.0046191439 -0.035016444 -0.010414506 4281891658
-0.0021789074 -0.037098769 -0.0087673431 4282087753
0.00011167675 -0.038442869 -0.007806058 4282218569
0.001907777 -0.037575636 -0.0088930493 4283200318
0.004382953 -0.039655287 -0.0072528301 4284378418
0.027577991 -0.059053127 0.0080408715 4282804559
0.0306121 -0.062590316 0.011000412 4282478159
-0.015381567 -0.032828037 -0.013666028 4284117809
-0.013447188 -0.032700483 -0.01406539 4282023749
-0.011664901 -0.031832699 -0.015148448 4281826889
-0.0098878667 -0.030965168 -0.016230343 4281695818
-0.0078009963 -0.031577338 -0.015945718 4281630283
-0.005067803 -0.035147343 -0.01293361 4281826124
-0.0026336126 -0.03723665 -0.011290132 4282218058
-0.00018329918 -0.039324794 -0.0096498309 4282349639
0.0017783977 -0.03919458 -0.010054193 4283395648
0.024050619 -0.055715475 0.0025228783 4282673998
0.027051607 -0.059266005 0.005481042 4282020433
0.029881682 -0.062077533 0.0077594016 4282346579
-0.011639386 -0.034169275 -0.015609926 4284249388
-0.0098596551 -0.03329936 -0.016690755 4281957703
-0.0077704266 -0.033913571 -0.016408244 4281891913
-0.0050356053 -0.037494469 -0.013404581 4282153288
-0.0025993958 -0.039590258 -0.011766317 4283920694
-0.00014710426 -0.041684795 -0.010131317 4284573749
0.016364891 -0.051872279 -0.002829887 4284507959
0.018556241 -0.052478302 -0.0025673881 4282348363
0.021321297 -0.055303339 -0.00028241053 4282020433
0.023915607 -0.057387147 0.0013242774 4282020434
0.026720759 -0.060209256 0.0036011897 4281824084
-0.010140814 -0.034149002 -0.018514244 4283135803
-0.0077401884 -0.036253948 -0.016873727 4282416448
-0.0051635802 -0.039101694 -0.014557435 4282938943
0.013683651 -0.051432032 -0.0056267902 4284509234
0.016047871 -0.052783523 -0.0046897382 4283200064
0.018422823 -0.054134194 -0.0037547424 4282217549
0.020997729 -0.056225989 -0.0021490008 4282020433
0.023396749 -0.05757482 -0.0012187921 4281889363
0.026195683 -0.060406085 0.0010529459 4281757783
-0.0073962063 -0.040091138 -0.015986245 4284247348
-0.0049721375 -0.042200971 -0.014355327 4284639793
0.01119829 -0.051721994 -0.007743679 4283070013
0.013551287 -0.053078759 -0.0068076588 4282349639
0.015914993 -0.054434661 -0.0058737323 4282152268
0.018289428 -0.055789743 -0.0049418667 4281889873
0.020863637 -0.057888184 -0.0033408403 4282150739
0.023070388 -0.05849738 -0.0030845217 4281888854
0.0087246932 -0.052001927 -0.0098562539 4283985719
0.010888234 -0.052616809 -0.0095931813 4282349383
0.013418946 -0.054725174 -0.0079883076 4282086988
0.015598577 -0.055338699 -0.0077283494 4281955153
0.017783573 -0.055951733 -0.0074693942 4282085203
0.019973941 -0.056564335 -0.0072114067 4282215509
0.0037730634 -0.050153855 -0.01357257 4284705328
0.0062628873 -0.052271921 -0.011964422 4283789879
0.0085934103 -0.053639185 -0.011030417 4283003969
0.01093467 -0.055005673 -0.010098502 4282217549
0.013105918 -0.055622105 -0.009838541 4282020434
0.015099153 -0.055489007 -0.010248821 4282084949
0.01709241 -0.055355821 -0.010659039 4281822043
0.0013371408 -0.050406184 -0.015674319 4284705329
0.0034731589 -0.051027667 -0.015409105 4282417214
0.0059596114 -0.053152483 -0.01380514 4282023493
0.0082869567 -0.054524396 -0.012873679 4282283593
0.010447156 -0.055143867 -0.012613144 4282020434
0.012612727 -0.055762853 -0.012353629 4281823063
0.014600459 -0.055630144 -0.012762789 4281820769
-0.00042965263 -0.053667072 -0.015091881 4284639794
0.0015416332 -0.053536277 -0.015498262 4283399728
0.003512986 -0.053405326 -0.015904538 4281892423
0.0060014315 -0.055536631 -0.014305808 4282022218
0.0081559084 -0.056158815 -0.014045808 4282020943
0.010315765 -0.056780513 -0.013786834 4282020434
0.012120273 -0.055894572 -0.014862161 4281692759
-0.002530396 -0.055422988 -0.015851188 4284508978
-0.00072348863 -0.054535482 -0.016925976 4281960508
0.0010781512 -0.05364817 -0.017999571 4281371459
0.003382992 -0.055030581 -0.017070178 4281890639
0.005870752 -0.057168532 -0.015476163 4281824339
0.0080248863 -0.057792921 -0.015217718 4281954643
0.01000689 -0.057660867 -0.015625902 4281690464
-0.0031438246 -0.05477019 -0.019018773 4283006008
-0.0010169372 -0.055399153 -0.018756676 4281501764
0.0011153445 -0.05602761 -0.018495649 4281370949
0.0032530241 -0.05665556 -0.018235624 4281824593
0.0055680908 -0.058041546 -0.017311476 4281758293
0.0077192299 -0.058668394 -0.017053999 4281953623
-0.001310017 -0.056258086 -0.020584043 4281301078
0.00098574534 -0.057650041 -0.019659303 4281302863
0.0031230859 -0.058280211 -0.019400831 4281300058
0.00085617229 -0.059272166 -0.020822749 4281036898
0.0044638887 0.045452323 0.028863663 4280503439
0.0054881759 0.048776418 0.024711678 4278403768
0.0012039803 0.04822645 0.022861863 4278733739
0.0018715858 0.052844498 0.017218219 4278930344
0.0032166243 0.054894272 0.014581541 4279192738
-0.0032252856 0.048331708 0.020263782 4279915409
-0.0015041605 0.049101863 0.019124312 4278734758
0.0021991692 0.056559961 0.0097270552 4278929579
0.0046025738 0.054753538 0.011587119 4278602159
-0.008756686 0.052981671 0.012419468 4281749878
-0.0068920925 0.053105693 0.012035312 4279586969
-0.0046921261 0.051936574 0.013148775 4278800804
-0.0028220005 0.052061085 0.012763569 4278538408
-0.0012978055 0.053478137 0.010882992 4278602668
0.010077734 0.047001269 0.017157497 4278930343
0.012539612 0.045192286 0.019000756 4278537898
0.015017595 0.04338444 0.020840751 4278537898
0.017706104 0.040932968 0.023420719 4278996643
0.021993056 0.03332584 0.031938322 4279192229
-0.012295596 0.049889304 0.013578245 4282733414
-0.0034567155 0.052456953 0.0094119702 4278865573
-0.0017674603 0.053229455 0.0082822889 4278472618
-0.00043449551 0.055298205 0.005662689 4278537643
0.0014170073 0.055421628 0.0052814316 4278668203
0.0038111545 0.053601351 0.007133564 4278602923
0.0064049773 0.051134426 0.0097263623 4278734503
0.0092064999 0.048021425 0.013058135 4278538154
0.01071253 0.04944203 0.011184812 4278602924
0.01239945 0.050214775 0.010055982 4278537644
0.016938906 0.04787825 0.01224866 4278403768
0.022019435 0.03765766 0.023710126 4278403768
-0.013202336 0.051598351 0.0087275747 4279193503
-0.012142409 0.054979544 0.0046086144 4278470323
-0.010623362 0.056404799 0.0027354024 4279059628
-0.0084564909 0.055224549 0.0038491022 4278534074
-0.0039203689 0.052215494 0.0068150628 4278930088
-0.002063714 0.052339129 0.0064326469 4278799784
-0.00055764243 0.053763829 0.0045623351 4278865574
0.001649797 0.052586593 0.0056679081 4278668968
0.0038680136 0.051410098 0.0067713503 4278668968
0.0060969889 0.050234426 0.0078725796 4278603433
0.0081506819 0.04970932 0.0082298871 4278472363
0.0096435919 0.051133465 0.006362522 4278602923
0.010742996 0.053855848 0.003016049 4278864809
0.012403237 0.05462908 0.0018943865 4278733228
0.014845174 0.052805737 0.0037320647 4279324574
0.018699311 0.046441168 0.010739597 4278406318
0.024021888 0.035539277 0.022905292 4278537644
-0.016886111 0.049159281 0.0091366861 4279391129
-0.015488703 0.051245015 0.0065131765 4278668713
-0.012900829 0.056067374 0.00053039379 4278273974
-0.011392221 0.057496328 -0.0013374295 4279585438
-0.0090720542 0.055657428 0.00051991642 4279388833
-0.0064015165 0.052513141 0.0038620215 4278667694
-0.0021871105 0.050800521 0.0053292345 4278800039
-0.00033045933 0.050924204 0.0049468558 4278734759
0.0017040707 0.050395403 0.0053063259 4278735014
0.0037440248 0.049866997 0.0056647751 4278800549
0.0056061968 0.049991239 0.0052813999 4278735014
0.0074684024 0.050115552 0.0048980657 4278996643
0.0087650083 0.052195452 0.0022958908 4278340784
0.01150395 0.055700727 -0.0021598414 4279258018
0.013934568 0.053869955 -0.00032467954 4279258018
0.017178312 0.04943588 0.0044568535 4278996388
0.021065395 0.043051552 0.011441331 4278603179
-0.021744147 0.05197091 0.0035702121 4281029249
-0.020201027 0.053406224 0.0016982798 4279390108
-0.01821591 0.052871272 0.0020658169 4278866084
-0.016532395 0.053649478 0.00094188191 4278603433
-0.014697891 0.053771216 0.00056371652 4278406574
-0.0068580508 0.052292433 0.0012786034 4278272698
-0.0046757944 0.051104423 0.0023827273 4278733994
-0.0026550479 0.050572351 0.0027432982 4278603688
-0.00097880885 0.051350597 0.0016212501 4278538408
0.00069212168 0.052128591 0.00050029531 4278342058
0.0023577623 0.052906264 -0.00061947294 4278276523
0.0043841004 0.052374832 -0.00025985762 4278473129
0.0062301494 0.052498054 -0.00063987263 4278538664
0.0078878738 0.053275399 -0.001757862 4278996389
0.023446329 0.039649904 0.012130482 4278931363
0.029698282 0.026068619 0.027156832 4278931363
-0.023173578 0.056378465 -0.0042307666 4278403004
-0.021210261 0.055839758 -0.0038604392 4278337213
-0.016960457 0.053446427 -0.001635775 4278996134
-0.01528744 0.054226175 -0.0027558934 4278538154
-0.013619658 0.055005651 -0.0038748784 4278537643
-0.01195715 0.055784881 -0.0049927766 4278472618
-0.0098076425 0.054590117 -0.0038852785 4278276523
-0.0074805804 0.052738454 -0.0020391084 4278734759
-0.0049679466 0.05023044 0.00054402091 4278669479
-0.0032943636 0.051010631 -0.00057591684 4278603178
-0.0019756444 0.053104866 -0.0031730849 4278472109
0.0011541732 0.055319957 -0.0061431732 4278271934
0.0061071254 0.050968636 -0.0017366 4278471088
0.0077649429 0.051748183 -0.0028529931 4278538408
0.0090356953 0.053839628 -0.00543998 4278865574
0.010871019 0.053962328 -0.0058176443 4278865573
0.013098804 0.052773636 -0.0047257133 4278604199
0.01633184 0.048307944 3.5228208e-05 4278407083
0.020005554 0.042534046 0.0062558874 4278472873
0.024340285 0.034797825 0.014666086 4278603943
0.030808736 0.02051577 0.030388897 4278538408
-0.026503973 0.052648738 -0.0023267195 4278931109
-0.025535889 0.056738488 -0.0071681906 4278470069
-0.023728833 0.056858081 -0.0075409338 4279059119
-0.017387759 0.053252395 -0.0042068949 4278995624
-0.015564129 0.053373359 -0.0045828577 4278668968
-0.013740394 0.053494394 -0.0049587945 4278800038
-0.011755344 0.052955218 -0.0045943558 4278800293
-0.0097648278 0.052416489 -0.0042309854 4278734758
-0.0077688694 0.051878184 -0.0038686879 4278538154
-0.0055982023 0.050680541 -0.002768714 4278800039
-0.0039325617 0.05146239 -0.0038853986 4278602923
-0.0029706843 0.054881565 -0.0079514077 4278733739
0.00031269714 0.056442432 -0.010174654 4278470834
0.0057987981 0.050098076 -0.0035685804 4278601903
0.0078300424 0.049562678 -0.0032131393 4278341803
0.0092946105 0.05100264 -0.0050616097 4278603433
0.011521943 0.049809437 -0.0039728917 4278668968
0.013760017 0.048616983 -0.0028862841 4278669734
0.01739989 0.042820871 0.0033266265 4278735268
0.02128939 0.036370486 0.010261763 4278473384
0.025844721 0.027951472 0.019380556 4278276780
0.032330569 0.013622031 0.035063975 4278867105
-0.02959802 0.047575727 0.0010632221 4282667878
-0.028309874 0.050353389 -0.0022906233 4279849874
-0.02608192 0.057232153 -0.010470275 4278995369
-0.024282984 0.057351176 -0.01084137 4279585438
-0.022040941 0.055480141 -0.0089878766 4279651229
-0.019782707 0.053610202 -0.0071376283 4278864299
-0.015529051 0.051199481 -0.0049267728 4278407338
-0.013702728 0.051320661 -0.0053032637 4278800548
-0.012037333 0.052104414 -0.0064184833 4278604199
-0.010213487 0.052225567 -0.0067943651 4278473129
-0.0083895475 0.052346796 -0.0071702087 4278735013
-0.0062273704 0.05114419 -0.006071805 4278865574
-0.0045696683 0.051927712 -0.0071852338 4278537643
-0.0019786097 0.056139629 -0.01235052 4279258019
0.00019185618 0.054937854 -0.011253618 4279389088
0.0029205158 0.051753633 -0.0079557933 4279061413
0.0056760013 0.048571277 -0.0046634367 4278274994
0.0078948215 0.047372904 -0.0035762843 4278472619
0.010124374 0.046175357 -0.0024913345 4278865573
0.012557855 0.044318218 -0.00067635067 4278865318
0.015595023 0.040481709 0.003330145 4278669734
0.019259989 0.034667425 0.0095232502 4278604964
0.0231744 0.028196629 0.016436981 4278736289
0.027142376 0.021729499 0.023339747 4279326359
0.033436358 0.0080119446 0.038254946 4279326359
-0.032343 0.049933009 -0.0041089719 4279128478
-0.030657455 0.050719574 -0.0052272584 4278800804
-0.028977089 0.051505867 -0.0063444246 4278669478
-0.026342578 0.056407467 -0.012280654 4278338489
-0.018087253 0.052226383 -0.0085908324 4278471854
-0.015960816 0.051016618 -0.0074885935 4278735014
-0.013981733 0.050472483 -0.0071262158 4278473129
-0.012479816 0.051922996 -0.0089765061 4278473129
-0.010988489 0.053372838 -0.010824515 4278473128
-0.0091753528 0.053493325 -0.011198148 4278538664
-0.0070243329 0.052285545 -0.010100716 4278473129
-0.0052056797 0.052406553 -0.010475377 4278538664
0.0079592541 0.045178935 -0.0039425073 4278800294
0.010952365 0.041326098 6.3180923e-05 4278538664
0.014363673 0.036150314 0.0055234525 4278669734
0.017817851 0.03097746 0.010974951 4278801059
0.021116519 0.02646981 0.015688205 4279063198
0.024452701 0.021964706 0.020393839 4279457174
0.027826361 0.017462231 0.025091777 4279915918
0.03392078 0.0043605156 0.039243549 4280046989
-0.036730647 0.0515313 -0.0081534004 4281881969
-0.035439074 0.05432656 -0.011495139 4278274739
-0.033381268 0.053107135 -0.01038244 4278274994
-0.031446509 0.052557241 -0.01001308 4278537644
-0.029506244 0.052007783 -0.0096448036 4278538154
-0.028256834 0.054800525 -0.012977641 4278930854
-0.020622283 0.05327281 -0.012246402 4278602668
-0.018359806 0.051389929 -0.010406783 4278799783
-0.016391817 0.050842792 -0.010043867 4278537898
-0.014892403 0.052297417 -0.01189041 4278276268
-0.0073136576 0.051445629 -0.011914941 4279061159
-0.0056691729 0.052232653 -0.013022415 4278538664
-0.0043781511 0.054351505 -0.015594435 4278669478
-0.0029263645 0.055803474 -0.017430788 4278865318
-0.00076749548 0.054592084 -0.016338019 4278865574
0.0019484833 0.05138493 -0.013053877 4278407594
0.0052456893 0.046183638 -0.0075833118 4278473129
0.0085857771 0.040985271 -0.0021215267 4278604198
0.012349054 0.034459934 0.004790524 4278539173
0.015973104 0.028603034 0.010962633 4278997664
0.019449865 0.023414034 0.016396461 4279521689
0.021978537 0.021550216 0.018182164 4280111503
0.024724152 0.019023266 0.020691967 4280373899
0.028305374 0.01384151 0.026104493 4280243083
0.034610368 3.2063574e-05 0.040949024 4280308618
-0.038777694 0.050587405 -0.0095959501 4279586714
-0.03594207 0.05485253 -0.014784372 4278402493
-0.029761449 0.051181696 -0.011457534 4278537643
-0.02823589 0.052641921 -0.013306614 4278472363
-0.027004458 0.055442337 -0.016629208 4278734503
-0.024927594 0.054220125 -0.015523503 4278800294
-0.022839874 0.052998658 -0.014419942 4278800294
-0.020591527 0.051108155 -0.012582414 4278800038
-0.01863195 0.050558124 -0.01221941 4278800039
-0.016977228 0.05134761 -0.013327755 4278668203
-0.0074340478 0.049941767 -0.01299349 4278405809
-0.0056182519 0.050062541 -0.013367595 4278407338
-0.0043241084 0.052188214 -0.015935382 4278734759
-0.0028693788 0.053644776 -0.017769095 4278669479
-0.00070828572 0.052429106 -0.016680051 4278996899
0.0023732819 0.04787555 -0.011945205 4278473129
0.0062308423 0.04065441 -0.0043019354 4278407593
0.0099600777 0.034104645 0.0026007816 4278408103
0.013742913 0.027558496 0.0094925687 4278998174
0.01700137 0.023017101 0.014191186 4279653779
0.019711347 0.020478774 0.016701693 4279981454
0.022244753 0.018608611 0.018481577 4280505223
0.025396286 0.014740206 0.022435373 4280636039
0.029190056 0.0088751316 0.028558163 4280439433
0.035298534 -0.0043138862 0.042641953 4280439433
-0.040578239 0.048300646 -0.0095548825 4279063199
-0.039510146 0.05246247 -0.014368627 4278537133
-0.038222857 0.055274926 -0.017696584 4278995879
-0.036572158 0.056065556 -0.018802986 4278930598
-0.034403063 0.054162636 -0.016954325 4278995624
-0.032217763 0.052260891 -0.01510901 4278930088
-0.030152485 0.051033214 -0.01400431 4278602669
-0.028493099 0.051824741 -0.015112337 4278734503
-0.026838928 0.052615963 -0.016219184 4278603689
-0.024757139 0.051389586 -0.015117732 4278603944
-0.022664517 0.050164036 -0.014018508 4278538409
-0.020710707 0.049611356 -0.013656065 4278407083
-0.018903706 0.049731001 -0.014028758 4278734248
-0.017406538 0.051194176 -0.015868418 4278340784
-0.016235307 0.053999841 -0.019171782 4278405809
-0.015245732 0.05747553 -0.023203095 4279259294
-0.013141736 0.056251194 -0.02210588 4279062688
-0.010529868 0.053014569 -0.018816916 4278603179
-0.007554397 0.048438109 -0.0140719 4278996133
-0.005567655 0.047888219 -0.013715797 4278603179
-0.0039229318 0.048679713 -0.014820036 4278472874
-0.0017542988 0.047460053 -0.013735859 4278734503
0.00096236169 0.044230744 -0.010468152 4278865829
0.0042511113 0.038993534 -0.0050220024 4278604198
0.011518665 0.026519123 0.0080247223 4278538918
0.014754333 0.021960642 0.012716623 4279719314
0.017257622 0.020081677 0.014497703 4280243339
0.019776981 0.018203914 0.016275497 4280243339
0.022510257 0.015658401 0.018774757 4280440199
0.026267506 0.0097709559 0.024890361 4280439943
0.030276142 0.0032183081 0.031719677 4280636293
0.035779405 -0.0080090128 0.043599308 4280898434
-0.043274164 0.040478058 -0.0032205246 4282732904
-0.042618714 0.04736232 -0.010994996 4278997664
-0.041296445 0.050185721 -0.01432381 4278342058
-0.036816664 0.055269379 -0.020596383 4278799529
-0.030406676 0.050218675 -0.015808851 4278341039
-0.028472401 0.049662132 -0.015444197 4278668969
-0.026815467 0.050455738 -0.016550064 4278603689
-0.025019661 0.050574403 -0.016920628 4278407083
-0.023223698 0.050693147 -0.01729117 4278669479
-0.021427624 0.050811972 -0.01766168 4278472874
-0.019935682 0.052279115 -0.019497085 4278668969
-0.01829952 0.053071685 -0.020598345 4278668458
-0.013585404 0.056121211 -0.024625581 4278406574
-0.0056882463 0.046382546 -0.014795633 4278472364
-0.0031756982 0.043812744 -0.01225798 4278538664
-0.0004654415 0.04057195 -0.0089971945 4278473384
0.0026294552 0.035988301 -0.0042879451 4278670243
0.0061250627 0.030062923 0.0018664189 4278932383
0.0093003884 0.025484847 0.0065591875 4279326103
0.012513256 0.020909309 0.011244329 4279129499
0.015194787 0.018351268 0.013747549 4279653013
0.017705463 0.016466215 0.015522176 4279980944
0.020427205 0.013911035 0.018017249 4280243594
0.023763336 0.0093440786 0.022677274 4280374664
0.027737945 0.0027670115 0.029497257 4280505734
0.031157082 -0.0017941669 0.034140296 4280898689
0.035025075 -0.0076938681 0.040218614 4281422968
-0.043622606 0.04031992 -0.0057852929 4282142579
-0.042853668 0.046547305 -0.012804724 4278538919
-0.041653298 0.050057799 -0.016864136 4278538408
-0.030660458 0.049408771 -0.017610008 4278800039
-0.028867707 0.049527049 -0.017980075 4278472874
-0.027357288 0.050999474 -0.019816292 4278538408
-0.025857434 0.052471332 -0.021650311 4278275759
-0.022292361 0.052707061 -0.022385841 4278275759
-0.020357691 0.052148677 -0.022022646 4278669479
-0.018726807 0.052943125 -0.023121251 4278603433
-0.016943865 0.053061295 -0.023488896 4278537643
-0.0084670484 0.048132576 -0.019138534 4278472619
-0.0054673962 0.043526903 -0.014421235 4278931109
-0.0022568405 0.038248926 -0.0089852074 4279127714
0.00082059577 0.033648595 -0.00428381 4278669478
0.0041143037 0.028376283 0.0011352636 4278801314
0.0072694905 0.023781329 0.0058207195 4279194525
0.010094054 0.02053735 0.0090500023 4280046734
0.012758674 0.017969266 0.011550128 4280111503
0.015444746 0.015402708 0.014045907 4279980433
0.018344376 0.012164 0.017259927 4280242828
0.021855194 0.0069067031 0.022634694 4280308618
0.025408868 0.00165236 0.028000703 4280374408
0.028605077 -0.0022527426 0.031916037 4280505989
0.03142776 -0.0048097335 0.034384027 4281554294
-0.042152241 0.040290207 -0.0087193549 4279784084
-0.041291378 0.045854941 -0.01498244 4278997408
-0.040106088 0.049375497 -0.019030584 4279455898
-0.038822338 0.052214049 -0.022338392 4278996643
-0.037176721 0.053010855 -0.023438942 4278996898
-0.035275571 0.052447449 -0.023070974 4278800038
-0.03310281 0.050524931 -0.021237778 4278800038
-0.030913837 0.04860352 -0.019407835 4278800039
-0.029123858 0.048721574 -0.019777358 4278602923
-0.025070816 0.055186454 -0.027459349 4278271423
-0.020627171 0.051348839 -0.023812447 4278995368
-0.018689968 0.050788477 -0.023451354 4278669224
-0.017061591 0.051585015 -0.024547778 4278603433
-0.015438445 0.052381255 -0.025643012 4278865829
-0.013495605 0.051821548 -0.025282951 4278931108
-0.011216998 0.049906917 -0.023470867 4278603689
-0.0079152249 0.043928515 -0.017306169 4278538408
-0.0043946728 0.037276097 -0.010425938 4278801059
-0.00099368393 0.031304456 -0.00428156 4278932383
0.0019279495 0.027366994 -0.00032005832 4279261078
0.0047032237 0.024108518 0.0029111039 4279589008
0.0075053386 0.020851891 0.006136857 4279785358
0.0099664479 0.018950038 0.0079117399 4280243084
0.012630245 0.016373076 0.010405529 4280111758
0.015504759 0.013121583 0.013616523 4279980688
0.019365758 0.0064925477 0.020427154 4279915153
0.023280345 -0.0001328513 0.027226875 4280309128
0.026262011 -0.0033769161 0.030416025 4280768128
0.028670538 -0.0045930445 0.031441614 4282014059
-0.041336365 0.033319212 -0.00392118 4279718803
-0.040333316 0.038220152 -0.0094416542 4278998429
-0.039367512 0.043118753 -0.014954425 4278473639
-0.038189277 0.046649896 -0.018992962 4279194268
-0.037037604 0.050179366 -0.023025952 4278800293
-0.035261549 0.05029624 -0.023392797 4278669224
-0.033485353 0.050413206 -0.023759609 4278734503
-0.031302348 0.048484746 -0.021933338 4278668968
-0.029794246 0.04996575 -0.023762714 4278340274
-0.02857849 0.052809071 -0.027049663 4278733739
-0.027240418 0.054969728 -0.029602772 4279323553
-0.025479548 0.055086065 -0.029966136 4279258019
-0.02044145 0.048511293 -0.023415741 4278864554
-0.018499177 0.047949091 -0.023057377 4278537644
-0.016865358 0.048748136 -0.024153266 4278800549
-0.015236784 0.049546905 -0.025248015 4278800804
-0.012639645 0.046265054 -0.021988656 4278800294
-0.0098506622 0.042305194 -0.018009836 4278472873
-0.0060235001 0.034269296 -0.0096912086 4278407338
-0.0028133728 0.028955905 -0.0042811884 4278277034
9.3650073e-05 0.0250041 -0.00032646395 4278866848
0.0023300797 0.02377126 0.0007306952 4279720080
0.0049340278 0.021181211 0.0032301005 4280047499
0.007559441 0.018592685 0.0057251509 4280243339
0.010390043 0.015327051 0.0089369174 4280308874
0.012688246 0.014098685 0.0099816248 4280373898
0.015942601 0.0094796866 0.014624121 4280112013
0.020193256 0.0014728382 0.022856077 4280243339
0.02431377 -0.0058517531 0.03035604 4280833664
0.026719151 -0.0070725866 0.031378962 4281621358
-0.040523209 0.02631302 0.00085172802 4280504714
-0.039258994 0.029860623 -0.0031965952 4279129243
-0.038143344 0.03409148 -0.0079715494 4278867613
-0.037059575 0.03832037 -0.012739899 4278276779
-0.03613507 0.043231767 -0.018232627 4278408104
-0.0349878 0.046772003 -0.022256555 4278407593
-0.033601739 0.048942145 -0.024814988 4278668969
-0.031825475 0.049059145 -0.025181791 4278537643
-0.027642936 0.054878876 -0.032104183 4278930599
-0.025887512 0.054994818 -0.032466449 4279061668
-0.02353698 0.0523782 -0.029922003 4278537644
-0.018925436 0.047832269 -0.025571812 4278537899
-0.016826563 0.046585277 -0.024490001 4278472873
-0.01455744 0.044656593 -0.022685863 4278538663
-0.011623643 0.03999998 -0.017989412 4278670499
-0.0083226636 0.033981733 -0.011853904 4278998174
-0.0048059374 0.027284853 -0.005005491 4279063198
-0.0019162185 0.023318581 -0.001057025 4279391893
0.00048716366 0.021399282 0.00071971305 4279785103
0.0025556535 0.020843904 0.0010509137 4280243084
0.0049859472 0.018926527 0.0028222837 4280112268
0.0077940896 0.015648276 0.0060304776 4280112268
0.010445498 0.013052747 0.00851373 4280243339
0.013118366 0.010458745 0.010992633 4280505479
0.016757205 0.0044637807 0.017059134 4280309638
0.021019004 -0.0035688095 0.025269331 4280244103
0.024568038 -0.0088764317 0.030597152 4280967029
-0.040411599 0.023396615 0.0012090951 4280242829
-0.038783833 0.024893634 -0.00063891709 4278998173
-0.037288398 0.027077207 -0.003215339 4279194524
-0.035933316 0.029946784 -0.0065184617 4278867103
-0.035235278 0.036248997 -0.013464618 4278736799
-0.03432551 0.041174892 -0.018942889 4278736543
-0.033585556 0.046784885 -0.025141826 4279128478
-0.032347478 0.049647089 -0.02842054 4278996643
-0.031130649 0.052507959 -0.031694811 4278406573
-0.019043099 0.046354514 -0.026631802 4278734758
-0.016318295 0.042363659 -0.022659471 4278669478
-0.013561275 0.038375024 -0.018693727 4278866338
-0.010124221 0.031650636 -0.011845281 4278538664
-0.0071274266 0.026982805 -0.0071730996 4278866594
-0.0040930808 0.022317603 -0.0025086347 4280046479
-0.0018710829 0.021074753 -0.001455104 4279719313
0.00053434074 0.019148957 0.00031632371 4279849874
0.0027805679 0.017907891 0.0013649929 4279980943
0.0055715926 0.014617376 0.0045685079 4280112013
0.0080280639 0.012695216 0.0063296705 4280243339
0.010867372 0.0094081089 0.0095233768 4280243594
0.01354745 0.0068057626 0.011994289 4280243593
0.017381322 0.00010868907 0.018761655 4280571523
0.021268766 -0.0065847151 0.025518073 4280770679
-0.040416911 0.021161247 0.00083020143 4280439688
-0.038667254 0.021973338 -0.0002856832 4279391128
-0.03692276 0.022785131 -0.0014004018 4279260059
-0.035556369 0.025664227 -0.0046993829 4278998173
-0.034211211 0.028542008 -0.0079939226 4278998173
-0.033276252 0.033484939 -0.013466053 4278867613
-0.032643273 0.039802827 -0.020384053 4278407849
-0.032058269 0.046117641 -0.02729208 4278669734
-0.031245895 0.051052798 -0.032738753 4279128223
-0.029768996 0.052544907 -0.034551907 4278865573
-0.028588749 0.055412322 -0.037812024 4278406573
-0.026701175 0.054839566 -0.03744749 4278537899
-0.02451136 0.052892033 -0.035637021 4278602924
-0.021550015 0.047508575 -0.030215152 4279062434
-0.018545747 0.042128075 -0.024802122 4279062688
-0.015342128 0.03606341 -0.018676015 4278996899
-0.012249332 0.030688897 -0.013281077 4278865829
-0.0091136098 0.025317324 -0.0078949193 4279194013
-0.0064283386 0.022008289 -0.0046780929 4279522709
-0.0037162043 0.01870114 -0.0014667232 4279850129
-0.0016564578 0.018140566 -0.0011371262 4280177294
0.0004087165 0.01758045 -0.00080857426 4280112013
0.0028296299 0.015649114 0.00095488876 4280112013
0.0056223348 0.012347683 0.0041499231 4280112269
0.0082613453 0.0097335875 0.0066226441 4280374663
0.010921821 0.007121034 0.0090910252 4280638843
-0.040190257 0.017537933 0.0019053016 4280045968
-0.038551308 0.019044407 6.1413273e-05 4279587733
-0.036922865 0.020550322 -0.0017802864 4279325594
-0.035553217 0.023438405 -0.005073471 4279587734
-0.033951133 0.024942707 -0.0069095595 4279391129
-0.032618582 0.027828522 -0.010194959 4279325593
-0.031571575 0.032094739 -0.014926321 4279194524
-0.030961022 0.038431026 -0.021825025 4279128223
-0.030535996 0.045454759 -0.029437846 4278931619
-0.029323168 0.048333026 -0.032698266 4279128224
-0.028274484 0.051900122 -0.036677234 4278800549
-0.026379168 0.051325649 -0.03631594 4279193249
-0.023885518 0.047992371 -0.033068117 4278538408
-0.02045963 0.040523171 -0.025497701 4278997409
-0.017128319 0.033747368 -0.018660132 4278997663
-0.014055889 0.028353823 -0.013274113 4279063708
-0.011417292 0.025030483 -0.010055932 4279391129
-0.0087518282 0.021708969 -0.0068431795 4279587734
-0.0062237978 0.01907815 -0.0043545598 4279850130
-0.003674265 0.016448807 -0.0018702615 4279849873
-0.0016121268 0.015886191 -0.0015427787 4280112014
0.00062774122 0.014635757 -0.00049939565 4280177549
0.0030533671 0.012698121 0.0012582168 4280243339
0.0058504194 0.0093859583 0.0044442285 4280243594
0.0084939599 0.006763339 0.0069095064 4280705143
-0.038317375 0.01541296 0.0011286568 4280636039
-0.036801942 0.017617516 -0.0014373157 4279521943
-0.035426356 0.020514753 -0.0047252644 4279325593
-0.033692054 0.021330371 -0.0058345571 4279194524
-0.032092243 0.022839025 -0.0076669334 4279587734
-0.03063494 0.025040116 -0.010220634 4279391128
-0.029732212 0.030011894 -0.015663343 4279521944
-0.029004097 0.035674043 -0.021820787 4279063708
-0.028318636 0.041333426 -0.027969314 4278669224
-0.02739048 0.045605391 -0.032666199 4278538664
-0.02562207 0.045722097 -0.03303121 4278736034
-0.022817262 0.040994704 -0.028353993 4278277799
-0.019372016 0.033502534 -0.020805459 4278539429
-0.016174566 0.02739767 -0.014707429 4278801059
-0.013397057 0.02337059 -0.010775263 4279260824
-0.010904819 0.020728339 -0.0082858726 4279457428
-0.0087139122 0.019469872 -0.0072359266 4279653269
-0.0063481256 0.017521311 -0.0054711839 4279849874
-0.0037994161 0.014883082 -0.0029932279 4279849874
-0.001398664 0.012936983 -0.0012355093 4279784339
0.00084608048 0.01168251 -0.00019642897 4280112269
0.0031016059 0.010428801 0.00084054656 4280178313
0.0057228543 0.0077957846 0.0033038463 4280440709
-0.03656055 0.013980161 -0.00037632696 4282470764
-0.035176344 0.016886692 -0.0036595482 4279587479
-0.033560425 0.018400688 -0.005492094 4279391129
-0.03182587 0.019218579 -0.0065997737 4279718548
-0.030360147 0.021426834 -0.0091504119 4279718294
-0.029044792 0.024329241 -0.012419183 4279456409
-0.027887844 0.02792527 -0.016404428 4279718294
-0.027037174 0.032909155 -0.021824852 4279652503
-0.026081316 0.03719613 -0.026517726 4279586459
-0.024141073 0.036620114 -0.026168957 4278931873
-0.021456048 0.032573409 -0.022227677 4279260058
-0.018437713 0.027140774 -0.016856618 4279195034
-0.015989307 0.024486613 -0.014364828 4279522453
-0.013207614 0.020446576 -0.010443289 4279522454
-0.01071085 0.017795801 -0.0079613402 4279849874
-0.0085150599 0.016533278 -0.0069157043 4279784083
-0.0064724125 0.015964724 -0.0065876292 4279784083
-0.0037579313 0.012624629 -0.0034011658 4279849874
-0.0011858791 0.0099792369 -0.00093444623 4279784338
0.0014076605 0.0073353685 0.0015279129 4279917958
-0.033176839 0.014066678 -0.0037126616 4279521944
-0.031689465 0.01628283 -0.0062629944 4279784083
-0.03034962 0.019195545 -0.0095304139 4279652504
-0.028762363 0.020712253 -0.011353571 4279260059
-0.027459644 0.023622684 -0.014613201 4279521943
-0.026317835 0.027228789 -0.018587148 4279391128
-0.025202639 0.030833233 -0.022555538 4279456664
-0.023388982 0.030952873 -0.022929931 4279391129
-0.020836748 0.027590359 -0.019718612 4279522199
-0.018107288 0.023533445 -0.015796198 4279784338
-0.015804715 0.021567017 -0.01402843 4279850130
-0.013330281 0.018905845 -0.011548456 4279849873
-0.010834325 0.016246185 -0.0090728514 4279849874
-0.0083168708 0.013588049 -0.0066016065 4279718804
-0.0061054155 0.012322243 -0.0055623902 4279718804
-0.0035503246 0.0096667968 -0.0030987617 4279457174
-0.00063556433 0.005622834 0.00078593567 4280178314
-0.030076452 0.015560608 -0.008475679 4281094020
-0.028883353 0.019180883 -0.012452256 4279783829
-0.02744323 0.021400783 -0.014987776 4279652759
-0.026019 0.023619678 -0.017519906 4279260313
-0.024610683 0.025837665 -0.020048724 4279391128
-0.022783771 0.025958156 -0.020425873 4279325593
-0.020514183 0.023982741 -0.018656325 4279522198
-0.017928049 0.020611521 -0.015460074 4279784338
-0.015620783 0.018638823 -0.013698207 4279915665
-0.013141815 0.015969116 -0.01122568 4279981198
-0.010641333 0.01330094 -0.0087575149 4280112268
-0.0081193522 0.010634277 -0.0062937122 4280112269
-0.005739443 0.0086667426 -0.0045464961 4280179588
-0.029147789 0.0084030218 -0.0038439017 4283188334
-0.028468423 0.01484276 -0.010683857 4281617533
-0.027290471 0.018473107 -0.014649145 4279849364
-0.025860496 0.020698994 -0.01717766 4279260059
-0.024588406 0.023625161 -0.020417869 4279456663
-0.022614256 0.023044705 -0.020081023 4278867103
-0.020192638 0.02036215 -0.017603422 4279522198
-0.017599467 0.016980369 -0.014416756 4279784338
-0.015132125 0.014300976 -0.011948408 4279915153
-0.012954 0.013023786 -0.010909013 4280177294
-0.010290954 0.0096469261 -0.0077365432 4280243339
-0.0079225004 0.0076719448 -0.0059919711 4280243849
-0.026592493 0.012721699 -0.011458391 4280700298
-0.025563478 0.01706608 -0.016127514 4280045204
-0.024140976 0.019298151 -0.018649561 4279783574
-0.022011936 0.0180129 -0.017603587 4279391128
-0.019724905 0.016025428 -0.015847454 4278998428
-0.017122045 0.01263326 -0.01267092 4279392149
-0.014644828 0.0099457055 -0.010211115 4280112269
-0.012301289 0.0079622231 -0.0084663825 4280440710
-0.0099416003 0.0059799403 -0.0067249555 4280574583
-0.023553245 0.014248095 -0.016181866 4280634764
-0.021555632 0.013664782 -0.015853193 4280241808
-0.019111566 0.010966007 -0.013393203 4279587734
-0.01634666 0.0068584681 -0.0095170913 4279981454
-0.014006551 0.0048680753 -0.0077766515 4280112778
-0.011960328 0.0042883717 -0.0074577183 4280506754
-0.020668253 0.0071760938 -0.011985999 4281747328
-0.018353101 0.0051771812 -0.010245403 4280372879
-0.015573334 0.0010574646 -0.0063821478 4280570504
-0.013369992 -0.00023138896 -0.0053578606 4280638334
0.015875004 -0.061291117 -0.018531987 4281947504
0.018047288 -0.061918017 -0.018280016 4282340714
0.041921981 -0.018523175 0.048230745 4285361444
0.045922048 -0.024433572 0.054267474 4285493023
0.030887114 -0.0051332042 0.031746261 4285426213
0.033725016 -0.0076978914 0.034204692 4285820699
0.037000328 -0.011610638 0.0380942 4285755419
0.040097054 -0.01484653 0.041260034 4285624094
0.042793799 -0.016731653 0.04298722 4285558813
0.04507447 -0.017267037 0.043279037 4285493278
0.048235308 -0.020498339 0.046431899 4285492769
0.030954618 -0.0074797161 0.031266741 4285493023
0.033589222 -0.0093758889 0.033001631 4285558814
0.036655515 -0.012624923 0.036165521 4285558813
0.039538056 -0.015195239 0.038608409 4285558813
0.040736504 -0.012350705 0.035326771 4285624348
0.042345203 -0.010860499 0.033478595 4285755163
0.044598743 -0.011399817 0.03377445 4285885978
0.048848517 -0.018023793 0.040489644 4285951259
0.029199667 -0.010645721 0.031916216 4284967724
0.03142637 -0.011189606 0.032215536 4285493534
0.033658411 -0.011733029 0.032513835 4285493533
0.036311083 -0.013634514 0.034240201 4285493533
0.038559124 -0.014176678 0.034535348 4285624094
0.039960478 -0.012002897 0.031975776 4285755674
0.041345701 -0.0098300688 0.029419539 4285754909
0.043369886 -0.0096937977 0.029003704 4285557794
0.046499178 -0.012949135 0.032146879 4285689374
0.050997443 -0.020271514 0.039552033 4285755163
0.029662624 -0.014366958 0.032858886 4284967979
0.031492829 -0.013548877 0.031726867 4285427999
0.033522464 -0.01341271 0.031309575 4285559069
0.03555207 -0.013276454 0.030892348 4285558814
0.037371494 -0.012458827 0.029762814 4285558303
0.038972709 -0.010960396 0.027922625 4285755419
0.040347647 -0.0087816305 0.025373386 4286018324
0.042361002 -0.0086460747 0.024959786 4285754653
0.045036864 -0.010552119 0.02667688 4285755164
0.048622839 -0.015178438 0.031229308 4285755419
0.052472427 -0.020482365 0.036483258 4285821209
0.028928973 -0.013995942 0.029514117 4284968234
0.030549277 -0.012492146 0.02767293 4285558558
0.032158859 -0.010989029 0.025834052 4285689373
0.034794156 -0.012904879 0.027554257 4285689883
0.036815576 -0.01276907 0.027138794 4285623838
0.038411662 -0.011266511 0.02530287 4285624348
0.039781678 -0.0090814866 0.022759581 4285755673
0.041789565 -0.0089462958 0.022347106 4285821208
0.044459403 -0.010859277 0.024060534 4285821209
0.047815308 -0.014818918 0.027894979 4285624093
0.051655296 -0.020141069 0.033137865 4285427234
0.027798265 -0.012238506 0.02475627 4285361698
0.029203668 -0.010044944 0.022210171 4285951513
0.031206284 -0.0099105798 0.021798437 4285885979
0.033830214 -0.011833798 0.023516105 4286017814
0.03626037 -0.013070103 0.024521293 4285886488
0.037851356 -0.011563499 0.022689732 4285624093
0.039431568 -0.010057498 0.020860398 4285558559
0.041436657 -0.0099224634 0.020448519 4285558813
0.044323668 -0.012527298 0.022864813 4285493023
0.048124708 -0.017869819 0.02810269 4285493024
0.051742643 -0.022524688 0.032625906 4285493279
0.026868261 -0.011147272 0.020724321 4286474774
0.028061792 -0.0082593448 0.017475942 4285490729
0.030255158 -0.0088141598 0.017775709 4285557284
0.033074643 -0.011432823 0.020199021 4285754399
0.036125116 -0.014737878 0.023325631 4285754909
0.037928618 -0.013914574 0.022204349 4285624093
0.039511759 -0.012403999 0.020377724 4285558813
0.041954681 -0.013643529 0.021377271 4285559068
0.045289502 -0.01763105 0.025196457 4285427744
0.049102366 -0.022990372 0.030418923 4285229863
0.024734862 -0.012935448 0.019949554 4284902443
0.02633715 -0.011419777 0.018121796 4286475029
0.027324516 -0.0078326501 0.014173174 4286212634
0.029713631 -0.009080749 0.015180206 4286017049
0.032320175 -0.011018317 0.016891716 4285754654
0.035571024 -0.015025098 0.020718114 4285820698
0.037581332 -0.0148899 0.020305032 4285558814
0.040021144 -0.016134147 0.021301897 4285559068
0.042906534 -0.018756766 0.023705492 4285559324
0.046033405 -0.022067245 0.026808603 4285493279
0.049855411 -0.027443562 0.032016195 4285361189
0.024209607 -0.013202872 0.017349282 4285098283
0.025409687 -0.010296989 0.014112482 4286081564
0.026588347 -0.0073924251 0.010880174 4286016028
0.028968934 -0.0086454339 0.011885686 4285951258
0.031566784 -0.010590199 0.013594104 4285754909
0.035017647 -0.015303139 0.018117109 4285624349
0.037870176 -0.017936993 0.020520793 4285493279
0.040744066 -0.020569276 0.022920178 4285361699
0.043856598 -0.023891848 0.02601804 4285163563
0.025277123 -0.011937324 0.012936374 4285753123
0.026657406 -0.009719003 0.010414958 4285753633
0.02863276 -0.0095864572 0.010008838 4285821209
0.031433661 -0.012232762 0.012416499 4285558303
0.03509222 -0.017655808 0.017631324 4285493278
0.038370065 -0.021687064 0.021432778 4285427488
0.041894399 -0.026410256 0.025929475 4285361189
0.02554094 -0.014972333 0.013167435 4286342939
0.027328711 -0.014141683 0.012055585 4285753634
0.029314645 -0.014008414 0.011647301 4285361188
0.032331616 -0.017359812 0.01474827 4285427488
0.035793092 -0.022102837 0.019246375 4285427744
0.039503574 -0.027539883 0.024437631 4285361443
0.042828336 -0.031581078 0.028219784 4285228844
0.027998596 -0.018581782 0.013683731 4286081054
0.030401818 -0.019846473 0.014674859 4285885469
0.033227794 -0.022508699 0.017064387 4285360933
0.036701273 -0.027266357 0.021548713 4285229098
0.028667074 -0.02303927 0.015299415 4286081053
0.031080507 -0.024307664 0.016285198 4285885213
0.034328036 -0.028380778 0.020063514 4285425959
0.037399121 -0.031750422 0.023137221 4285163054
0.028532844 -0.024698351 0.014109904 4286146843
0.031148778 -0.026674945 0.015790159 4285819169
0.028798912 -0.027769443 0.01431377 4286277149
0.031419538 -0.029752363 0.015988244 4286015773
0.034878165 -0.034557272 0.02044143 4285359914
0.037957884 -0.037948322 0.023497151 4285228844
0.03128431 -0.031421881 0.014791289 4286080798
0.034536231 -0.035534266 0.01853952 4285163054
0.031351559 -0.0338015 0.014287414 4286015008
0.022168454 -0.032448281 0.01128548 4286802194
-0.027126946 -0.037012544 0.00019720569 4285098283
-0.025426351 -0.035414089 -0.0015945658 4285229864
-0.023736283 -0.033816177 -0.0033841208 4284902699
-0.02712585 -0.039371271 -0.00027430989 4285229099
-0.025553562 -0.037031133 -0.0027548578 4285360423
-0.023729451 -0.036165792 -0.0038503846 4285229863
-0.022047058 -0.034563888 -0.0056350483 4285098793
-0.027253419 -0.040994588 -0.0014391448 4285294378
-0.025549732 -0.039387148 -0.003225144 4285360424
-0.023722917 -0.038519461 -0.0043196352 4285426213
-0.022037663 -0.036913011 -0.0061016669 4285492258
-0.020362936 -0.035307158 -0.0078813871 4285032748
-0.018557087 -0.034440491 -0.0089712767 4285098794
0.0068742037 -0.041733701 -0.005615863 4284967214
0.0095579885 -0.044547256 -0.0033016987 4285098029
0.011904985 -0.045887027 -0.0023515262 4285031983
-0.027380921 -0.042617586 -0.0026037525 4285294634
-0.02567704 -0.041005779 -0.004386588 4285229353
-0.023716688 -0.040877234 -0.0047918363 4285360678
-0.022028551 -0.039266255 -0.0065711895 4285492259
-0.020212121 -0.038396809 -0.0076618036 4285229353
-0.018683918 -0.036045995 -0.010123153 4285163308
0.0044237934 -0.042019729 -0.0077387718 4284901678
0.0067434572 -0.043365892 -0.0067864312 4285295143
0.0096026473 -0.046926845 -0.0037997141 4285295399
0.011772867 -0.047532488 -0.0035315268 4285032238
0.014130071 -0.048875798 -0.0025866553 4284966449
-0.027124427 -0.04647195 -0.0017066896 4285228843
-0.025542974 -0.044111554 -0.0041745557 4285229098
-0.023577422 -0.043982681 -0.004580888 4285426724
-0.022019751 -0.041623589 -0.0070437221 4285426469
-0.020339288 -0.040008578 -0.0088182194 4285360423
-0.018810712 -0.037651185 -0.011274812 4285294634
-0.017154064 -0.036037493 -0.01304421 4285229353
-0.015361272 -0.035167102 -0.014128018 4285098794
-0.013424367 -0.035039399 -0.014527908 4284903463
0.0018171035 -0.041554425 -0.010536204 4284900913
0.0042935871 -0.043647174 -0.0089059724 4285228844
0.0066127442 -0.044997785 -0.0079567842 4285294379
0.0091187246 -0.047088306 -0.0063324384 4285360678
0.011640772 -0.049177635 -0.004711315 4285098283
