# .PCD v0.7 - Point Cloud Data file format
VERSION 0.7
FIELDS x y z rgba
SIZE 4 4 4 4
TYPE F F F U
COUNT 1 1 1 1
WIDTH 773
HEIGHT 1
VIEWPOINT 0 0 0 1 0 0 0
POINTS 773
DATA ascii
0.0094735846 -0.010022148 0.029360309 4289410333
0.0096064433 -0.0013685599 0.020519704 4289408294
0.0083726197 0.012963124 0.0060684253 4288363813
0.0063642934 -0.0075665191 0.024327621 4289803798
0.0076159127 -0.0038751587 0.020419475 4290260504
0.0070813335 0.0076536313 0.0087962653 4290654734
0.0032895692 -0.0050818324 0.019307923 4289869333
0.0045391172 -0.0013797209 0.015408177 4290195224
0.0048193261 0.0066108927 0.007309027 4290916108
-0.0017558187 -0.0026931316 0.014691487 4290263309
0.0006961152 -0.0047213584 0.016403582 4289475358
0.0018000528 -0.00029046834 0.011810437 4289409314
-0.002025906 -0.0036259964 0.012806162 4289540893
-2.3469329e-05 -0.0035012439 0.012416488 4289212963
1.0743737e-05 0.0059806034 0.0029443353 4289147684
-0.0044383109 -0.0039561316 0.010614783 4289476378
-0.0022956133 -0.0045541599 0.010924211 4290979094
-0.00074169412 -0.0022631437 0.008442279 4290586139
-0.00056493282 0.0065247864 -0.00031009316 4292092424
-0.0069792643 -0.0035513863 0.0077303015 4289868823
-0.005133763 -0.002703093 0.0066460893 4289343778
-0.0031478032 -0.0025794879 0.0062595196 4289604644
-0.0016069412 -0.00028271973 0.0037849694 4289539618
-0.00068636239 0.0049099401 -0.0014683343 4291634698
-0.0099152364 -0.0009502545 0.0027629398 4289606684
-0.007802844 -0.0015548319 0.0030748397 4290128923
-0.005827859 -0.0014320537 0.0026903041 4290063134
-0.0037072077 -0.0020358637 0.0030007735 4288885798
-0.0018775687 -0.001186125 0.001921434 4288754729
-0.00065683573 0.0025689974 -0.0019324012 4291111183
-0.012008648 -0.0026977435 0.0019812621 4290331138
-0.010311387 -0.0011165217 0.0002072528 4289800738
-0.0084847063 -0.00026512146 -0.0008701589 4289604644
-0.0065205768 -0.0001430288 -0.0012525879 4289997343
-0.0044109598 -0.00074975193 -0.00094160065 4289932574
-0.0024439618 -0.00062725693 -0.0013244189 4290259483
-0.0007783547 0.00095256418 -0.0030917898 4291635463
-0.010706823 -0.001273647 -0.0023418237 4288950313
-0.0087456219 -0.0011518821 -0.0027237907 4289343013
-0.0067843162 -0.0010299906 -0.0031056777 4289539363
-0.0046777055 -0.0016391054 -0.002795741 4289146919
-0.0028614141 -0.00078582019 -0.0038692579 4289867549
-0.0010504201 6.7293644e-05 -0.0049417093 4288821793
-0.01027948 -0.0058247596 -0.00073381886 4287904303
-0.008447405 -0.0049686283 -0.0018091165 4288165678
-0.0066205785 -0.0041127503 -0.0028832676 4288754475
-0.0047990158 -0.0032570735 -0.0039562955 4289342758
-0.0029827133 -0.0024016127 -0.0050282292 4289736224
-0.0011716932 -0.0015463009 -0.0060990639 4287841064
-0.011701472 -0.011252351 0.0019385982 4287906343
-0.0098534226 -0.010393165 0.00086170249 4288099888
-0.0080106072 -0.0095342174 -0.00021403469 4288165678
-0.0063152537 -0.0079397857 -0.0019777995 4288296749
-0.0046305172 -0.006345816 -0.0037394268 4288819753
-0.0029564053 -0.0047524497 -0.0054988777 4288820264
-0.0011426844 -0.0038948506 -0.0065686079 4287905324
-0.011689432 -0.013625666 0.0014548544 4287643183
-0.009701997 -0.013502441 0.0010676552 4287904048
-0.0079931691 -0.011902861 -0.00069563463 4287969583
-0.0061529242 -0.011041768 -0.0017691795 4288362029
-0.0044626445 -0.0094431266 -0.0035286332 4289016613
-0.0026355945 -0.0085826218 -0.0045994343 4288428584
-0.00081382319 -0.0077222809 -0.0056691589 4288231724
0.0010026693 -0.0068621859 -0.0067377249 4288102694
-0.011811517 -0.01526247 0.00028062798 4287708718
-0.0099607557 -0.014398806 -0.00079355203 4288034864
-0.0079760253 -0.014275633 -0.0011801329 4287904303
-0.0061330944 -0.01341214 -0.0022526439 4288100398
-0.0042953975 -0.012548909 -0.0033239843 4288885544
-0.0026102103 -0.010946095 -0.0050791474 4287969583
-0.00063583255 -0.010823056 -0.005463344 4288100654
0.0013386309 -0.010699905 -0.0058474774 4287904303
0.0031578913 -0.0098373219 -0.0069148811 4288167208
-0.012200929 -0.015413262 -0.0022653062 4287578413
-0.010355491 -0.014547728 -0.0033368263 4287904303
-0.0082372501 -0.015167408 -0.0030374508 4287838259
-0.0061135441 -0.015786655 -0.0027389955 4288296493
-0.0041287765 -0.015663244 -0.0031254124 4288492844
-0.0022909865 -0.01479765 -0.0041951258 4288296493
-0.00030872226 -0.014674135 -0.0045808684 4288165679
0.0018260516 -0.01529219 -0.0042841975 4288165678
0.0035009347 -0.013685212 -0.0060338834 4287969073
0.0051651672 -0.012078822 -0.0077813761 4288296493
0.0064978153 -0.0089905933 -0.010888201 4288035373
0.0078090839 -0.0059035644 -0.013990767 4288298533
-0.010613345 -0.01543244 -0.0051896889 4286923829
-0.0083592311 -0.016799219 -0.0042080265 4287642419
-0.0060942993 -0.018165223 -0.003228331 4287969074
-0.0039627813 -0.018786035 -0.0029329788 4288230959
-0.0021196231 -0.017917968 -0.0040020924 4288296493
-0.00043132156 -0.01630602 -0.0057513621 4287969328
0.0015508682 -0.0161824 -0.0061370041 4288230958
0.0033781901 -0.015314944 -0.0072027538 4288296749
0.0052002221 -0.014447682 -0.0082673784 4288165934
0.0066963546 -0.012093842 -0.010689227 4288623914
0.0081764795 -0.0097409263 -0.013107811 4288362539
0.010137528 -0.0096179917 -0.013488882 4288298279
0.011930279 -0.0087520033 -0.014547479 4287906088
-0.0066408701 -0.017560884 -0.0064455215 4287577139
-0.0043736473 -0.018931024 -0.0054694097 4287773489
-0.0020956211 -0.020300336 -0.0044953693 4288035119
-0.00040446222 -0.018683873 -0.0062419195 4288296749
0.0015802532 -0.018560104 -0.0066280682 4288558379
0.0031007156 -0.016198419 -0.0090499874 4288231213
0.005077526 -0.016074888 -0.0094344001 4288885544
0.0068942681 -0.015205629 -0.010496287 4288493354
0.0088685118 -0.015082002 -0.010880025 4288231979
0.011173777 -0.016448706 -0.009910604 4288166188
0.013321623 -0.017069526 -0.0096191857 4287904303
0.01564572 -0.01843486 -0.0086532068 4288165933
-0.00052715093 -0.020317324 -0.0074135419 4288166699
0.0013054684 -0.019445263 -0.0084772576 4287904303
0.0029782057 -0.017825298 -0.010216815 4288427563
0.0047975779 -0.016953833 -0.011277711 4288231469
0.0067716129 -0.01683034 -0.011661487 4288297003
0.0089083388 -0.017454334 -0.011369718 4288035373
0.011711754 -0.021067657 -0.0083790775 4288231469
0.014206 -0.023184635 -0.0067424159 4287576628
0.01722838 -0.027541779 -0.0030870689 4287445559
0.019242786 -0.027415104 -0.0034782132 4287445814
0.0014863387 -0.022577241 -0.0082950797 4287512624
0.0030101649 -0.020202197 -0.01070798 4288297259
0.0045179874 -0.01782807 -0.013117639 4288231724
0.0066489801 -0.018454738 -0.012826459 4288493353
0.0087853819 -0.019080959 -0.012536259 4288100654
0.011752959 -0.023454964 -0.0088801254 4288231213
0.014752727 -0.027826868 -0.0052301204 4287969328
0.017784651 -0.032196589 -0.0015863031 4286857274
0.020329196 -0.034316696 3.5963953e-05 4286660923
0.0048665665 -0.021706998 -0.012260797 4287119668
0.0068456419 -0.021583192 -0.012645559 4288035119
0.0088247694 -0.021459267 -0.013030244 4288034864
0.011628877 -0.025094487 -0.010055876 4288100399
0.014795143 -0.030231304 -0.005744054 4287641908
0.018169276 -0.036117159 -0.00076868385 4286857274
0.0093502738 -0.026104398 -0.011514971 4287249464
0.011834465 -0.028241858 -0.009890954 4287838004
0.01483725 -0.032639869 -0.006260938 4287445558
0.017872207 -0.037035696 -0.0026370548 4286464574
-0.02502156 -0.018182658 0.007630812 4282546754
-0.023611374 -0.014362395 0.0037793275 4282678333
-0.021865971 -0.012761392 0.0020082854 4284443699
-0.025258534 -0.019088529 0.0057573728 4282088263
-0.024085917 -0.013774142 0.00053299405 4282285888
-0.022227891 -0.012910731 -0.00054312311 4282612288
-0.02025196 -0.012788825 -0.00092852674 4283396924
-0.025265284 -0.021477647 0.0052665267 4281957450
-0.024088971 -0.016147695 5.270727e-05 4281696073
-0.022228263 -0.015281938 -0.0010223296 4281958979
-0.020372748 -0.014416389 -0.0020962711 4281893953
-0.018396832 -0.014294393 -0.0024815965 4283594803
-0.016292453 -0.014915414 -0.0021798667 4284509234
-0.025501832 -0.022378482 0.003396688 4281695308
-0.024092317 -0.018525369 -0.00043047965 4281565259
-0.022349037 -0.016911395 -0.0021914709 4281631559
-0.020616308 -0.015297964 -0.0039502513 4281501763
-0.01851774 -0.015921675 -0.00364911 4281763139
-0.016413666 -0.016544931 -0.0033489447 4281828928
-0.014434945 -0.016422525 -0.0037346575 4282612289
-0.012456108 -0.016299978 -0.004120281 4283724854
-0.025623411 -0.024022989 0.0022166763 4281826634
-0.024095938 -0.020907119 -0.00091666169 4281565259
-0.022229828 -0.02003669 -0.0019895565 4281500488
-0.020368956 -0.019166403 -0.0030613784 4281501254
-0.018513285 -0.018296383 -0.0041320529 4281370693
-0.01653485 -0.018174142 -0.0045178067 4281566023
-0.014686942 -0.017304339 -0.0055867862 4281893189
-0.012844279 -0.016434751 -0.006654663 4282285123
-0.026088297 -0.023415349 -0.0010177251 4281825103
-0.024334095 -0.021792106 -0.0027744528 4281564748
-0.022350855 -0.021669932 -0.0031614136 4281369929
-0.020489961 -0.020797484 -0.0042316485 4281434953
-0.018759422 -0.019175328 -0.0059834849 4281369674
-0.016783804 -0.019053243 -0.0063686837 4281434953
-0.015069082 -0.017431818 -0.0081172641 4281435719
-0.013231765 -0.016560338 -0.009182537 4281632069
-0.011535548 -0.014939807 -0.010927321 4281895229
-0.0094343126 -0.015567161 -0.010629488 4282026043
-0.0071864165 -0.016943038 -0.0096529555 4282874939
-0.024337955 -0.024177656 -0.0032633748 4281301589
-0.022352189 -0.024055332 -0.0036508311 4281368909
-0.020610914 -0.022428222 -0.0054016877 4281369165
-0.01875522 -0.021553844 -0.0064691659 4281368908
-0.016904742 -0.020679645 -0.007535534 4281238603
-0.015059493 -0.019805655 -0.0086007956 4281304904
-0.01335251 -0.018180154 -0.010344593 4281632324
-0.011656113 -0.016555242 -0.012086192 4281763139
-0.0098319463 -0.015682183 -0.013147069 4281764159
-0.0077309459 -0.016311638 -0.012850733 4281828674
-0.005337026 -0.018442594 -0.011200232 4282611269
-0.0027805492 -0.021323241 -0.0088758413 4283133509
-0.020853989 -0.023304142 -0.0072516296 4281298273
-0.019125775 -0.021673389 -0.0089965891 4281040979
-0.017280638 -0.020797342 -0.01006032 4281172559
-0.015310556 -0.02067551 -0.010444364 4281303628
-0.013473209 -0.019799657 -0.011506433 4281173068
-0.011641115 -0.018924035 -0.012567325 4281304649
-0.0098142698 -0.018048637 -0.013627125 4281566024
-0.0078517795 -0.017926767 -0.014009329 4281435719
-0.0054585151 -0.020064391 -0.012363562 4281566788
-0.0030491017 -0.022200845 -0.010720892 4281763393
-0.00047460571 -0.025089033 -0.0084063178 4282415684
0.0016665794 -0.025717653 -0.0081190271 4283133763
-0.019370973 -0.022540376 -0.01083946 4281951838
-0.017528512 -0.02166228 -0.011901101 4280908888
-0.01556126 -0.021540619 -0.012284605 4281040724
-0.013593886 -0.021418862 -0.012668049 4281041233
-0.011626411 -0.021296941 -0.013051411 4281304393
-0.0096588321 -0.021174908 -0.013434714 4281369419
-0.0078318641 -0.020297177 -0.01449283 4281631304
-0.0057233758 -0.020930447 -0.014201095 4281436484
-0.0033172816 -0.023073711 -0.01256256 4281371458
-0.00044878572 -0.027481019 -0.0089071048 4281957193
0.0018461943 -0.028866626 -0.0079490384 4282610504
0.0036896281 -0.027987219 -0.0090098782 4283001418
-0.013582002 -0.023796059 -0.013154542 4281102179
-0.011882402 -0.022157781 -0.01488716 4281301844
-0.0096418969 -0.023551814 -0.013922201 4281302354
-0.0076716878 -0.023429483 -0.014305918 4281565513
-0.0055581629 -0.024064615 -0.014016761 4281434698
-0.003293287 -0.025456727 -0.013056314 4281696329
-0.00057185069 -0.029119849 -0.010082583 4281695054
0.001873903 -0.03126698 -0.0084564341 4282543184
-0.01240813 -0.021493249 -0.018065104 4281430364
-0.010313835 -0.022132091 -0.01777398 4281039448
-0.0080737174 -0.023530386 -0.016812125 4281694798
-0.0056797266 -0.025687702 -0.015181018 4281498703
-0.0032695904 -0.02784384 -0.013553011 4281564238
-0.00069488958 -0.030758351 -0.011257838 4282019924
-0.008334823 -0.02438435 -0.0186416 4281170773
-0.005801253 -0.027310461 -0.016345059 4281236308
-0.0033917725 -0.029473238 -0.014721769 4281432404
-0.016092196 -0.0012139231 0.044512175 4285361188
-0.014033161 -0.0010863766 0.044110943 4285689119
-0.011070266 -0.0058372915 0.048755422 4285622819
-0.019002959 0.0011565834 0.03936917 4285558558
-0.017330989 0.0033814162 0.036810268 4285689373
-0.015296206 0.0035074204 0.036413733 4285689118
-0.012745522 0.00083698332 0.038894087 4285755163
-0.0099100098 -0.0032300502 0.042807765 4285689629
-0.0066392757 -0.0093913972 0.048869722 4285295653
-0.021642976 0.0021521151 0.035678625 4285295653
-0.01985278 0.0036814064 0.033844158 4285755673
-0.018073142 0.005210191 0.032011777 4285558048
-0.016051888 0.005335331 0.031617854 4285492259
-0.013772927 0.0040578246 0.032659262 4285623839
-0.011220209 0.0013787299 0.035132833 4285689628
-0.0085117444 -0.001999937 0.03831885 4285427488
-0.0055027157 -0.0067785457 0.042931806 4285361953
-0.0024560094 -0.01155474 0.047537543 4285032493
-0.024490155 0.0045759454 0.03055954 4285230119
-0.022592768 0.0054046214 0.02944842 4285624349
-0.020700581 0.0062330514 0.028338384 4285886743
-0.018813573 0.0070613325 0.027229398 4285755163
-0.016805843 0.0071856081 0.02683809 4285755419
-0.014540751 0.0059028119 0.02787894 4285886998
-0.012002226 0.0032140017 0.03034877 4285690139
-0.0095760636 0.0012298971 0.032099444 4285558813
-0.0072703212 -5.0038099e-05 0.033132616 4285559068
-0.0050930604 -0.000626266 0.033449762 4285623583
-0.0026262775 -0.0026075542 0.035192803 4285688864
0.00029077753 -0.0066954345 0.039071478 4285753889
0.019947708 0.015172787 0.013760675 4285229863
0.021217499 0.018099524 0.010550221 4285754653
0.024106069 0.014723025 0.013694532 4285754399
-0.026853278 0.0042016506 0.028323844 4285558049
-0.025073767 0.0057388768 0.026497699 4285558559
-0.023187064 0.0065690503 0.02539026 4285624349
-0.021185152 0.0066927299 0.024999913 4285624349
-0.019306138 0.0075226501 0.023894124 4285755674
-0.017055064 0.0062344819 0.024934325 4285755674
-0.014664676 0.0042412952 0.026686981 4285690139
-0.012126934 0.0015435964 0.029150471 4285558558
-0.0099690035 0.00096372515 0.029469583 4285624349
-0.0082150213 0.0025001913 0.027649019 4285624604
-0.0064716265 0.004036054 0.025830634 4285820953
-0.0044551417 0.0041614771 0.025438074 4285425704
-0.0017159209 0.00076307356 0.028602183 4285819934
0.0017862543 -0.0061566532 0.035315141 4285819933
0.00549208 -0.013777405 0.042728037 4285425703
0.016616954 0.018328525 0.0080316719 4285164584
0.017702505 0.021966264 0.0041240174 4285820699
0.019478839 0.022792004 0.0030398443 4285754654
0.02252437 0.018700473 0.0068849437 4285885979
0.026895437 0.0096951947 0.015648436 4285885978
0.031711143 -0.00070975721 0.025804423 4285688863
-0.029314056 0.0045465678 0.025376096 4285295398
-0.027649395 0.0067968667 0.022837598 4285886234
-0.025541119 0.0062109157 0.023164257 4285952024
-0.023309767 0.0049168095 0.02420482 4285689884
-0.021307983 0.0050404593 0.023814488 4285558558
-0.019306034 0.0051642135 0.02342419 4285558558
-0.017052718 0.0038717687 0.024460696 4285558558
-0.014660276 0.0018720627 0.026208073 4285558558
-0.012513511 0.0012891591 0.026527639 4285558558
-0.010628507 0.0021220371 0.025422588 4285624348
-0.009021353 0.0043697283 0.022896003 4285690138
-0.0072911642 0.0059091672 0.021083426 4285623838
-0.0052882247 0.0060337111 0.020693474 4285425958
-0.0028520897 0.0040373877 0.022432819 4285623073
0.00033543259 -0.0014919937 0.027715113 4285754654
0.0034162626 -0.0063119233 0.032280486 4285688863
0.0068395287 -0.012542404 0.038254935 4285623839
0.014182344 0.017991371 0.005840471 4285427233
0.015102752 0.022345752 0.0012351032 4285755673
0.016697191 0.023878217 -0.00054997019 4285623839
0.018460149 0.024705313 -0.0016299319 4285557539
0.021127304 0.022008941 0.00080342777 4285558048
0.024738893 0.015791632 0.0067422818 4285623838
0.028586039 0.0088731721 0.013373237 4285689883
0.032296874 0.0026623532 0.019292999 4285558558
0.035863325 -0.0028413013 0.024503101 4285427744
-0.031437241 0.0027716085 0.024581365 4285492768
-0.029873729 0.0057402328 0.021331094 4285754908
-0.028107367 0.0072852299 0.019513905 4285623838
-0.025778018 0.0052745193 0.021268275 4285689628
-0.023667179 0.0046866015 0.021592874 4285755419
-0.021430746 0.0033884719 0.022629257 4285624348
-0.019306168 0.0028016642 0.022951283 4285558814
-0.017050646 0.0015048683 0.023984142 4285559068
-0.014912367 0.00091912597 0.024303656 4285559068
-0.013030142 0.001753889 0.023200665 4285559069
-0.011286624 0.0032983497 0.021388493 4285624349
-0.0096898302 0.0055519268 0.018868811 4285821464
-0.00783135 0.0063855872 0.017770637 4285820953
-0.0058365911 0.0065096244 0.017382272 4285689373
-0.0034091286 0.0045061186 0.019118443 4285820699
-0.00067173317 0.0010856614 0.022266768 4286017814
0.0020925775 -0.0023330301 0.025409937 4285754908
0.0051882938 -0.0071673691 0.029961139 4285623583
0.0081667006 -0.011290647 0.03379903 4285491494
0.011591118 0.01837191 0.0029502735 4285033003
0.013204478 0.019909762 0.0011646133 4285493279
0.014807135 0.02144707 -0.00061894767 4285624603
0.016222715 0.023690976 -0.0031021852 4285886998
0.017980337 0.02451998 -0.004179528 4285821209
0.020096101 0.02393496 -0.0038539916 4285821209
0.023508191 0.018403605 0.0013728496 4285821209
0.026776105 0.013581552 0.0058916882 4285689884
0.029512197 0.010881059 0.0083054379 4285624349
0.032077245 0.0088882372 0.0100163 4285559069
0.034658376 0.0068965182 0.011724181 4285493278
0.03725557 0.0049059168 0.013429027 4285427489
0.041272447 -0.002023235 0.02001131 4285295398
-0.03387142 0.0031388924 0.021643668 4285361444
-0.032091863 0.004688859 0.019826967 4285821209
-0.030432016 0.0069518909 0.017298996 4285689374
-0.028564312 0.0077871978 0.016199894 4285557793
-0.026358157 0.0064825788 0.017238781 4285689373
-0.024023883 0.0044655874 0.018987432 4285820953
-0.021673352 0.0024497136 0.020732999 4285624349
-0.019551761 0.001860477 0.021053959 4285624349
-0.017424643 0.0012716874 0.021373913 4285624348
-0.015675835 0.0028206035 0.019563828 4285624348
-0.013937622 0.004369013 0.01775584 4285624093
-0.011943378 0.0044926628 0.017367318 4285623838
-0.01022096 0.0060402676 0.015562609 4285623838
-0.008370474 0.0068755671 0.014467642 4285755419
-0.0062425509 0.0062874928 0.014787935 4285886488
-0.0036770627 0.0035655722 0.017226946 4285886488
-0.0012367368 0.0015564039 0.018955767 4285754653
0.0012197942 -0.00045169145 0.020681564 4285623583
0.003996633 -0.0038804933 0.023814283 4285820189
0.008851856 0.019477263 -0.0006356556 4285098283
0.010291852 0.021728963 -0.0031190235 4285559069
0.012399167 0.021140821 -0.0027938336 4285493533
0.014164824 0.021972254 -0.003871249 4285624094
0.015925139 0.022803523 -0.0049475823 4285623838
0.01768012 0.023634508 -0.0060227569 4285689884
0.019792888 0.023047157 -0.0056982953 4285624093
0.022832317 0.018915683 -0.0018810239 4285624093
0.025716987 0.015495121 0.001231825 4285624093
0.028059607 0.014202081 0.0022464264 4285624349
0.029836036 0.015034981 0.0011675023 4285624348
0.031412087 0.016575925 -0.00060699321 4285690139
0.03357039 0.015992053 -0.00029083714 4285886489
0.036936104 0.011161387 0.0041980799 4285951514
0.041760541 0.0013791993 0.013545591 4285951514
0.046865731 -0.0091056675 0.02357322 4285885978
-0.036086053 0.0020883158 0.020139284 4285033004
-0.034303799 0.0036427155 0.018325195 4285493535
-0.032532088 0.0051966086 0.016513187 4285624859
-0.030770883 0.0067499205 0.014703348 4285756184
-0.028908506 0.0075870752 0.013606884 4285887254
-0.026593775 0.0055621937 0.01535435 4285887509
-0.024379864 0.0042536482 0.016388573 4285690139
-0.022035323 0.0022308305 0.018130388 4285624349
-0.019919373 0.0016389713 0.018450852 4285689629
-0.01804813 0.0024772361 0.017352998 4285689883
-0.016437627 0.0047445074 0.014840078 4285820953
-0.014451683 0.0048675165 0.014453083 4285886489
-0.012332462 0.0042763427 0.014773194 4285821209
-0.010207769 0.0036856085 0.015092306 4285624094
-0.0084930807 0.0052372292 0.013292409 4285623838
-0.0065066293 0.0053607002 0.012905627 4285624093
-0.0042323507 0.0040570423 0.013928853 4285624093
-0.0016541518 0.0013271943 0.016358986 4285689118
0.0066236407 0.018464677 -0.002108844 4285623584
0.0077386796 0.022147842 -0.005990183 4285820699
0.0096669346 0.022268809 -0.0063648131 4285820954
0.012107257 0.020253971 -0.0046400744 4285820953
0.014043625 0.020375662 -0.0050161202 4285624093
0.015803974 0.021209121 -0.0060908459 4285558559
0.017737709 0.021330871 -0.0064662173 4285558558
0.019852865 0.020741433 -0.006143786 4285558558
0.022341553 0.018730246 -0.0044280663 4285624349
0.024846345 0.016720153 -0.0027153445 4285624349
0.026988309 0.016132779 -0.0023979126 4285624349
0.028559228 0.017677642 -0.0041682133 4285755929
0.029924575 0.019932397 -0.0066314656 4285755164
0.031866297 0.020055436 -0.0070078094 4285557794
0.034608699 0.017338194 -0.0046078926 4285623584
0.038386818 0.011072792 0.0012555588 4285689373
0.042829778 0.0026813224 0.0091887321 4285493023
0.047961731 -0.0078347549 0.019187048 4285493024
-0.036307916 0.0011648461 0.018249281 4285426469
-0.034528151 0.0027235076 0.016438842 4285559324
-0.032865085 0.0049997196 0.013919864 4285559069
-0.031217895 0.0072751269 0.011404036 4285559069
-0.029140458 0.0066782907 0.011730023 4285558558
-0.026943237 0.005364202 0.012764174 4285558558
-0.024735138 0.0040509254 0.01379624 4285558558
-0.022516139 0.0027383938 0.014826301 4285624348
-0.020408541 0.0021438301 0.015146714 4285690139
-0.018670231 0.0037007779 0.013344981 4285689883
-0.017197698 0.0066908076 0.010132395 4285623583
-0.015225306 0.0068129525 0.0097480156 4285754908
-0.012720875 0.0040691942 0.012185574 4285952533
-0.010330517 0.0020431802 0.013914105 4285689883
-0.0084773004 0.0028830171 0.012821816 4285624348
-0.006629318 0.0037226304 0.011730623 4285624604
-0.0043555088 0.002414532 0.012750685 4285689884
-0.0017781109 -0.00032418221 0.015174493 4286081054
0.0053654201 0.021866761 -0.0081549697 4285689629
0.0069578327 0.023416251 -0.0099270381 4285754909
0.0090430453 0.022822201 -0.0096008703 4285689628
0.011645198 0.020086072 -0.0071811285 4285952789
0.013749253 0.019493409 -0.0068584662 4285755674
0.016034581 0.018187344 -0.0058395937 4285624349
0.01797354 0.018309429 -0.0062159784 4285624349
0.019731279 0.019145101 -0.0072883721 4285624348
0.021483649 0.019980609 -0.0083596781 4285624348
0.023790469 0.018676341 -0.0073446501 4285558814
0.025729442 0.018798873 -0.0077207051 4285624349
0.02728446 0.020347178 -0.0094847251 4285821463
0.028439442 0.023320183 -0.012633562 4285886743
0.030559588 0.022729531 -0.012313221 4285689374
0.033285089 0.020002425 -0.0099164937 4285755164
0.036640063 0.015140407 -0.0054480461 4285755928
0.040237911 0.0095688626 -0.00029534288 4285755929
0.04533498 -0.0009823814 0.0096854288 4285493533
-0.036026061 -0.0033574402 0.019913465 4285360678
-0.034235381 -0.0017937347 0.018104102 4285558558
-0.032773301 0.0019304976 0.014169537 4285558559
-0.03112039 0.0042127743 0.011657454 4285624604
-0.029260628 0.0050541535 0.010564646 4285493278
-0.027177915 0.0044554695 0.010888085 4285559069
-0.025089696 0.0038572699 0.011210481 4285559068
-0.023115344 0.0039790794 0.010825392 4285558814
-0.021140851 0.0041010007 0.010440342 4285690394
-0.019415736 0.0056615025 0.0086443946 4285689884
-0.017701186 0.0072214156 0.00685063 4285492259
-0.015476704 0.0059052706 0.0078766476 4285492258
-0.012975749 0.0031524375 0.010308439 4285623839
-0.010453213 0.0004010573 0.012736116 4285886234
-0.0085999742 0.0012430698 0.011645418 4285558814
-0.0067519695 0.0020848736 0.010555824 4285624349
-0.0044786222 0.00077232718 0.011572739 4285688609
0.002342321 0.015737921 -0.0043488955 4285492003
0.0033231489 0.020161532 -0.0089178775 4285690139
0.0047587715 0.022432514 -0.011386022 4285755164
0.0063433312 0.02398593 -0.013153382 4285557793
0.0085878633 0.022672571 -0.012130067 4285557793
0.011183843 0.019927241 -0.0097155981 4285689374
0.013801303 0.017183378 -0.0073052188 4285689883
0.016088832 0.015873097 -0.0062900567 4285624348
0.018030334 0.015995331 -0.0066669369 4285558558
0.019428641 0.018264823 -0.0091272816 4285624348
0.020810872 0.020533361 -0.011584383 4285689884
0.0227363 0.020654924 -0.011957895 4285624094
0.024850838 0.020061411 -0.011638382 4285558559
0.02639533 0.021613464 -0.013397118 4285689884
0.027734611 0.023879752 -0.015845554 4285886998
0.0298464 0.023286402 -0.015525255 4285886998
0.032563038 0.020549946 -0.013133276 4285887253
0.035908643 0.015671931 -0.0086743357 4285821208
0.039291751 0.010796383 -0.0042225225 4285558813
0.044999056 -0.0019307509 0.0078045279 4285427743
-0.035946451 -0.0064512417 0.020147983 4285294633
-0.03415022 -0.0048828796 0.018340796 4285558304
-0.032364525 -0.0033150166 0.016535692 4285558303
-0.030806415 -0.00030288845 0.013318703 4285492514
-0.029047087 0.0012635216 0.011518959 4285492768
-0.027298331 0.0028293803 0.009721335 4285559069
-0.025326967 0.0029508621 0.0093367174 4285559069
-0.02359394 0.004516013 0.0075422879 4285559069
-0.021749534 0.0053589866 0.0064544231 4285558813
-0.020034947 0.0069232136 0.0046637505 4285821719
-0.018203631 0.007765606 0.0035785995 4285886998
-0.01598765 0.0064444616 0.0046030581 4285886743
-0.013362885 0.0029613376 0.0077323914 4286018323
-0.010846511 0.00020076334 0.010154782 4285820699
-0.0087225884 -0.0003965646 0.010469235 4285558303
-0.006733872 -0.00027299672 0.010081979 4285951513
0.00081095099 0.020615004 -0.011773361 4285623839
0.0022468716 0.022892535 -0.014236836 4285559069
0.0039910264 0.023730941 -0.015303958 4285887253
0.0057298727 0.024569154 -0.016369944 4285887253
0.0081333742 0.022532143 -0.01465274 4285886999
0.010553002 0.020496197 -0.012938552 4285886999
0.013334472 0.017024577 -0.0098384386 4285755928
0.015616164 0.015709467 -0.0088253403 4285558558
0.017373934 0.016549475 -0.0098946346 4285624349
0.018583667 0.01954297 -0.013041561 4285624093
0.019955538 0.021817476 -0.015491789 4285755419
0.022056365 0.021220788 -0.015171314 4285755164
0.024351489 0.019907154 -0.014160438 4285689628
0.026082452 0.020746008 -0.01522406 4285689629
0.027613727 0.022301689 -0.016976876 4285558303
0.029725211 0.021706127 -0.016658131 4285558558
0.032441035 0.018960826 -0.014272457 4285558558
0.035987671 0.013350748 -0.0091357799 4285558814
0.039987221 0.0063107684 -0.0026308224 4285493279
0.04611747 -0.0078878775 0.010741118 4285427489
-0.035967767 -0.0088284463 0.019669395 4285294633
-0.03416869 -0.0072555616 0.017864846 4285427234
-0.032274403 -0.0064079762 0.016768381 4285492768
-0.030602045 -0.0041113421 0.01426211 4285492258
-0.028834507 -0.0025400743 0.012463957 4285492259
-0.027304962 0.00047929585 0.0092591643 4285558304
-0.025331065 0.00060090423 0.0088740326 4285559069
-0.023714229 0.0028945729 0.0063789282 4285559324
-0.021991551 0.0044635162 0.0045898538 4285559069
-0.020403892 0.0067555979 0.0021005943 4285624603
-0.018577926 0.0075998232 0.0010180809 4285821209
-0.016237974 0.0055506527 0.0027416255 4285820953
-0.013749305 0.0027794316 0.0051628575 4285755163
-0.01110395 -0.00071332604 0.0082801469 4285689374
0.0003788285 0.020480685 -0.014296919 4285426978
0.001969032 0.022042982 -0.016059035 4285558814
0.0037105381 0.02288343 -0.017124018 4285559069
0.0054467246 0.023723699 -0.018187933 4285624348
0.0076795816 0.022400789 -0.017168831 4285690139
0.010093216 0.02035787 -0.015458325 4285624348
0.012868334 0.016874842 -0.012365077 4285558558
0.01496882 0.016275473 -0.012046486 4285624349
0.016896633 0.016396843 -0.012420719 4285689883
0.0179208 0.020118959 -0.016251564 4285689883
0.019468395 0.021679662 -0.018004689 4286018069
0.021377457 0.021800198 -0.01837502 4285952279
0.024041619 0.019042365 -0.015986141 4286018324
0.026152842 0.018444374 -0.015669122 4285821464
0.027881132 0.019285373 -0.016730525 4285558558
0.030194495 0.017968804 -0.015726117 4285559068
0.033117045 0.014496244 -0.012660614 4285493788
0.037077267 0.0074316561 -0.0061642928 4285428254
0.041500796 -0.0010666326 0.0016950853 4285296164
0.047441408 -0.014589675 0.014345102 4285361954
-0.03608954 -0.010482475 0.018482424 4285294888
-0.034290247 -0.0089051947 0.016681056 4285361189
-0.032290407 -0.0087824538 0.016290531 4285426978
-0.030506797 -0.0072059184 0.014492378 4285426979
-0.028733715 -0.0056298971 0.012696315 4285360934
-0.027084753 -0.0033279136 0.010199595 4285426724
-0.025102936 -0.0032058284 0.009812912 4285426468
-0.02359663 -0.00017894804 0.0066193044 4285558813
-0.021990016 0.0021207482 0.0041310899 4285493024
-0.020523593 0.005145438 0.00094538182 4285493023
-0.018697597 0.0059918389 -0.00013553165 4285558814
-0.016487896 0.0046615228 0.00088361278 4285558814
-0.014002718 0.0018812716 0.0032990426 4285624093
-0.011495985 -0.00089754909 0.0057103354 4285558049
0.00072958693 0.016736217 -0.01334166 4285558303
0.0023280345 0.018303424 -0.015102148 4285690393
0.0039157979 0.01987011 -0.016860532 4285559068
0.0058218613 0.019989528 -0.017230961 4285558813
0.0077279657 0.020109065 -0.017601315 4285559068
0.0099737979 0.01878269 -0.016587881 4285559068
0.012230374 0.017457135 -0.015576506 4285558814
0.0141473 0.0175777 -0.015948705 4285558814
0.01588637 0.018420883 -0.017011091 4285689884
0.017078396 0.021430857 -0.020141644 4285755673
0.018798716 0.022273101 -0.021200223 4285623584
0.020513659 0.023115158 -0.02225771 4285492259
0.023354899 0.019625954 -0.019184818 4285755163
0.026031623 0.016860276 -0.016804801 4285821209
0.028535821 0.014817521 -0.015115949 4285624348
0.031252723 0.012054592 -0.0127435 4285559069
0.034589026 0.0071297362 -0.0083167702 4285559324
0.038770877 -0.00067659467 -0.0011547804 4285427998
0.043011647 -0.008479014 0.0059958473 4285493789
-0.035911188 -0.014324814 0.019407164 4285294633
-0.034309052 -0.011283875 0.016200781 4285426469
-0.032517418 -0.009702608 0.014404193 4285426979
-0.030628242 -0.0088509098 0.013311975 4285426979
-0.028854974 -0.0072705075 0.011519089 4285361188
-0.027092241 -0.0056906715 0.0097283851 4285360934
-0.02522397 -0.0048398748 0.0086404644 4285360933
-0.02347964 -0.0032609552 0.0068535134 4285492513
-0.021867312 -0.00095432252 0.0043690279 4285558559
-0.020395018 0.0020794868 0.0011886135 4285690138
-0.018817209 0.0043841749 -0.0012889281 4285624604
-0.016607977 0.0030494109 -0.00027293712 4285558813
-0.014255762 0.00098782033 0.0014386028 4285558304
0.00038358197 0.007048808 -0.0064743832 4285425194
0.0015481859 0.010800667 -0.010317122 4285426979
0.0031629056 0.012373269 -0.012077562 4285426723
0.0047669485 0.013945371 -0.013835867 4285492514
0.0063603371 0.01551687 -0.015591986 4285492768
0.0081100352 0.016362444 -0.016655166 4285361443
0.0096847303 0.017933048 -0.018407518 4285493534
0.01159345 0.018052988 -0.018778212 4285493534
0.013327155 0.018897913 -0.019838028 4285559069
0.01505553 0.019742616 -0.020896729 4285558813
0.016417749 0.022036217 -0.023330662 4285953044
0.018313129 0.022155784 -0.023698421 4285690139
0.020208504 0.022275448 -0.024066107 4285624094
0.022857631 0.019499101 -0.021687221 4285689884
0.025528187 0.016724214 -0.019312415 4285690138
0.028607763 0.012503423 -0.015570554 4285558814
0.032112453 0.0068377256 -0.010464687 4285493534
0.036058314 -0.00027184933 -0.0039979964 4285427744
0.04046144 -0.0088242963 0.0038264561 4285230119
0.043906227 -0.013757385 0.0082210507 4285163309
-0.032323219 -0.013543695 0.015325967 4285098539
-0.030533887 -0.011958085 0.013533123 4285164073
-0.028644502 -0.011104099 0.01244254 4285361444
-0.026873544 -0.0095193386 0.010653401 4285426724
-0.025113121 -0.0079351664 0.0088664498 4285361189
-0.023363262 -0.0063514933 0.0070815906 4285426724
-0.021623939 -0.0047683939 0.00529892 4285492513
-0.020019144 -0.0024555326 0.0028208271 4285558048
-0.018303648 -0.00087369233 0.0010429528 4285557793
-0.016210802 -0.0014821514 0.0013566967 4285491748
0.00041635334 0.0047171563 -0.006932402 4285425448
0.0018965192 0.0070236772 -0.0093851946 4285492514
0.0036782473 0.0078730956 -0.010453258 4285492513
0.0052932017 0.0094502643 -0.012210462 4285492514
0.0068975016 0.011026852 -0.01396546 4285492513
0.0084911138 0.012602903 -0.015718356 4285558559
0.0097350478 0.015633225 -0.018846352 4285426723
0.010957561 0.018662356 -0.021970157 4285493278
0.012508377 0.020236082 -0.023714472 4285493279
0.014048509 0.021809235 -0.025456568 4285493278
0.015758149 0.02265507 -0.026509931 4285690139
0.017462429 0.023500733 -0.027562205 4285821463
0.019532537 0.022893272 -0.027242193 4285887254
0.022172792 0.020107619 -0.024868095 4285755674
0.025407342 0.015145153 -0.02044449 4285624603
0.02887303 0.009459272 -0.015344086 4285493533
0.033166811 0.0008733198 -0.0075180493 4285427998
0.037126929 -0.0062573627 -0.0010702312 4285295909
0.041140601 -0.013384454 0.0053672697 4285097518
-0.030116953 -0.017274179 0.015845418 4284966958
-0.028434955 -0.014950551 0.013356674 4285230373
-0.026655771 -0.013360977 0.011569183 4285361444
-0.025002889 -0.011038937 0.0090862773 4285360933
-0.023129046 -0.010183379 0.008000588 4285426723
-0.021502614 -0.0078627393 0.0055230185 4285426979
-0.019768327 -0.0062754676 0.0037446246 4285558049
-0.018171065 -0.0039563775 0.0012729168 4285557794
-0.016073167 -0.0045667961 0.0015840754 4285425448
0.00029555708 0.0031120703 -0.0080836155 4285425958
0.0019320063 0.0046947226 -0.0098419599 4285558049
0.003716439 0.0055464953 -0.010908931 4285492514
0.0054955631 0.0063980594 -0.011974793 4285492514
0.0071054026 0.0079794154 -0.013727685 4285361443
0.0087045729 0.0095601901 -0.015478374 4285360933
0.0097850487 0.01332932 -0.019288193 4285360934
0.010838751 0.017096899 -0.023092708 4285558304
0.01238976 0.018675044 -0.024833824 4285624603
0.014107458 0.019523464 -0.025887221 4285558814
0.015639752 0.021100625 -0.027624486 4285558814
0.017161317 0.022677273 -0.029359626 4285558814
0.019413853 0.021338828 -0.028356677 4285493534
0.022053288 0.018544324 -0.02598889 4285493534
0.025668072 0.012109838 -0.020210501 4285427999
0.029718008 0.0042222738 -0.013076529 4285296418
0.034023017 -0.0043893084 -0.0052720429 4285097773
-0.026326001 -0.017950892 0.013172116 4284901169
-0.024777651 -0.014886431 0.0099959597 4285295144
-0.023014016 -0.013293214 0.0082148854 4285295654
-0.021381885 -0.010965653 0.0057410244 4285360933
-0.019765683 -0.0086389333 0.0032703783 4285492768
-0.018165395 -0.0063131452 0.00080294535 4285558049
-0.015807174 -0.0083942562 0.0024986137 4285492004
0.0003278777 0.0007744357 -0.0085459985 4285556774
0.0021229833 0.0016289428 -0.0096135344 4285426213
0.0035958849 0.0039482936 -0.012055142 4285492513
0.0053750277 0.0048020631 -0.013119387 4285426723
0.0073126778 0.0049234331 -0.013495976 4285426723
0.009083882 0.0057769343 -0.014558498 4285361188
0.010511421 0.0080939233 -0.016990945 4285426468
0.011579219 0.011873379 -0.020790119 4285426469
0.012969293 0.01418826 -0.023215104 4285492004
0.014343306 0.016502261 -0.025636878 4285623839
0.015701268 0.018815316 -0.028055416 4285492769
0.017043132 0.021127529 -0.030470772 4285493024
0.019295188 0.019784652 -0.029470971 4285427998
0.022309676 0.015519969 -0.025745731 4285493534
0.02649999 0.0068744719 -0.017938532 4285361953
0.030947894 -0.0024971068 -0.0094629377 4285427744
0.035073526 -0.010403909 -0.0023613144 4285229609
-0.024899624 -0.016534694 0.0088132732 4284967213
-0.023135819 -0.01493711 0.0070353728 4285032493
-0.021744899 -0.01112882 0.0031796359 4285295654
-0.019886777 -0.010269649 0.0021003876 4285492768
-0.018286139 -0.0079372749 -0.00036227889 4285492513
-0.015928559 -0.01002501 0.0013286676 4285426468
0.0021577068 -0.00071042031 -0.010077763 4285359658
0.0034753568 0.0023504123 -0.013201129 4285492259
0.005254522 0.0032063499 -0.014263771 4285558049
0.0071920231 0.0033277273 -0.014640328 4285492258
0.0091295689 0.003449209 -0.015016809 4285492514
0.010560144 0.0057729855 -0.017444994 4285426468
0.011974663 0.0080958828 -0.019869968 4285426469
0.013547506 0.0096841305 -0.021608824 4285426213
0.014932599 0.012005411 -0.024027906 4285558048
0.016301636 0.01432576 -0.026443738 4285623583
0.017836981 0.015912071 -0.028175093 4285624093
0.020101957 0.014565609 -0.027181026 4285624348
0.023504209 0.0088228211 -0.022107292 4285493279
0.027520671 0.00088469684 -0.015002456 4285361954
0.032175437 -0.0092471316 -0.0058712522 4285164073
-0.019884527 -0.012639113 0.0016218238 4284967723
-0.018154897 -0.011038907 -0.00014592893 4285230118
-0.016049899 -0.01165545 0.00015893765 4285360678
0.0056164302 -0.00059928 -0.013356242 4285491749
0.0072348677 0.00099573284 -0.015101094 4285492513
0.009008795 0.0018537864 -0.016160924 4285492513
0.010777391 0.0027116388 -0.017219622 4285557793
0.012369145 0.0043053851 -0.01895906 4285492259
0.014124401 0.0051626489 -0.02001499 4285492259
0.015520576 0.0074912235 -0.022431372 4285492003
0.017080233 0.0090832859 -0.024164258 4285492259
0.018629169 0.010674834 -0.025895018 4285558049
0.020907063 0.0093248039 -0.024906689 4285492258
0.024508817 0.0028300881 -0.019169457 4285361189
0.028729618 -0.0058661476 -0.011406962 4285295144
-0.018150076 -0.013407923 -0.00062477775 4284902698
-0.016042717 -0.014026545 -0.00032201037 4285098284
0.0072774142 -0.0013403445 -0.015564788 4285557028
0.0088880435 0.00025867671 -0.017304815 4285557539
0.010656659 0.001118727 -0.018361896 4285492513
0.012591295 0.0012402609 -0.018737648 4285492514
0.014351927 0.0021000952 -0.019793049 4285426213
0.015930519 0.0036976263 -0.021526467 4285426469
0.017498396 0.0052946359 -0.023257766 4285426214
0.0194197 0.0054158494 -0.023630548 4285426469
0.021895248 0.0033247992 -0.021970317 4285360934
0.025323991 -0.0024515018 -0.016927522 4285360933
0.029365905 -0.010436282 -0.0098631838 4285163563
0.013155155 -0.0033142939 -0.017165069 4285359913
0.014752667 -0.0017113239 -0.018899038 4285426214
0.016162939 0.00063128769 -0.021308485 4285426214
0.017915584 0.0014930293 -0.022360489 4285491749
0.019480981 0.0030943528 -0.024087952 4285426213
0.021958545 0.00099690259 -0.02243299 4285426723
0.025388468 -0.0047968775 -0.017403331 4285361189
0.02981093 -0.014284402 -0.0090068039 4285360933
0.034110416 -0.023028217 -0.0012982283 4285031984
0.016747456 -0.0039282963 -0.019744501 4285425704
0.018152736 -0.0015793219 -0.022147994 4285426213
0.019723672 2.6769936e-05 -0.023873352 4285426468
0.022390351 -0.0028188452 -0.021549627 4285492259
0.025826808 -0.0086297914 -0.016534161 4285360423
0.030444724 -0.018886983 -0.0074862819 4285360424
0.020510398 -0.0052820221 -0.021644592 4285229863
0.023005404 -0.007391572 -0.020002645 4285360933
0.026637994 -0.013963357 -0.014329487 4285426213
0.031077195 -0.023506887 -0.0059781726 4285294634
0.024355426 -0.014966719 -0.015782831 4285163054
0.028007772 -0.021557011 -0.010128031 4285294379
