# .PCD v0.7 - Point Cloud Data file format
VERSION 0.7
FIELDS x y z rgba
SIZE 4 4 4 4
TYPE F F F U
COUNT 1 1 1 1
WIDTH 867
HEIGHT 1
VIEWPOINT 0 0 0 1 0 0 0
POINTS 867
DATA ascii
-0.0009820275 -0.0032066852 0.016924292 4289542423
0.00084065646 -0.002349481 0.015793625 4288364578
-0.0016682781 -0.0027095303 0.013637092 4289870863
0.00014645606 -0.0018507317 0.012509797 4289804053
-0.00036305934 -0.0020561591 0.0099261031 4289870098
0.0018134415 -0.0026306733 0.010182086 4288823324
0.0009270981 -0.0013903603 0.0062285364 4289475868
0.0032866299 -0.0026868209 0.0071716551 4288952608
0.00041389838 -0.00157585 0.0036609359 4289607193
0.0027675554 -0.0028770491 0.0046019834 4289344289
-9.8519027e-05 -0.001752235 0.0010999404 4290718228
0.0022493005 -0.0030582547 0.002039006 4290522134
0.0044168867 -0.0036397427 0.0022921395 4289476379
0.0063962527 -0.0034972951 0.0018611364 4288036903
-0.0025758855 -0.002060689 -0.0010260399 4289412628
-0.00042472407 -0.0026457682 -0.00077115186 4289212708
0.0019198917 -0.0039563254 0.00016526133 4290129434
0.0038937405 -0.0038144067 -0.00026463345 4289541149
0.0054808296 -0.0022211149 -0.0020573381 4288299554
-0.0028986782 -0.0029471219 -0.0028926972 4290589454
-0.00093572587 -0.0028062239 -0.0033204053 4288951079
0.0014030263 -0.0041215867 -0.0023860186 4289735969
0.0035619438 -0.0047080442 -0.002134297 4289932573
0.0053398162 -0.003838405 -0.003243342 4289737244
0.0073082559 -0.0036966205 -0.0036718771 4288561183
-0.0030386969 -0.0045596585 -0.0040753819 4289280029
-0.0010758862 -0.004418768 -0.004503049 4289212708
0.00088696927 -0.0042777583 -0.0049306471 4290259484
0.0032305643 -0.0055969954 -0.0040005147 4289408804
0.0053918567 -0.0061853603 -0.0037508793 4289605408
0.0075585023 -0.0067732185 -0.0035023168 4289279518
-0.0031786785 -0.0061718524 -0.0052578114 4289410079
-0.0012160242 -0.0060309917 -0.0056854635 4289081383
0.00074668974 -0.0058899894 -0.0061130207 4289146664
0.0032799244 -0.0079460219 -0.0045088828 4288688939
0.0056363828 -0.0092686266 -0.0035847314 4288361773
0.0076125301 -0.0091263056 -0.0040149521 4287839023
-0.0031366609 -0.0085189044 -0.0057626851 4289279264
-0.0009868443 -0.0091128126 -0.0055141114 4289343524
0.0011683553 -0.0097062215 -0.0052666403 4288623403
0.0035189129 -0.011033721 -0.0043445863 4288558124
0.0058801603 -0.012360297 -0.0034248196 4288165423
0.0078614932 -0.012217619 -0.0038561765 4287773744
-0.0027314238 -0.012344703 -0.0049190708 4288755238
-0.00075839087 -0.01220309 -0.0053489842 4289016104
0.0017760396 -0.014272265 -0.0037550386 4288427309
0.0041367337 -0.015603408 -0.0028385017 4288100399
0.0063156709 -0.016197041 -0.002597658 4288231214
0.0077195 -0.013844602 -0.0050492585 4287643438
-0.0087903477 -0.014388718 -0.0048171058 4287906854
-0.0064651258 -0.015727393 -0.0038966108 4288035628
-0.0043081045 -0.016325392 -0.0036531035 4287969838
-0.0025088713 -0.015443824 -0.0047589447 4288296493
-0.00034639984 -0.016041182 -0.0045164358 4288754473
0.0021953098 -0.018116385 -0.0029290374 4288100399
0.0045634583 -0.019451298 -0.0020174589 4287969584
0.0065577962 -0.019307785 -0.0024517272 4287838768
0.0079673901 -0.016948469 -0.0048996154 4287643948
-0.013379589 -0.014062382 -0.007171032 4287775275
-0.010902978 -0.016149454 -0.005574977 4288101419
-0.0085836835 -0.017493017 -0.0046565738 4287773489
-0.0060775876 -0.019577779 -0.003066713 4288034864
-0.0040916465 -0.019435517 -0.0034996513 4287838513
-0.0022870526 -0.018551365 -0.0046050716 4288034864
-0.00011958182 -0.019150592 -0.0043652561 4288754729
0.0020532608 -0.019749261 -0.0041265693 4288231213
0.0044208728 -0.02108857 -0.0032181721 4287969838
0.0064150579 -0.02094508 -0.0036524143 4287707953
0.0080198012 -0.019319959 -0.0054258313 4288233508
-0.019251138 -0.016840786 -0.0063926149 4287054134
-0.017609619 -0.015210167 -0.0081718871 4288296493
-0.015317775 -0.016560376 -0.0072511053 4288362029
-0.013015177 -0.017909683 -0.0063325893 4288231214
-0.010531284 -0.020002827 -0.0047430303 4287904303
-0.0083777457 -0.020605691 -0.0045022611 4287838768
-0.0060429201 -0.021952376 -0.0035904441 4287904304
-0.0042330101 -0.021065839 -0.0046954248 4287969585
-0.0026095957 -0.019435614 -0.0064701345 4287969583
-0.00044514611 -0.020037197 -0.0062313695 4288558379
0.0015381426 -0.019894749 -0.0066634398 4288362539
0.0040891096 -0.0219822 -0.0050878357 4287905068
0.0056967288 -0.020352639 -0.0068586674 4287642674
-0.018910963 -0.020698242 -0.0055551846 4286726459
-0.017423607 -0.018315226 -0.0080063781 4288296493
-0.015291996 -0.01892221 -0.0077627571 4289016359
-0.012987249 -0.020275779 -0.0068479646 4288231214
-0.010671772 -0.02162841 -0.0059354585 4288100399
-0.0086916089 -0.021486819 -0.0063673314 4288100654
-0.0065356866 -0.022091582 -0.0061286483 4288034864
-0.0047310665 -0.021203257 -0.007230835 4287904303
-0.0027507022 -0.021061279 -0.0076624583 4287773234
-0.00077027828 -0.020919159 -0.008093996 4288493354
0.0013965406 -0.021522626 -0.0078573022 4288166954
-0.02145689 -0.03010188 0.00085325725 4286857784
-0.020554103 -0.024709545 -0.0042943787 4286791483
-0.019050438 -0.022319049 -0.0067442711 4286987834
-0.017400481 -0.020679101 -0.0085188542 4288034609
-0.015431382 -0.020538695 -0.0089485999 4288034864
-0.013127171 -0.021896653 -0.0080369879 4288558379
-0.01081223 -0.023253679 -0.0071276631 4288231214
-0.0086593777 -0.023860954 -0.0068900418 4288165678
-0.0068521351 -0.022970401 -0.0079912599 4287904559
-0.0050501488 -0.022080101 -0.0090912376 4287511858
-0.0034342781 -0.020441733 -0.010857733 4287054899
-0.020693958 -0.026336595 -0.0054880958 4286464318
-0.019189853 -0.023939535 -0.0079331379 4287118393
-0.017539687 -0.022295251 -0.0097044911 4287969073
-0.015406091 -0.022906475 -0.009464616 4288100143
-0.013099741 -0.024268635 -0.0085567664 4288689194
-0.010782659 -0.025629856 -0.0076512042 4288428074
-0.0088001415 -0.025488123 -0.0080836024 4287839535
-0.020677269 -0.028717719 -0.0060117897 4286006338
-0.019170109 -0.026313893 -0.0084526185 4287445303
-0.017355237 -0.025419101 -0.0095527116 4288034098
-0.015216652 -0.026032142 -0.0093155708 4288034864
-0.012905523 -0.027398281 -0.0084121171 4288100654
-0.010583635 -0.028763555 -0.0075108465 4287643439
-0.018991746 -0.029448695 -0.008307552 4286921788
-0.017171502 -0.028551355 -0.0094071683 4287706678
-0.014863655 -0.029922254 -0.0085063372 4286923064
0.021872668 0.014633559 0.030626092 4281696838
0.021978453 0.020944301 0.023823842 4280525878
0.024407156 0.019719232 0.024802174 4280589883
0.02924687 0.010964826 0.033541847 4280328508
0.015235338 0.0068807602 0.036831256 4282087243
0.016672241 0.0090918466 0.034263637 4281631813
0.01747912 0.013365038 0.029578354 4281305923
0.018461308 0.016948484 0.025606606 4281111104
0.018996751 0.021904819 0.020228889 4280525624
0.019707493 0.026171338 0.015564736 4281632579
0.021893626 0.025626946 0.015840895 4281436484
0.025611246 0.020275619 0.021045208 4281240389
0.032240547 0.0060020462 0.035386991 4281045059
0.0080960728 0.01526545 0.025870733 4280135728
0.0091164187 0.018862192 0.021898665 4280983093
0.011105776 0.019005518 0.021465611 4280394554
0.013498766 0.017768711 0.022444699 4280981564
0.01528902 0.018602546 0.021305162 4280980799
0.016659638 0.020815581 0.018757064 4280589119
0.017804414 0.023717105 0.015508227 4279546934
0.019140316 0.025927778 0.012967862 4279938103
0.021105649 0.026069943 0.012540471 4279872569
0.024595756 0.021389458 0.01703107 4278959924
0.02966672 0.011890337 0.026427511 4279610938
0.0034297183 0.0076374412 0.031633738 4281759824
0.0039473884 0.013329089 0.025534175 4281502019
0.0048042499 0.017631635 0.020857438 4281307964
0.005629126 0.021931957 0.016187802 4281438013
0.0072071012 0.023459215 0.014347583 4281698114
0.0097691435 0.021523301 0.016034812 4280460599
0.012347229 0.019588571 0.017718662 4280850494
0.01453278 0.019039396 0.017991364 4280915519
0.016309764 0.019874539 0.016856432 4280915518
0.017871769 0.021401182 0.01502002 4280719168
0.018998513 0.024310194 0.011781849 4280588864
0.021178693 0.023760993 0.012055997 4280784704
0.024017103 0.021138784 0.014431939 4280849473
0.027978377 0.015063353 0.020305164 4280916284
0.031318732 0.011063859 0.024068642 4280916284
0.0367219 0.00085152686 0.034118142 4281111103
0.0012454614 0.013624281 0.022642802 4281501254
0.0019232407 0.018635955 0.017268233 4281437249
0.0029451847 0.022254426 0.013312183 4280395318
0.004520718 0.02378577 0.011475727 4280851514
0.0062816869 0.024621572 0.010345653 4280850748
0.0092298687 0.021288823 0.01343723 4280133943
0.01180191 0.019347165 0.015117396 4280198969
0.014185909 0.018101029 0.016091943 4280980798
0.015960298 0.018938176 0.014959238 4280915773
0.017938774 0.019081105 0.014528845 4280784959
0.019493029 0.020611655 0.012697499 4280784194
0.02168091 0.020060856 0.012968339 4280980289
0.024309002 0.018123776 0.014636792 4280915009
0.02673297 0.016881123 0.015603092 4280849473
0.02849921 0.017718323 0.014472567 4280656948
0.032063704 0.013012908 0.018924117 4279483439
0.038859226 -0.0013858527 0.033125889 4280525368
0.0012880005 0.011285312 0.022143904 4282151758
0.0015939027 0.017707862 0.015371822 4281633089
0.0024234615 0.022034593 0.010720905 4280785978
0.0039939098 0.02356999 0.008888822 4279024948
0.0059455037 0.023710486 0.0084639061 4280200498
0.0086913742 0.021063454 0.01084625 4280199988
0.011458622 0.018418051 0.013223998 4280981564
0.01383945 0.017167315 0.014195934 4281046333
0.015817806 0.017310143 0.013765499 4281176894
0.018214641 0.016060814 0.014734056 4280980798
0.019986421 0.016900159 0.013603725 4280980544
0.021752842 0.017739214 0.012474637 4281110849
0.023513889 0.018578034 0.01134675 4280915009
0.025049657 0.020111855 0.0095229968 4280784703
0.026797295 0.020949859 0.0083982218 4279612469
0.029215315 0.019702658 0.0093626231 4280851004
0.034379121 0.010118894 0.018669706 4280525369
0.042154204 -0.0070998669 0.035603791 4279611958
0.0026253611 0.0040417463 0.026563644 4282216783
0.0020157546 0.013984963 0.016288888 4281957705
0.0024736151 0.019724816 0.010242034 4281112379
0.0038539656 0.021964248 0.0077112652 4280981054
0.0060011502 0.021405417 0.0079871789 4281111613
0.0085504241 0.01944891 0.0096623003 4280916284
0.010914709 0.018192515 0.010634452 4281046333
0.012678554 0.019033168 0.0095072724 4281177149
0.014437053 0.019873593 0.0083812904 4280851769
0.017235467 0.01722201 0.010745887 4280851514
0.019420069 0.016666517 0.011014063 4281046079
0.021181222 0.017507374 0.0098877698 4281306434
0.022502903 0.019743443 0.0073705036 4281045313
0.02380852 0.021978494 0.0048567634 4280067898
0.025542885 0.02281772 0.0037365295 4281632069
0.02772199 0.022262316 0.0040062722 4281828164
0.031728268 0.016131558 0.0098253489 4281502019
0.03785618 0.0037332922 0.021873053 4281240899
0.0039597005 -0.0032366514 0.030957829 4282282829
0.0033739991 0.0067388117 0.020700984 4282153544
0.0034742728 0.013901539 0.013261721 4281569849
0.0042925775 0.018253736 0.0086331461 4281177403
0.0064474456 0.017693318 0.0089056902 4280785469
0.0084095001 0.017834656 0.0084785577 4280916538
0.010371573 0.017976098 0.0080515053 4280916284
0.011519592 0.020921316 0.0048348773 4278832168
0.013471011 0.021062199 0.0044103004 4279353898
0.016257852 0.018401057 0.0067708045 4278701863
0.018431474 0.017842539 0.0070397593 4281045824
0.020182006 0.018684883 0.0059174038 4281241153
0.021276586 0.021626744 0.0027127843 4281045569
0.02278886 0.023167633 0.00090076961 4279937848
0.024734821 0.02330872 0.00047783181 4279611959
0.027130473 0.022051197 0.0014405157 4280655928
0.030446935 0.017997772 0.0051697437 4280524604
0.034716196 0.011150889 0.011658516 4280459323
0.040203176 0.00081403553 0.021590937 4280849984
0.0043678209 -0.0070275813 0.031827059 4282673998
0.0043545961 0.00086636841 0.023688916 4282545479
0.0040927194 0.0094603226 0.014864895 4282027318
0.0049227215 0.013826452 0.010243688 4282352444
0.0065020006 0.015375607 0.0084196944 4281046078
0.0080706216 0.016924165 0.0065980703 4280655164
0.0090266205 0.020581912 0.002689708 4280786234
0.01036259 0.022831652 0.00017882511 4280524603
0.012300534 0.022971574 -0.00024280883 4280525368
0.014864471 0.021003384 0.0014195479 4278375464
0.017233081 0.019739036 0.0023844261 4280850494
0.019398358 0.019177843 0.002653623 4281111614
0.020918921 0.020723648 0.00084300339 4280980798
0.022428783 0.02226872 -0.00096518546 4280784958
0.024149943 0.023111381 -0.0020792279 4280458813
0.02653975 0.021849073 -0.0011185762 4280394044
0.029849578 0.017782129 0.0026021544 4280589118
0.033651415 0.012315243 0.0076960493 4280981308
0.03772857 0.0061505809 0.013470169 4281372223
0.043971885 -0.0063176155 0.025433511 4281306434
0.00403703 -0.0080048144 0.02989383 4282675783
0.0049587023 -0.0036192238 0.025262404 4282613054
0.0052790325 0.0028830096 0.018546704 4282157624
0.0055513643 0.0093818828 0.011841547 4281897779
0.0061659329 0.014465652 0.0065387692 4281241153
0.0069409683 0.018841121 0.0019395892 4280785468
0.0080849193 0.021803401 -0.0012630187 4280069174
0.0098169297 0.022648312 -0.0023783166 4281241153
0.011955213 0.022082731 -0.0021051615 4281567298
0.014307313 0.020812672 -0.0011400376 4281046079
0.016881209 0.018838804 0.00051524304 4280459579
0.019043487 0.018275268 0.00078340434 4281110848
0.020994607 0.018416561 0.0003592167 4281111359
0.022726545 0.019262079 -0.00075559504 4280849728
0.024674926 0.019403365 -0.0011790413 4280718659
0.027072242 0.018137209 -0.00022327155 4280783684
0.030161638 0.014761247 0.0027971417 4281110339
0.033277664 0.011387326 0.0058118552 4281307199
0.036885291 0.0066090971 0.010196462 4281436994
0.042881824 -0.0051962137 0.021445394 4281175618
0.0029696263 -0.0061419457 0.02517746 4284184363
0.0046266802 -0.0045788065 0.023342881 4283333683
0.0055147074 -0.00018239766 0.018728714 4282746673
0.0059862435 0.0056282952 0.012731839 4282485808
0.0058302879 0.013560332 0.0046613105 4281898288
0.0062084626 0.019364566 -0.001315115 4281307453
0.0071447715 0.023042716 -0.0052026752 4279352368
0.0088661797 0.02388905 -0.006314002 4279874354
0.011199083 0.022613142 -0.0053480808 4280199989
0.013959205 0.019923933 -0.0030016247 4279547954
0.016529739 0.017943248 -0.0013505202 4280850494
0.019329885 0.015257113 0.00098744035 4281110848
0.021718781 0.013985716 0.001941463 4281371713
0.023680419 0.014127873 0.00151507 4281305923
0.025420398 0.014976285 0.0004002545 4281306179
0.027827874 0.013706498 0.0013505146 4281567554
0.030926853 0.010320343 0.0043605957 4281436738
0.033822827 0.0076417997 0.0066782236 4281305668
0.037204683 0.0035541505 0.010363672 4281566278
0.043203112 -0.0082880408 0.021584097 4281434443
0.0039215907 -0.0041119531 0.02003786 4284250919
0.0057496708 -0.0032563135 0.018904548 4282945574
0.0064199977 0.0018619075 0.013612662 4283009068
0.0062740296 0.0098185912 0.0055581573 4282422569
0.0062667951 0.017061085 -0.0017913673 4281372734
0.0070065148 0.021460332 -0.0063630156 4281110849
0.0087279789 0.022308826 -0.0074727163 4281111104
0.011060376 0.021028534 -0.0065099765 4281241664
0.0138196 0.018330544 -0.0041699205 4281241409
0.016810935 0.014925055 -0.0011451654 4281175618
0.019402098 0.012939431 0.00049658865 4281305923
0.02200925 0.010955073 0.0021349434 4281176129
0.024413615 0.0096805617 0.0030823853 4280849218
0.026607186 0.0091152415 0.0033406895 4281306178
0.029030163 0.0078422576 0.0042843018 4281435463
0.031463746 0.0065701827 0.0052256323 4281501254
0.033907957 0.0052989423 0.0061647855 4281435719
0.037059084 0.0019058958 0.0091554709 4281435719
0.043758411 -0.012095749 0.022400629 4281500743
0.0054162387 -0.0042000934 0.016997296 4284119593
0.0066607632 -0.0012047663 0.013792399 4283271208
0.0071057566 0.0046390519 0.0078277476 4283205674
0.0073108636 0.011192173 0.0011819545 4282748459
0.0080676228 0.015605673 -0.0033834558 4281828674
0.0091974884 0.018593214 -0.0065631028 4281306688
0.011537362 0.017309137 -0.0056053437 4281175363
0.014303707 0.0146029 -0.003273394 4281241154
0.017301954 0.011186995 -0.00025839731 4281306179
0.019900415 0.0091953725 0.0013768245 4281175363
0.022514852 0.0072050616 0.0030086096 4280914754
0.024926718 0.0059266835 0.0039511658 4281175619
0.027127968 0.0053597689 0.0042061657 4281305414
0.029334517 0.0047933459 0.0044600926 4281370438
0.03177293 0.0035172328 0.0053971317 4281369928
0.034221951 0.0022420362 0.0063319076 4281434953
0.037377313 -0.0011615902 0.0093134232 4281566023
0.044077978 -0.015206769 0.022525344 4281500743
0.0063257031 -0.0021352917 0.011895623 4283793959
0.0079355966 -0.00056215376 0.010081459 4283335469
0.0085496865 0.0045827553 0.0048250854 4283075114
0.0095258392 0.0082964972 0.00095362775 4281638444
0.010475321 0.012008406 -0.002911957 4281698369
0.012628324 0.011435159 -0.0026486162 4281240644
0.015202079 0.0094349906 -0.0010131374 4281044293
0.017791841 0.0074360892 0.00061894208 4281044548
0.020184545 0.0061517879 0.0015621521 4281305668
0.02280362 0.0041552335 0.0031880289 4281109829
0.025001913 0.0035858229 0.003441941 4280979524
0.027426567 0.0023041442 0.00437852 4281240389
0.029638121 0.0017359182 0.00462972 4281435464
0.03208134 0.00045584887 0.0055623781 4281566024
0.034535185 -0.00082338601 0.0064928606 4281500743
0.037926495 -0.0049495324 0.010146584 4281631559
0.044162374 -0.017614447 0.021963026 4281696583
0.0063740872 -0.0044952855 0.011379298 4284316198
0.0079868734 -0.0029175282 0.0095677562 4283792939
0.0089985188 0.00080955029 0.0056967344 4283073583
0.0099834986 0.0045348182 0.0018315949 4282093108
0.011346154 0.0068257377 -0.00065537728 4282089284
0.013512185 0.0062512085 -0.00039647706 4281631813
0.015891045 0.0049613342 0.00054628402 4281500743
0.018280579 0.0036723539 0.0014868136 4281370184
0.020467937 0.0030997097 0.0017413311 4281304649
0.022876108 0.0018123016 0.0026779808 4281109318
0.025294937 0.00052572042 0.0036124326 4281174598
0.027503539 -4.4994056e-05 0.0038625449 4281305668
0.029717436 -0.00061521679 0.0041116029 4281500489
0.0321628 -0.0018994734 0.0050405003 4281566024
0.034618795 -0.0031829104 0.005967224 4281827399
0.038242996 -0.008036159 0.010290515 4281958468
0.044246394 -0.020026207 0.021397728 4282416194
0.0086596422 -0.00010108203 0.003816139 4283074094
0.0098420829 0.0029162914 0.00064476021 4282222904
0.011407169 0.0044952855 -0.0011527855 4281957958
0.01398482 0.0024822429 0.00047180802 4281761863
0.015956538 0.0026247129 4.2906031e-05 4281631048
0.018348228 0.0013314858 0.00097971782 4281500743
0.020325262 0.0014745817 0.00054983795 4281500743
0.02294823 -0.00053472817 0.0021649189 4281435208
0.025151215 -0.0011081919 0.0024145767 4281305158
0.027580144 -0.0023982152 0.003343584 4281435974
0.029796377 -0.0029704496 0.0035904832 4281697094
0.032469891 -0.0049756691 0.0051949769 4281696838
0.034702022 -0.0055465028 0.0054386016 4282024258
0.038327411 -0.010414958 0.0097501464 4282939198
0.043862041 -0.021009751 0.019474309 4283853629
0.0085176304 -0.0017280579 0.0026230663 4283205163
0.0097007044 0.0012980774 -0.00054184906 4282026043
0.011669606 0.0014401302 -0.00097030587 4281958214
0.013842972 0.00086183101 -0.00071633607 4281761863
0.016021669 0.00028401613 -0.0004634466 4281631304
0.018415503 -0.0010134205 0.00046959147 4281566023
0.020607524 -0.001590021 0.00071976893 4281631813
0.022804858 -0.0021661445 0.00096886046 4281762629
0.025007512 -0.0027417913 0.001216948 4281762629
0.027215451 -0.0033169016 0.001463918 4283269424
0.029874947 -0.0053297356 0.0030663926 4284447014
0.0097582731 -0.0010428652 -0.0010463428 4283270189
0.011729704 -0.00090064853 -0.0014753528 4282089028
0.013701139 -0.00075830519 -0.0019042771 4281827654
0.016086452 -0.0020608231 -0.00097276643 4281631304
0.018482415 -0.0033624098 -4.3526292e-05 4281500743
0.020676769 -0.0039410144 0.00020449236 4281893188
0.023091383 -0.0052410588 0.0011298992 4282744634
0.025516629 -0.0065401644 0.0020530447 4283725109
0.0092192814 -0.001212202 -0.0035946835 4282483258
0.011386637 -0.0017954186 -0.0033427961 4282155329
0.013355263 -0.0016532689 -0.0037711002 4281893188
0.016150862 -0.0044096783 -0.0014850982 4281893188
0.018758386 -0.0064399615 0.00011838786 4282154564
0.020957738 -0.0070203915 0.00036367029 4283135038
0.022947665 -0.0068762377 -6.8914145e-05 4284640048
0.0090781748 -0.0028273091 -0.0047790166 4284575023
0.011245191 -0.003412731 -0.0045287013 4283792174
0.013621438 -0.0047246739 -0.0036019459 4284183853
0.028616128 -0.032014258 0.0063093174 4284639283
0.018172449 -0.019341692 -0.0069227004 4284248114
0.021428399 -0.023635156 -0.0033588056 4283594294
0.025569916 -0.030883871 0.0028605368 4283332154
0.029548666 -0.037389338 0.0084034316 4283722304
0.012054706 -0.021408297 -0.0068218242 4284116023
0.014248677 -0.022006877 -0.0065888185 4282615859
0.016037574 -0.0211206 -0.0076882746 4282156093
0.018236879 -0.021718524 -0.0074562263 4281893189
0.021494187 -0.026024945 -0.0039024968 4281761098
0.025636304 -0.033295378 0.002300309 4281890128
0.007540524 -0.02183973 -0.0084864255 4283722559
0.0095264465 -0.021696575 -0.0089186821 4282873663
0.011712067 -0.02229806 -0.0086856056 4282155838
0.013700683 -0.022154473 -0.0091182571 4281893699
0.016099326 -0.023499466 -0.0082226116 4281828418
0.018093266 -0.023355253 -0.0086562429 4281631303
0.021559626 -0.028418832 -0.004449131 4281826634
0.025489306 -0.034967132 0.0010746997 4281955153
0.00069647655 -0.020906508 -0.011050599 4284050743
0.00286033 -0.021512233 -0.010814799 4282611269
0.0048380569 -0.021369927 -0.011245461 4282349895
0.0072041228 -0.022722155 -0.010346429 4281761864
0.0091872253 -0.022579215 -0.010778071 4281696839
0.011569336 -0.023930058 -0.0098822806 4281109829
0.013759946 -0.024533235 -0.0096518379 4281631304
0.016160712 -0.02588243 -0.0087599512 4281696329
0.018364664 -0.026484407 -0.0085321497 4281826634
0.021834843 -0.031562872 -0.0043374281 4281957194
0.024916686 -0.035146564 -0.001472218 4282608208
-0.0037553906 -0.021309733 -0.012710894 4282936904
-0.0016026348 -0.021918692 -0.01247452 4282286144
0.00055550784 -0.022527188 -0.01223919 4282156094
0.0025303774 -0.022385225 -0.01266933 4281958724
0.0046965852 -0.022992827 -0.012435595 4281827909
0.0070621148 -0.024349444 -0.011539737 4281631303
0.009045057 -0.024206512 -0.011971345 4281305413
0.011227332 -0.024812631 -0.011740776 4281566533
0.013414927 -0.025418192 -0.01151132 4281631304
0.01581249 -0.026771955 -0.010622023 4281826889
0.018013414 -0.027376287 -0.010395261 4282022474
0.021269476 -0.031721957 -0.0068708342 4282282828
-0.0056870878 -0.023819692 -0.012801798 4283198023
-0.0040760897 -0.02217304 -0.014560604 4281892168
-0.0019263476 -0.022784404 -0.014325237 4281437503
4.2997301e-05 -0.022642963 -0.014754275 4281567554
0.0022008233 -0.023253478 -0.014520457 4281632069
0.004555136 -0.024615429 -0.013625504 4281631304
0.0067263562 -0.025224708 -0.013394406 4281500998
0.0090993717 -0.02658505 -0.012503317 4280977994
0.011283945 -0.027193114 -0.012274934 4281630793
0.013473863 -0.027800687 -0.012047632 4281826634
0.015873548 -0.029158629 -0.011162082 4281826124
0.018283902 -0.03051573 -0.010278719 4282083419
-0.0087370053 -0.030252367 -0.0091406908 4282612544
-0.0074491464 -0.027089231 -0.012230402 4281958214
-0.006004937 -0.024682507 -0.014651911 4281826889
-0.0042161122 -0.023786515 -0.015743991 4281762119
-0.0018837862 -0.025154717 -0.014847869 4281566789
0.00027366728 -0.025767617 -0.014615683 4281305414
0.0022482164 -0.025625676 -0.015045756 4281566279
0.0046046469 -0.02699177 -0.014154593 4281566279
0.0067781731 -0.027603075 -0.013925659 4281173324
0.0087608062 -0.027460158 -0.014357196 4281303883
0.010743454 -0.027317129 -0.014788648 4281956683
0.012927704 -0.027927317 -0.0145617 4282348364
-0.010696009 -0.03278283 -0.0092396727 4283001163
-0.0087059587 -0.032640569 -0.0096737286 4282546499
-0.0074148327 -0.029468507 -0.012757575 4281958214
-0.0061449558 -0.02629783 -0.01583671 4281891913
-0.0043561012 -0.02539967 -0.016927151 4281762119
-0.0020243153 -0.026772268 -0.016034214 4281370439
0.0001327917 -0.027387366 -0.015803592 4281109828
0.0021071844 -0.027245454 -0.016233644 4281304138
0.004272338 -0.02785968 -0.016004631 4281303884
0.0064428579 -0.028473347 -0.015776658 4281497428
0.0086187236 -0.029086523 -0.015549785 4281823573
-0.011175483 -0.032895319 -0.011761191 4282804560
-0.0093628317 -0.031993635 -0.012855533 4282478414
-0.0077299774 -0.030332662 -0.014609447 4281827398
-0.0066393837 -0.026394047 -0.018341826 4281500743
-0.0046759434 -0.02625332 -0.018769791 4281303884
-0.0023473576 -0.027630486 -0.017879432 4281564748
-8.0578029e-06 -0.029006787 -0.016991263 4281695564
0.0019661821 -0.02886489 -0.017421281 4282216273
-0.009503413 -0.03361924 -0.014047953 4282804048
-0.0078703426 -0.031953894 -0.015798623 4281826633
-0.0066019371 -0.028765984 -0.018864295 4281695819
-0.0048156828 -0.027863659 -0.019950887 4281497683
-0.0026699975 -0.028484024 -0.01972123 4281889109
-0.00033390149 -0.029864855 -0.018835688 4281693269
-0.0083590411 -0.032046877 -0.018302938 4281886559
0.005105665 -0.031907596 -0.023146437 4282406759
0.0092970915 -0.034770861 -0.023888195 4281948013
-0.022354014 0.012768343 0.018151622 4285557794
-0.020224344 0.012204699 0.018428583 4285754398
-0.016802672 0.006009683 0.024358168 4285819934
-0.028112523 0.0093108863 0.019668695 4285295909
-0.027035922 0.013693072 0.014992427 4285493278
-0.025838561 0.017366305 0.011030082 4285689373
-0.024046563 0.018211521 0.0098986924 4285623584
-0.021785904 0.016937375 0.01088554 4285623583
-0.018711336 0.012133189 0.015395686 4285755164
-0.014782827 0.0038018376 0.023420345 4285754908
-0.034875281 0.010813124 0.016229745 4285425958
-0.032912895 0.010952346 0.015800923 4285623073
-0.031094782 0.011801213 0.014665108 4285558048
-0.029428922 0.013359077 0.01282414 4285558814
-0.027773596 0.014916345 0.010985509 4285559069
-0.026433628 0.017890781 0.0077388231 4285821208
-0.024959777 0.020155106 0.0052014422 4285689374
-0.022870723 0.019584145 0.0054839309 4285689119
-0.020134479 0.016180195 0.0085792914 4285689374
-0.016719021 0.0099455193 0.014480535 4285886743
-0.012923878 0.00229837 0.021776054 4285689373
-0.0078908764 -0.010298997 0.033971004 4285427233
-0.039872594 0.013907336 0.010948457 4285229099
-0.038338065 0.016181797 0.0084022451 4285754653
-0.036402643 0.016318977 0.0079792161 4285885979
-0.034183882 0.015032448 0.0089681633 4285886233
-0.032242775 0.015170231 0.0085440446 4285624348
-0.030154608 0.014596604 0.0088247471 4285624349
-0.028360106 0.015446097 0.0076959133 4285624094
-0.02687528 0.017717615 0.0051610004 4285755673
-0.025561221 0.02069905 0.0019265842 4285886998
-0.023638062 0.020836052 0.0015067607 4285952789
-0.021073807 0.018130884 0.0038945321 4285755674
-0.017836418 0.012585841 0.0090829171 4285624604
-0.015052989 0.0091745332 0.012159865 4285559069
-0.011233289 0.0015052781 0.01943187 4285493789
-0.0063292682 -0.010418534 0.030888513 4285493789
-0.043638811 0.010603152 0.012039129 4285361953
-0.042213619 0.013600238 0.008786384 4285558813
-0.040676184 0.015881315 0.00624438 4285558303
-0.039018475 0.017446883 0.0044114701 4285623839
-0.037093818 0.017583273 0.0039907712 4285689629
-0.034886234 0.016291603 0.0049787927 4285755163
-0.032811858 0.01571469 0.0052607693 4285755418
-0.030585267 0.014424525 0.0062448382 4285624093
-0.02879604 0.015275851 0.0051187519 4285624349
-0.027164064 0.016840182 0.0032918956 4285624093
-0.025852032 0.019830171 6.4512715e-05 4285624093
-0.023774289 0.019253988 0.00034611486 4285624093
-0.021531008 0.017965518 0.0013269242 4285558558
-0.018788785 0.01454024 0.0044045113 4285558814
-0.016681336 0.013966486 0.0046798754 4285559069
-0.013728153 0.0098323002 0.008446781 4285559069
-0.0098892078 0.0021404773 0.015696544 4285427743
-0.0058180913 -0.0062588006 0.02363088 4285361698
-0.0032674111 -0.0082488731 0.025280286 4286409749
-0.044670627 0.014020391 0.0059229471 4285361698
-0.043263458 0.017024934 0.0026806816 4285624604
-0.041611008 0.018594351 0.00085211359 4285821464
-0.039969072 0.020163167 -0.00097413175 4285755164
-0.037921995 0.019581918 -0.00068801641 4285755163
-0.03558702 0.017568581 0.0010024924 4285952789
-0.033092029 0.014840379 0.003391685 4285755673
-0.03101515 0.014261536 0.0036715157 4285624349
-0.029081978 0.014398895 0.0032492336 4285624348
-0.027148686 0.014536351 0.0028269943 4285558813
-0.025678813 0.016819917 0.00030534901 4285558558
-0.023753256 0.01695703 -0.00011504628 4285558558
-0.021827549 0.017094277 -0.0005353801 4285624349
-0.019576672 0.0158021 0.00044047646 4285690139
-0.017645407 0.015939943 1.9088387e-05 4285755929
-0.015378311 0.01464913 0.00099156238 4285820698
-0.012077212 0.0090740249 0.0061398391 4285820699
-0.0082137138 0.0013600513 0.013366155 4285820444
-0.00499494 -0.0034942999 0.017798986 4285426213
-0.044678248 0.011713319 0.0054618511 4285163818
-0.043528497 0.016165212 0.00081852637 4285558814
-0.042011492 0.018457867 -0.0017091539 4285755673
-0.040374592 0.020030618 -0.0035309661 4285821208
-0.038333178 0.019446753 -0.0032452885 4285821208
-0.036004208 0.017426409 -0.0015584454 4285755674
-0.033515424 0.014689021 0.00082548335 4285624093
-0.031444199 0.014107578 0.0011048671 4285624349
-0.029516496 0.014244527 0.00068377145 4285624349
-0.0272853 0.012946151 0.0016602986 4285624604
-0.025506314 0.01380121 0.00053990074 4285624349
-0.023575533 0.01393868 0.00011836179 4285624349
-0.021963991 0.015510537 -0.0016972311 4285690139
-0.020038307 0.015647851 -0.0021175016 4285755674
-0.018607542 0.017935611 -0.0046254117 4285755419
-0.016354289 0.016639441 -0.0036532264 4285820954
-0.013579227 0.013194971 -0.00059910119 4285952024
-0.0099122971 0.0061715022 0.0059200376 4285755163
-0.0063676313 -0.00013197213 0.011734027 4285426978
-0.0038449764 -0.0021369979 0.01337966 4286674438
0.0047051888 -0.0037091598 0.013712209 4285425959
-0.043921188 0.0050724521 0.0092124082 4285163563
-0.043402612 0.013145924 0.0010653287 4285493024
-0.042012647 0.016166724 -0.0021599475 4285558814
-0.040508337 0.01846505 -0.0046797991 4285558813
-0.038190909 0.016437255 -0.002995532 4285558303
-0.036420614 0.017293356 -0.0041127782 4285624094
-0.034225009 0.015987717 -0.0031319838 4285624093
-0.032310911 0.016123556 -0.0035502203 4285689884
-0.029801369 0.013379112 -0.0011772886 4285624093
-0.027573347 0.012076147 -0.00020338036 4285624093
-0.025796972 0.01293318 -0.0013215728 4285624349
-0.024182633 0.014509514 -0.0031346064 4285624349
-0.022578835 0.016085155 -0.0049452223 4285755674
-0.020823445 0.016941011 -0.0060585905 4285755419
-0.019238096 0.018515609 -0.0078650555 4285558048
-0.017160844 0.017933212 -0.0075880205 4285492258
-0.014567681 0.015195571 -0.0052327048 4285558558
-0.011434607 0.010304384 -0.00080434419 4285624604
-0.0080886111 0.0046977699 0.0043078624 4285558559
-0.0050561912 0.00053039938 0.0080280788 4285359658
-0.041616201 0.011701189 -0.0005147513 4285361698
-0.040100791 0.014006793 -0.0030321106 4285559324
-0.03832528 0.014865339 -0.0041490011 4285624860
-0.036976822 0.017892152 -0.0073583536 4285689884
-0.035076335 0.018026888 -0.0077737141 4285887254
-0.033029728 0.017439291 -0.0074922778 4285952533
-0.030680366 0.015407607 -0.0058196466 4285952533
-0.028466165 0.014099233 -0.0048459861 4285886743
-0.026703071 0.01495748 -0.0059596468 4285624093
-0.024945196 0.015815496 -0.0070721367 4285624349
-0.023192521 0.016673222 -0.0081833517 4285624348
-0.021607019 0.018252 -0.0099866092 4285887509
-0.01986745 0.019108996 -0.011094808 4285821718
-0.017798524 0.018523812 -0.010817616 4285821463
-0.015384231 0.016497605 -0.00915852 4285821974
-0.012435928 0.012310848 -0.0054300055 4285755928
-0.0094555356 0.0081265569 -0.001708433 4285558813
-0.0062650815 0.0032244101 0.0026960094 4285559069
-0.0032178611 -0.00095487386 0.0064031743 4285492514
-0.041353643 0.0079440102 0.00041973218 4285229863
-0.040370286 0.013158485 -0.004884487 4285493533
-0.038872935 0.015469432 -0.0073928926 4285624348
-0.03753186 0.018504441 -0.010594102 4285755419
-0.035496376 0.017913729 -0.010311993 4285689374
-0.033455417 0.017323516 -0.010030992 4285623584
-0.030963637 0.014560334 -0.0076674158 4285754909
-0.029054843 0.014695957 -0.0080843698 4285755674
-0.027145907 0.014831707 -0.0085012699 4285689884
-0.025549732 0.016415372 -0.010303733 4285624349
-0.023805 0.017274685 -0.011411588 4285558558
-0.022227265 0.0188573 -0.013209901 4285558558
-0.020331204 0.018992558 -0.01362367 4285624349
-0.01826793 0.018404767 -0.01334691 4285624349
-0.01568988 0.015648581 -0.011001516 4285558813
-0.012917973 0.012171268 -0.0079714023 4285558814
-0.010119304 0.0086959824 -0.0049470328 4285558813
-0.0069383159 0.0037779063 -0.00055208057 4285559069
-0.0039003789 -0.000415124 0.0031472035 4285426724
0.034784876 -0.0079141781 0.0049069971 4285164328
0.038411438 -0.01279778 0.0092067532 4285229099
0.043478083 -0.021988608 0.017554332 4285163309
-0.040504411 0.011587188 -0.0060375556 4285361698
-0.03941942 0.016086973 -0.010626996 4285558813
-0.0378052 0.017675646 -0.01243059 4285821463
-0.035915621 0.017809562 -0.012843601 4285689628
-0.033880293 0.017216749 -0.01256304 4285623839
-0.031691253 0.015897758 -0.011590649 4285623838
-0.029642306 0.015306078 -0.011312857 4285755928
-0.02758792 0.014714934 -0.011036223 4285690139
-0.02584058 0.015576489 -0.012143087 4285558814
-0.024098471 0.016437814 -0.013248777 4285558814
-0.022199981 0.016573116 -0.013663175 4285493533
-0.020137116 0.015982971 -0.01338801 4285493533
-0.017901905 0.01466801 -0.012425132 4285493279
-0.015655939 0.013353944 -0.011464516 4285493024
-0.01271018 0.0091408342 -0.0077552618 4285493023
-0.010082182 0.0063797086 -0.0054272003 4285689629
-0.0069000125 0.001446493 -0.001044102 4285558048
-0.0044014491 -0.00058636814 0.0005870983 4285425703
0.0081793927 -0.0026314929 0.00074774399 4285165604
0.027732238 -0.0071168914 0.0022967029 4284902953
0.030176092 -0.0084144697 0.003216017 4285099048
0.032630552 -0.0097111017 0.0041330792 4285164584
0.035095636 -0.011006907 0.0050479546 4285360933
0.038264148 -0.014463976 0.0079854317 4285229354
0.043094512 -0.022962712 0.015637774 4285163054
-0.040234238 0.0078267381 -0.0051076226 4285360934
-0.039415084 0.013799474 -0.011076532 4285493533
-0.038078092 0.016851559 -0.014263697 4285756183
-0.036334053 0.017714508 -0.015368612 4285887253
-0.034304388 0.017119087 -0.01508848 4285887254
-0.032121167 0.015795268 -0.014118085 4285887254
-0.029776409 0.013743646 -0.012459222 4285821719
-0.027568936 0.012421802 -0.011494003 4285558814
-0.025818884 0.013285704 -0.01259983 4285558814
-0.023915298 0.013421245 -0.013015436 4285559069
-0.021850213 0.012828991 -0.012742549 4285559068
-0.019615617 0.011509515 -0.011782928 4285559579
-0.017370246 0.010190874 -0.010825529 4285625114
-0.014944717 0.0081457719 -0.0091837151 4285624603
-0.012158975 0.0046476424 -0.0061731264 4285558048
-0.0096959472 0.0026054978 -0.0045393594 4285623329
-0.0070394427 -0.00016219914 -0.0022240374 4285491748
-0.0047216564 -0.0014750883 -0.0012820028 4285425448
0.025372379 -0.0081797466 0.00085103884 4284967469
0.027807746 -0.0094823763 0.001768833 4285229864
0.03047647 -0.011507608 0.0033594146 4285229864
0.032710321 -0.012084939 0.0035976544 4285229864
0.035177544 -0.013384916 0.0045087785 4285295144
0.038347609 -0.016852759 0.0074376818 4285294634
0.043178186 -0.025377639 0.015070248 4285163053
-0.039136611 0.010044217 -0.010144924 4285361189
-0.038210683 0.015300505 -0.015401861 4285559069
-0.03675168 0.017628454 -0.017886948 4285558813
-0.034727655 0.01703044 -0.017607251 4285624348
-0.032698169 0.016432904 -0.017328667 4285624093
-0.030061014 0.012912393 -0.01429457 4285558813
-0.027856708 0.011585928 -0.013331925 4285558814
-0.025797501 0.010990828 -0.013059591 4285493023
-0.023732845 0.010396235 -0.012788358 4285558304
-0.02150153 0.0090720057 -0.011831363 4285558558
-0.01925946 0.0077486858 -0.010876684 4285360933
-0.016840063 0.0056964979 -0.0092385737 4285360678
-0.014235366 0.0029160231 -0.0069188206 4285426469
-0.011781126 0.00086659193 -0.0052881762 4285492258
-0.0093108043 -0.0011816248 -0.0036609136 4285492513
-0.0068244115 -0.0032285824 -0.0020370744 4285492258
-0.0046816953 -0.0038166717 -0.001782177 4285360168
0.016214909 -0.0067626163 -0.0020004325 4285033258
0.018615164 -0.0080726519 -0.0010786802 4285230373
0.021026062 -0.0093817338 -0.00015918165 4285361189
0.02344761 -0.010689922 0.0007580854 4285164328
0.02587981 -0.01199726 0.0016731769 4285295399
0.028322633 -0.01330369 0.0025859997 4285295143
0.030776097 -0.014609255 0.0034966432 4285295143
0.033014946 -0.015188381 0.0037321579 4285295143
0.035031192 -0.015041731 0.0032943059 4285294634
0.038430698 -0.019245602 0.0068869535 4285228843
0.042795017 -0.026346751 0.01315736 4284902189
-0.038063802 0.012282066 -0.015160045 4285295908
-0.036741413 0.015350588 -0.018330803 4285493534
-0.034715049 0.014750548 -0.018053271 4285493534
-0.032535508 0.013417706 -0.017088704 4285493534
-0.029894091 0.0098865926 -0.01406379 4285558814
-0.027684979 0.0085561275 -0.013105554 4285492514
-0.02546506 0.007226482 -0.012149555 4285557793
-0.023392737 0.0066302419 -0.011881663 4285557793
-0.021314964 0.0060345083 -0.011614862 4285492513
-0.018904373 0.0039750114 -0.0099798841 4285426723
-0.016644057 0.0026487559 -0.0090323975 4285360679
-0.013865903 -0.00087183714 -0.0060367435 4285426468
-0.011576056 -0.0021958202 -0.0050955005 4285426468
-0.0091011189 -0.0042502061 -0.0034742393 4285492259
-0.0069641322 -0.0048410669 -0.0032197945 4285426723
-0.0046420805 -0.0061623305 -0.0022853389 4285360169
0.011304794 -0.0057591423 -0.0050378945 4284966958
0.013683189 -0.007075347 -0.0041148532 4285033513
0.016278598 -0.0091196224 -0.0025187451 4285361443
0.018680986 -0.010433845 -0.0016007479 4285492513
0.021305714 -0.012475796 -1.0848045e-05 4285426468
0.023303352 -0.012331061 -0.00044509023 4285360934
0.025517996 -0.012914538 -0.00020620227 4285295654
0.027957622 -0.014225535 0.00070402771 4285360934
0.03040787 -0.015535615 0.0016120505 4285426979
0.032868758 -0.016844869 0.0025178809 4285361188
0.035112545 -0.017425708 0.0027507674 4285229609
0.038513411 -0.021642551 0.0063332226 4285163563
-0.03763859 0.007783182 -0.01354793 4285427234
-0.036447108 0.011597008 -0.017402239 4285427744
-0.034413062 0.010995306 -0.017128058 4285625114
-0.032226041 0.009658657 -0.016168481 4285690139
-0.02987805 0.0075876266 -0.014525195 4285623584
-0.027666777 0.0062529147 -0.013570753 4285558049
-0.025444716 0.004919067 -0.012618522 4285557793
-0.023211889 0.0035861284 -0.011668614 4285557794
-0.021129116 0.0029884949 -0.011404536 4285426468
-0.018877406 0.0016571432 -0.010458569 4285360423
-0.016448759 -0.00040748715 -0.0088323876 4285360678
-0.014004029 -0.0024708062 -0.0072096661 4285426468
-0.011714704 -0.0037991703 -0.0062716007 4285426468
-0.009240482 -0.0058601573 -0.0046551451 4285426468
-0.007103838 -0.0064532235 -0.0044022799 4285426214
-0.0047823004 -0.0077788979 -0.0034710169 4285490729
0.011765715 -0.0095729008 -0.0042002387 4285491749
0.01394807 -0.010161445 -0.0039564632 4285492514
0.01634194 -0.011480756 -0.0030400045 4285558814
0.018746452 -0.012799121 -0.0021257922 4285426978
0.021373132 -0.01484748 -0.00054120645 4285361188
0.023587452 -0.015433222 -0.0003040228 4285361188
0.025807079 -0.016018458 -6.7891553e-05 4285361444
0.028032009 -0.016603179 0.00016717426 4285295654
0.030706568 -0.018647589 0.0017417166 4285098539
0.033172235 -0.019960769 0.0026431996 4285163564
0.035876028 -0.022002816 0.0042115804 4285163054
-0.036936179 0.0017906949 -0.010575146 4285163308
-0.035869896 0.006354548 -0.015110991 4285295398
-0.033967502 0.0064893961 -0.015526793 4285426724
-0.031917654 0.0058867112 -0.015257656 4285426213
-0.029712364 0.0045471117 -0.014305293 4285491494
-0.027496256 0.0032083616 -0.013355154 4285492004
-0.025269404 0.0018705055 -0.012407341 4285557794
-0.022873763 -0.00020337105 -0.010779168 4285557539
-0.020622678 -0.0015392527 -0.0098364558 4285426469
-0.018524129 -0.00213781 -0.0095773824 4285426469
-0.016254183 -0.0034721419 -0.0086386278 4285426468
-0.013804823 -0.005541712 -0.0070218258 4285426468
-0.011682007 -0.0061381683 -0.0067678392 4285426469
-0.0093798079 -0.0074698105 -0.0058358349 4285426213
-0.0070668496 -0.0088006258 -0.0049060471 4285491239
0.012024861 -0.012665652 -0.0040453337 4285426468
0.014212221 -0.013256051 -0.0038042478 4285558304
0.016404904 -0.013845906 -0.0035642833 4285558558
0.018811554 -0.015168466 -0.0026538353 4285360933
0.021440174 -0.017223202 -0.0010746066 4285360934
0.023870792 -0.018543787 -0.00016918592 4285360934
0.026312063 -0.019863531 0.00073404796 4285230118
0.028763952 -0.021182321 0.0016350355 4285164584
0.031670421 -0.02396477 0.0038711447 4285098538
-0.03651423 -0.0027470142 -0.0089915302 4285163053
-0.035436295 0.0018307045 -0.013520048 4285295398
-0.033523388 0.0019662604 -0.013938173 4285426723
-0.031610332 0.0021019354 -0.014356251 4285492258
-0.029397562 0.00075850636 -0.013408823 4285492258
-0.027478918 0.00089479983 -0.013827957 4285492004
-0.025249898 -0.00044731051 -0.012883874 4285492003
-0.022694513 -0.0032665804 -0.010580145 4285557538
-0.020117715 -0.0060842708 -0.0082809757 4285491748
-0.018008832 -0.0066842511 -0.0080258548 4285491493
-0.015894525 -0.0072837695 -0.0077717975 4285360934
-0.01394324 -0.0071444437 -0.0081975181 4285426213
-0.011820767 -0.0077430978 -0.0079451092 4285426213
-0.009345293 -0.0098171011 -0.0063387658 4285425193
0.011882372 -0.014294855 -0.0052399598 4285360678
0.014272504 -0.015623264 -0.0043293592 4285492258
0.016261734 -0.015479498 -0.0047620479 4285558303
0.018667851 -0.016806453 -0.0038547833 4285295144
0.021506857 -0.019602999 -0.001610985 4285163818
0.024580954 -0.023132898 0.0012970585 4285098283
0.027681688 -0.02666074 0.0041994061 4284966958
-0.036510594 -0.0050742179 -0.0094709285 4285032238
-0.035145782 -0.0019679442 -0.012624655 4285361189
-0.033369295 -0.0010896698 -0.013726786 4285427233
-0.031157166 -0.0024376884 -0.012782581 4285492259
-0.029083848 -0.0030429661 -0.012521802 4285492003
-0.027157351 -0.0029061139 -0.012942651 4285425958
-0.024920862 -0.004252024 -0.01200355 4285426214
-0.02235838 -0.0070795491 -0.0097079277 4285426469
-0.019934729 -0.0091643929 -0.0080956891 4285491748
-0.017820861 -0.0097661987 -0.007843324 4285491749
-0.015867162 -0.009626843 -0.008269676 4285622053
0.01173991 -0.015923746 -0.0064343605 4285361188
0.014129508 -0.017256543 -0.005526932 4285492514
0.016118586 -0.017112799 -0.0059595946 4285492769
0.018315913 -0.017706528 -0.0057238359 4285032493
-0.035280623 -0.0035457462 -0.013782447 4285295398
-0.033215895 -0.0041540936 -0.013521565 4285426978
-0.03099896 -0.0055060983 -0.012581766 4285492258
-0.028771222 -0.006857194 -0.011644214 4285426468
-0.026684772 -0.0074636713 -0.011387834 4285491493
-0.024283409 -0.0095568448 -0.0097759161 4285294888
-0.021865901 -0.011648767 -0.0081673702 4285491494
-0.019592397 -0.012996145 -0.0072394619 4285491238
0.011797559 -0.01829274 -0.006960013 4285295143
0.013986543 -0.018889494 -0.0067242738 4285426979
0.01577007 -0.018005781 -0.0078242058 4285295908
-0.034850441 -0.0081102774 -0.012221375 4285033003
-0.032775387 -0.0087200403 -0.011964459 4285229864
-0.030255169 -0.011568487 -0.0096731717 4285294634
-0.02786272 -0.013669088 -0.0080643734 4285294124
-0.031330287 -0.018544592 -0.0056776386 4285294379
