# .PCD v0.7 - Point Cloud Data file format
VERSION 0.7
FIELDS x y z rgba
SIZE 4 4 4 4
TYPE F F F U
COUNT 1 1 1 1
WIDTH 545
HEIGHT 1
VIEWPOINT 0 0 0 1 0 0 0
POINTS 545
DATA ascii
0.0028400123 0.0013713539 0.043841336 4290517798
0.0061286986 -0.0048101991 0.049841966 4290583334
-0.0026002303 0.0057133585 0.03703646 4287247934
-0.0010520145 0.0086736754 0.033737272 4290910753
0.0012601018 0.0074028373 0.034731898 4289995558
0.0045176744 0.001199387 0.040724397 4289537579
0.0080958605 -0.006409876 0.048134197 4290256934
0.011316404 -0.011901796 0.053392079 4289210158
-0.0072198436 0.0058551058 0.034533516 4287706169
-0.0056580901 0.0088248774 0.031237811 4288818224
-0.0038668364 0.010378271 0.02937546 4289735459
-0.0022140592 0.01263836 0.026801627 4289734693
-5.4448843e-05 0.012068823 0.02708428 4289211433
0.002777338 0.0079648197 0.03092939 4289276458
0.0063213706 0.00032902509 0.038328476 4289407019
0.0097856447 -0.0065959916 0.045003545 4289145134
0.012738131 -0.010691486 0.048823278 4289406253
0.015722819 -0.014784671 0.052636255 4288360499
-0.011576012 0.0045923442 0.033463776 4287247679
-0.0098782629 0.0068616271 0.030884974 4288360243
-0.0080765188 0.0084198713 0.029023487 4289342759
-0.0062852353 0.0099774748 0.027164336 4289735204
-0.0045044124 0.011534467 0.025307484 4290258463
-0.0031175464 0.015219577 0.02131613 4290389278
-0.0011047348 0.015356086 0.020888928 4289866019
0.0014408603 0.012655906 0.023306221 4290323998
0.0049587563 0.0049941689 0.030692868 4290585884
0.007981576 0.00017193705 0.035227127 4289539364
0.01090081 -0.0039390475 0.039044134 4289081383
0.014139891 -0.0094646066 0.044272039 4289210414
-0.016791329 0.0090397894 0.026678402 4287573568
-0.014990002 0.010602072 0.024820011 4289733419
-0.012856252 0.010025732 0.025104407 4289799209
-0.010483027 0.0080248713 0.026813544 4290257443
-0.0086917132 0.0095867217 0.024957556 4289866019
-0.0066662729 0.0097237229 0.024527404 4289735204
-0.0050155371 0.011996709 0.021963626 4289931554
-0.0036358833 0.015692212 0.017981987 4289866019
-0.0016312227 0.015828118 0.017556477 4289342759
0.00090552121 0.013118535 0.019969095 4289408295
0.004006356 0.0075656846 0.025213007 4289539109
0.006596826 0.0048599541 0.02761437 4289342503
0.0090678558 0.0028666556 0.029303435 4289341994
0.01227333 -0.002678819 0.034525424 4288818224
0.016106971 -0.011063188 0.042565111 4288491059
-0.02045773 0.0035161525 0.029899813 4287835708
-0.019163176 0.0086612105 0.024471503 4289343014
-0.017905742 0.013803832 0.019051198 4289408293
-0.016128175 0.015368864 0.017201111 4288819499
-0.013790511 0.013358869 0.018912792 4289277223
-0.011086278 0.0092060491 0.022755064 4290258463
-0.008947067 0.0086280406 0.023036774 4289866273
-0.0070465356 0.0094791427 0.021897014 4289539363
-0.0054007322 0.01175832 0.019339148 4289735458
-0.0037707314 0.014036484 0.016784754 4289800483
-0.0016360655 0.013458587 0.017067742 4289211944
0.00076970458 0.011453927 0.018765505 4289473574
0.0034625828 0.0080236346 0.02187461 4289735204
0.0056298077 0.0074482486 0.022150908 4289342759
0.0079433136 0.0061602816 0.023132332 4290258464
0.010985054 0.0013087541 0.027639896 4290454303
0.014502749 -0.0056781992 0.034254819 4289930789
0.01792518 -0.011948876 0.040153958 4289406763
0.021092877 -0.0167915 0.044635061 4286463299
-0.0229325 0.0038494021 0.026975844 4287900733
-0.021626376 0.0090104565 0.021556403 4289342248
-0.019933634 0.011298604 0.018992957 4289865764
-0.018582471 0.0157381 0.014298625 4289473573
-0.01670675 0.016589336 0.013165407 4289015849
-0.014608264 0.016006105 0.013454005 4289539109
-0.01180464 0.011122048 0.017999828 4290258463
-0.0094405189 0.0091074482 0.019701142 4289866273
-0.007426016 0.0092436448 0.019273262 4289539108
-0.0056605339 0.010812677 0.017429326 4289211943
-0.0037782341 0.01166492 0.016295206 4289539108
-0.0016412064 0.011084951 0.016576033 4289342759
0.00063394755 0.0097896084 0.017562117 4289604389
0.0026493892 0.0099264011 0.017134435 4289604389
0.0048029423 0.0093478635 0.017411981 4289604389
0.0069619939 0.0087698027 0.017688435 4290193183
0.0096997134 0.0053318962 0.020780083 4289015339
0.012756221 0.00046608597 0.025273152 4289341993
0.01614752 -0.0058264583 0.031164184 4289800994
0.019435715 -0.011401042 0.03634268 4289014573
0.02261281 -0.016258277 0.040810429 4287575098
-0.023369007 0.0043332502 0.023628481 4287443518
-0.022069782 0.0095090941 0.018221926 4288753709
-0.020384625 0.011803314 0.01566492 4289276713
-0.018932082 0.015535824 0.011691682 4290454814
-0.017061628 0.016388811 0.010561218 4289996833
-0.014855042 0.015083738 0.011558009 4289539363
-0.012288302 0.011622198 0.014676988 4290586139
-0.0098137558 0.008881487 0.017082769 4289604899
-0.0079264641 0.0097360089 0.015949033 4289408293
-0.0059198886 0.0098717436 0.015522894 4289669923
-0.0040402189 0.010725968 0.014390934 4289473574
-0.0019061714 0.010143571 0.01467073 4289408038
0.00010094047 0.010279641 0.014244702 4289408038
0.0021082461 0.01041586 0.01381873 4289539109
0.0039779469 0.011269815 0.012689192 4290585373
0.0059828982 0.011406071 0.012263875 4289473573
0.0084173307 0.0093906149 0.013945993 4288688683
0.011451069 0.0045079067 0.018432442 4288688683
0.014373884 0.00034482032 0.022209641 4289342758
0.017479993 -0.0045327693 0.026680898 4289080108
0.020931218 -0.010840744 0.032544702 4289472043
0.024430647 -0.017145328 0.038398366 4287575354
-0.023102686 -0.00022605062 0.025260516 4286462788
-0.021997482 0.0064103082 0.018444072 4287772978
-0.020517737 0.010155462 0.014473099 4288884524
-0.018956184 0.013177104 0.01121605 4289931299
-0.016972095 0.013310783 0.010794291 4289538598
-0.01487422 0.012723044 0.011079695 4289473829
-0.012654558 0.01141455 0.012070496 4289735713
-0.010542944 0.010827996 0.012353096 4289800993
-0.0086689442 0.01168377 0.01122378 4290062623
-0.0065515861 0.011097811 0.011505313 4290716444
-0.0043017864 0.0097917169 0.01249006 4290454814
-0.0024299026 0.010647722 0.01136139 4289866019
-0.00043091178 0.010783225 0.010937076 4289669668
0.0012984052 0.012358896 0.0091076661 4289800739
0.0031547993 0.013214119 0.007982567 4290062369
0.0052865371 0.012629777 0.0082615223 4290193183
0.0077096224 0.010606907 0.0099411774 4290193183
0.010294467 0.0078659803 0.012317751 4289539108
0.012900829 0.0051266029 0.014689881 4289866019
0.015830562 0.00095088035 0.018455926 4289473064
0.019406922 -0.0060975552 0.025009677 4289146408
0.023505658 -0.015297972 0.033646315 4288819499
0.026720218 -0.020183109 0.038083389 4287117373
-0.021617614 0.0011297762 0.020783395 4287052093
-0.020334572 0.0063352212 0.01540314 4287706933
-0.018872485 0.010090195 0.011444118 4289604133
-0.016993932 0.010948025 0.010315143 4289996835
-0.014780298 0.0096346065 0.011303861 4289800995
-0.012903981 0.010492496 0.010175511 4289866529
-0.010914065 0.010626845 0.0097527131 4289931809
-0.0092881545 0.012930721 0.0072184652 4290913304
-0.0069336444 0.010895856 0.0089072026 4290847259
-0.0048164129 0.010307759 0.0091871843 4290585629
-0.002693668 0.0097201541 0.0094660725 4290454813
-0.00096163154 0.011300258 0.0076392423 4290062113
0.0010293946 0.011435308 0.0072166808 4289604389
0.0026083365 0.013736658 0.004692886 4289473574
0.0047317371 0.01314953 0.0049719587 4289408549
0.0071461499 0.01111947 0.0066485461 4289212199
0.0097221434 0.008369118 0.0090204943 4289408038
0.012319613 0.005620338 0.01138797 4289342759
0.015089359 0.0021520182 0.014448564 4288884778
0.018806502 -0.0056401789 0.02168566 4288230448
0.022894736 -0.014869832 0.030303307 4287838004
-0.021342024 -0.0034458712 0.022400826 4286724673
-0.02004718 0.0017756522 0.017029449 4287183418
-0.018573679 0.0055423006 0.013076119 4288230704
-0.017016053 0.0085812435 0.009832982 4289211944
-0.014913455 0.0079894215 0.010114033 4290192928
-0.013268873 0.010300897 0.0075805373 4290127903
-0.011402972 0.011160351 0.0064560827 4289931808
-0.0097846463 0.01347027 0.0039283261 4289800993
-0.0076866075 0.012878515 0.0042106938 4288819499
-0.005329892 0.010837339 0.0058940798 4289931554
-0.0030862391 0.0095221028 0.006873643 4289669924
-0.0012274161 0.010381602 0.0057510864 4289866019
0.00049166381 0.011965349 0.0039302912 4289735204
0.0024747029 0.012099937 0.0035094824 4289669668
0.004457891 0.012234636 0.0030887183 4289800995
0.006868951 0.010197766 0.0047611091 4289015594
0.009441413 0.0074383691 0.0071272645 4289015593
0.012035355 0.0046806186 0.0094889123 4288558124
0.01495197 0.00047767907 0.013238143 4288034864
0.018666983 -0.0073387772 0.02045773 4287707189
0.022440881 -0.015151136 0.027664978 4287380279
0.025797844 -0.020790868 0.032776915 4286071619
-0.021067768 -0.0080388486 0.024005726 4286528579
-0.019551069 -0.0042584762 0.020051263 4287052604
-0.018276222 0.00097713619 0.014695544 4288230193
-0.017038472 0.0062103271 0.0093478393 4288230959
-0.015385687 0.0085287914 0.0068173893 4289211944
-0.013632983 0.010118373 0.0049921758 4289342759
-0.011772364 0.010979615 0.00387045 4290062623
-0.010280013 0.014023297 0.00064799376 4289800993
-0.0084376931 0.014883496 -0.0004696995 4289146664
-0.0062213838 0.013561957 0.00051227212 4289211944
-0.0038651749 0.011514194 0.0021909755 4290258463
-0.0016245097 0.010194518 0.0031679254 4289996833
0.00035823137 0.010328948 0.0027470812 4290258464
0.0023411363 0.010463506 0.0023262855 4290193183
0.0044639111 0.0098719075 0.0026021954 4289866274
0.0068769455 0.007828556 0.0042692441 4289081128
0.0095962808 0.0043346062 0.0073240008 4288492588
0.012194715 0.0015683398 0.0096782092 4287773489
0.015265826 -0.0033730045 0.014111109 4287511349
0.018527508 -0.0090370774 0.019230027 4287510838
0.022299267 -0.01687368 0.026419789 4287248699
0.025337815 -0.021081068 0.030133601 4287902264
-0.019476488 -0.007395409 0.020244405 4286855488
-0.018087648 -0.0028747246 0.015600614 4288360754
-0.016950995 0.0031048432 0.0095610023 4287183928
-0.015518188 0.0068907961 0.0056327395 4287642164
-0.013880789 0.0092148259 0.0031105448 4288753963
-0.012377381 0.012267865 -0.00010784529 4290193184
-0.010774255 0.014589854 -0.002622636 4290454813
-0.0090634078 0.016181253 -0.0044354806 4289800483
-0.0066058636 0.013395742 -0.0020585842 4289473574
-0.0042556748 0.01134102 -0.00038355961 4290258464
-0.0018892959 0.009287484 0.0012881551 4289996578
0.00022484362 0.0086928681 0.0015640873 4289735459
0.0024813637 0.0073700175 0.0025345907 4289474339
0.0047486946 0.0060480833 0.00350287 4289409058
0.0070268586 0.0047269687 0.0044689085 4289213219
0.0094607249 0.0026785731 0.0061267316 4288886054
0.012058295 -9.6537173e-05 0.0084745754 4288100909
0.014977787 -0.0043255761 0.012203552 4287642418
0.018235207 -0.010007478 0.017310321 4287314743
0.021846585 -0.017141096 0.023791436 4287118139
-0.019402534 -0.010540865 0.020431437 4286528834
-0.018007427 -0.0060066804 0.015796065 4287902773
-0.016644105 -0.0014744923 0.011167476 4287183928
-0.015312567 0.0030556321 0.0065457746 4287184439
-0.014012821 0.0075837001 0.0019308943 4287707443
-0.012744859 0.012109809 -0.0026771724 4289604389
-0.011146665 0.014437936 -0.0051860092 4289538853
-0.0091942176 0.014569834 -0.0056007849 4289146409
-0.0068635494 0.012507088 -0.0039266115 4289538853
-0.0043880045 0.0097141266 -0.0015599895 4289604644
-0.0021536574 0.0083851591 -0.00058821216 4289539364
0.00022554398 0.0063260421 0.001075916 4289801504
0.0024842396 0.0049989596 0.002042694 4289998619
0.0048930943 0.0029420778 0.0037006903 4289475614
0.0071760938 0.0016168505 0.0046624783 4289344544
0.0094699189 0.00029254705 0.0056220274 4289344543
0.011921912 -0.0017611012 0.007271165 4289148194
0.014840167 -0.0060033724 0.01099062 4288166444
0.018096015 -0.011702903 0.016084667 4287838258
0.021394681 -0.017399408 0.021169726 4288753453
-0.017927855 -0.0091470852 0.01598531 4287183419
-0.016338587 -0.0060711429 0.012761414 4287053114
-0.014995433 -0.0015271381 0.0081469901 4286922299
-0.013799265 0.003749378 0.0028423909 4287183928
-0.012640208 0.0090234503 -0.0024541989 4287838513
-0.011036277 0.011358567 -0.004959425 4289342759
-0.0089554712 0.010756813 -0.0046800468 4289211944
-0.0064916089 0.0079541579 -0.0023175739 4289866273
-0.0042632669 0.0066202655 -0.0013478827 4289147938
-0.001892902 0.004553847 0.000313133 4289017889
0.00035978854 0.0032218471 0.0012778249 4288887074
0.0026233122 0.0018907338 0.0022402611 4289214238
0.0048976615 0.00056042522 0.0032005291 4289214494
0.00704097 -3.631413e-05 0.0034672227 4289279774
0.0091897547 -0.00063255429 0.0037328396 4290065173
0.011638414 -0.0026929975 0.0053778049 4289345819
0.014253054 -0.0054843947 0.0077090487 4288822813
0.017346755 -0.010470115 0.012102976 4288299043
-0.017741933 -0.013033234 0.016865544 4286202433
-0.01625374 -0.0092109516 0.012949795 4286856763
-0.014904335 -0.0046533868 0.0083437469 4286791483
-0.013586722 -9.7885728e-05 0.0037445948 4286987578
-0.012536213 0.0059286654 -0.0022374075 4287315254
-0.010685906 0.0067979619 -0.0033504386 4287773234
-0.0087177306 0.0069308653 -0.0037685893 4289277734
-0.0062467083 0.0041199252 -0.0014141724 4289474594
-0.0042675138 0.0042537823 -0.0018345155 4289279263
-0.0018951669 0.002180852 -0.00017878972 4288953119
0.00022603571 0.0015800968 9.0708956e-05 4288822304
0.0024890453 0.00024452806 0.0010499712 4289738774
0.0044848844 0.00037997961 0.00062644668 4289869589
0.0067642257 -0.00095427781 0.0015824642 4289607449
0.0089100152 -0.0015529245 0.001847079 4289803799
0.011061288 -0.0021510869 0.0021106098 4288430114
-0.016388535 -0.010880701 0.011742108 4286202943
-0.015150346 -0.0055708811 0.0064512528 4286726203
-0.01360482 -0.0024802089 0.0032498166 4287118648
-0.012315407 0.0020865723 -0.0013335273 4287315254
-0.010457031 0.0029585883 -0.002446644 4287577139
-0.0086037964 0.0038303956 -0.0035586376 4288820263
-0.0062538013 0.0017491579 -0.001903234 4289344544
-0.0044002309 0.0026211813 -0.0030150879 4289542169
-0.0020285472 0.00054163486 -0.0013641175 4289215769
9.2320144e-05 -6.1385334e-05 -0.0010962058 4288888604
0.0022186786 -0.00066390634 -0.00082937442 4288364578
0.0042117089 -0.0005286634 -0.0012523215 4288495393
-0.013852499 -0.0033844188 0.0013676528 4287249975
-0.012564816 0.0011953488 -0.003205562 4287184439
-0.010709062 0.0020693764 -0.0043165628 4287904304
-0.0087358281 0.0022025779 -0.0047358368 4289082659
-0.0063865036 0.00011470169 -0.0030851942 4289082658
-0.0044049099 0.00024870038 -0.0035060588 4289672473
-0.0024231672 0.00038281083 -0.0039268872 4288823578
-0.0003079623 -0.00022280961 -0.0036594216 4288496414
-0.014099769 -0.0042839274 -0.00051111542 4287119669
-0.012696683 -0.00043430179 -0.0043841666 4287773489
-0.010960691 0.0011848509 -0.0061830375 4288231469
-0.0089902654 0.0013178214 -0.0066017304 4289344289
-0.0067693964 -3.4280121e-05 -0.0056436351 4289671709
-0.0047932863 9.932369e-05 -0.0060633598 4289084698
-0.012828514 -0.0020636544 -0.0055625541 4287905834
-0.011331514 0.0010501519 -0.0087340195 4287970349
-0.0093665719 0.0011827275 -0.0091515724 4289737753
-0.0072764754 0.00057066232 -0.008882313 4289280283
-0.011462718 -0.00057014078 -0.0099058254 4287185714
-0.0097421184 0.0010567829 -0.011694873 4288430369
0.016141955 -0.0070168525 0.0060718842 4283393864
0.019563064 -0.013484575 0.011824597 4282869838
0.010338463 -0.00085889548 -0.0018337984 4283008304
0.012185208 1.3582408e-05 -0.0029435176 4281830713
0.014787562 -0.0027960688 -0.00062263943 4281046843
0.018185552 -0.0092851147 0.0051203519 4280719679
0.021789208 -0.016506769 0.011537962 4281632324
0.02480565 -0.020781271 0.015207611 4282804558
0.0053640604 0.0016598031 -0.0062962081 4283201083
0.007487867 0.0010552481 -0.0060302075 4282157113
0.0094704814 0.0011901185 -0.0064506959 4281635639
0.01130392 0.002063863 -0.0075559672 4280396594
0.013436098 0.0014602467 -0.007291479 4280917304
0.016501658 -0.003573291 -0.002925681 4280264249
0.020076659 -0.010818809 0.0034816861 4280069683
0.023385152 -0.016584419 0.0085126385 4282283593
0.0012718067 -0.00024100393 -0.006636153 4282486063
0.0029742718 0.001376681 -0.00842732 4282221374
0.0048073456 0.0022522137 -0.0095311683 4281505078
0.0067790151 0.0023862198 -0.0099494215 4281309749
0.0088972785 0.0017791912 -0.0096838046 4280786998
0.010722745 0.0026545823 -0.010785772 4281437503
0.012846585 0.0020481721 -0.010521168 4281110339
0.015439313 -0.0007795319 -0.0082111983 4280849984
0.018682055 -0.0065673217 -0.0031794161 4281045824
0.021807794 -0.011611834 0.0011624061 4281306944
0.024970986 -0.01665362 0.0054963343 4281436738
0.02784133 -0.02021303 0.0084626898 4282478413
-0.017337315 -0.012158714 0.0046694428 4283001419
-0.01588589 -0.0082951263 0.00079407915 4282871879
-0.0033403784 0.00083684176 -0.0097182905 4284118574
-0.0016379952 0.0024585947 -0.011506321 4282351678
0.000460729 0.0018475726 -0.011238551 4282025534
0.0022883713 0.0027247965 -0.012339717 4281504314
0.0042517483 0.0028580949 -0.01275632 4281243703
0.0060716495 0.0037350655 -0.013855712 4281177658
0.0080326349 0.0038684458 -0.01427163 4279874863
0.0098447874 0.0047450885 -0.015369153 4280330038
0.011803336 0.0048785284 -0.015784385 4280850493
0.014379177 0.0020409003 -0.013477368 4280720189
0.017133426 -0.0015377253 -0.010494827 4280590139
0.020233721 -0.0065993145 -0.006159029 4281111613
0.023533769 -0.012400411 -0.001152277 4281176893
0.026876613 -0.018198483 0.0038455464 4281630284
-0.017579757 -0.013068192 0.0027819946 4282936139
-0.016130246 -0.0091938078 -0.0010848381 4282544969
-0.014364861 -0.007564269 -0.0028836168 4282740044
-0.005950056 0.002068378 -0.01321212 4283397434
-0.0041228458 0.0029473677 -0.014311856 4281961018
-0.0023007914 0.0038261637 -0.015410388 4280656949
-7.7620149e-05 0.002465941 -0.01445902 4280591669
0.0018801391 0.0025987253 -0.014874527 4281047864
0.0039788187 0.0019857287 -0.014608217 4281438268
0.0057960972 0.0028646514 -0.01570539 4281307453
0.0076081604 0.0037433431 -0.016801367 4280655929
0.0094150081 0.0046218038 -0.017896147 4280394043
0.011368074 0.0047548711 -0.018310213 4280067898
0.013783582 0.0026530921 -0.016687395 4280915264
0.016371991 -0.00019230694 -0.014389465 4281436739
0.01914129 -0.0037807301 -0.011418174 4281174853
0.022423733 -0.0096005797 -0.0064206785 4281304903
0.025748953 -0.015417375 -0.0014321506 4281631048
0.028949499 -0.020486988 0.0028712526 4282411604
-0.017713204 -0.014723219 0.0015849136 4282347599
-0.016262941 -0.01083789 -0.0022739582 4282152524
-0.014725193 -0.0077041164 -0.0054412736 4281956429
-0.013091996 -0.0053214356 -0.0079186885 4282086989
-0.011713117 -0.0014405921 -0.01176214 4282545734
-0.010116883 0.00093988329 -0.014231564 4282547009
-0.0085364804 0.0033193901 -0.016697558 4281437758
-0.0064628646 0.0027019307 -0.016427988 4281176893
-0.0047735423 0.0043313876 -0.018206852 4279221809
-0.0028295368 0.0044629797 -0.01861964 4280981053
-0.00088538229 0.004594706 -0.019032365 4280395318
0.0014726967 0.0024816841 -0.017402736 4278637604
0.0037063062 0.0011180118 -0.016456677 4281111868
0.0056641996 0.0012510195 -0.016872054 4280980798
0.0073303729 0.0028796196 -0.018645478 4281046334
0.0092831701 0.0030125305 -0.019059585 4281240898
0.011084817 0.0038929805 -0.020151602 4281370948
0.01349698 0.0017843619 -0.018532915 4281240898
0.015925247 -0.00032303482 -0.016917543 4281500743
0.018369604 -0.0024291649 -0.015305548 4281435208
0.021477837 -0.0075207055 -0.010994132 4281303883
0.024952717 -0.014102466 -0.0053403676 4281367633
-0.018063426 -0.01487302 -0.00098273531 4282216018
-0.016506664 -0.011729389 -0.0041476935 4282152524
-0.014857262 -0.0093391165 -0.0066238074 4281956173
-0.01322367 -0.0069498792 -0.009096439 4281759823
-0.011724979 -0.0038098022 -0.012248795 4281891403
-0.010369167 8.0518425e-05 -0.01607913 4281632833
-0.0089154243 0.0032178089 -0.019221755 4281110848
-0.0071016327 0.0041001141 -0.020315496 4280329018
-0.0051632524 0.0042312145 -0.020727171 4281306943
-0.0033571571 0.0051132962 -0.021819139 4281502529
-0.0012860447 0.0044937506 -0.021550378 4281371969
0.0010659918 0.0023737922 -0.019924412 4281046588
0.003293775 0.0010053068 -0.018980334 4280916284
0.0052461848 0.0011379123 -0.019394564 4281111359
0.0073444694 0.00052074343 -0.01913126 4280980544
0.0092997998 0.0006538108 -0.019545922 4281110594
0.01140631 3.7454069e-05 -0.019284179 4281175874
0.013672035 -0.0013278499 -0.01834769 4281241409
0.015948515 -0.0026922598 -0.017413436 4281174089
0.018553954 -0.0055538788 -0.015132065 4281368908
0.02166608 -0.010660432 -0.010832928 4281367378
0.024815664 -0.015764318 -0.0065415725 4281432659
-0.01852116 -0.014259063 -0.0042276569 4282017629
-0.016860895 -0.011861704 -0.0067012608 4282153035
-0.015102863 -0.010219559 -0.0084888116 4281957449
-0.013355285 -0.0085780248 -0.010273988 4281759569
-0.011856019 -0.0054291859 -0.013419966 4281694034
-0.010499455 -0.001527898 -0.017242344 4281500234
-0.0091693923 0.0023717061 -0.021059005 4281307199
-0.0074851215 0.0040094629 -0.022830432 4280982838
-0.0058113486 0.0056465864 -0.024599509 4279742773
-0.0038836449 0.0057770461 -0.025008852 4280589884
-0.0018208772 0.005154781 -0.024740001 4280589118
0.00052249432 0.0030276105 -0.023117056 4280394044
0.0028819889 0.00090171397 -0.021497464 4280915008
0.0049718246 0.0002816543 -0.021234097 4281111613
0.0070671216 -0.00033795834 -0.020971747 4281175363
0.0094643235 -0.0024609417 -0.0193599 4281239623
0.011877667 -0.0045827255 -0.017751321 4281304648
0.013999958 -0.0052000955 -0.01749447 4281304139
0.015971456 -0.0050655752 -0.017912298 4281368398
0.018419784 -0.0071846172 -0.016310871 4281236818
0.021368921 -0.011555523 -0.012695305 4281301589
0.024514407 -0.016674988 -0.0084144734 4281431383
-0.01721438 -0.011984922 -0.0092483312 4281758803
-0.015234642 -0.011851765 -0.0096693337 4282021454
-0.013486862 -0.010205872 -0.011451323 4281890384
-0.011749558 -0.0085605234 -0.013231039 4281759569
-0.010386936 -0.004647918 -0.017046586 4281630794
-0.0090507865 -0.00073698908 -0.020856405 4281567809
-0.0074876919 0.0016610846 -0.023304025 4281438013
-0.0059404448 0.004058145 -0.025748158 4280915264
-0.0040128604 0.0041885898 -0.026157478 4281045569
-0.001815699 0.0028090551 -0.025213649 4280914498
0.00052965432 0.00067546964 -0.023595998 4280979779
0.0028911382 -0.0014568716 -0.021981733 4281175109
0.0048405826 -0.0013244748 -0.022395348 4281174600
0.0070809424 -0.0027006343 -0.021460285 4281043783
0.0096281953 -0.0055842325 -0.019179974 4281239624
0.011895437 -0.0069582537 -0.018250462 4281499724
0.01417347 -0.0083314851 -0.017323121 4281369164
0.01630621 -0.008950226 -0.017070036 4281433933
0.018761829 -0.01107531 -0.01547502 4281302354
0.021394938 -0.013952382 -0.013212491 4281367124
0.024377603 -0.018334024 -0.0096136592 4281626713
-0.01767765 -0.011340164 -0.012468871 4282476119
-0.015819274 -0.010448895 -0.013567653 4282020178
-0.013966054 -0.0095578656 -0.014665265 4281955409
-0.011999428 -0.0094253644 -0.01508332 4282021198
-0.010396287 -0.007018283 -0.017534744 4281825613
-0.0090567246 -0.0030962303 -0.021337185 4281827399
-0.0074905604 -0.00069145113 -0.023780553 4281893190
-0.005940266 0.0017124265 -0.026220484 4280783683
-0.0040101558 0.0018430203 -0.026630362 4280587078
-0.0019453764 0.0012164935 -0.026365226 4280979270
0.00039929897 -0.00092371553 -0.024752321 4281174599
0.0026202127 -0.0023057833 -0.023816615 4281174343
0.0048519373 -0.0036870316 -0.022883076 4281108554
0.0070944503 -0.0050673857 -0.021951776 4281369165
0.0094956122 -0.0072032735 -0.02035049 4281434189
0.011762347 -0.0085816979 -0.019424126 4281368654
0.014193077 -0.010715328 -0.017828934 4281499469
0.016172271 -0.010580279 -0.018248398 4281434189
0.018468644 -0.011956356 -0.017328054 4281367379
0.020936996 -0.014087014 -0.015740532 4281562709
0.023585316 -0.016971685 -0.013487589 4281888089
-0.014212713 -0.010417826 -0.016514752 4282346578
-0.012130529 -0.011046074 -0.016255453 4281889873
-0.010405943 -0.0093927979 -0.01802586 4281825104
-0.0088155717 -0.00697992 -0.020469625 4281890893
-0.007241033 -0.0045679957 -0.022909936 4281760588
-0.0055532902 -0.0029168501 -0.024672244 4281370438
-0.0038760826 -0.0012663007 -0.026432293 4281500999
-0.0016719252 -0.0026541576 -0.025496427 4281044294
0.00054302812 -0.004041113 -0.024562798 4280978758
0.0029084757 -0.0061863586 -0.022959113 4281174344
0.0051476955 -0.007571429 -0.022030454 4281304394
0.0073976927 -0.0089557096 -0.021103963 4281303884
0.0093630739 -0.0088220015 -0.02152079 4281368398
0.011478942 -0.0094464943 -0.021267563 4281368144
0.013447206 -0.009312354 -0.021684814 4281433934
0.015571263 -0.0099360645 -0.021433149 4281498704
0.018017497 -0.012074925 -0.019845929 4281562709
0.020640839 -0.014970176 -0.017594293 4281953114
-0.012497962 -0.01114101 -0.018777736 4281953878
-0.010415927 -0.011771359 -0.018519964 4281824849
-0.0086989775 -0.010114081 -0.020285461 4281890384
-0.0071187019 -0.0076952875 -0.022722088 4281695053
-0.0055542886 -0.0052773729 -0.025155287 4281435208
-0.0037426725 -0.0043841153 -0.0262403 4281305158
-0.001802057 -0.0042527243 -0.02665234 4281109829
0.00027554482 -0.0048826262 -0.026393082 4281044039
0.0024981052 -0.0062733442 -0.025464259 4281369674
0.0050158501 -0.0091854334 -0.023197409 4281369164
0.0072653405 -0.01057411 -0.022274069 4281368144
0.0092305727 -0.010440417 -0.022690862 4281367889
0.011045728 -0.0095460415 -0.023775984 4281170774
0.013008516 -0.0094122812 -0.02419208 4280712538
0.015437935 -0.011558935 -0.022606317 4281299038
-0.010788277 -0.011859767 -0.021036167 4281758293
-0.0088297427 -0.011727639 -0.021452367 4281825104
-0.0072490796 -0.0093022808 -0.023884211 4281695053
-0.0055555999 -0.0076420009 -0.025641296 4281760844
-0.0036099479 -0.0075104013 -0.026054509 4281565003
-0.0016641468 -0.0073786452 -0.02646764 4281434954
0.00028177351 -0.0072467774 -0.026880722 4281173578
0.0023671761 -0.0078782588 -0.026624683 4281304649
0.0047420412 -0.010035835 -0.025032647 4281434444
0.0072777011 -0.012955315 -0.022776015 4281302354
0.0089507736 -0.011295617 -0.024528101 4281367124
0.010613278 -0.0096364692 -0.026277881 4281299294
-0.011280365 -0.011172235 -0.024217211 4281822809
-0.0093299747 -0.011040673 -0.024631701 4281693779
-0.0075052679 -0.010142356 -0.025716465 4281694288
-0.0055572391 -0.010010719 -0.026130278 4281629263
-0.0036090612 -0.0098789483 -0.026544016 4281565514
-0.0019283965 -0.0082150027 -0.028294925 4281434443
1.4714897e-05 -0.0080833212 -0.028707422 4281501254
0.0020971224 -0.0087171867 -0.028452355 4281566789
0.0044686198 -0.010881566 -0.02686451 4281434189
0.0064227805 -0.010748781 -0.027279068 4281431893
0.0083770379 -0.010615848 -0.027693547 4281626203
-0.009583123 -0.011878073 -0.02646276 4281821789
-0.0076353848 -0.011746578 -0.026876591 4281628755
-0.0058158189 -0.010846369 -0.027958531 4281694800
-0.0040014386 -0.0099463984 -0.029039264 4281566534
-0.0021922588 -0.0090466514 -0.030118823 4281630794
-0.00011564046 -0.0096832141 -0.029864267 4281237839
0.0021054149 -0.011087164 -0.028944891 4281367633
-0.0080164298 -0.011808611 -0.029370792 4282148953
-0.0060740262 -0.011677362 -0.029783413 4282153544
-0.0043930784 -0.010004796 -0.031527981 4281696839
-0.0024557263 -0.0098736659 -0.031939361 4281696328
-0.00038209558 -0.010512598 -0.031685788 4281171794
0.0019745752 -0.012691177 -0.030104674 4282476884
-0.0063318387 -0.012503661 -0.031604912 4282542674
-0.0046533495 -0.010826856 -0.033345748 4282217548
-0.0086349025 -0.019730769 -0.047847003 4282732904
0.0084865019 -0.0017316267 -0.0007229019 4286284035
