# .PCD v0.7 - Point Cloud Data file format
VERSION 0.7
FIELDS x y z rgba
SIZE 4 4 4 4
TYPE F F F U
COUNT 1 1 1 1
WIDTH 505
HEIGHT 1
VIEWPOINT 0 0 0 1 0 0 0
POINTS 505
DATA ascii
0.022186855 -0.020871192 0.015918413 4288954139
0.025737636 -0.026573196 0.020906424 4289345053
0.022984244 -0.026196212 0.018083623 4288690979
0.02673753 -0.032647751 0.023732288 4287577395
0.023591818 -0.030807458 0.019557668 4288428583
0.023822345 -0.033960842 0.019671625 4287643183
0.0074949451 -0.033351548 -0.008839082 4286661178
0.0041889474 -0.029759593 -0.014209442 4287578668
0.0038817748 -0.030598827 -0.016046681 4287512368
0.011848353 -0.0369853 -0.0089171613 4282414409
0.014557254 -0.039900519 -0.0067234943 4282738768
0.0086722039 -0.03415449 -0.01361616 4283524679
0.011176169 -0.036313966 -0.012077772 4282609738
0.017953519 -0.011346079 0.051238269 4285228588
0.011578012 -0.0049320087 0.042417191 4285492769
0.013276268 -0.003383778 0.040566206 4285886488
0.015674505 -0.0046410784 0.04153353 4285885723
0.018985111 -0.0094027817 0.04601571 4285951514
0.022516152 -0.014862537 0.051192731 4285754908
0.025904324 -0.019618466 0.055658303 4285295398
0.028764946 -0.022270232 0.058010854 4284901168
0.010400649 -0.0023922995 0.036958724 4285690138
0.012083124 -0.00084084272 0.035114445 4285623584
0.014287379 -0.001400277 0.035379641 4285557794
0.017217573 -0.0047722012 0.038450956 4285623839
0.020357329 -0.0088451281 0.042217799 4285624094
0.023158256 -0.011509985 0.044576511 4285493279
0.025604311 -0.012767851 0.045530513 4285427489
0.027870301 -0.013322413 0.045782842 4285295908
0.0063601695 -0.0050564408 0.037311301 4285032749
0.0077175386 -0.0020875037 0.034062251 4285558813
0.0093975104 -0.00053197145 0.032221735 4285886743
0.01106688 0.0010229349 0.030383537 4285886743
0.013080195 0.0011659488 0.029949265 4285821209
0.015993301 -0.0022181422 0.033016019 4285886998
0.018933162 -0.0056001693 0.036077067 4285755928
0.021714497 -0.0082751065 0.038433336 4285624604
0.023765448 -0.0081290007 0.037991263 4285558813
0.025435209 -0.0065734535 0.036153518 4285558813
0.027287608 -0.0057230443 0.035015434 4285689883
0.029526625 -0.0062814504 0.035272039 4286016794
0.032962814 -0.011064015 0.039704539 4285951003
0.037040312 -0.017955482 0.04621581 4286016793
0.041171238 -0.024843007 0.052715674 4285491493
0.0050519928 -0.0017679706 0.031172285 4285296164
0.0068985038 -0.00091671944 0.030036354 4285624349
0.0087397881 -6.5781176e-05 0.028901676 4285624093
0.010575812 0.00078488886 0.027768204 4285689629
0.012583654 0.00092747808 0.027335094 4285689628
0.015310582 -0.001760304 0.029696362 4285624093
0.018241361 -0.0051538944 0.032751076 4285624349
0.020643611 -0.0064237192 0.03370782 4285558813
0.022681084 -0.0062785894 0.033268653 4285624094
0.024147306 -0.0040127635 0.030740758 4285689883
0.025597531 -0.0017479435 0.028216356 4285558049
0.027814856 -0.0023100898 0.028475976 4285492259
0.030632881 -0.0049906373 0.030818174 4285689119
0.034276739 -0.010493964 0.035931751 4285820443
0.038370911 -0.017405927 0.042422988 4285492258
0.043137856 -0.026431128 0.050981291 4285361188
0.0032217167 -0.0049884319 0.031790823 4285427234
0.0045775585 -0.0020022914 0.028555227 4285755164
0.0064188018 -0.0011492968 0.027422117 4285820444
0.0085978992 -0.001717329 0.027687581 4285755164
0.0106082 -0.0015746728 0.027253846 4285624093
0.012618583 -0.0014318973 0.026820185 4285624093
0.015167732 -0.0034184903 0.028477488 4285559069
0.017550725 -0.0046941638 0.029434992 4285558814
0.019759569 -0.0052595884 0.029694485 4285559069
0.021598646 -0.0044059381 0.02856238 4285558814
0.023242189 -0.0028435588 0.026736876 4285756183
0.02468217 -0.0005729273 0.024219634 4285821464
0.026888493 -0.0011380315 0.024479972 4285624093
0.029298438 -0.0024111867 0.025432194 4285689628
0.032924626 -0.0079332143 0.030536363 4285689883
0.036797136 -0.014160171 0.036323175 4285624348
0.042161558 -0.025338948 0.046938181 4285493024
0.0025894456 -0.0045088977 0.028474016 4285493024
0.0044359751 -0.0036534816 0.027341319 4285820698
0.0062772781 -0.0027982965 0.026209841 4285820699
0.0087987855 -0.0047937408 0.027867885 4286018068
0.010814298 -0.0046507344 0.027433017 4285755419
0.013006587 -0.0052197874 0.027694149 4285624348
0.015024919 -0.0050763637 0.027258838 4285559068
0.017043326 -0.0049328282 0.026823597 4285559068
0.018692344 -0.0033658743 0.025000004 4285558813
0.020705517 -0.003222473 0.024566064 4285558814
0.02252868 -0.0023677275 0.023439156 4285558558
0.02415381 -0.00080219656 0.021621006 4285755673
0.026159078 -0.00065904856 0.021189013 4285755928
0.028560488 -0.0019371137 0.022139734 4285690138
0.032177005 -0.0074772835 0.027232746 4285624348
0.036446463 -0.015145138 0.034387149 4285493278
0.04221718 -0.02777943 0.046356201 4285493278
0.00043554977 -0.006304279 0.027693206 4284901423
0.0021215305 -0.0047312751 0.025864327 4285558558
0.0041286089 -0.0045892075 0.025431013 4285558048
0.0061358027 -0.0044470206 0.024997773 4285557794
0.0084854253 -0.0057342499 0.0259555 4285689118
0.010671984 -0.0063060746 0.026216151 4285820954
0.012687445 -0.0061629638 0.025781376 4285623838
0.014523778 -0.0053055137 0.024652893 4285624348
0.016354848 -0.0044483617 0.023525672 4285690139
0.017811596 -0.0021638498 0.021014513 4285689628
0.019813947 -0.0020212308 0.020582898 4285689628
0.021816351 -0.0018784925 0.02015136 4285624093
0.02381878 -0.0017356649 0.019719889 4285623839
0.026211642 -0.0030188188 0.020669056 4285558559
0.028615206 -0.0043010935 0.021615999 4285493533
0.032433275 -0.010571286 0.027384715 4285493278
0.037112273 -0.019687891 0.035897411 4285295908
0.04268422 -0.031648621 0.047147214 4285361699
-0.0028214268 -0.0030738413 0.022035511 4285032494
-0.00066772848 -0.0036506876 0.022301132 4285689884
0.0013284385 -0.003509514 0.021870097 4286149648
0.0036560223 -0.0048029348 0.022829147 4285952023
0.0056577325 -0.0046611503 0.022397069 4285820699
0.0080015138 -0.0059531853 0.023352737 4285886488
0.010008745 -0.0058107749 0.022919649 4285821209
0.01219238 -0.0063848421 0.023179309 4285689629
0.013844438 -0.0048092455 0.021361539 4285689883
0.015667558 -0.003950499 0.020237671 4285690138
0.017116714 -0.0016599596 0.017733054 4285886743
0.019110922 -0.0015179291 0.017303193 4285952278
0.021484517 -0.0028070286 0.018253041 4286018579
0.023868836 -0.0040953159 0.019200696 4285755419
0.026263854 -0.005382672 0.020146096 4285624349
0.028867265 -0.0073842481 0.021777412 4285493789
0.033289876 -0.015818402 0.029593049 4285493278
0.038182639 -0.025677286 0.038768932 4285559069
-0.013134833 0.0055397525 0.012093013 4285032494
-0.011481036 0.0071186498 0.0102772 4285557539
-0.0095335208 0.0072559342 0.0098563265 4285426213
-0.0068119168 0.003791891 0.012914008 4285558559
-0.004063528 0.00032984465 0.01596597 4285558558
-0.0016085766 -0.0016903952 0.017623158 4285558813
0.00053690746 -0.0022699013 0.017888973 4285624093
0.0028532967 -0.0035684928 0.018847128 4286018068
0.0050123334 -0.0041468367 0.019110182 4285886744
0.0071767867 -0.0047246739 0.019372156 4285755418
0.0091731995 -0.0045830682 0.018941371 4285624094
0.011169694 -0.0044413283 0.018510664 4285689629
0.012987461 -0.0035809055 0.017389515 4285689883
0.014799953 -0.0027207211 0.016269604 4285755419
0.016607154 -0.0018608272 0.015150899 4285755164
0.018595885 -0.0017191991 0.014722206 4285689119
0.021153107 -0.0037309155 0.01635821 4285952534
0.023726393 -0.00574141 0.017990882 4285689884
0.026315711 -0.0077505931 0.019620145 4285558559
0.029513564 -0.011910364 0.023305556 4285493278
0.03414461 -0.021087155 0.031785548 4285427744
0.038845059 -0.030258827 0.040250637 4285164838
-0.016375247 0.0095844716 0.0057646409 4285229863
-0.015030529 0.012612551 0.0025638454 4285820953
-0.013109956 0.012747817 0.0021487009 4285755419
-0.010885376 0.011437818 0.0031229556 4285820953
-0.0080316029 0.0072388053 0.0068712793 4285952279
-0.0054602288 0.0044867471 0.0092257392 4285624094
-0.0030273125 0.0024584308 0.01088267 4285558558
-0.00074090064 0.0011532456 0.011843894 4285558558
0.0017215647 -0.00087275356 0.013494609 4285558559
0.0036963187 -0.00073291361 0.013068328 4285558558
0.0060123838 -0.0020356849 0.014023397 4285624349
0.0083392151 -0.0033375099 0.014976209 4285624348
0.010676797 -0.0046385303 0.015926806 4285624093
0.01248927 -0.0037763044 0.014808448 4285755674
0.014296461 -0.0029143021 0.013691263 4286083604
0.01609838 -0.0020526126 0.012575349 4285623583
0.018268257 -0.0026315674 0.012835009 4285557539
0.020822112 -0.004650116 0.014466817 4285557793
0.023392018 -0.0066673905 0.01609526 4285689628
0.026367232 -0.010122649 0.019091224 4285558558
0.030158382 -0.016453706 0.024821052 4285427488
0.034997456 -0.026377469 0.033962138 4285296163
-0.01900522 0.010765277 0.0022345092 4285098028
-0.017516311 0.013076551 -0.00026510097 4285821209
-0.016043235 0.015386775 -0.0027611684 4285623583
-0.014138792 0.015520878 -0.0031728465 4285558048
-0.01193073 0.014205389 -0.0021983786 4285623584
-0.0090941973 0.0099920332 0.0015437976 4285689629
-0.0066968091 0.0079545602 0.0032033511 4285755419
-0.0042832606 0.0059183016 0.0048595406 4285624349
-0.002016034 0.0046074167 0.0058215503 4285558813
-0.00023328885 0.0054691285 0.0047108177 4285624349
0.0017119758 0.0056068674 0.0042908937 4285624348
0.0039981715 0.0042976737 0.0052490626 4285624349
0.006814409 0.00081922859 0.0082703885 4285689629
0.0093058757 -0.0012108013 0.009910224 4285623838
0.011456572 -0.0017936602 0.010172101 4285689628
0.013250474 -0.00093048811 0.0090594646 4285820953
0.015590403 -0.0022353455 0.010006515 4286280464
0.017754618 -0.0028169006 0.01026574 4286018069
0.020680632 -0.0062868074 0.013263874 4285886744
0.023441598 -0.0090326816 0.01557192 4285821463
0.027196173 -0.015386052 0.021294663 4285493534
0.031393029 -0.023179144 0.028373668 4285362209
0.036048204 -0.03241083 0.036805525 4285032239
-0.021197226 0.009781599 0.00079588778 4285098284
-0.01998448 0.013555244 -0.0030875802 4285493023
-0.018367577 0.015144333 -0.004885722 4285755673
-0.017053653 0.018187612 -0.0080666896 4285886999
-0.015165348 0.018320557 -0.0084749004 4285755418
-0.012973782 0.016999491 -0.0075001437 4285821209
-0.0098460577 0.01131814 -0.0023824275 4285887508
-0.0076169148 0.009999983 -0.0014156746 4285690139
-0.005376976 0.0086826384 -0.00045112614 4285624349
-0.0036129653 0.0095451325 -0.0015562968 4285690139
-0.0018541738 0.010407314 -0.0026602196 4285689883
-0.00043576956 0.012721099 -0.0051389206 4285886743
0.0021583661 0.0099537298 -0.0028021978 4285886743
0.0049468353 0.0064624771 0.00021681935 4286018324
0.00793764 0.0022478327 0.0039164331 4285886743
0.010247566 0.00093629956 0.0048664417 4285689628
0.012568243 -0.00037442148 0.0058142338 4285689884
0.015083212 -0.0024090037 0.0074442904 4285689883
0.017614249 -0.0044423342 0.0090710316 4285755419
0.020350263 -0.007198818 0.011377761 4285624348
0.023682414 -0.012126267 0.015728371 4285559069
0.027828988 -0.019947059 0.022800004 4285427743
0.032428138 -0.029211126 0.031222323 4285032493
-0.022435103 0.014048725 -0.0059036519 4285361698
-0.020820748 0.015641816 -0.007697992 4285624349
-0.019073572 0.016504519 -0.0087984651 4285689884
-0.017915737 0.020285379 -0.012661658 4285755418
-0.015892174 0.019687895 -0.012376529 4285821464
-0.013560418 0.017632477 -0.01071289 4285690138
-0.010442328 0.011933006 -0.0056063123 4285624348
-0.0082216933 0.01060988 -0.0046410346 4285558558
-0.006309025 0.010744944 -0.0050541991 4285624348
-0.0045582913 0.011608616 -0.0061548147 4285755674
-0.0031422116 0.013928592 -0.0086281225 4285755419
-0.0012399107 0.014063261 -0.0090387948 4285755164
0.0010025539 0.012742229 -0.0080778114 4285623583
0.003601227 0.0099665895 -0.0057485858 4285820954
0.0060459301 0.0079200938 -0.0041085454 4285821208
0.0088628158 0.004420191 -0.0011037448 4285690139
0.011887163 0.00019512326 0.0025788434 4285624604
0.015126981 -0.0047544762 0.0069375392 4285558813
0.01784604 -0.0075209811 0.0092412401 4285689883
0.02077521 -0.011012457 0.012222171 4285558048
0.02411391 -0.015954703 0.016559871 4285558304
0.028654382 -0.025251441 0.024973316 4285427489
0.033264272 -0.03454309 0.03337191 4285493279
-0.024327371 0.011626713 -0.0059465468 4285230118
-0.023118515 0.015421711 -0.0098127797 4285558559
-0.02137408 0.016286224 -0.010911059 4285558558
-0.019491639 0.016418494 -0.011318194 4285623839
-0.017900776 0.018014468 -0.013104023 4285623838
-0.016023394 0.018146597 -0.013509901 4285624094
-0.01384351 0.01681602 -0.012539284 4285558813
-0.01088357 0.011830032 -0.0081326514 4285624349
-0.0088253058 0.011233173 -0.0078564808 4285624349
-0.0070799515 0.012098506 -0.0089543872 4285624093
-0.0055017062 0.013694294 -0.01073703 4285755673
-0.003934022 0.015289389 -0.012517272 4285886743
-0.002042532 0.015423276 -0.012925621 4285689375
0.00018876046 0.014097095 -0.011965532 4285623584
0.0026033372 0.012041822 -0.010324031 4285623838
0.0050339885 0.0099878311 -0.0086859632 4285755418
0.0083700381 0.0042873695 -0.0036389017 4285624349
0.012290455 -0.0035979971 0.0034447182 4285559069
0.015903223 -0.01002074 0.0091530923 4285361698
0.018448845 -0.012066074 0.010766728 4285490983
-0.025269385 0.014476791 -0.011233097 4285558049
-0.023800399 0.016812488 -0.013708822 4285952024
-0.021645557 0.015475281 -0.012736401 4285952278
-0.019765925 0.015607342 -0.013142942 4285886744
-0.017886136 0.015739508 -0.013549443 4285624349
-0.015857901 0.015138008 -0.013268696 4285558558
-0.013673197 0.013803385 -0.01230244 4285558814
-0.011324022 0.011736169 -0.010652369 4285559068
-0.0095840767 0.012603164 -0.01174756 4285624348
-0.0080083646 0.014203005 -0.013526447 4285689884
-0.0062815398 0.015069291 -0.014618637 4285624093
-0.0047242753 0.016667999 -0.016393332 4285886743
-0.0026766025 0.01606863 -0.016116207 4285952533
-0.00062349439 0.01546976 -0.015840163 4285886998
0.0019520447 0.012675032 -0.013519175 4285887254
0.0047240071 0.0091500506 -0.010521283 4285690139
0.0084110945 0.0019684285 -0.0041247988 4285558813
0.012872983 -0.0081354603 0.0049813744 4285493278
0.016860608 -0.016039886 0.012032434 4285295398
-0.027281944 0.012800008 -0.011962075 4284966704
-0.02580468 0.015142679 -0.014434736 4285689628
-0.024343248 0.017484292 -0.016903862 4285689374
-0.022196908 0.016142167 -0.015932951 4285820699
-0.020039771 0.014800869 -0.014964258 4286018069
-0.017871838 0.013460472 -0.013997866 4285624348
-0.015841242 0.012856945 -0.013719289 4285624349
-0.013805199 0.012253888 -0.013441822 4285559068
-0.011763681 0.0116513 -0.013165399 4285690138
-0.010185167 0.013255559 -0.014941694 4285624604
-0.0084583983 0.014123894 -0.016032316 4285689884
-0.006736856 0.014991976 -0.017121715 4285624094
-0.0048564039 0.015124954 -0.017527791 4285624093
-0.0031426772 0.015992709 -0.018615332 4285755418
-0.00092575327 0.014656767 -0.017658764 4285755419
0.0016462319 0.011853091 -0.015343605 4285624604
0.0049389042 0.0061146095 -0.010313679 4285559069
0.0093392543 -0.0040242374 -0.0012174267 4285558814
0.014174674 -0.015625082 0.0092201345 4285558814
0.017632943 -0.021351464 0.014214601 4285361444
-0.029294018 0.011123672 -0.012690835 4285032493
-0.027940463 0.014212608 -0.015847865 4285755674
-0.026338797 0.015821919 -0.017626494 4285558303
-0.024610344 0.016691662 -0.018716503 4285557794
-0.022607144 0.01608368 -0.018433915 4285623329
-0.020598467 0.015476204 -0.018152427 4285689628
-0.018293735 0.013392434 -0.016502926 4285755929
-0.016120832 0.012048133 -0.015540833 4285624349
-0.013937149 0.010704704 -0.014580978 4285624349
-0.012202557 0.011575535 -0.015671825 4285689884
-0.011097025 0.01539658 -0.019490443 4285689628
-0.0092249028 0.015528731 -0.019894887 4285755163
-0.0071913972 0.014923766 -0.019618187 4285689628
-0.0048245341 0.012845151 -0.017981526 4285689373
-0.0031080879 0.01371526 -0.019068023 4285558303
-0.00088901073 0.012375116 -0.018115221 4285558813
0.0020286813 0.0080898553 -0.014449448 4285559324
0.0060262345 -0.00061073154 -0.0067212749 4285493533
0.010797083 -0.012251146 0.0037037637 4285493533
0.015113439 -0.021677554 0.01207922 4285427233
-0.030328315 0.014771126 -0.018631468 4285427489
-0.02846567 0.014901496 -0.019034712 4285689884
-0.026871767 0.016514614 -0.020808427 4285886999
-0.025151249 0.017385967 -0.021895079 4285821464
-0.023156364 0.016775206 -0.021612361 4285821464
-0.021013562 0.015424155 -0.020647191 4285887508
-0.018569749 0.012592934 -0.018318444 4285690138
-0.016400006 0.011244006 -0.017358933 4285624349
-0.014219511 0.0098959729 -0.016401717 4285624348
-0.012640629 0.011508763 -0.018171562 4285689883
-0.011539634 0.015340365 -0.021980956 4285886743
-0.0095145516 0.014732487 -0.021704189 4285886743
-0.0073229298 0.013385706 -0.020749025 4286018069
-0.0046292171 0.0098220482 -0.01775936 4285952533
-0.0029073879 0.010694712 -0.018845376 4285689884
-0.00051437691 0.0086116418 -0.017219132 4285624348
0.0025818087 0.0035751835 -0.012887585 4285493788
0.0071109682 -0.0073664412 -0.0031511206 4285493789
0.011720218 -0.018302225 0.0065681189 4285428254
0.015510652 -0.025541686 0.012892894 4285098028
-0.031940985 0.010880075 -0.017296495 4285163819
-0.030586366 0.013986327 -0.020440681 4285361443
-0.028858114 0.014860153 -0.021527542 4285493279
-0.027269285 0.016477205 -0.023296829 4285624603
-0.02541713 0.016607039 -0.023697656 4285624604
-0.023564812 0.016736992 -0.02409843 4285624348
-0.021427859 0.015381217 -0.023135345 4285624348
-0.019135173 0.013283513 -0.021493161 4285624349
-0.016826373 0.011187121 -0.019854408 4285624349
-0.014801938 0.010576636 -0.019579368 4285689628
-0.013383757 0.012935422 -0.022023886 4285755673
-0.012137052 0.016035192 -0.025143901 4285755164
-0.010120291 0.015424557 -0.024866991 4285557793
-0.0079371668 0.014072753 -0.023913257 4285689374
-0.0052525364 0.010497585 -0.02092988 4285821209
-0.0030399114 0.0091481358 -0.019982399 4285624093
-0.00014083833 0.0048353299 -0.016332492 4285558813
0.0036482513 -0.0031793416 -0.0093115959 4285493278
0.0083673596 -0.014893107 0.0010716859 4285427744
0.012641128 -0.024379253 0.0094134063 4285230119
-0.031818312 0.0078526363 -0.017057965 4285360934
-0.030457754 0.010967977 -0.020196855 4285492769
-0.028724115 0.011844337 -0.021283247 4285624604
-0.027263816 0.014211819 -0.023732524 4285559069
-0.025545847 0.015087284 -0.024815366 4285493023
-0.023554277 0.014471903 -0.024535261 4285558814
-0.021415148 0.013111927 -0.023575947 4285558813
-0.019554701 0.01324264 -0.023978338 4285558814
-0.017399322 0.011883967 -0.023022344 4285558814
-0.015533287 0.012015305 -0.023425767 4285624349
-0.013819892 0.012891106 -0.024507117 4285886998
-0.012422498 0.015255056 -0.026942123 4285689628
-0.010408726 0.014642037 -0.026666209 4285623328
-0.0082287937 0.013285629 -0.025715109 4285558048
-0.0053845011 0.0089557171 -0.022063488 4285689628
-0.0030063242 0.0068584755 -0.020444073 4285689883
0.00056907907 -0.00044025481 -0.01410621 4285624349
0.0045406856 -0.0092211142 -0.0064319056 4285493534
0.0094467252 -0.021711625 0.0045956634 4285493534
0.013029624 -0.028254218 0.010221206 4285295654
-0.029687021 0.0042000338 -0.016551415 4285558304
-0.028197121 0.0065759346 -0.019002207 4285492513
-0.026723076 0.0089508891 -0.021449529 4285492513
-0.025128309 0.010577098 -0.023213472 4285360933
-0.023265596 0.010707766 -0.023616515 4285361443
-0.021544654 0.011585854 -0.024698241 4285559069
-0.019828897 0.012463652 -0.025778718 4285493278
-0.017971125 0.01259429 -0.026180442 4285559069
-0.016263124 0.01347176 -0.027259082 4285559068
-0.014712874 0.015095569 -0.029012926 4285690394
-0.013173167 0.016718708 -0.030764364 4285821973
-0.011328269 0.016848877 -0.03116297 4285887254
-0.0090016425 0.01474119 -0.029537514 4285821719
-0.0060060658 0.009651579 -0.025219139 4285755929
-0.0026413165 0.0030734688 -0.019561727 4285624603
0.0016142465 -0.0072282329 -0.010549931 4285427743
0.0061157607 -0.018269747 -0.00088183116 4285427744
0.010523479 -0.028560415 0.0080973208 4285361953
0.013417024 -0.032141991 0.011019595 4285294889
-0.029432323 0.00040342659 -0.015648121 4285426979
-0.027802993 0.0020362362 -0.017416459 4285492769
-0.026317853 0.0044184104 -0.019861221 4285558048
-0.024712201 0.0060497895 -0.021624263 4285492258
-0.022978012 0.0069307983 -0.022707265 4285426468
-0.021390703 0.0085610673 -0.024466131 4285493024
-0.019669574 0.0094414055 -0.025546132 4285427234
-0.017953638 0.01032152 -0.02662497 4285558813
-0.016392615 0.011950277 -0.028377902 4285559069
-0.014842141 0.013578445 -0.030128501 4285558813
-0.013457235 0.015954472 -0.032550901 4285493023
-0.011457447 0.015336066 -0.032275297 4285558814
-0.0092918836 0.013970017 -0.031327717 4285493023
-0.0061373897 0.0081168637 -0.026347496 4285493278
-0.0021116957 -0.0014721379 -0.018016903 4285493535
0.0028251931 -0.014794156 -0.0063445745 4285493535
0.007174056 -0.025119565 0.0026240945 4285361954
-0.029306892 -0.0026533529 -0.015432656 4285360934
-0.027802851 -0.00026345998 -0.017876655 4285360933
-0.026047599 0.00062101334 -0.018962791 4285426724
-0.024433699 0.0022572428 -0.0207243 4285426468
-0.022830311 0.0038928539 -0.022483446 4285426723
-0.021378968 0.0062795505 -0.024915744 4285426468
-0.019655127 0.0071622208 -0.025994707 4285492514
-0.017789636 0.0072933659 -0.02639813 4285492514
-0.016073536 0.0081757307 -0.027475234 4285558813
-0.014667001 0.010559723 -0.029897504 4285624859
-0.013276365 0.012942702 -0.032316249 4285559069
-0.01158658 0.013823554 -0.033387404 4285493279
-0.0094215311 0.012453109 -0.032443028 4285493534
-0.0061058439 0.0058322847 -0.026804771 4285427999
-0.0015835427 -0.006034933 -0.016484717 4285427998
0.0035286658 -0.020145349 -0.0041738888 4285296418
0.0078880787 -0.030500434 0.004769437 4285032239
-0.029438164 -0.0042090118 -0.016576905 4285294888
-0.027672362 -0.0033217892 -0.01766373 4285295143
-0.02591173 -0.0024348348 -0.018749362 4285361189
-0.024020281 -0.0023023337 -0.019158754 4285360933
-0.022544678 9.2439353e-05 -0.021591466 4285361189
-0.021084908 0.0024861842 -0.024020605 4285361188
-0.019353028 0.0033716336 -0.025099706 4285426979
-0.01733302 0.0027497932 -0.024832092 4285492514
-0.015456889 0.0028817728 -0.025237743 4285492513
-0.014036614 0.0052732453 -0.027658038 4285426468
-0.012632232 0.007663697 -0.030074824 4285558559
-0.011086397 0.0093003958 -0.031817634 4285493023
-0.0089111961 0.0079262927 -0.030878752 4285427233
-0.0054240264 0.00053418428 -0.024587989 4285296163
-0.00089153275 -0.011367075 -0.014296501 4285295908
0.0042302907 -0.025518097 -0.002019044 4285164583
-0.02918591 -0.0080353245 -0.015695484 4285228843
-0.027673054 -0.005631797 -0.018131593 4285360679
-0.025909711 -0.0047424734 -0.019216165 4285360933
-0.024151552 -0.0038534105 -0.020299532 4285360934
-0.022398558 -0.002964586 -0.02138168 4285361188
-0.020791929 -0.0013199449 -0.023134932 4285360934
-0.019051995 -0.0004318282 -0.0242141 4285361188
-0.017024335 -0.001055263 -0.023949835 4285426468
-0.014991205 -0.001678206 -0.023686664 4285426469
-0.013408054 -3.4801662e-05 -0.025434442 4285426469
-0.011989918 0.0023631454 -0.027849246 4285492259
-0.010430533 0.0040051192 -0.029591706 4285492514
-0.0082425252 0.0026275739 -0.028658897 4285492513
-0.0047440231 -0.0047855005 -0.022387 4285492514
-3.6235899e-05 -0.017475106 -0.011457044 4285361188
0.0042588972 -0.027895689 -0.0025460571 4285229608
0.0074355118 -0.033033036 0.0016873889 4285228589
-0.023875874 -0.0076800287 -0.019424651 4285228843
-0.022253152 -0.0060300305 -0.021178178 4285294634
-0.020640958 -0.0043807328 -0.022929309 4285360933
-0.018752035 -0.004248105 -0.023337923 4285361188
-0.017009284 -0.0033574477 -0.024416005 4285426469
-0.015122775 -0.0032247379 -0.024823908 4285426468
-0.013539393 -0.0015769899 -0.026568457 4285492259
-0.01196656 7.0162117e-05 -0.028310619 4285492004
-0.010247342 0.00095961988 -0.029383261 4285426469
-0.0078949034 -0.0011788905 -0.027788132 4285360678
-0.0042281598 -0.0093699396 -0.020868 4285295143
0.00032204017 -0.021339476 -0.010633051 4285294889
-0.020068359 -0.0097311363 -0.020722752 4285360424
-0.018309716 -0.0088373944 -0.021802703 4285295398
-0.016994555 -0.0056637451 -0.024885137 4285360934
-0.015403073 -0.0040111467 -0.026628278 4285426469
-0.013822127 -0.0023592338 -0.028369002 4285492004
-0.011943538 -0.0022268519 -0.028775025 4285492258
-0.010064851 -0.0020943806 -0.029180989 4285492259
-0.0077078007 -0.0042390451 -0.027591845 4285426469
-0.0042000078 -0.011694893 -0.021354897 4285295143
2.0194799e-05 -0.022181712 -0.012473945 4285294889
-0.016688351 -0.0094984993 -0.024024736 4284966959
-0.015088636 -0.0078410357 -0.025766321 4285229354
-0.013801958 -0.0046604872 -0.028835852 4285426468
-0.011920858 -0.0045279413 -0.029242422 4285426724
-0.01003965 -0.0043952912 -0.029648941 4285492513
-0.0076806247 -0.0065463781 -0.028065119 4285426724
-0.0041721947 -0.014023863 -0.021844823 4285426469
-0.00044581667 -0.022258341 -0.0149737 4285360934
0.0026703477 -0.027445696 -0.010761879 4285228589
-0.012875769 -0.011550047 -0.025324456 4285294888
-0.011129897 -0.010652333 -0.026398029 4285360679
-0.0097020119 -0.0082276314 -0.028795101 4285360933
-0.0071766526 -0.011148177 -0.026556 4285361189
-0.0039830208 -0.017120175 -0.021676522 4285426469
-0.00058227405 -0.02385214 -0.016145475 4285294888
