# .PCD v0.7 - Point Cloud Data file format
VERSION 0.7
FIELDS x y z rgba
SIZE 4 4 4 4
TYPE F F F U
COUNT 1 1 1 1
WIDTH 960
HEIGHT 1
VIEWPOINT 0 0 0 1 0 0 0
POINTS 960
DATA ascii
0.003176935 -0.015514649 0.021753192 4288493863
0.0053029694 0.00018332899 0.0048291218 4288559399
0.0067184232 0.0023968071 0.0022902451 4288819753
0.0084856078 0.00321839 0.0011780653 4288950568
0.010620564 0.0026492178 0.0014892686 4288623404
0.012382444 0.0034707114 0.00037834793 4288623404
0.014330883 0.0035970211 -2.1407381e-05 4288362028
0.016473904 0.0030286908 0.00028836913 4288361773
0.018425025 0.0031554177 -0.00011176616 4288296493
0.020376138 0.003282249 -0.00051182322 4288296493
0.022732452 0.0020207316 0.00050381571 4288165679
0.025099456 0.00075997412 0.0015173871 4288034864
0.027269162 0.00019395351 0.0018220972 4288100143
0.029444188 -0.00037160516 0.0021258052 4288558379
0.031624533 -0.0009367615 0.0024285391 4288558379
0.035538092 -0.0070483536 0.0083708297 4288230958
0.041249089 -0.018702194 0.019939527 4288100143
-0.0053414144 -0.016321614 0.020813402 4289671454
-0.0034917109 -0.015493378 0.019685213 4288885289
-0.0016472824 -0.014665395 0.018558171 4289278243
0.00052715838 -0.015235052 0.018859107 4290259994
0.0025367141 -0.015105695 0.018446155 4289148959
0.0049987175 -0.00075611472 0.0029835571 4288101928
0.006592907 0.00076597929 0.0011605844 4288951079
0.0083601288 0.0015897974 4.998222e-05 4288688938
0.01049478 0.0010183752 0.00035966001 4288297259
0.012256697 0.0018420815 -0.00074968673 4288559144
0.014205001 0.0019683987 -0.0011494104 4288165934
0.016153309 0.0020948276 -0.0015490483 4288428584
0.0182987 0.0015245453 -0.0012412574 4288232234
0.020049922 0.0023480207 -0.0023480859 4287969839
0.022403074 0.0010818392 -0.0013349671 4287903794
0.0245618 0.00051277876 -0.0010296609 4287969839
0.026933648 -0.000752002 -2.0172447e-05 4288035374
0.028895225 -0.00062403083 -0.00042205118 4288165933
0.031069893 -0.0011917129 -0.00011976995 4287708208
0.035192214 -0.0080193877 0.0065132231 4287381043
-0.005788628 -0.01660049 0.01822114 4290392339
-0.0041063912 -0.01506906 0.016382623 4290455323
-0.0021051504 -0.01494047 0.015971217 4291044119
-0.00010383502 -0.014811784 0.015559867 4289802013
0.0018975474 -0.014682956 0.015148595 4289279263
0.0059248507 0.0012357682 -0.0020962115 4288363048
0.0078676082 0.0013613775 -0.0024950374 4287904814
0.010182813 8.7574124e-05 -0.0014777388 4287971368
0.01388758 0.0010394827 -0.0029840972 4286989363
-0.0062351339 -0.016870052 0.015635259 4289476379
-0.0045580305 -0.015334547 0.013801008 4289408549
-0.0025622882 -0.015206337 0.013390712 4289605409
-0.00039916113 -0.015781209 0.013690785 4289409568
0.0014294274 -0.014949553 0.012570333 4289671708
-0.0066809021 -0.017130405 0.013055831 4289607193
-0.005008962 -0.015590757 0.011225745 4289604644
-0.00318316 -0.014757305 0.010107271 4289212453
-0.0011955127 -0.014629528 0.0096987113 4289605664
0.00079221278 -0.014501601 0.0092902351 4289867804
0.0022625476 -0.012258269 0.006758824 4289085464
-0.0069670193 -0.018089667 0.011191662 4289541149
-0.0054591559 -0.015837744 0.0086569376 4290782233
-0.003638681 -0.015002415 0.0075411424 4290716954
-0.0016565211 -0.014874995 0.0071337037 4290717974
0.00032570586 -0.014747441 0.006726345 4289867804
0.00179106 -0.012497783 0.0042006969 4289281559
-0.0077290498 -0.016912892 0.0072088391 4290063898
-0.0060700811 -0.015365198 0.0053877495 4289866274
-0.0042576045 -0.01452817 0.0042751674 4289342758
-0.0022836141 -0.014401302 0.0038693994 4290782744
-0.00014008954 -0.014983997 0.0041688122 4289539873
0.0014924295 -0.013437577 0.002353536 4289542168
-0.008489687 -0.015717909 0.0032386258 4290455069
-0.0068412162 -0.014166459 0.0014228411 4288754219
-0.0047115125 -0.014752574 0.0017233789 4288688939
-0.0027430169 -0.014626041 0.0013187416 4289473828
-0.00060515478 -0.015211329 0.0016177371 4289736224
0.0010222085 -0.013660774 -0.00019337051 4289148958
-0.010897499 -0.016060449 0.0010937043 4290001934
-0.0095657706 -0.01307492 -0.0021274425 4290520348
-0.0076109432 -0.012949511 -0.002529446 4289931553
-0.0054922514 -0.013538569 -0.0022282377 4289146664
-0.0032017082 -0.014841467 -0.001225533 4290520348
-0.0012386329 -0.014715187 -0.0016289894 4289409314
0.00055271015 -0.013874732 -0.0027338099 4289540894
-0.011800412 -0.014115572 -0.003559839 4290259228
-0.010323249 -0.011839144 -0.006069323 4290258719
-0.0082183331 -0.012431398 -0.0057670102 4288950313
-0.0059443898 -0.013739944 -0.0047641452 4289081385
-0.0038259551 -0.01433108 -0.0044644307 4289735459
-0.0018710457 -0.014205307 -0.0048662014 4289670944
8.3915889e-05 -0.014079437 -0.0052679051 4289605663
-0.011924524 -0.01574567 -0.0046893395 4289800993
-0.010288905 -0.014181912 -0.0064930487 4289015594
-0.0080208741 -0.015495434 -0.0054922439 4288950313
-0.0059055053 -0.016089119 -0.0051935744 4289212199
-0.0039508119 -0.015963502 -0.0055953953 4288819498
-0.0019960627 -0.015837759 -0.00599714 4288951334
-4.1242689e-05 -0.015711904 -0.0063988231 4288755238
-0.025434006 -0.019693136 -0.0015986226 4288234019
-0.023199398 -0.021014199 -0.00059479475 4288167973
-0.020953972 -0.022334486 0.0004069414 4288625699
-0.019131374 -0.02148658 -0.00070050731 4288690723
-0.01746124 -0.019916683 -0.0025085136 4289017379
-0.015651766 -0.019069411 -0.003613038 4288166698
-0.013542414 -0.019666195 -0.0033150651 4288428328
-0.011738095 -0.018819019 -0.0044183601 4288493099
-0.0096232146 -0.01941523 -0.0041213641 4288557868
-0.0076634735 -0.019289538 -0.0045244014 4288885289
-0.0057036541 -0.019163728 -0.0049273688 4289212198
-0.0037437677 -0.019037798 -0.0053302739 4288885543
-0.0017838143 -0.018911727 -0.0057330988 4288754728
0.00017620623 -0.018785521 -0.0061358362 4288493863
-0.026844833 -0.025078043 0.0011870023 4288232234
-0.024875548 -0.024952859 0.00078120641 4288428584
-0.022906121 -0.02482754 0.00037546828 4288231724
-0.020936575 -0.024702087 -3.0204654e-05 4288820009
-0.019111294 -0.023851857 -0.0011365954 4288492843
-0.017144177 -0.023726322 -0.0015415996 4288427308
-0.015176948 -0.02360066 -0.001946535 4288297004
-0.013209615 -0.02347488 -0.0023514181 4288427818
-0.011087116 -0.02407293 -0.0020576473 4288362028
-0.0091169141 -0.023946725 -0.0024629459 4288623403
-0.0071466379 -0.02382037 -0.0028681643 4288623403
-0.0051762797 -0.023693904 -0.0032733139 4289016104
-0.0033716112 -0.022843987 -0.0043747472 4288558378
-0.0015722327 -0.021994248 -0.0054750582 4288754983
0.00022187456 -0.021144778 -0.0065741511 4288821539
-0.02815273 -0.031214207 0.0046648812 4286202434
-0.026835319 -0.027450204 0.0007485915 4287968309
-0.024863508 -0.027324893 0.0003422536 4288165168
-0.022752706 -0.027926654 0.00063631497 4288296238
-0.020919487 -0.027073838 -0.00047022104 4288623404
-0.018947288 -0.026948117 -0.00087636895 4289015848
-0.017121863 -0.026095554 -0.0019811373 4288492844
-0.0151521 -0.025969744 -0.0023866054 4288362028
-0.013182249 -0.025843799 -0.0027920045 4288297004
-0.010902498 -0.027170166 -0.0018032957 4288166189
-0.0089271031 -0.027043626 -0.0022096615 4288231724
-0.0069516338 -0.026916966 -0.002615964 4288492844
-0.0051389895 -0.026064448 -0.003717551 4288950824
-0.0031660385 -0.025937684 -0.0041231411 4288558889
-0.0013612844 -0.025085419 -0.0052229362 4288297003
0.00026724115 -0.023508161 -0.0070153186 4288625443
-0.028146889 -0.033601835 0.0042163841 4286136898
-0.026692737 -0.030556358 0.0010071564 4287837238
-0.024851758 -0.029701069 -9.9578872e-05 4288361008
-0.022738595 -0.030304939 0.00019239821 4288361519
-0.021044053 -0.028720431 -0.0016113501 4288688683
-0.019072004 -0.02859474 -0.0020174757 4288688683
-0.017246556 -0.027739957 -0.0031206738 4288689194
-0.015127569 -0.02834297 -0.0028295461 4288362028
-0.013003137 -0.028945491 -0.0025394503 4288362029
-0.010718513 -0.03027603 -0.0015548673 4288427564
-0.0088953376 -0.029420845 -0.0026572701 4288166189
-0.007077422 -0.028565928 -0.0037584687 4288362029
-0.0051020198 -0.028439149 -0.0041646669 4288689193
-0.003126543 -0.028312236 -0.0045707868 4288362539
-0.0013190918 -0.027457602 -0.0056695612 4288362283
0.00031230226 -0.025875755 -0.007459336 4288036903
-0.028271828 -0.035261393 0.0030661244 4286333249
-0.027083542 -0.030742928 -0.0015335623 4287902773
-0.02497616 -0.031349525 -0.001242077 4288427054
-0.023001846 -0.031223938 -0.0016488526 4288492589
-0.02102739 -0.031098232 -0.0020555761 4288558124
-0.019052815 -0.030972406 -0.0024622399 4288754218
-0.017224662 -0.030115232 -0.0035644118 4288950569
-0.015252545 -0.029989317 -0.0039703976 4288688938
-0.013128426 -0.030594081 -0.003681818 4288362029
-0.011153441 -0.030467719 -0.0040882099 4288166188
-0.0090211108 -0.031071715 -0.0038011428 4288493353
-0.0072031654 -0.030214578 -0.0049007703 4288297259
-0.0050653405 -0.030817978 -0.0046146568 4288559144
-0.0030873455 -0.030690901 -0.0050212946 4288035118
-0.0011092834 -0.030563705 -0.0054278653 4288100654
0.00052763522 -0.028977081 -0.0072156163 4288691999
-0.028136041 -0.038389564 0.0033107847 4286529343
-0.026542488 -0.036060214 0.00080965273 4287771959
-0.024693448 -0.035200015 -0.00029560737 4288295983
-0.022711251 -0.035073951 -0.00070402212 4288034353
-0.020728935 -0.034947768 -0.001112381 4288231214
-0.018890206 -0.034087844 -0.0022152495 4288231214
-0.0170567 -0.033228092 -0.0033170041 4288491824
-0.01507939 -0.033101842 -0.0037240554 4288295728
-0.012950238 -0.033708565 -0.0034380611 4287969583
-0.011124451 -0.032848947 -0.0045379605 4287838768
-0.0093039088 -0.03198956 -0.0056366418 4287969583
-0.007488627 -0.031130359 -0.0067341384 4288036393
-0.0053537972 -0.031736195 -0.0064490046 4287971624
-0.0032135434 -0.032341518 -0.0061648767 4287250484
-0.0012356378 -0.032214336 -0.0065714177 4287054388
-0.02640162 -0.039190009 0.0010518972 4287379513
-0.024276186 -0.039799914 0.0013364796 4287314488
-0.022421647 -0.038937047 0.00023174845 4287380279
-0.020431466 -0.038810343 -0.00017823093 4287118649
-0.01858471 -0.03794767 -0.0012812298 4287315254
-0.016450748 -0.038556576 -0.00099799596 4287184693
-0.014906865 -0.036222994 -0.0034836289 4286923318
0.027308706 0.03456961 0.032554146 4281631558
0.027614832 0.039838441 0.026204299 4280262718
0.030209705 0.03803888 0.028029997 4279806779
0.0077157728 0.037573028 0.02833936 4281371714
0.0078220218 0.044162709 0.020474151 4281437504
0.0088130869 0.047518291 0.01634907 4280394298
0.011109857 0.046350442 0.017446369 4280525623
0.014189528 0.042600147 0.021520436 4279810094
0.016714204 0.040788922 0.023355395 4280917048
0.018659778 0.040915135 0.022956289 4281242685
0.020203207 0.042331964 0.021071129 4281046333
0.021532139 0.044393282 0.018445659 4281241409
0.022432107 0.047743477 0.014339641 4281045824
0.02351436 0.050447255 0.010980574 4281110338
0.026057705 0.048637651 0.012812074 4281111359
0.029689452 0.043607153 0.018341925 4280070704
0.0054540299 0.036456555 0.026859775 4282283339
0.0046752729 0.046313822 0.015278339 4280722738
0.0056644045 0.049680367 0.011161553 4281046078
0.0070017688 0.051748492 0.0085388105 4281697348
0.009273991 0.050574586 0.0096379649 4281567299
0.011942679 0.048105352 0.012221321 4280785724
0.014632814 0.045637574 0.014800325 4280590904
0.016749721 0.045114364 0.015148792 4280915263
0.018068392 0.047181621 0.012530204 4280915518
0.019370956 0.049247943 0.0099149235 4280133179
0.021069951 0.050018933 0.0087838508 4279285814
0.02255461 0.051436674 0.0069140363 4280654654
0.024875011 0.050266448 0.0080037806 4280915518
0.028063267 0.046510451 0.012046419 4280720698
0.034538314 0.033059482 0.027155802 4280720698
0.0044316612 0.038075857 0.022004433 4282543948
0.0038239807 0.047314949 0.011192881 4280982839
0.0048031621 0.050692014 0.0070860814 4279743793
0.0063175596 0.052115537 0.0052129123 4279743793
0.0085813217 0.050936572 0.0063106697 4279418413
0.011241183 0.048457831 0.0088894721 4279092013
0.014117861 0.045330442 0.012204971 4280916029
0.016031101 0.045454569 0.011812508 4280850494
0.017342146 0.047528069 0.0092002079 4280849983
0.018637102 0.049600605 0.0065912623 4280653888
0.020122061 0.051022731 0.0047245715 4279675963
0.021805033 0.051794991 0.0035984293 4279285559
0.024116941 0.050619803 0.0046867002 4279611704
0.027510161 0.046200894 0.0094589293 4279611449
0.032675266 0.036594782 0.020116791 4280328253
0.0029740892 0.048334256 0.0071200151 4281046589
0.0043122806 0.050415747 0.0045065824 4280524093
0.0061958916 0.050537623 0.0041199643 4280915263
0.0082693733 0.050006866 0.0044740383 4280784958
0.010925762 0.047518995 0.0070471447 4280915773
0.013798807 0.044380166 0.010355484 4281046079
0.015709274 0.044504113 0.0099635888 4280915519
0.017018069 0.046584174 0.0073565263 4280849728
0.018310778 0.048663273 0.0047528204 4280719424
0.019999219 0.049438052 0.0036270954 4280653634
0.021890864 0.049561091 0.0032392833 4280914498
0.023993742 0.049032893 0.0035877265 4281110338
0.026957739 0.045900568 0.0068777632 4281110084
0.03124827 0.038864266 0.014573049 4281175363
0.0032153614 0.045438938 0.007503897 4280850749
0.0041907243 0.048838072 0.0034137722 4280654654
0.0060742386 0.048959948 0.0030271746 4281046078
0.0079577826 0.049081907 0.002640631 4280720188
0.010610711 0.046584845 0.0052081328 4280981564
0.01348011 0.043434657 0.0085092243 4281111870
0.015585508 0.04290396 0.0088553298 4281046079
0.017095108 0.044336509 0.0069897901 4280785214
0.01839092 0.046422504 0.0043902155 4280915775
0.019876383 0.047853604 0.0025297869 4280980545
0.021351105 0.049284086 0.00067161396 4281045314
0.023237262 0.049406849 0.00028498657 4279872824
0.025978472 0.046916209 0.0028347988 4279350583
0.029823352 0.041160963 0.0090480857 4279872059
0.0038188733 0.041219443 0.0093600359 4281567043
0.0040691905 0.047260635 0.0023211222 4280589374
0.0053921901 0.049354564 -0.00027956069 4280198969
0.0072675981 0.04947599 -0.00066444091 4278960944
0.0097195264 0.047626473 0.0011615362 4278962474
0.012772094 0.043807492 0.0051935092 4279157294
0.014671646 0.043930724 0.0048038494 4281046079
0.016370982 0.044710577 0.0036789235 4281176639
0.01786208 0.046146426 0.0018204618 4281046334
0.019547997 0.046925522 0.00069844909 4280980289
0.021020278 0.04836037 -0.0011560768 4281045823
0.022481821 0.04979454 -0.0030083079 4278961199
0.024573404 0.04926125 -0.0026606526 4279221553
0.028400544 0.043484762 0.0035419688 4279025203
0.035779208 0.027227074 0.02143801 4279025203
0.0042397566 0.03764217 0.01046632 4281958214
0.0035797805 0.047002971 -0.00024542399 4280785214
0.0048978217 0.049103312 -0.0028403737 4279939634
0.0067677759 0.049224384 -0.0032241344 4280068664
0.0092137381 0.047367737 -0.001401661 4279287344
0.014153894 0.043657862 0.002233522 4281111104
0.015847957 0.044439558 0.0011113118 4281111358
0.017333942 0.04587955 -0.00074291788 4281111358
0.018603791 0.047977362 -0.0033275522 4280589373
0.020065617 0.04941595 -0.005176709 4280589374
0.021727432 0.050195921 -0.0062921178 4281566788
0.023810718 0.049659826 -0.0059443004 4281697349
0.027412035 0.044520371 -0.00048445724 4281371458
0.033900376 0.030835975 0.014455374 4281176894
0.0037540942 0.03736268 0.0078832805 4281957448
0.0029072836 0.047416575 -0.0035411175 4280331314
0.0042177252 0.049523078 -0.0061296914 4280980798
0.0062686838 0.04898195 -0.0057774093 4281762628
0.0083250143 0.048441246 -0.005426174 4281632579
0.01097022 0.045916975 -0.0028761066 4281046078
0.013045318 0.045377664 -0.0025285967 4280720443
0.014925914 0.045499757 -0.0029143039 4281176639
0.016401431 0.046943545 -0.0047632027 4281175874
0.0178662 0.048386745 -0.006609885 4280654143
0.019320238 0.049829304 -0.0084542604 4279611959
0.02118467 0.049950685 -0.0088364128 4280524093
0.023262314 0.049412049 -0.0084890649 4280589373
0.026640868 0.044914186 -0.0037693633 4280589118
0.031805739 0.035140775 0.0067694373 4279807288
0.0036310218 0.035763536 0.0067755673 4282805323
0.0022358634 0.047843844 -0.0068272715 4280654909
0.0037249625 0.049292505 -0.008676189 4279873079
0.0057702884 0.048748769 -0.0083243437 4280199479
0.0076293424 0.048869208 -0.0087058172 4279938103
0.010071389 0.046999 -0.0068920171 4279742518
0.01233251 0.04579331 -0.0058126254 4280719933
0.014404653 0.045251667 -0.0054660374 4280915520
0.01567268 0.047362667 -0.008040823 4280849475
0.016924618 0.049472705 -0.010612251 4280914754
0.018368188 0.05091906 -0.012451293 4280393533
0.020432206 0.050377227 -0.012102794 4279611958
0.022927703 0.048511088 -0.010299526 4279938103
0.026086487 0.044659577 -0.0063174879 4280198714
0.030151105 0.038162205 0.00056519732 4280393533
0.038249273 0.019755449 0.020509329 4280393533
0.003146451 0.035498045 0.0042021535 4282413133
0.0019323751 0.046951849 -0.0086392481 4281308729
0.0028606839 0.050403796 -0.012679946 4281046844
0.0050838217 0.049190916 -0.011596126 4280850238
0.0069347359 0.049310826 -0.011975928 4280785469
0.00956228 0.046767555 -0.0094349477 4280849474
0.011620751 0.046222717 -0.0090871975 4280980033
0.014083609 0.044347331 -0.0072823139 4281045313
0.015349375 0.046464883 -0.0098518664 4281044804
0.016803917 0.047916364 -0.011690087 4281175874
0.018455278 0.048702266 -0.012798572 4281240898
0.020731932 0.047493562 -0.011725234 4281436228
0.023019249 0.046285674 -0.010654064 4281306434
0.025748402 0.04374972 -0.0081334105 4281305923
0.029153701 0.039222524 -0.003441399 4281241919
0.036131468 0.024072651 0.012838047 4281241919
0.0037461333 0.031228181 0.0060233921 4282740553
0.0021790713 0.044058271 -0.0082554165 4281110593
0.0034853853 0.046184622 -0.010828897 4281437504
0.0055301525 0.045636378 -0.010480126 4281372223
0.0073889941 0.045756809 -0.010861551 4281371203
0.0098297931 0.043873131 -0.0090570292 4281175363
0.011893341 0.043326385 -0.0087119108 4281175364
0.014360931 0.041444626 -0.0069127521 4281110084
0.016036509 0.042234145 -0.0080247475 4281240643
0.017706713 0.043023422 -0.0091355629 4281175874
0.019786278 0.042478066 -0.0087934816 4281110338
0.021871164 0.041933145 -0.0084524257 4281175618
0.023961369 0.041388668 -0.0081123924 4281045058
0.026487708 0.039511275 -0.006324891 4281045313
0.029466227 0.036302049 -0.0030932613 4281175363
0.035562161 0.023766235 0.01025686 4281175619
0.0043444708 0.026940651 0.0078323893 4282805324
0.0031574667 0.038472041 -0.0049605723 4281371459
0.0044802763 0.0406061 -0.0075326329 4280914753
0.00691773 0.03871537 -0.0057323659 4280914754
0.0086067617 0.039507642 -0.0068457806 4280784193
0.010871867 0.038288783 -0.005776844 4281111104
0.012951218 0.037740786 -0.0054365145 4280980034
0.015434232 0.035853386 -0.0036453251 4280653633
0.017327785 0.035976417 -0.0040336186 4280718658
0.019221321 0.036099561 -0.004421833 4280784959
0.020907637 0.036892205 -0.0055343015 4280980034
0.023218188 0.035676844 -0.0044742953 4280915263
0.025114305 0.035800423 -0.0048628487 4281045569
0.02744085 0.034586258 -0.0038059345 4280915008
0.029995961 0.032704148 -0.0020290241 4281175364
0.036317088 0.019457728 0.012011569 4281175364
0.0039509051 0.033532396 -0.0024118945 4281632068
0.0056587048 0.034327909 -0.0035277195 4281239879
0.0081142895 0.032431625 -0.0017358828 4281240644
0.009822119 0.033227384 -0.0028516166 4281305924
0.011718247 0.033350326 -0.0032406263 4281305668
0.013810705 0.032800939 -0.002904579 4281305924
0.016306479 0.030907676 -0.0011207704 4281370949
0.018213311 0.031031594 -0.0015117731 4281109828
0.020120127 0.031155594 -0.0019027162 4281305669
0.021819895 0.031951353 -0.0030163452 4281240389
0.023933679 0.031403869 -0.0026843753 4281240644
0.025840396 0.031528153 -0.0030750893 4281240644
0.028177194 0.03031021 -0.0020234454 4281370948
0.030524638 0.029093083 -0.0009739697 4281436228
0.036850203 0.015802335 0.01303402 4281567299
0.0045598969 0.029246055 -0.00060472265 4281697348
0.0062784664 0.030044511 -0.0017211623 4281566024
0.0085560121 0.028817344 -0.00066126697 4281370694
0.010462729 0.028940871 -0.0010525193 4281305669
0.012562931 0.028389677 -0.00071970373 4281240134
0.01427619 0.029188201 -0.0018348321 4281305414
0.016580561 0.027963117 -0.00078012422 4281370949
0.018492637 0.028087378 -0.001172198 4281370949
0.020200526 0.028885812 -0.0022859648 4281175364
0.021696171 0.030357927 -0.0041198246 4281305924
0.023809666 0.029808216 -0.0037893727 4281305668
0.025928488 0.029258899 -0.0034599025 4281240644
0.028052608 0.028710064 -0.0031314958 4281436228
0.030617146 0.026815273 -0.0013660546 4281435973
0.036941785 0.01347987 0.012610372 4281632834
0.0046197958 0.026975237 -0.00098363683 4281500743
0.0063411035 0.027776089 -0.0020990577 4281632324
0.0084329359 0.02722197 -0.0017662961 4281305668
0.010339534 0.027345475 -0.0021575354 4281435973
0.012632729 0.026115015 -0.0011038445 4281501254
0.014544705 0.026239075 -0.0014960356 4281436229
0.016456673 0.026363231 -0.0018881597 4281370694
0.018368632 0.026487485 -0.0022802167 4281435719
0.020076578 0.027288154 -0.0033924039 4281305414
0.021985818 0.027412429 -0.0037837587 4281240133
0.023895027 0.027536787 -0.0041750446 4281240644
0.026016226 0.026985459 -0.0038476791 4281371203
0.027928025 0.027110182 -0.0042393543 4281371203
0.030709323 0.024533175 -0.0017610379 4281501508
0.037473142 0.0098026544 0.013617653 4281370184
0.0047473088 0.017095376 0.0069862548 4283066698
0.0048617981 0.024020217 -0.00064237788 4281566789
0.0065885112 0.024823647 -0.0017573163 4281305159
0.0088731647 0.023588017 -0.00070523471 4281370693
0.010787681 0.023712039 -0.0010980945 4281501508
0.01289532 0.023156904 -0.00077003241 4281566789
0.014616739 0.023960385 -0.0018836036 4281501509
0.016332801 0.024763621 -0.0029960107 4281370693
0.018244641 0.024887867 -0.003388036 4281370694
0.020360289 0.024333648 -0.0030613318 4281240134
0.022274768 0.024458278 -0.0034537502 4281370949
0.02439839 0.023904782 -0.0031285379 4281436228
0.026315477 0.024029765 -0.0035213586 4281697603
0.028447047 0.023476981 -0.0031976346 4281762884
0.031452786 0.020213831 -1.116842e-05 4281566534
0.038443252 0.0047571808 0.016046643 4281566534
0.0048021227 0.014791343 0.0065849684 4283132998
0.0049208961 0.021738753 -0.0010286681 4281632578
0.0068352409 0.021862566 -0.0014216341 4281370184
0.0089372024 0.021304633 -0.0010941364 4281370183
0.011234809 0.020065434 -4.7776848e-05 4281435463
0.013157245 0.020190075 -0.00044218823 4281631559
0.015079692 0.020314813 -0.00083652884 4281500998
0.016803825 0.021120839 -0.0019490477 4281435463
0.018723581 0.021245606 -0.0023426935 4281370183
0.020846978 0.020689648 -0.0020191036 4281369673
0.022975698 0.020134158 -0.0016965885 4281369928
0.025109738 0.019579124 -0.0013750903 4282154819
0.027249094 0.019024536 -0.0010546111 4282024003
0.02939377 0.018470362 -0.00073509663 4282481219
0.032628931 0.014516976 0.003155211 4282546499
0.039851028 -0.0016698837 0.019887917 4282546499
0.0051617324 0.018768653 -0.00069792382 4283329858
0.0072660558 0.018208496 -0.00037253089 4282937413
0.0095631666 0.016964756 0.00067064539 4283133509
0.01168091 0.016405709 0.00099338219 4283002439
0.013804037 0.015847083 0.0013151411 4283067718
0.015541615 0.016656123 0.00020139106 4283329093
0.017670097 0.016098045 0.00052219257 4283656514
0.019402303 0.016906936 -0.00059031509 4283853373
0.010057248 -0.0015404224 -0.0026053749 4283852608
0.011816554 -0.00071243942 -0.0037110224 4283460164
0.013570525 0.00011536479 -0.0048155347 4283002948
0.015513208 0.00024144351 -0.0052140141 4283004225
0.017849371 -0.0010350123 -0.0042038681 4282873665
0.0197974 -0.00090837479 -0.0046032881 4282480709
0.021745414 -0.00078161061 -0.0050026132 4282415683
0.023488645 4.6014786e-05 -0.0061044777 4282350403
0.025226478 0.00087346882 -0.0072051873 4282350405
0.027379181 0.00029975176 -0.0069016023 4281304393
0.029749967 -0.00097368658 -0.0058980929 4281370949
0.034717012 -0.010647289 0.0035084505 4281567043
0.042158477 -0.028014764 0.020598426 4281632324
0.003554713 -0.0014316589 -0.0046528792 4282872898
0.0051334687 0.00010275841 -0.0064631915 4281698113
0.0074342899 -0.0011809543 -0.0054494096 4281697603
0.0097458474 -0.002463907 -0.0044377083 4281631813
0.011879589 -0.0030419528 -0.0041325213 4281501254
0.013636269 -0.0022117943 -0.0052359579 4281240134
0.015581489 -0.0020855665 -0.0056349663 4281240133
0.017526712 -0.001959227 -0.0060338927 4281305668
0.019671161 -0.002536118 -0.0057305722 4281436993
0.021417126 -0.0017061755 -0.0068314737 4281502529
0.023362305 -0.0015794858 -0.0072301393 4281305923
0.025100179 -0.00074980408 -0.0083292713 4281435973
0.027042616 -0.00062306225 -0.0087272087 4281370184
0.029622868 -0.0026036799 -0.0070267608 4281434698
0.034802623 -0.013010874 0.0030570291 4281369164
0.042242274 -0.030434124 0.020107824 4281369164
0.0027154647 -0.0081275702 -0.00043822452 4284444718
0.0034301393 -0.0030522943 -0.0057755215 4282415173
0.0053697675 -0.0029270202 -0.0061738035 4281501509
0.0074924529 -0.00350824 -0.0058680912 4281698113
0.0096205063 -0.0040890574 -0.0055633737 4281436738
0.011753935 -0.0046693534 -0.0052597029 4281370948
0.013892721 -0.0052491874 -0.0049570603 4281371203
0.015843157 -0.005122602 -0.0053571211 4281175619
0.017400809 -0.0035843998 -0.0071594315 4281175874
0.019345887 -0.0034579486 -0.0075582387 4281175618
0.021290943 -0.0033313707 -0.0079569584 4281045058
0.023235984 -0.003204681 -0.0083555887 4281240134
0.025388081 -0.0037829503 -0.0080551701 4281305159
0.027545497 -0.0043607354 -0.007755748 4281369674
0.030133113 -0.0063475519 -0.0060615567 4281434444
0.03488791 -0.015378654 0.0026027672 4281172814
0.0025898628 -0.0097635388 -0.0015715249 4284117299
0.0040155612 -0.0075095147 -0.0040840982 4282219078
0.0057855882 -0.0066745207 -0.0051874584 4281501508
0.0077331364 -0.0065486208 -0.0055872807 4281305669
0.0094951987 -0.005713895 -0.0066888193 4281175109
0.011440117 -0.005587928 -0.0070879338 4281174853
0.013575915 -0.0061701685 -0.0067862524 4281174853
0.015717067 -0.006751962 -0.0064855916 4281044803
0.017471146 -0.0059172809 -0.0075851614 4281175619
0.01921986 -0.0050828382 -0.0086835464 4281175619
0.021366347 -0.0056639165 -0.0083837202 4281240134
0.02351816 -0.0062445328 -0.0080849016 4281305159
0.025468379 -0.0061173737 -0.0084845023 4281239369
0.027628154 -0.0066972375 -0.0081871459 4281303883
0.030217782 -0.0086905658 -0.006498104 4281434444
0.035402723 -0.019164115 0.0035371259 4281434188
0.0024642833 -0.011399195 -0.0027046092 4284050999
0.004067678 -0.0098499358 -0.004510615 4282285123
0.0058404021 -0.0090125352 -0.0056129396 4281370693
0.0079731531 -0.0095975623 -0.0053124689 4281370949
0.0097405873 -0.0087602884 -0.006413551 4281240134
0.011690717 -0.0086339712 -0.0068137273 4281240133
0.013640862 -0.0085075498 -0.0072138244 4281175363
0.01578437 -0.0090914071 -0.0069152284 4281306179
0.017541151 -0.008254312 -0.0080137579 4281436228
0.019491293 -0.008127518 -0.008413597 4281501764
0.021642808 -0.0087105036 -0.0081163906 4281371203
0.023799654 -0.00929299 -0.0078201741 4281435973
0.025961837 -0.009875074 -0.0075249337 4281435719
0.027710479 -0.0090378821 -0.008621417 4281369673
0.030302111 -0.011037745 -0.0069375299 4281435209
0.035486974 -0.021544643 0.0030739754 4281434953
0.0023387484 -0.01303453 -0.0038374774 4284115768
0.0041194782 -0.012194477 -0.0049399883 4282481728
0.0057150871 -0.010641202 -0.0067411158 4281698113
0.007847514 -0.011228487 -0.006442165 4281567299
0.0096149854 -0.01038897 -0.0075416602 4281568574
0.011564966 -0.010262668 -0.0079418141 4281829439
0.013514962 -0.010136239 -0.0083418749 4281763138
0.015658161 -0.010722332 -0.0080447868 4281568574
0.017610835 -0.010595508 -0.0084452424 4281699134
0.019563505 -0.010468535 -0.0088455882 4281698114
0.021717381 -0.01105357 -0.0085504353 4281632579
0.023876596 -0.011638179 -0.008256251 4282025788
0.025834555 -0.011510506 -0.0086574219 4282026809
0.027792478 -0.011382721 -0.0090585165 4282223414
0.030386111 -0.013389066 -0.0073798262 4282351934
0.035356291 -0.023218058 0.0019152872 4282351934
0.0038170181 -0.013111383 -0.0067698862 4283333428
0.0055898018 -0.012269542 -0.0078690629 4282483003
0.0073572695 -0.011427939 -0.0089670643 4282221883
0.0094894059 -0.012017354 -0.0086695626 4282875959
0.011626916 -0.012606263 -0.0083730593 4282941239
0.013579438 -0.012479693 -0.0087736547 4282875194
0.01553197 -0.012352981 -0.0091741495 4282874938
0.0172888 -0.01151146 -0.010269541 4283136568
0.019437023 -0.012099192 -0.0099748857 4283529013
0.021590576 -0.012686461 -0.0096812434 4283659574
0.023545742 -0.012559101 -0.010081939 4284247604
0.025913678 -0.013859667 -0.0090969503 4284379693
0.028083201 -0.014445521 -0.0088063143 4284641834
0.03089327 -0.017171912 -0.0064415969 4284574258
0.035225626 -0.024891168 0.00075681321 4284574514
0.0040453486 -0.01617796 -0.0065046214 4284508724
0.0060029812 -0.016051546 -0.0069066137 4284509488
0.0077784881 -0.015207157 -0.0080047324 4284706603
0.014778348 -0.03192275 -0.0091354121 4284706349
0.017718291 -0.035446733 -0.0061182026 4284641069
0.020101512 -0.036777824 -0.0051588621 4284639793
-0.0015295409 -0.033130348 -0.0084028263 4283787328
0.00010507926 -0.031534985 -0.010183791 4283200064
0.0017290525 -0.029940158 -0.011962527 4281892679
0.0035179965 -0.029079676 -0.01305248 4281893444
0.0056581832 -0.0296866 -0.012769466 4281763138
0.007622797 -0.029559642 -0.013172833 4281697094
0.0097710676 -0.030165814 -0.012891246 4281893189
0.011924701 -0.030771464 -0.012610713 4281697859
0.015028529 -0.035041176 -0.008912636 4281697603
0.018356094 -0.040041484 -0.0045378748 4282088263
0.021332445 -0.043574035 -0.0015359204 4283263559
-0.014734987 -0.039352745 -0.0032492373 4282935628
-0.013352718 -0.036275536 -0.0064177942 4282479944
-0.011991721 -0.033199571 -0.0095818359 4281565769
-0.010181841 -0.032336414 -0.010675227 4281566024
-0.008377213 -0.031473473 -0.011767374 4281435463
-0.0064157881 -0.031347632 -0.012170726 4281370439
-0.0041248016 -0.032695048 -0.011199752 4281304649
-0.0019904859 -0.033305094 -0.010917494 4281304393
-0.00019093975 -0.032441981 -0.012008244 4281435463
0.0012577921 -0.030106708 -0.014468757 4281240389
0.0030414052 -0.029244356 -0.015556043 4281305668
0.0051759146 -0.029853851 -0.015273446 4281436229
0.0073158033 -0.030462883 -0.014991863 4281893699
0.009277612 -0.03033597 -0.015394548 4281697603
0.0116117 -0.031679541 -0.014431676 4281436229
0.014711667 -0.035962835 -0.010742297 4281436228
0.018609587 -0.043183774 -0.0043329215 4282153798
0.021784401 -0.047461927 -0.00065869465 4283328074
-0.014860835 -0.041011214 -0.004398494 4282935883
-0.013478037 -0.037925109 -0.0075608585 4282283593
-0.012424286 -0.033361003 -0.012094224 4281370949
-0.010776285 -0.031756587 -0.0138721 4281632069
-0.0088204332 -0.031631231 -0.014274394 4281501508
-0.0067026094 -0.032244816 -0.013990508 4281370439
-0.0045793727 -0.032857925 -0.013707647 4281369928
-0.0024507307 -0.033470571 -0.01342581 4281304649
-0.00065651163 -0.032605559 -0.014513874 4281239368
0.00113241 -0.0317408 -0.01560078 4281369928
0.003091298 -0.031614453 -0.016003134 4281435464
0.0050502196 -0.031487986 -0.016405417 4281566024
0.0071897805 -0.032099269 -0.016125349 4281632069
0.0093347076 -0.032710046 -0.01584628 4281501509
0.011485022 -0.033320412 -0.015568187 4281762373
0.014961032 -0.039091796 -0.010526804 4281632834
0.018479828 -0.044860303 -0.0054940609 4282545989
-0.015135005 -0.041927196 -0.0062348424 4282935629
-0.013905399 -0.038090341 -0.010077184 4281565768
-0.01270242 -0.034255087 -0.013913983 4281632834
-0.010900524 -0.033388048 -0.015002532 4281370694
-0.0089448281 -0.0332627 -0.015404789 4281239879
-0.0066656023 -0.034619831 -0.01443786 4281043784
-0.0047044232 -0.034493871 -0.014841074 4281304393
-0.0027431771 -0.034367792 -0.015244214 4281239369
-0.00095161796 -0.033500761 -0.016330162 4281108299
0.0011794753 -0.034115203 -0.016050225 4281239113
0.0031408742 -0.033988699 -0.0164531 4281434953
0.0051023141 -0.033862062 -0.01685589 4281435208
0.0072442181 -0.034475401 -0.016577879 4281566533
0.0095746089 -0.035828248 -0.015620677 4281631813
0.011729915 -0.036440454 -0.015345233 4281502019
0.014832838 -0.040750161 -0.011675401 4281631814
0.018158972 -0.04579711 -0.0073334938 4282870859
-0.015557025 -0.042094022 -0.0087536527 4282870093
-0.014332067 -0.038246401 -0.012587162 4281696329
-0.012826644 -0.035888448 -0.015045775 4281304649
-0.010868516 -0.03576307 -0.015448635 4281304649
-0.0089103058 -0.035637587 -0.015851429 4281174089
-0.0067904629 -0.036255457 -0.015571108 4281174344
-0.0046652146 -0.036872894 -0.015291831 4281305159
-0.0027014576 -0.036746666 -0.015695496 4281304649
-0.00090720877 -0.035877235 -0.016780412 4281303373
0.0012262277 -0.036493763 -0.016502546 4281368909
0.0030152276 -0.0356244 -0.017586196 4281565769
0.0049765036 -0.0354978 -0.017988971 4281762374
0.0071180724 -0.036113381 -0.017712479 4281762628
0.0094479602 -0.037470669 -0.016758313 4281632323
0.011417335 -0.03734313 -0.017162463 4281371204
0.014328118 -0.040924579 -0.014178833 4281891913
0.017647527 -0.04598745 -0.0098466491 4282478413
-0.014456611 -0.039886102 -0.01372339 4281760843
-0.012797464 -0.038267754 -0.015494218 4281630028
-0.010992859 -0.037396133 -0.016580177 4281303374
-0.0090348125 -0.03727065 -0.016982937 4281368654
-0.0069152936 -0.037890799 -0.016704155 4281628499
-0.0047903694 -0.038510472 -0.016426386 4281758549
-0.0026600249 -0.039129697 -0.016149582 4281823573
-0.00069369748 -0.039003149 -0.016553672 4282148953
0.0012726746 -0.038876496 -0.016957691 4282083929
0.0030643456 -0.038004711 -0.018040365 4281757783
0.0050281323 -0.037877932 -0.018443642 4281627734
0.0073521473 -0.039240181 -0.01749154 4281956429
0.0096868593 -0.040601566 -0.016541576 4281759569
0.01166142 -0.040473685 -0.01694678 4281757528
-0.014430586 -0.042274207 -0.014177302 4282017629
-0.012921792 -0.039902739 -0.016627135 4282017629
-0.010961305 -0.039777227 -0.017030491 4281691739
-0.039207656 -0.00093319267 0.032763641 4285295144
-0.037804116 0.0026136637 0.02867109 4285689118
-0.035460304 0.00068775564 0.030469842 4285885469
-0.032606129 -0.0039720237 0.035206042 4285885724
-0.028073657 -0.0064501539 0.037314646 4285426979
-0.026580397 -0.0035886839 0.033964571 4285427233
-0.025108378 -0.00072848797 0.030618928 4285492768
-0.0240683 0.0041791052 0.025080454 4285558304
-0.022507202 0.0063535497 0.022477251 4285886488
-0.020250764 0.0051144138 0.023533929 4285886234
-0.017113898 -0.00021817535 0.028973065 4285951769
-0.013343658 -0.0082766861 0.037324313 4285951769
-0.042454001 0.0041368157 0.024658971 4285426978
-0.04094797 0.0070073903 0.021312166 4285492513
-0.039109107 0.0078178197 0.020173948 4285689374
-0.036913324 0.0065695196 0.021239415 4285623839
-0.034336578 0.0032641217 0.024503551 4285755419
-0.031984981 0.0013321266 0.026296083 4285558558
-0.030003253 0.0014581457 0.025887758 4285558813
-0.028284136 0.0029552355 0.024015523 4285559069
-0.026575524 0.0044517219 0.022145554 4285624603
-0.02501421 0.0066327527 0.019546922 4285689628
-0.023329366 0.0081279054 0.017681997 4285623584
-0.021370929 0.0082529336 0.017278817 4285557793
-0.018543787 0.0042704493 0.021250948 4285623583
-0.015094679 -0.0024476275 0.02813118 4285624094
-0.010240931 -0.015320547 0.04155346 4285624093
-0.043365221 0.0073116124 0.018377092 4285624349
-0.041762177 0.0095012002 0.015774064 4285689374
-0.03982145 0.0096242093 0.015373901 4285689374
-0.03763948 0.0083705485 0.016439021 4285623583
-0.035077054 0.0050530732 0.019698147 4285755418
-0.032865304 0.0038015395 0.020757224 4285952789
-0.030899759 0.0039265156 0.020352222 4285689884
-0.029327672 0.0061146468 0.017756011 4285624093
-0.027503703 0.0069268793 0.016622823 4285689884
-0.025821466 0.0084261894 0.014761511 4285952788
-0.023871306 0.0085505694 0.014359944 4285821209
-0.02206292 0.0093620606 0.013230223 4285755418
-0.019392207 0.0060522705 0.016467601 4285886999
-0.016252834 0.00068424642 0.021880869 4285952789
-0.01157112 -0.011545964 0.034550983 4285755929
-0.043712351 0.0070623904 0.015780788 4285558559
-0.042114269 0.0092582889 0.013183508 4285887254
-0.040178996 0.009380918 0.01278444 4285952788
-0.03800283 0.0081224367 0.013847515 4285952533
-0.035692763 0.0061742663 0.015638966 4286018324
-0.033240784 0.0035369396 0.018157102 4285755673
-0.031409059 0.0043516308 0.017023787 4285624093
-0.029713567 0.005856052 0.01516271 4285624093
-0.028028604 0.0073598549 0.013303906 4285624094
-0.026081409 0.007483907 0.012902856 4285689884
-0.024273109 0.008297503 0.011774646 4285755418
-0.022470038 0.0091108866 0.01064753 4285820954
-0.020238891 0.007856749 0.011699956 4285755418
-0.017408561 0.0038477778 0.015652426 4285558814
-0.012898542 -0.0077352151 0.027573485 4285558558
-0.043834429 0.0054356605 0.014653184 4285361953
-0.042235952 0.0076382309 0.012060553 4285624349
-0.040300805 0.0077608079 0.011661476 4285689884
-0.038245272 0.0071906596 0.01199194 4285689628
-0.036061343 0.0059282333 0.013050333 4285689629
-0.033741023 0.0039741248 0.014834911 4285624093
-0.03178909 0.0040981621 0.014432661 4285624093
-0.030229602 0.0062987879 0.011848515 4285624349
-0.028418902 0.0071145818 0.010721194 4285624094
-0.026340935 0.006546393 0.011047496 4285624094
-0.024674181 0.0080537051 0.0091956947 4285623839
-0.022876393 0.0088689141 0.008071281 4285623838
-0.02079533 0.0083012804 0.0083971191 4285624093
-0.018121082 0.0049694926 0.011617951 4285624348
-0.01392398 -0.0052703321 0.022067949 4285558814
-0.0082760118 -0.021722153 0.039007619 4285558814
-0.04395644 0.0038092136 0.013525762 4285361698
-0.042357575 0.0060184598 0.010937784 4285493533
-0.040539879 0.0068362504 0.0098101981 4285624094
-0.038607325 0.0069587231 0.0094117001 4285623838
-0.036551889 0.0063863844 0.0097406376 4285689374
-0.0339895 0.0030355006 0.012975983 4285624093
-0.032040354 0.0031593218 0.012574278 4285624349
-0.030091036 0.0032832474 0.012172606 4285624348
-0.028408315 0.0047957748 0.010320578 4285559069
-0.026327979 0.0042255223 0.010644736 4285624349
-0.024797056 0.0064313412 0.0080713946 4285624093
-0.022999216 0.0072487593 0.0069485418 4285820953
-0.021206606 0.0080659539 0.0058268327 4285755163
-0.018685438 0.0054159686 0.0083185639 4285689629
-0.014947336 -0.0027782619 0.016581178 4285624093
-0.0097759403 -0.017205738 0.031322896 4285624094
-0.044190217 0.0028809384 0.011670431 4285295654
-0.042822633 0.0064919889 0.0076326244 4285559068
-0.041012894 0.0073114559 0.0065082349 4285821463
-0.039088469 0.0074333847 0.0061113928 4286018324
-0.03691883 0.0061610639 0.0071663316 4286018324
-0.034738321 0.0048895925 0.0082190689 4285755673
-0.032674816 0.0043157041 0.0085448753 4285624348
-0.030605782 0.0037422925 0.00886962 4285558813
-0.028398018 0.002472803 0.0099169947 4285558813
-0.026587058 0.0032930523 0.0087928567 4285624603
-0.02505843 0.0055053681 0.0062247198 4285755673
-0.023545709 0.0077167898 0.0036599282 4285952534
-0.021329347 0.0064482614 0.0047058295 4285886743
-0.018955573 0.0044849664 0.0064704325 4286017303
-0.01581933 -0.00095450878 0.01183361 4285754909
-0.011576638 -0.011258125 0.02222665 4285624094
-0.0070989467 -0.022251621 0.033322543 4285558558
-0.044423576 0.0019573569 0.0098184161 4285229864
-0.043057945 0.0055793896 0.0057889167 4285559069
-0.041367833 0.0071006119 0.0039412193 4285755163
-0.039448876 0.0072221458 0.0035454743 4285623583
-0.037407387 0.0066444054 0.0038740709 4285755164
-0.035110336 0.004668653 0.0056491587 4285821209
-0.032924768 0.0033931136 0.0066977311 4285689883
-0.030858699 0.0028172359 0.0070214774 4285624349
-0.02852105 0.0008443594 0.0087884068 4285558813
-0.026981484 0.0030639246 0.0062226783 4285690138
-0.025319416 0.0045841932 0.004381353 4285689628
-0.023808982 0.0068021119 0.0018217713 4285557793
-0.021883234 0.0069250017 0.001425283 4285557794
-0.019810956 0.0063501522 0.0017481986 4285689629
-0.01683867 0.0015895665 0.0063829347 4285689628
-0.012918238 -0.0073536187 0.015319552 4285558559
-0.0087736882 -0.016989581 0.024959616 4285426724
-0.044879522 0.0024431571 0.0065197777 4285032749
-0.043521184 0.0060758516 0.0024996381 4285756183
-0.041722048 0.0068990365 0.0013805553 4285689373
-0.03980856 0.0070201829 0.00098590925 4285623328
-0.037772696 0.0064398497 0.0013140682 4285623583
-0.035856176 0.0065614134 0.00091895647 4285821208
-0.033684436 0.0052804574 0.0019672178 4285624348
-0.031762224 0.0054025874 0.0015710741 4285558813
-0.029308375 0.0027209893 0.0040572193 4285558814
-0.027510699 0.0035447925 0.0029389448 4285624603
-0.025856461 0.00506901 0.0011023283 4285953044
-0.024353672 0.0072931051 -0.0014509354 4285755164
-0.022436071 0.0074154586 -0.0018457565 4285689629
-0.020372111 0.0068377852 -0.0015226919 4285821464
-0.017707009 0.0034608841 0.0016683191 4285624604
-0.013953883 -0.0048124716 0.0098708123 4285493023
-0.0098279119 -0.014480807 0.019492492 4285360933
-0.045334395 0.0029426888 0.0032305811 4285361698
-0.043983359 0.0065859631 -0.00078012235 4285559578
-0.042075519 0.0067066476 -0.0011736862 4285887509
-0.040167484 0.0068274289 -0.0015672203 4285887253
-0.038137276 0.0062444657 -0.0012395103 4285887508
-0.036226217 0.006365642 -0.0016335268 4285755929
-0.034315001 0.00648693 -0.0020275079 4285558813
-0.032403614 0.0066083446 -0.0024214368 4285558813
-0.030359369 0.0060266778 -0.0020963345 4285559069
-0.028174233 0.0047424138 -0.0010537915 4285558814
-0.026530486 0.0062703937 -0.0028850939 4285690394
-0.024897274 0.0077977777 -0.0047141025 4285821463
-0.023274634 0.0093246177 -0.0065409057 4285821464
-0.02107827 0.0080414861 -0.0055003837 4285755674
-0.018276095 0.0039505512 -0.0015991982 4285624604
-0.014533166 -0.0043502301 0.0065864027 4285558559
-0.010571837 -0.013348594 0.015473455 4285426978
-0.0074814968 -0.018132456 0.02006188 4286149139
-0.045788195 0.0034559369 -4.9125403e-05 4285361698
-0.044672105 0.0085230544 -0.0054930393 4285493533
-0.042661261 0.0079364032 -0.005163094 4285492768
-0.040883195 0.0087627396 -0.0062746275 4285492768
-0.038744811 0.0074705631 -0.0052260496 4285558303
-0.036720049 0.0068850964 -0.0048987512 4285558303
-0.034689765 0.006300047 -0.0045724716 4285558814
-0.032783862 0.0064210817 -0.0049652942 4285558814
-0.030877788 0.0065422133 -0.0053580888 4285558814
-0.028836366 0.0059582293 -0.0050339298 4285493023
-0.026927326 0.0060797706 -0.0054271761 4285558813
-0.025158707 0.006906338 -0.0065361746 4285624349
-0.023252066 0.007027939 -0.0069287745 4285558559
-0.021199409 0.0064450949 -0.0066066235 4285558558
-0.018695552 0.0037494898 -0.0041430257 4285558814
-0.015262648 -0.0031699985 0.0025978591 4285492769
-0.011160437 -0.012902193 0.012180034 4285492768
-0.045796979 0.0011468083 -0.00043804944 4285230373
-0.044677172 0.0062296987 -0.0058716722 4285362463
-0.042780261 0.0063496083 -0.0062630344 4285558814
-0.040883172 0.0064696372 -0.0066543594 4285493023
-0.038742561 0.0051731244 -0.0056094266 4285492768
-0.036591064 0.0038773492 -0.0045666266 4285558558
-0.034428749 0.0025824159 -0.0035260282 4285558558
-0.032644626 0.003411755 -0.0046369471 4285558814
-0.030865703 0.0042408481 -0.005746739 4285558813
-0.028821897 0.0036547557 -0.0054246709 4285558814
-0.026772607 0.0030691326 -0.0051036561 4285558813
-0.02485821 0.0031910986 -0.0054979464 4285492513
-0.022943687 0.0033131912 -0.0058921855 4285492258
-0.02073757 0.0020217597 -0.0048600202 4285492259
-0.018372234 2.4542212e-05 -0.0031174552 4285558048
-0.015084218 -0.0062103719 0.0028942525 4285623584
-0.011440452 -0.013854682 0.010319162 4285557284
0.0028410964 -0.0064913034 0.00069527701 4284902443
-0.044455525 0.0025099888 -0.0048167389 4285361443
-0.042550731 0.0026303679 -0.0052097496 4285558049
-0.040764589 0.0034616366 -0.0063198768 4285623839
-0.038497578 0.0014503598 -0.0045625372 4285689884
-0.036338534 0.00015062839 -0.0035245214 4285689628
-0.034168642 -0.0011483431 -0.0024886224 4285689628
-0.032246958 -0.0010263622 -0.00288474 4285689883
-0.030325096 -0.00090426952 -0.0032808166 4285690139
-0.0284031 -0.00078205764 -0.0036768485 4285624094
-0.026205879 -0.0020788163 -0.0026463177 4285624348
-0.024138015 -0.0026654452 -0.0023306031 4285492513
-0.022207588 -0.0025423616 -0.0027281363 4285426214
-0.020131472 -0.0031281933 -0.0024140049 4285426213
-0.017901644 -0.0044224337 -0.001389876 4285492003
-0.014906425 -0.0092594102 0.003184706 4285623328
-0.011566494 -0.015510909 0.0091715455 4285556774
-0.043894853 -0.0033627599 -0.0016209185 4285426979
-0.041974153 -0.0032414049 -0.0020172279 4285492514
-0.040053267 -0.0031199306 -0.0024135076 4285623838
-0.038010862 -0.0037111416 -0.0020947363 4285623838
-0.035962943 -0.0043018833 -0.0017770194 4285624093
-0.0340362 -0.0041797236 -0.0021742769 4285689629
-0.032109287 -0.0040574372 -0.0025714878 4285623839
-0.030182231 -0.003935039 -0.002968654 4285623838
-0.027985606 -0.0052364618 -0.001941219 4285623839
-0.025778156 -0.00653705 -0.00091598183 4285492513
-0.023559872 -0.0078368634 0.00010715052 4285492514
-0.021758929 -0.007001467 -0.0010037571 4285492259
-0.019963212 -0.0061663538 -0.0021134838 4285426469
-0.0177285 -0.0074647814 -0.0010934882 4285557794
-0.014880016 -0.011606105 0.0027601793 4285492513
-0.044015076 -0.0049687475 -0.0027342271 4285361188
-0.041978668 -0.0055627972 -0.0024159662 4285426979
-0.040055241 -0.0054411888 -0.0028127823 4285492259
-0.038010467 -0.0060344934 -0.0024961047 4285492514
-0.035960179 -0.0066274032 -0.0021804459 4285492514
-0.034030866 -0.0065050945 -0.0025782455 4285492513
-0.032101434 -0.0063826591 -0.0029759835 4285558049
-0.030171823 -0.0062601268 -0.0033736974 4285492513
-0.02783848 -0.0082800239 -0.0016392358 4285492514
-0.025763366 -0.0088707507 -0.0013283379 4285426979
-0.023682754 -0.0094610527 -0.0010184459 4285492514
-0.021881782 -0.0086234435 -0.0021277927 4285492514
-0.020086028 -0.0077861249 -0.0032359548 4285426723
-0.017999701 -0.0083756819 -0.0029270463 4285557794
-0.015305623 -0.011817448 0.00021050125 4285557028
-0.043796252 -0.0087277815 -0.001706576 4285361188
-0.041867804 -0.0086059943 -0.0021045301 4285426724
-0.039939161 -0.0084840804 -0.0025024489 4285492514
-0.03801034 -0.0083620697 -0.0029003303 4285492259
-0.035833996 -0.0096741021 -0.001875421 4285426723
-0.034152191 -0.008117646 -0.0036959443 4285492513
-0.0323519 -0.0072784573 -0.0048039882 4285492513
-0.030556794 -0.0064395368 -0.0059108464 4285558049
-0.028229434 -0.0084665418 -0.0041798716 4285558048
-0.02602293 -0.0097761154 -0.0031607971 4285492513
-0.023945305 -0.010368809 -0.0028519332 4285426723
-0.022146977 -0.009529233 -0.0039591305 4285492514
-0.020208806 -0.009405598 -0.0043582153 4285492514
-0.018270522 -0.0092818365 -0.004757233 4285492258
-0.015730504 -0.01201959 -0.0023327395 4285622819
-0.043804053 -0.01105988 -0.0021121111 4285492004
-0.041873049 -0.010937959 -0.0025106166 4285492259
-0.039941866 -0.010815926 -0.0029090773 4285492258
-0.037889663 -0.011413254 -0.0025971234 4285492258
-0.035831954 -0.012010135 -0.0022862293 4285426468
-0.034021098 -0.011168219 -0.0033949204 4285492514
-0.03221542 -0.010326535 -0.0045024697 4285492513
-0.030414935 -0.0094850659 -0.0056088641 4285623584
-0.028217074 -0.010799766 -0.0045912676 4285689119
-0.026145238 -0.011395186 -0.0042828955 4285623584
-0.023928378 -0.012708507 -0.0032690167 4285688864
-0.021985129 -0.012584679 -0.0036692377 4285688609
-0.020041756 -0.012460731 -0.0040694028 4285491748
-0.018245831 -0.01161883 -0.005174417 4285426469
-0.016004428 -0.01293011 -0.0041652583 4285490983
-0.043023523 -0.018451825 0.002452815 4285228844
-0.040955957 -0.019050717 0.0027598739 4285360934
-0.039000865 -0.018927179 0.0023564715 4285361188
-0.036924932 -0.01952526 0.0026619229 4285295399
-0.034966815 -0.019401312 0.0022580512 4285295143
-0.033134554 -0.018555865 0.0011465065 4285295399
-0.031436156 -0.01698935 -0.00067109242 4285426724
-0.029748302 -0.015423454 -0.0024864171 4285492514
-0.027936939 -0.014578968 -0.0035933964 4285623329
-0.025857415 -0.015176147 -0.0032882039 4285557029
-0.023772385 -0.015772849 -0.0029840507 4285622819
-0.021539845 -0.017089464 -0.0019765422 4285557029
0.013643589 -0.014827281 -0.0092083011 4285230118
0.015405798 -0.013983309 -0.010303292 4285361443
0.017358182 -0.013856471 -0.010703661 4285493024
0.019508753 -0.014446288 -0.010411087 4285492769
0.021463793 -0.014319047 -0.010811836 4285426979
0.023622369 -0.01490812 -0.010520671 4285361189
