# .PCD v0.7 - Point Cloud Data file format
VERSION 0.7
FIELDS x y z rgba
SIZE 4 4 4 4
TYPE F F F U
COUNT 1 1 1 1
WIDTH 655
HEIGHT 1
VIEWPOINT 0 0 0 1 0 0 0
POINTS 655
DATA ascii
-0.01762522 -0.0042518005 0.043212939 4288751668
-0.015887029 -0.0019967705 0.040630233 4290125353
-0.01362408 -0.0032799542 0.04164885 4290322468
-0.010796271 -0.0080988705 0.046260566 4291041313
-0.020509869 -0.0011163652 0.037383374 4289669669
-0.0188848 0.0018544868 0.034088481 4289472809
-0.016965061 0.0026945174 0.032953721 4290258718
-0.014618665 0.0006955564 0.034692142 4289735204
-0.012145415 -0.0020117313 0.037144788 4290454813
-0.0094239935 -0.0061361939 0.041026883 4289146153
-0.0070181787 -0.0081310123 0.042753331 4289081385
-0.0047147647 -0.0094156563 0.043760665 4289341738
-0.0028856695 -0.0078642368 0.041904777 4288817968
-0.0010670796 -0.0063133389 0.040051091 4288359989
0.0012476072 -0.0075969622 0.041056402 4287575098
-0.021537289 0.0036072135 0.029717717 4289210669
-0.019935712 0.0065853298 0.02643406 4289931298
-0.018145055 0.0081380382 0.024588834 4289015848
-0.015826009 0.0061306804 0.02632802 4289015849
-0.013159402 0.0019893199 0.030211594 4289408293
-0.010686748 -0.00072677433 0.032657932 4290062879
-0.0084240958 -0.0020185858 0.033670314 4289408295
-0.0066243857 -0.00046480447 0.031823583 4289407530
-0.0047140345 0.00037740171 0.030692797 4289603369
-0.0029326677 0.0019302666 0.028849952 4289537578
-0.00065588951 0.0006397292 0.02985977 4289864744
0.0020192415 -0.0027815029 0.033003569 4289472043
0.0051167533 -0.0083318949 0.038276397 4289864488
0.0077192113 -0.01103875 0.04069671 4288949038
0.0096573234 -0.010194123 0.039560691 4288229684
-0.023579307 0.001095511 0.029659804 4289472299
-0.022063635 0.0047978237 0.025663201 4289670179
-0.020472169 0.0077840313 0.022388097 4290717209
-0.018691979 0.00934048 0.020548172 4290390044
-0.016169064 0.005897522 0.023714513 4289997599
-0.013619214 0.0024564043 0.02687541 4290716953
-0.011381276 0.0011584088 0.027889576 4289801249
-0.0093636811 0.0012884364 0.02747513 4289408549
-0.0075824708 0.0028454587 0.025635377 4289473574
-0.0056907982 0.0036886111 0.024509996 4289931554
-0.0040515736 0.0059577301 0.021962594 4289604388
-0.0019229501 0.0053742453 0.022262637 4289015594
0.00034016371 0.0040785596 0.023272071 4289539109
0.0032724366 -0.00077917427 0.02782898 4289866019
0.0057049543 -0.0027847588 0.029540725 4289343013
0.0074686706 -0.0012281612 0.027705148 4289213729
-0.02428776 0.003727816 0.024177086 4289277224
-0.022588521 0.0060064122 0.021621544 4289408038
-0.020803019 0.0075674579 0.01978365 4289604899
-0.018923201 0.0084114149 0.018661845 4289539620
-0.016511366 0.005673483 0.021107573 4289081639
-0.013967827 0.0022209138 0.024261672 4289604899
-0.011848472 0.0016341209 0.024561573 4289735713
-0.0099544749 0.0024793819 0.023437142 4289669923
-0.0081837475 0.0040400997 0.021602739 4289473828
-0.0063027367 0.0048847422 0.020481128 4289866018
-0.0046738014 0.0071597248 0.017940696 4290454814
-0.0026823133 0.0072884634 0.017531905 4289604388
-0.00056184828 0.0067023709 0.017832041 4289473574
0.0019585714 0.0039724037 0.020256162 4290520603
0.0042322353 0.0026731715 0.021260336 4289801503
0.0059694014 0.004232429 0.019433398 4289868569
-0.024607778 0.0035100505 0.021569114 4289277224
-0.022814274 0.0050758794 0.019732688 4289277223
-0.020827368 0.0052033588 0.019324131 4289343269
-0.018840246 0.0053309426 0.018915597 4289801249
-0.016638376 0.0040215328 0.019930523 4289212453
-0.014425635 0.0027129576 0.020943251 4289866784
-0.012427196 0.0028415993 0.020532627 4289735969
-0.010543838 0.0036883429 0.019411966 4289604899
-0.0086656436 0.0045348629 0.018292457 4289408549
-0.00679259 0.0053811669 0.017174084 4289604389
-0.005171299 0.0076622814 0.014639997 4290127648
-0.0033139437 0.0085077733 0.013524991 4289277223
-0.0012044832 0.0079187602 0.013825758 4289343013
0.0013044402 0.0051791891 0.016245764 4289997599
0.0032989532 0.005308412 0.015836563 4289867549
-0.026913404 0.0031742826 0.019376222 4289342758
-0.025119893 0.0047443584 0.017542977 4290585629
-0.023039602 0.0041500553 0.017847247 4290258463
-0.02105549 0.0042773113 0.017439235 4290913304
-0.019071139 0.0044046864 0.017031249 4290455323
-0.016979523 0.0038114265 0.017333411 4289735969
-0.014772579 0.0024979934 0.018344119 4289670690
-0.012892053 0.0033466443 0.017225571 4289539618
-0.011131786 0.0049153194 0.015399632 4289539618
-0.0092642382 0.0057633296 0.014283896 4289539364
-0.0071609244 0.0051713511 0.014584051 4289473828
-0.005421482 0.0067389607 0.012762663 4289866529
-0.0034409538 0.0068669245 0.012356072 4288754218
-0.0014602691 0.0069950074 0.011949529 4288885289
0.00052058697 0.0071232244 0.01154304 4289867294
0.0023677722 0.0079706088 0.010431913 4290587158
-0.027320042 0.0036990345 0.01606888 4289145133
-0.025534309 0.0052730069 0.014240391 4290192418
-0.023462333 0.0046759397 0.014544728 4289669668
-0.021486357 0.0048026368 0.014138366 4290651418
-0.019301653 0.0034831464 0.015150252 4290586138
-0.017212994 0.0028874502 0.015451388 4289997599
-0.015118793 0.0022922382 0.015751462 4289735969
-0.013243563 0.0031426772 0.014635579 4289539618
-0.011603355 0.0054378733 0.012107014 4289605154
-0.0097437873 0.0062875375 0.010994504 4289670178
-0.0076488107 0.0056927726 0.011294722 4289931808
-0.0055483058 0.0050984398 0.011593937 4290259229
-0.0035679117 0.0052263737 0.011187357 4289343269
-0.0014590621 0.0046328455 0.011484978 4289670945
0.00039336085 0.0054825917 0.010374335 4289540384
-0.029604711 0.0033852085 0.013886762 4289078323
-0.027912416 0.0056894496 0.011351741 4290389024
-0.026235893 0.0079927966 0.0088199833 4289146408
-0.024081469 0.0066667721 0.0098346537 4288819243
-0.022017546 0.0060670152 0.010139138 4289211944
-0.019635849 0.0032917112 0.012565049 4290324509
-0.017552823 0.0026933849 0.012865757 4289866528
-0.015464254 0.0020955503 0.013165339 4289735969
-0.013706431 0.0036727265 0.011346244 4289866783
-0.011844322 0.0045246333 0.010234733 4289408548
-0.0099873766 0.0053763017 0.0091243563 4290978839
-0.0080154762 0.0055034384 0.0087193409 4290651673
-0.0059206411 0.00490655 0.0090180347 4290782488
-0.00369481 0.0035861209 0.010018845 4289867039
-0.0015862733 0.0029903501 0.010314903 4290063389
4.5821071e-06 0.005289562 0.0078017535 4290064153
-0.0300918 0.004663907 0.009886804 4289277734
-0.028409772 0.0069740415 0.0073586972 4289930788
-0.02683945 0.010011382 0.004126288 4290323999
-0.024797402 0.0094079301 0.0044335164 4289473318
-0.02264858 0.0080772117 0.0054461723 4290454814
-0.020177118 0.0045645162 0.0085745407 4290193438
-0.018105067 0.0039632991 0.0088758236 4289474084
-0.016027473 0.003362529 0.0091760373 4290062879
-0.014168195 0.0042163208 0.0080666253 4289932064
-0.012314074 0.0050698742 0.0069583403 4290258973
-0.010582373 0.0066499487 0.0051479563 4289408549
-0.0087412298 0.0075028911 0.0040424988 4288950569
-0.0065374449 0.0061765388 0.0050444677 4289735969
-0.0040722266 0.0033985972 0.0074474243 4289801503
-0.0017134249 0.0013481677 0.0091450429 4289801248
8.4266067e-06 0.0029281601 0.0073370868 4290653714
-0.032177262 0.0029127523 0.0091318293 4287835708
-0.030396692 0.0044992641 0.0073138876 4288950058
-0.028719626 0.0068157166 0.0047915801 4289800228
-0.027058341 0.0091312006 0.0022726264 4289473318
-0.025019258 0.0085253194 0.0025788285 4288819243
-0.022974625 0.0079199076 0.0028839633 4289931554
-0.020509474 0.0043958053 0.0060055098 4289866019
-0.018762298 0.0059807897 0.0041948874 4289539108
-0.016807444 0.0061063617 0.0037930291 4289604899
-0.014964156 0.0069613382 0.0026884377 4289670179
-0.012897171 0.0063578188 0.0029893983 4290847769
-0.01105886 0.0072126761 0.0018859841 4289473574
-0.0092256963 0.0080672801 0.00078376383 4289211943
-0.0070303902 0.006735906 0.0017842706 4290062623
-0.0046991259 0.0046770051 0.0034825662 4290193438
-0.002351664 0.0026192218 0.0051776702 4289932829
-0.032213621 0.00055418164 0.0086794747 4287181888
-0.030430146 0.0021452978 0.0068640886 4288492588
-0.028657123 0.0037358031 0.0050509786 4288885035
-0.026894569 0.0053257495 0.0032400358 4289473574
-0.02504424 0.0061827973 0.0021352619 4288950058
-0.02299723 0.0055753067 0.0024382826 4289473318
-0.020944677 0.0049682334 0.0027402146 4289408038
-0.019099064 0.0058252886 0.0016366318 4289343013
-0.017258592 0.0066821054 0.00053417683 4289343013
-0.015311681 0.0068072304 0.00013400801 4289735459
-0.013364598 0.0069324747 -0.00026613288 4289669668
-0.011417322 0.0070578381 -0.0006662216 4289539109
-0.0095894635 0.0079142824 -0.0017657615 4289146408
-0.0072777346 0.0058473572 -6.8394467e-05 4289931554
-0.0050747246 0.0045121834 0.00092737842 4289866019
-0.0029884726 0.003908284 0.0012231218 4289605918
-0.032162853 -0.0025437102 0.008928596 4287966013
-0.030373834 -0.00094792992 0.0071153147 4287705913
-0.028595261 0.0006473437 0.0053042239 4288034099
-0.026636362 0.00077258795 0.0049010972 4288427054
-0.024775289 0.0016324893 0.0037957011 4289408038
-0.022919387 0.0024921373 0.0026914245 4289081128
-0.02106858 0.0033516362 0.0015882486 4288492589
-0.019329004 0.0049448684 -0.0002144156 4288361773
-0.017382428 0.0050698295 -0.0006146254 4288296238
-0.015547067 0.0059285909 -0.0017143581 4288492588
-0.013488688 0.0053201243 -0.0014149286 4288623403
-0.01142481 0.0047121197 -0.0011165449 4288885034
-0.0094748139 0.0048377439 -0.0015171347 4288884778
-0.0074025691 0.0042304918 -0.001220311 4289473828
-0.005574353 0.0050893575 -0.002318169 4289736478
-0.0038787648 0.0066806301 -0.0041111582 4288561694
-0.032112703 -0.0056501478 0.0091716303 4287835709
-0.030408017 -0.0033123866 0.0066580186 4287575098
-0.028534018 -0.0024496987 0.0055513969 4287968309
-0.026569895 -0.0023241416 0.005147188 4288034098
-0.024703465 -0.0014617071 0.004042224 4288295983
-0.022942707 0.00013706833 0.0022382615 4288492334
-0.021089204 0.00099884719 0.0011361549 4288361519
-0.019029029 0.00038792938 0.0014333474 4287904049
-0.01707191 0.00051356107 0.0010309527 4287773234
-0.015114583 0.00063931197 0.00062859897 4287969328
-0.013384916 0.002236627 -0.0011686413 4287446068
-0.011432573 0.0023622587 -0.0015698215 4287446068
-0.0094800442 0.0024880394 -0.0019709384 4287838514
-0.0074054301 0.0018786862 -0.001676186 4288230703
-0.0058237016 0.0042100027 -0.0041635321 4288231724
-0.032324322 -0.0065462217 0.0073045036 4287509054
-0.030621924 -0.0042020157 0.0047961837 4287640634
-0.028565772 -0.0048159286 0.0050921952 4287706933
-0.026599102 -0.0046902522 0.0046874294 4287968819
-0.024632238 -0.0045644566 0.0042827008 4287903538
-0.022865929 -0.0029609129 0.0024807574 4288557869
-0.020903975 -0.0028352365 0.0020771855 4288099889
-0.018836103 -0.0034479126 0.0023712115 4287838003
-0.01665429 -0.0047983602 0.0033610957 4287838259
-0.01501698 -0.0024574474 0.00086672697 4287576373
-0.013168015 -0.0015933588 -0.00023253914 4287446069
-0.011324205 -0.00072946399 -0.0013306541 4287446069
-0.009366475 -0.00060338527 -0.0017328663 4287707699
-0.0074085817 -0.00047718734 -0.00213503 4287380023
-0.0058238208 0.0018609017 -0.0046181856 4286202944
-0.032274894 -0.0096631646 0.007540104 4287639868
-0.030477226 -0.0080536604 0.0057346029 4287838004
-0.028505579 -0.0079278126 0.0053287046 4287641653
-0.026533715 -0.0078018382 0.0049228519 4287904048
-0.024659194 -0.0069345683 0.003819447 4288034864
-0.022789769 -0.0060674921 0.0027171858 4288296493
-0.020822622 -0.0059415027 0.0023125336 4288296239
-0.018749706 -0.0065560564 0.0026038438 4287838259
-0.01677949 -0.0064296424 0.0021987222 4287641909
-0.015030898 -0.0048224851 0.00040397514 4287510838
-0.013292797 -0.0032158419 -0.0013885712 4287380023
-0.011448957 -0.0023497865 -0.0024851141 4287445303
-0.0093724579 -0.0029635355 -0.002194128 4287510839
-0.0074120387 -0.0028372034 -0.0025968323 4286987324
-0.0056999698 -0.0012318268 -0.0043836599 4286463808
-0.032139376 -0.013532691 0.0084677553 4287835964
-0.030422874 -0.011174455 0.0059661446 4287640634
-0.028446011 -0.011048265 0.0055591715 4287641654
-0.026563644 -0.01017838 0.0044556372 4287707443
-0.024589024 -0.010052137 0.0040492713 4287904049
-0.022814311 -0.0084393919 0.0022520162 4288100399
-0.02094733 -0.0075701997 0.0011519231 4288492333
-0.018980123 -0.0074441209 0.00074731559 4287903538
-0.017012708 -0.007317923 0.00034275278 4287772723
-0.015266582 -0.0057064816 -0.0014483221 4287445559
-0.013304137 -0.0055803731 -0.001851704 4287380023
-0.011573665 -0.003969796 -0.0036393586 4287707189
-0.0094974861 -0.0045857951 -0.0033499408 4287445303
-0.0075371936 -0.0044594631 -0.0037526148 4286856509
-0.005824931 -0.002849713 -0.0055362913 4286267969
-0.026404776 -0.01405064 0.0053754551 4286333248
-0.024519496 -0.013178341 0.0042730197 4287052859
-0.022739239 -0.011560798 0.0024777986 4287706933
-0.020969443 -0.0099438578 0.00068485364 4288361518
-0.019104905 -0.0090725645 -0.00041307509 4287838258
-0.017245509 -0.0082014725 -0.0015098564 4287773234
-0.015391305 -0.0073305592 -0.0026055458 4287577139
-0.013429008 -0.0072044805 -0.0030089128 4287642164
-0.011698335 -0.0055895075 -0.0047934013 4287445559
-0.0096224472 -0.0062077418 -0.0045055407 4287576118
-0.0076623112 -0.0060814545 -0.0049082073 4286856253
-0.0058259219 -0.005211167 -0.0059997695 4286202433
-0.01912459 -0.011447966 -0.00088204443 4286726713
-0.017262511 -0.010574527 -0.001977779 4286792503
-0.015515983 -0.0089543387 -0.0037625544 4287577904
-0.013553821 -0.0088282898 -0.0041659027 4287708463
-0.011822954 -0.007208921 -0.005947243 4287642164
-0.0097473711 -0.0078293756 -0.0056609246 4287707443
-0.007908456 -0.0069568828 -0.0067515038 4287118139
-0.005950965 -0.006830655 -0.0071535483 4286922299
-0.017602466 -0.01070372 -0.0045159794 4282544968
-0.015750833 -0.0098286644 -0.0056078956 4282872899
-0.01916486 -0.016211167 -0.0018288204 4282738258
-0.017941676 -0.010823809 -0.0070476122 4281825869
-0.016315475 -0.0084441602 -0.0095108189 4281825359
-0.014254212 -0.0090701953 -0.0092249736 4282086988
-0.012302838 -0.0089447573 -0.0096260495 4282152013
-0.010351293 -0.0088192001 -0.010027081 4282675784
-0.0086410418 -0.0071921572 -0.011797592 4282937413
-0.006941326 -0.0055656955 -0.013565864 4283853374
-0.0051260814 -0.0046900585 -0.014648248 4284049469
-0.019499071 -0.016337201 -0.0043660817 4282738258
-0.018172964 -0.011688501 -0.0088868029 4281564239
-0.016549066 -0.0093024373 -0.011344731 4281694798
-0.014715873 -0.0084240735 -0.012429576 4281761098
-0.012657426 -0.0090524033 -0.012144696 4281760844
-0.01082924 -0.0081741586 -0.013228353 4281760843
-0.0088856891 -0.0080490038 -0.013627667 4282021708
-0.0073116794 -0.005665563 -0.016074907 4282021708
-0.0053758547 -0.005540669 -0.016472459 4282152779
-0.003439866 -0.0054156557 -0.016869958 4282088008
-0.0013724938 -0.0060426816 -0.016586382 4282219588
0.00070034713 -0.0066692978 -0.016303815 4282481218
0.0027786493 -0.0072953999 -0.016022321 4282874939
0.0047231689 -0.0071693286 -0.016421203 4283527993
0.0066677928 -0.0070431456 -0.016820025 4284180538
-0.019728176 -0.017210238 -0.0062119295 4282477903
-0.018296815 -0.013304435 -0.010038286 4281499978
-0.016672537 -0.010911778 -0.012491483 4281695818
-0.014839321 -0.010031231 -0.013574731 4281630283
-0.01289624 -0.0099063739 -0.013974134 4281630028
-0.010952972 -0.0097813606 -0.014373474 4281695309
-0.0091299638 -0.0089011416 -0.015454385 4281890638
-0.0073121414 -0.0080210939 -0.016534191 4281956174
-0.0054995045 -0.0071413219 -0.017612804 4281891148
-0.0034352466 -0.007770896 -0.017330304 4281957194
-0.0014966056 -0.0076455697 -0.017728247 4282023239
0.00030841678 -0.0067659393 -0.018805046 4282218824
0.002381064 -0.0073945895 -0.018523991 4282218824
0.0045982599 -0.0087766945 -0.017566144 4282022473
0.0068262443 -0.010157943 -0.01661047 4282349894
0.009353891 -0.013045467 -0.014303483 4283068739
0.012050096 -0.016684838 -0.011324675 4284052274
0.014323808 -0.01806277 -0.010378052 4284705838
-0.01985269 -0.018836893 -0.0073710913 4282346834
-0.018313751 -0.015678234 -0.010506768 4281630539
-0.016576901 -0.014036767 -0.012273524 4281630794
-0.014738314 -0.013153695 -0.013356287 4281565259
-0.012790024 -0.013028517 -0.013756763 4281434189
-0.011194222 -0.010630786 -0.016198978 4281498958
-0.009373866 -0.0097485259 -0.0172778 4281629263
-0.0075586662 -0.0088664964 -0.018355411 4281759823
-0.0053719804 -0.01025559 -0.017394975 4281760334
-0.0033027232 -0.010887064 -0.017115127 4281760589
-0.0013588816 -0.010761417 -0.017514151 4281891658
0.00045151263 -0.0098792389 -0.018590435 4281760588
0.0025291815 -0.010509782 -0.018312033 4281891148
0.0044733882 -0.010383785 -0.018710889 4281891404
0.0067008734 -0.011769444 -0.017758325 4281760333
0.0095161907 -0.016177334 -0.014107317 4282086478
0.012804441 -0.022849716 -0.0084391134 4282740553
0.015093677 -0.024230994 -0.0074989321 4283525444
-0.020185262 -0.01894217 -0.0098936381 4282346069
-0.018437698 -0.017295785 -0.011659418 4281695819
-0.01670064 -0.015649937 -0.013423007 4281368398
-0.014637932 -0.016284786 -0.013143897 4281563983
-0.012684442 -0.016159251 -0.013545439 4281629774
-0.010965571 -0.014514215 -0.015305035 4281564493
-0.0092572123 -0.01286979 -0.01706234 4281563473
-0.0074366555 -0.011985242 -0.018139459 4281628754
-0.0054959133 -0.011860088 -0.018538058 4281563473
-0.0034269542 -0.012493744 -0.018259738 4281433423
-0.001483269 -0.01236815 -0.018658761 4281694798
0.00046055019 -0.012242422 -0.01905771 4281630028
0.0024044961 -0.012116544 -0.019456591 4281760589
0.0043485612 -0.01199054 -0.019855406 4281825614
0.0065755546 -0.013380647 -0.018905967 4281694800
0.0095337518 -0.018559746 -0.014590822 4282086988
0.012676224 -0.024494059 -0.0096102925 4282740554
-0.018774688 -0.017387874 -0.014171198 4282083929
-0.016824342 -0.017262809 -0.014572278 4281889109
-0.014873832 -0.017137609 -0.01497332 4281105493
-0.012923151 -0.017012276 -0.015374295 4281367379
-0.011206739 -0.015363075 -0.017130136 4281956174
-0.0093809739 -0.01447612 -0.018206816 4281825614
-0.0076829568 -0.012827821 -0.019958749 4281825104
-0.0056198016 -0.01346425 -0.019680914 4281694289
-0.0035511628 -0.014100164 -0.019404158 4281563728
-0.0014770702 -0.014735587 -0.019128431 4281629775
0.00046927482 -0.014609694 -0.019527908 4281629518
0.002551645 -0.015244335 -0.019253694 4281760334
0.0043623149 -0.014357522 -0.020326659 4281760078
0.0067327321 -0.016512245 -0.018708307 4281563728
0.0094071068 -0.020186119 -0.015749242 4282021454
0.012254857 -0.024618082 -0.01212413 4282740299
-0.0036753416 -0.015706256 -0.020548362 4281889109
-0.0017319396 -0.015580684 -0.020947326 4281955409
0.00034464151 -0.016218044 -0.020673636 4282020433
0.002155222 -0.015329152 -0.02174506 4281890639
0.0040989742 -0.015203193 -0.02214383 4282217293
0.0064660534 -0.017364688 -0.020529673 4282216784
0.0091367401 -0.02104982 -0.017577834 4282672978
0.018852107 -0.029678054 -0.01117046 4283000909
8.7141991e-05 -0.017060846 -0.022490185 4282083418
0.0020306334 -0.016935028 -0.022888992 4282281553
0.0038360134 -0.016044162 -0.023957659 4282281299
0.0061997324 -0.018212482 -0.022347648 4282346323
0.010252643 0.0054426864 0.020502061 4285426724
0.012261372 0.00557331 0.020090301 4285820189
0.014565624 0.0042810738 0.021091867 4285885724
0.017632596 -0.00056713074 0.02562172 4285885724
0.020890176 -0.0061238781 0.030849464 4285754399
0.007556513 0.0065053999 0.016901992 4285556773
0.0089855343 0.0094915256 0.013667787 4285623838
0.010827869 0.010334641 0.012554836 4285689374
0.013107561 0.0090363622 0.013558184 4285688864
0.015848696 0.0055982023 0.016672917 4285885978
0.018463805 0.0028752908 0.019078285 4285820444
0.021100428 0.00015387684 0.021479335 4285492769
0.023600325 -0.0018529668 0.023173206 4285361953
0.025633637 -0.0017200485 0.022756904 4285230118
0.0065917224 0.0091495737 0.011492723 4285623328
0.0082892738 0.010710917 0.0096772527 4286017558
0.0099762641 0.01227165 0.0078640832 4285689118
0.01209474 0.011683963 0.0081635518 4285623329
0.014668785 0.0089494288 0.010570786 4285754909
0.017417051 0.0055008158 0.013676072 4285821464
0.020036787 0.0027694777 0.016074114 4285689884
0.021887731 0.0036159083 0.014961415 4285559324
0.023572683 0.0051772371 0.013149117 4285559068
0.025083613 0.0074528232 0.010638935 4285624348
0.026744641 0.0090128109 0.0088316994 4285886489
0.029238846 0.0069994256 0.01052224 4285885978
0.032606326 0.0014153868 0.015702248 4285951769
0.035842575 -0.0034515634 0.020175621 4285754399
0.039469916 -0.0097439513 0.026036318 4285361189
0.0060465448 0.0096646249 0.0082132081 4285623583
0.0077362843 0.011229806 0.006402594 4285820953
0.0094154477 0.01279445 0.0045941938 4285952278
0.011378415 0.01292216 0.0041918512 4285952279
0.013940927 0.01017803 0.0065949773 4285886999
0.016524948 0.0074354336 0.0089937942 4285755673
0.018975269 0.0054119751 0.010688041 4285558814
0.020810194 0.0062595978 0.0095801866 4285558813
0.022318743 0.008541517 0.0070752399 4285690139
0.023811322 0.010822542 0.0045736041 4285755418
0.025453832 0.012385674 0.0027734283 4285558049
0.027928635 0.010364443 0.0044630375 4285558303
0.030762076 0.006911166 0.0075433934 4285754908
0.033970203 0.0020269454 0.012011242 4285558558
0.037745669 -0.0050033852 0.018559102 4285427488
0.042112552 -0.014178284 0.027182087 4285427489
0.0034010112 0.010786824 0.004643891 4285557283
0.0050854757 0.012355931 0.0028374922 4285624093
0.0069010332 0.013203792 0.0017347056 4285624094
0.0090000629 0.012610249 0.0020348709 4285623838
0.011104546 0.012017213 0.0023339521 4285624094
0.013513882 0.0099842325 0.0040315799 4285558558
0.015939351 0.0079524666 0.0057259379 4285559069
0.018070903 0.0073615462 0.0060197348 4285559068
0.019734781 0.008930102 0.0042181332 4285558814
0.021548428 0.0097786263 0.0031163786 4285690138
0.023193747 0.011346258 0.0013187099 4285952788
0.024994172 0.012194104 0.00021981634 4285821208
0.027126145 0.01160381 0.00051395781 4285755673
0.029776778 0.0088575408 0.0028932635 4285755929
0.033317685 0.0025196895 0.0087425048 4285755928
0.037612535 -0.0066887215 0.017359171 4285493023
0.042335212 -0.017328963 0.027349167 4285493024
0.0015795603 0.0075878277 0.0052919975 4285556264
0.0027301908 0.012055084 0.00068270601 4285558304
0.0045429766 0.012904808 -0.00041794777 4285623584
0.0066335425 0.012308419 -0.00011779554 4285623839
0.0090179071 0.010266952 0.0015799273 4285624094
0.011271603 0.0089492723 0.002575634 4285624094
0.013536099 0.0076323822 0.0035692621 4285558559
0.015507031 0.0077608153 0.0031654332 4285559068
0.0173232 0.0086114183 0.0020645875 4285558813
0.018976569 0.010183744 0.00026831962 4285559069
0.020939756 0.010312013 -0.00013367273 4285624349
0.022903025 0.010440417 -0.00053558312 4285690139
0.024700813 0.011290319 -0.001632316 4285755929
0.026661552 0.011418797 -0.0020335335 4285755674
0.029476907 0.0079422891 0.001034392 4285624348
0.033187002 0.00086347014 0.0075632678 4285558814
0.037831955 -0.0098150447 0.017544888 4285558559
0.001319848 0.0066845641 0.0034316797 4285491748
0.0023327246 0.011890359 -0.0018668901 4285558558
0.0040015653 0.01346726 -0.0036637145 4285886999
0.0060837939 0.012868062 -0.0033634473 4285887253
0.0086034685 0.010094501 -0.00097111985 4285952788
0.010997996 0.0080471858 0.00071975775 4285755674
0.013408672 0.0060010329 0.0024073962 4285624349
0.015227448 0.0068538859 0.0013075341 4285559068
0.017040964 0.0077065602 0.00020878203 4285624604
0.018534511 0.010007158 -0.0022786949 4285624349
0.020332158 0.010859035 -0.0033740234 4285558558
0.022287264 0.010986887 -0.003774276 4285624093
0.024407834 0.010391273 -0.0034810659 4285624094
0.026533812 0.0097961351 -0.0031889472 4285558558
0.029348157 0.0063085705 -0.0001288671 4285559069
0.033229765 -0.0015154555 0.0070759514 4285493278
0.037874632 -0.012227058 0.01703345 4285493278
0.00066114217 0.00796967 -0.00052024238 4285558048
0.0018002167 0.012462519 -0.0051077995 4285755164
0.0035997108 0.013315722 -0.0062025427 4285623328
0.0056762733 0.012713991 -0.0059027765 4285689373
0.0081897825 0.0099311471 -0.0035156105 4285886744
0.01057829 0.007876806 -0.0018283557 4285689884
0.012982965 0.0058236942 -0.00014436059 4285689628
0.015251938 0.0044983849 0.00084197614 4285558813
0.016913645 0.0060799047 -0.00094967149 4285624349
0.018250369 0.0091134682 -0.0041258391 4285689884
0.019885518 0.010693446 -0.0059118252 4285755673
0.02199766 0.010094985 -0.0056186523 4285886744
0.024445668 0.0080453679 -0.0039429646 4285755163
0.026741885 0.0067225918 -0.0029617348 4285624094
0.029560551 0.003224276 8.9385547e-05 4285559069
0.033618689 -0.0053490549 0.0079659643 4285493534
0.038268797 -0.016093321 0.017898157 4285427998
-0.00012908131 0.010002866 -0.0051561017 4285689884
0.0011331365 0.013778187 -0.0090352427 4285886744
0.0030602738 0.013903134 -0.0094305519 4285623584
0.0051285177 0.013298608 -0.0091306549 4285623839
0.0076331608 0.010506392 -0.0067481752 4285689629
0.010013007 0.0084448904 -0.0050639752 4285821208
0.012557983 0.0056554899 -0.0026895539 4285689883
0.014517777 0.005783163 -0.0030911253 4285624349
0.016477682 0.0059109405 -0.0034926408 4285690138
0.017809603 0.0089530051 -0.006661376 4285821209
0.019599296 0.0098086894 -0.0077518318 4285886744
0.021546084 0.0099359825 -0.0081503857 4285886743
0.02415311 0.0071513653 -0.0057881386 4286018579
0.026613869 0.005096145 -0.0041198605 4285821464
0.029942684 -0.00059624761 0.00099068601 4285559069
0.034006603 -0.0091956258 0.0088467309 4285493278
0.038837694 -0.020699851 0.019441675 4285427744
-0.0025840476 0.010468803 -0.007989103 4285492768
-0.00091754645 0.012058474 -0.0097759869 4285624604
0.00060295314 0.014379658 -0.01225521 4285821718
0.002660051 0.013772115 -0.011954784 4285821718
0.0047226325 0.013165049 -0.011655381 4285821464
0.007221099 0.010363571 -0.0092780497 4285821463
0.0097410753 0.0075636208 -0.0069050435 4285690139
0.012133725 0.0054964945 -0.0052282722 4285624349
0.014088035 0.0056237802 -0.0056287297 4285624349
0.015579939 0.0079439357 -0.0081014875 4285821209
0.017212719 0.0095324591 -0.0098806974 4285689884
0.018994424 0.01038982 -0.010967897 4285557793
0.021095231 0.0097861961 -0.010675641 4285557793
0.023696061 0.0069923475 -0.0083185825 4285689628
0.026485886 0.0034699962 -0.0052777701 4285689629
0.030153595 -0.003699854 0.0011952603 4285559069
0.034393486 -0.013055094 0.0097182533 4285427488
-0.00296776 0.010339253 -0.010516496 4285361443
-0.0013064072 0.011932947 -0.012299076 4285493024
0.00034438074 0.013526089 -0.014079448 4285493024
0.0022605509 0.013650313 -0.014472526 4285427233
0.0043174848 0.013040602 -0.014173564 4285558814
0.0068097822 0.010229908 -0.01180142 4285493023
0.0093235709 0.0074207708 -0.0094336327 4285558814
0.011412919 0.006813556 -0.0091410335 4285558814
0.013053734 0.008406736 -0.010918861 4285558814
0.014683969 0.0099993572 -0.012694361 4285624348
0.016460262 0.010858424 -0.013778949 4285953299
0.01823128 0.011717312 -0.014862413 4285755418
0.020321082 0.011110701 -0.014569489 4285755419
0.023075067 0.0075748861 -0.011529481 4285755673
0.026190575 0.0025764331 -0.0071219271 4285690138
0.030363828 -0.006811969 0.0013937019 4285624349
0.034952078 -0.017659463 0.011265955 4285427233
0.00049157441 0.010467514 -0.013825819 4285098028
0.0021373704 0.012064844 -0.015601873 4285229608
0.004193984 0.011452906 -0.015304457 4285361444
0.0063991845 0.010105453 -0.014318293 4285361444
0.0087609924 0.0080228969 -0.012644945 4285493534
0.010693531 0.0081486478 -0.013041044 4285493533
0.012475003 0.0090100095 -0.014125267 4285493533
0.013789754 0.01207719 -0.017271273 4285559069
0.01570921 0.012202427 -0.017664436 4285625114
0.017310388 0.01379779 -0.01943066 4285690138
0.019710191 0.011718474 -0.017764539 4285690138
0.022290617 0.0089056715 -0.015416199 4285559323
0.026062835 0.00095314533 -0.0082778102 4285558813
0.030403528 -0.0091983005 0.00090173259 4285558814
0.035509311 -0.022281192 0.012801307 4285493024
0.00063811988 0.0074004307 -0.013578331 4285163308
0.0022894591 0.009002462 -0.015352271 4285229354
0.0040705279 0.0098654926 -0.016435161 4285361189
0.0061322823 0.0092518479 -0.016140372 4285492514
0.0080538541 0.0093767196 -0.016534336 4285361188
0.0099755526 0.0095017254 -0.016928233 4285361443
0.01189734 0.0096268728 -0.017322052 4285427488
0.013511918 0.01122728 -0.019087967 4285427489
0.015584875 0.010614902 -0.018795002 4285427999
0.017186262 0.01221469 -0.020558041 4285427489
0.019423719 0.010865718 -0.019581061 4285493279
0.022000629 0.0080438778 -0.017238444 4285493278
0.025935128 -0.00066984445 -0.0094334772 4285493278
0.030951992 -0.013798282 0.0024552159 4285493279
-0.0024319813 0.00036817789 -0.0090969158 4285032238
-0.0006192103 0.0012351051 -0.010184973 4285163819
0.0011883304 0.0021018535 -0.011271908 4285294889
0.0027157739 0.0044499263 -0.013733206 4285229353
0.0045075715 0.0053158626 -0.014816692 4285360934
0.0062941164 0.0061816052 -0.015899057 4285361189
0.0082209036 0.0063068196 -0.016294086 4285361189
0.01014778 0.0064321533 -0.016689045 4285361189
0.012074776 0.0065576211 -0.017083945 4285361189
0.013848379 0.0074229613 -0.018163266 4285295398
0.01561673 0.0082881078 -0.019241408 4285361443
0.017379813 0.009153001 -0.020318396 4285361188
0.019460626 0.0085392222 -0.020028517 4285229863
0.022039361 0.0057087168 -0.017692709 4285230373
0.025974289 -0.0030313656 -0.0099071441 4285230373
0.030990548 -0.016199462 0.001952677 4285229864
-0.00047985464 -0.0018582046 -0.0099548688 4285294889
0.0013330653 -0.00098899007 -0.011041275 4285295143
0.0030035004 0.00062309951 -0.012812755 4285295144
0.0046633855 0.0022345558 -0.014581948 4285360934
0.006597925 0.0023601353 -0.014978669 4285295143
0.00853258 0.0024858415 -0.015375323 4285295144
0.010467332 0.0026116744 -0.015771909 4285295144
0.012402188 0.0027376562 -0.016168421 4285295398
0.014183838 0.003605701 -0.017247794 4285361188
0.016116209 0.0037317649 -0.017643621 4285426979
0.017890006 0.0045995489 -0.018721193 4285426979
0.019819867 0.0047256723 -0.019116331 4285426978
0.022241775 0.0026281551 -0.017469196 4285492768
0.02584647 -0.0046559498 -0.011063951 4285492513
0.030859441 -0.017863825 0.00076758023 4285361443
-0.0025518835 -0.003594853 -0.01070262 4285163054
-0.00073639303 -0.0027233735 -0.011788028 4285295143
0.0012083128 -0.0025975183 -0.012187115 4285295399
0.0030160397 -0.0017263144 -0.013270757 4285360934
0.0048185661 -0.00085526705 -0.014353282 4285360679
0.0064734109 0.000760369 -0.01611815 4285360934
0.0084079094 0.0008860603 -0.016514778 4285295143
0.010490309 0.00026736408 -0.016228899 4285295399
0.012578141 -0.00035087764 -0.01594406 4285295398
0.014212031 0.001263909 -0.017704256 4285361189
0.016146917 0.0013900995 -0.018100616 4285295398
0.018081889 0.001516439 -0.018496886 4285426723
0.020016938 0.0016428977 -0.018893097 4285426978
0.022279702 0.00028254837 -0.017930906 4285427233
0.026051685 -0.0077668354 -0.010863267 4285492259
0.03072837 -0.019527845 -0.00041727442 4285295144
-0.0028053969 -0.0044573098 -0.012534562 4285294889
-0.00099256635 -0.0035838336 -0.013617835 4285295144
0.00094933063 -0.0034581721 -0.014016352 4285295399
0.0027544126 -0.002584897 -0.015097893 4285295144
0.004554294 -0.0017118752 -0.016178232 4285229353
0.0062066652 -9.2022121e-05 -0.017939381 4285360934
0.0082832836 -0.00071343035 -0.017654024 4285360934
0.010365356 -0.0013343617 -0.017369706 4285295143
0.012452867 -0.0019548163 -0.017086405 4285295398
0.014086951 -0.00033564866 -0.018843438 4285295398
0.016177319 -0.00095567107 -0.018560547 4285361189
0.018114809 -0.00082916766 -0.018957332 4285426468
0.020213351 -0.0014484152 -0.018675935 4285426723
0.022480965 -0.0028128922 -0.017717924 4285295398
0.026089899 -0.010140702 -0.011345733 4285294889
-0.0011169165 -0.0051895306 -0.014761694 4285033258
0.00082481652 -0.0050638989 -0.015160192 4285164073
0.0027666837 -0.0049381107 -0.015558615 4285163563
0.004708685 -0.0048122182 -0.01595699 4285229354
0.0063665919 -0.0031875521 -0.017716091 4285361188
0.008448232 -0.0038108379 -0.017433386 4285295398
0.010535337 -0.0044337064 -0.017151672 4285295654
0.012477748 -0.004307285 -0.017549761 4285229863
0.014114689 -0.0026834831 -0.019304201 4285360934
0.016051948 -0.0025571436 -0.019701052 4285360933
0.018305551 -0.0039272085 -0.018743582 4285426469
0.020409107 -0.0045483187 -0.018464826 4285360933
0.022681557 -0.0059168413 -0.017511066 4285295399
0.026293948 -0.013266385 -0.011155669 4285229099
0.013102092 -0.0096677244 -0.015307348 4284967213
0.014599964 -0.0072878823 -0.017738 4285032749
0.016392469 -0.0064102337 -0.018813085 4285229098
0.018495627 -0.0070336908 -0.018535938 4285229609
0.020443574 -0.0069063976 -0.018934786 4285295398
0.022881504 -0.0090293363 -0.017310228 4285230119
0.026165385 -0.014900737 -0.012319434 4285229098
0.017352432 -0.013287596 -0.015236322 4284901169
0.019158401 -0.012406759 -0.016312465 4284901678
0.020959098 -0.011526115 -0.017387427 4285294634
0.023243897 -0.012902625 -0.016442645 4285294634
