# .PCD v0.7 - Point Cloud Data file format
VERSION 0.7
FIELDS x y z rgba
SIZE 4 4 4 4
TYPE F F F U
COUNT 1 1 1 1
WIDTH 626
HEIGHT 1
VIEWPOINT 0 0 0 1 0 0 0
POINTS 626
DATA ascii
-0.014270492 -0.014050983 0.01358464 4288691998
-0.01348038 -0.019993298 0.016612228 4288820773
-0.013349734 -0.011303537 0.0077187829 4289671963
-0.01238583 -0.017958798 0.011445004 4289344289
-0.01126682 -0.02536121 0.015849587 4288886564
-0.0104535 -0.033782519 0.018308658 4287054389
-0.01059866 -0.035484843 0.017087307 4286333504
-0.0096216649 -0.035095505 -0.0007385239 4286464320
-0.010041825 -0.026288636 -0.01194286 4286726203
-0.01018177 -0.027926721 -0.013118045 4287053113
-0.010648511 -0.028079614 -0.015652141 4287576883
-0.010336682 -0.020516366 -0.022880837 4287905834
-0.010298319 -0.031946562 -0.014789762 4287707953
-0.009479098 -0.026594147 -0.019972121 4287577649
-0.010275275 -0.034332752 -0.01528939 4287249973
-0.0084580481 -0.033444658 -0.016406378 4286791739
0.0054079406 0.002299048 0.05469751 4281630539
0.0085629076 -0.0015380606 0.058633875 4280457794
-0.0010003224 0.00011637062 0.05484448 4282805323
-0.00095233321 0.0082730204 0.045578789 4282152778
-0.00045068562 0.014423933 0.038526107 4280914754
0.0015797615 0.014569521 0.038075004 4280523839
0.004677441 0.01071506 0.042014282 4280393788
0.009251453 0.0015309602 0.051795553 4279223083
-0.013882503 0.0076965392 0.044887293 4281177913
-0.012462433 0.010524355 0.041492905 4279937849
-0.010109585 0.0093292296 0.042509031 4279415098
-0.0074225813 0.0067948624 0.044990171 4281177404
-0.0057000741 0.0082813278 0.043067973 4281242174
-0.0044890642 0.011776142 0.038950685 4281176384
-0.0033046156 0.01526913 0.034839351 4280916793
-0.0021467134 0.018760305 0.030733991 4281176893
3.4607947e-05 0.018235046 0.031018939 4281763139
0.0027543679 0.015703514 0.033493165 4281241918
0.006757915 0.0084926039 0.041069482 4281242683
0.012650292 -0.005399324 0.055922333 4281307708
-0.017969821 0.0050315186 0.04531258 4281564493
-0.01743025 0.011907883 0.037512321 4281437249
-0.016790368 0.018107709 0.030457828 4281046843
-0.014949225 0.018922951 0.029280353 4280981054
-0.012478068 0.017048031 0.031034868 4280199224
-0.0091833845 0.011812977 0.036446374 4280981053
-0.0071589947 0.011957742 0.035996322 4280850238
-0.005634889 0.014118303 0.033353534 4281046078
-0.0042961128 0.016949505 0.029984035 4280655418
-0.0028064288 0.019107766 0.027349032 4279612979
-0.00063339621 0.018579643 0.027634218 4279808054
0.0020774938 0.016038697 0.030103829 4279872569
0.0053502619 0.011486493 0.034752656 4279808819
0.010122962 0.0015711412 0.045212079 4280264248
-0.019298732 0.0087331012 0.038223784 4281632834
-0.018778704 0.015630055 0.030444156 4280395574
-0.017698705 0.019823097 0.025605559 4280589628
-0.015714876 0.019964688 0.025164321 4280850493
-0.013255049 0.018082317 0.026916444 4280068663
-0.010295235 0.014177751 0.030856546 4280330038
-0.0081230029 0.013647046 0.031139966 4280851003
-0.0064451359 0.015139122 0.029234283 4280785723
-0.0046085268 0.015956622 0.028059728 4280850749
-0.0029490925 0.01744758 0.026158221 4280719679
-0.00095098466 0.017590787 0.025714248 4280654398
0.0010472313 0.017734077 0.025270306 4280588863
0.0039453134 0.014511712 0.028458226 4280784449
0.0072354153 0.0099454001 0.033091825 4281241919
0.013156988 -0.0040369034 0.047869671 4281241919
-0.019738004 0.0084044933 0.035551857 4281371458
-0.019522361 0.016678106 0.026326753 4280851259
-0.018298909 0.020206321 0.022230789 4280004150
-0.016167428 0.019670218 0.022521425 4279743028
-0.013872035 0.018457703 0.023540407 4280394809
-0.010760359 0.013862491 0.02820171 4281046334
-0.0089212656 0.014682163 0.027028084 4280981053
-0.0065881126 0.013472605 0.028038863 4280916028
-0.0047514215 0.014292281 0.0268659 4280915773
-0.0027481876 0.014435746 0.026420709 4280719934
-0.00091927499 0.015255049 0.025249608 4280980799
0.00090440363 0.016074095 0.024079688 4280980544
0.0030823797 0.015542056 0.024360608 4280393278
0.0054482035 0.01433536 0.025364511 4280198203
0.010045961 0.0050296932 0.035049189 4280784703
0.017347213 -0.013717644 0.05483925 4280784703
-0.019438595 0.0046856031 0.036538001 4281956428
-0.019513279 0.014345709 0.025870748 4280653888
-0.018286314 0.017885156 0.021782137 4281045824
-0.016152456 0.017346982 0.022070579 4281045313
-0.014329571 0.018167503 0.020902049 4281110848
-0.011868276 0.016272042 0.022644065 4281176384
-0.0095543973 0.015056584 0.02365578 4281111358
-0.0070634931 0.013163414 0.025391344 4281046079
-0.004894264 0.012628205 0.025672253 4280981564
-0.0032342821 0.014127973 0.023777116 4280981309
-0.0012363829 0.014271118 0.023333155 4280916539
0.00023091957 0.016447663 0.020717934 4280916793
0.0022210144 0.016590416 0.020275835 4279613488
0.0042112023 0.016733278 0.019833785 4279808308
0.0080505349 0.010104217 0.02661176 4279743793
0.014381768 -0.005322054 0.042756241 4279026479
-0.018255971 -0.0031388327 0.041887026 4282411093
-0.018754266 0.0085996613 0.02905231 4281045569
-0.017815888 0.013514675 0.02351306 4280589373
-0.016137794 0.015019577 0.021616738 4280851514
-0.014628254 0.017205086 0.018996537 4279482164
-0.01265242 0.017346185 0.018557135 4278699569
-0.010186329 0.015444562 0.020293191 4278830638
-0.0075380728 0.012863386 0.022750318 4280459068
-0.0055431873 0.013006117 0.022306878 4281112124
-0.0037195496 0.013829298 0.021140106 4281242685
-0.0020751841 0.015332371 0.019251794 4281047609
-0.00044139102 0.016834822 0.017365851 4280851513
0.0013612136 0.017656777 0.016203962 4281763394
0.0037047118 0.016439643 0.017206278 4281893954
0.0067978352 0.012505643 0.021087963 4281112633
0.01217163 0.00042340904 0.033600327 4281307963
0.019352013 -0.017763175 0.052564513 4281307963
-0.017076686 -0.011002861 0.047207635 4282410584
-0.017997451 0.0028272346 0.032215025 4282022984
-0.017651968 0.01049459 0.023779541 4280784959
-0.016589019 0.014739163 0.018983897 4280915518
-0.015084352 0.016930956 0.016369604 4280132924
-0.013274498 0.017754961 0.015207238 4280652103
-0.010817073 0.015846048 0.016940359 4279154234
-0.0083435327 0.013938408 0.018669903 4280784703
-0.006190896 0.013397526 0.018951252 4280915264
-0.0047175661 0.015587527 0.016344272 4281177149
-0.0030862764 0.017094087 0.014462061 4280786234
-0.0011125058 0.01723554 0.01402349 4278637859
0.00086136162 0.017377097 0.013584971 4280005168
0.0031990372 0.016155086 0.014585353 4280331569
0.0061010309 0.012889069 0.017739855 4280462894
0.010340132 0.0048549399 0.025916092 4280462894
0.016541913 -0.0099869147 0.041254502 4280787763
-0.017691836 -0.00091243535 0.033183988 4282411603
-0.017945725 0.0095243081 0.021866851 4281241918
-0.017194431 0.015153866 0.015633799 4280589884
-0.015697297 0.017351631 0.013026096 4281110339
-0.01389537 0.01817729 0.011867058 4281173833
-0.011446625 0.016261119 0.013597187 4280979524
-0.0089817569 0.014346201 0.015323807 4279806778
-0.0070057586 0.014487512 0.01488452 4280849984
-0.0053716488 0.015998568 0.013004862 4280916284
-0.0035744198 0.016824309 0.011847258 4280916028
-0.0017824322 0.01764977 0.010690883 4281046844
0.00018332899 0.017790731 0.010254156 4280851768
0.0028758347 0.015195623 0.012688782 4280852279
0.0055897608 0.012602158 0.015118722 4281243958
0.009073101 0.0072757229 0.020410493 4281438778
0.013926875 -0.0028318092 0.03070521 4281372478
0.021168785 -0.021132775 0.049567696 4281372478
-0.017536782 -0.0039766505 0.033420291 4282477139
-0.018391185 0.0092470646 0.019234765 4281697603
-0.017798629 0.015582044 0.012293439 4280329528
-0.01630906 0.017785899 0.009692248 4279611449
-0.014194746 0.017237592 0.00997857 4279806778
-0.011912163 0.016002126 0.010984153 4279350583
-0.0096187964 0.014767576 0.01198737 4279677749
-0.0074827708 0.014221095 0.012269061 4280915264
-0.0056829154 0.015049111 0.011112422 4281046333
-0.0035413392 0.014503207 0.011393011 4280980799
-0.0015704595 0.014644418 0.010955058 4281241664
0.00040050969 0.014785729 0.010517154 4281633343
0.0029160045 0.012868371 0.012228027 4281698623
0.0056317188 0.0102662 0.01465103 4281437504
0.0085556544 0.0069798082 0.017784394 4281764924
0.012832671 -0.0011043027 0.02591309 4281764413
0.01986381 -0.018780552 0.044021819 4281764413
-0.016934544 -0.009121649 0.035815705 4282738514
-0.018228021 0.0062167272 0.019493867 4282151248
-0.017937776 0.013952721 0.011124521 4281046589
-0.016447745 0.01616317 0.008528091 4280981308
-0.014333751 0.015612606 0.0088128299 4281046334
-0.012214288 0.015062518 0.0090964101 4281111358
-0.0099240616 0.013823278 0.010097094 4281372223
-0.0076230653 0.012584932 0.011095397 4281045058
-0.0053112805 0.011347421 0.012091424 4281502783
-0.0029887259 0.010110818 0.013085078 4281502528
-0.0011832453 0.010941602 0.011928942 4281633600
0.00097421929 0.010394804 0.012204498 4281503549
0.0034996904 0.0084715411 0.013908248 4281113144
0.0060412325 0.0065495819 0.015608467 4281635894
0.0085988604 0.0046288148 0.017305214 4281699899
0.012686849 -0.0027937964 0.024701424 4281633854
0.019137023 -0.018464528 0.040632036 4281633598
-0.015588611 -0.01775337 0.041796278 4282935118
-0.017003171 -0.0016716644 0.024783872 4282216274
-0.017304711 0.0088606924 0.013550702 4281241153
-0.016272195 0.013155911 0.0088008791 4281112124
-0.01431293 0.013295684 0.0083650537 4281045313
-0.011866242 0.011359483 0.010080904 4281046589
-0.0095685236 0.010116383 0.011076596 4281047354
-0.0070922673 0.0081824809 0.012786008 4280461363
-0.0049407482 0.0076327547 0.013061035 4280921129
-0.0024375916 0.0057009682 0.014764614 4280919853
-0.00044561923 0.0058436617 0.014321949 4281245744
0.0017248802 0.0052955896 0.014592979 4281050158
0.0042629875 0.0033666119 0.016289018 4281245233
0.0066334084 0.0021294132 0.017269056 4281571889
0.0090145841 0.00089304894 0.018246833 4281961019
0.012919258 -0.0058632717 0.024912536 4282090813
0.018986715 -0.020204701 0.039384048 4282090813
-0.014990941 -0.02295313 0.044152383 4283393608
-0.016387969 -0.0068196282 0.027173527 4282542419
-0.01682771 0.0044416264 0.015243817 4281960508
-0.015783515 0.008750841 0.010501146 4280593198
-0.013813701 0.0088913292 0.010062944 4281115439
-0.011519283 0.007643424 0.011056066 4281115948
-0.0092140809 0.0063964427 0.012046803 4280919598
-0.0065629221 0.0037626028 0.014464118 4280983603
-0.0044010505 0.0032114014 0.014735196 4281310004
-0.0020608306 0.0019671693 0.015718415 4281310259
-6.0975552e-05 0.0021104068 0.015273985 4281375539
0.002117198 0.0015606582 0.015541654 4281440564
0.0043008029 0.0010114014 0.015808199 4281506354
0.006856963 -0.00092278421 0.017495405 4281571123
0.0090567321 -0.0014706627 0.017758522 4281961784
0.012962027 -0.0082489476 0.024407778 4282286909
0.018644877 -0.021252453 0.037427198 4282286653
-0.015774593 -0.011989444 0.029547494 4282869329
-0.016352169 5.1707029e-06 0.016924378 4281698114
-0.015296288 0.0043283403 0.012188904 4281113144
-0.013475318 0.0051661804 0.011033732 4281048883
-0.011011362 0.0032179654 0.012735926 4280984623
-0.0090254098 0.0033597723 0.012294266 4281179699
-0.0065372065 0.0014135316 0.013991173 4281375539
-0.0045430288 0.0015561208 0.01354783 4281441073
-0.0022033006 0.00030744821 0.014527891 4281505588
-2.8196722e-05 -0.00024483353 0.014794532 4281440563
0.0021523312 -0.00079662353 0.015060041 4281440563
0.0043382868 -0.0013479218 0.015324421 4281571889
0.0068964176 -0.0032885745 0.017006293 4281571889
0.0090985224 -0.0038385242 0.017267231 4282027573
0.012060896 -0.0071660802 0.020359512 4282091578
0.016198274 -0.014657721 0.027691051 4282221119
0.021364611 -0.025615737 0.038544219 4282220864
-0.015767828 -0.01438342 0.029046502 4283198279
-0.016185783 -0.0030503049 0.017164037 4282479178
-0.015123576 0.0012864843 0.012436919 4281440308
-0.013138019 0.0014280453 0.011995178 4281570613
-0.010990471 0.00087105483 0.012265921 4281571633
-0.0088374652 0.00031457096 0.012535527 4281506608
-0.0066789985 -0.00024143606 0.012803983 4281702704
-0.0045150891 -0.0007969439 0.013071321 4281571379
-0.0023457259 -0.0013519973 0.01333756 4281506098
4.2505562e-06 -0.0026042163 0.0143121 4281637424
0.0020092726 -0.0024605468 0.013866562 4281637169
0.0041949153 -0.0030140802 0.014129374 4281441839
0.0062027648 -0.0028700009 0.013683371 4281506608
0.0082107037 -0.0027258098 0.01323742 4281963313
0.0096531436 -0.00049129874 0.010671999 4282159408
0.01222676 -0.0024370924 0.01234572 4283463478
-0.015459359 -0.018184803 0.029969025 4283394884
-0.015866451 -0.0068157241 0.018110145 4282349383
-0.014951576 -0.0017638952 0.012678731 4281571633
-0.012960803 -0.0016219914 0.012235817 4281506608
-0.010969918 -0.0014799833 0.011792943 4281767984
-0.0091432258 -0.000637196 0.010639858 4281508139
-0.0074887574 0.00090586394 0.0087783039 4281637423
-0.0058448277 0.0024482235 0.0069192201 4282290224
-0.0035221204 0.0011895299 0.007896468 4282097444
-0.0010136403 -0.00076822937 0.0095793419 4282034204
0.001333259 -0.0020249784 0.010551374 4281776144
0.0033302419 -0.001881808 0.010107685 4281449234
0.0049613081 -0.00033985078 0.0082518421 4282161448
0.0063961148 0.0019006431 0.0056928732 4283595568
-0.015755266 -0.019183792 0.028035652 4283721793
-0.016008638 -0.0084832087 0.01691379 4282547264
-0.015248716 -0.0027124807 0.010783043 4281636914
-0.013260745 -0.0025708005 0.010340728 4282029358
-0.011595607 -0.0010228157 0.0084798895 4281965864
-0.01026931 0.0019302666 0.0052041262 4282361623
-0.0091310143 0.0055846348 0.0012250803 4283081488
-0.015844159 -0.011562102 0.017136615 4283070778
-0.015077531 -0.0057733133 0.011017337 4282485298
-0.013560243 -0.0035148636 0.0084490329 4283011108
-0.012220114 -0.00055213273 0.005176615 4283730208
-0.01583349 -0.013941489 0.016645368 4283922223
-0.01490704 -0.0088427588 0.011245511 4284249899
-0.015866924 -0.03782817 0.023174737 4283524679
-0.016310841 -0.038093999 0.020550683 4283066189
-0.018083494 -0.036645502 0.010639932 4282476374
-0.01559316 -0.038691327 0.012262471 4282477139
-0.016190384 -0.038188607 0.0089754127 4282477139
-0.016786426 -0.037672311 0.0056980178 4282083164
-0.01429737 -0.039731339 0.0073112026 4282345049
-0.017531957 -0.036405683 0.0017430708 4282148698
-0.01490093 -0.03920868 0.0040405914 4282279513
-0.015809596 -0.037194908 -0.00059050694 4282213978
-0.013482958 -0.038528882 0.00032996386 4282477903
-0.016563408 -0.035899781 -0.0045220517 4282345813
-0.014247939 -0.037238941 -0.0036023539 4282086478
-0.012554809 -0.035614684 -0.0054143853 4283329604
-0.01746843 -0.033843502 -0.0091226604 4282281043
-0.015011363 -0.035931036 -0.0075217858 4281629773
-0.01760862 -0.035491884 -0.010305403 4282280024
-0.015462756 -0.036095604 -0.010068825 4281172304
-0.013627253 -0.035208777 -0.011191713 4282873663
-0.017748795 -0.037139937 -0.011487922 4282279514
-0.015758306 -0.036998481 -0.011931086 4280977484
-0.013925422 -0.036109664 -0.01305178 4282481729
-0.016053434 -0.037896633 -0.013789969 4281363298
0.0090269446 0.007077232 -0.00011850893 4285034023
0.011766918 0.0044243559 0.0022602491 4285623328
0.016295243 -0.0045122951 0.010962728 4285689119
0.021887943 -0.01693482 0.023162778 4285688608
0.027576674 -0.029350311 0.035341609 4285688864
-0.0076802969 0.007832177 -0.0013329703 4284968743
-0.0053847544 0.0065671206 -0.00035295263 4285295908
-0.0027288198 0.0038986653 0.0020373911 4285427233
-0.00022894889 0.0019337833 0.0037173517 4285427488
0.0015664287 0.002777189 0.0025732666 4285296163
0.0031737573 0.0043218285 0.00072594732 4285362464
0.0042140633 0.0079699159 -0.0032307766 4285493533
0.0056040511 0.010213882 -0.0057748351 4285624604
0.0073597133 0.011054806 -0.0069097448 4285755163
0.0096905082 0.00979314 -0.00593693 4285820698
0.013601152 0.0029275268 0.00064622611 4285886999
0.01875799 -0.0081365108 0.01142345 4285952023
0.025007565 -0.022695363 0.025683809 4285952023
0.030348442 -0.033745892 0.036420371 4285689883
-0.011393059 0.0045245141 -0.00021231547 4284903464
-0.010269929 0.0081887692 -0.0041798614 4285295909
-0.0088347793 0.010441795 -0.0067296345 4285689628
-0.0067276806 0.0098756328 -0.0064544808 4285885723
-0.0044405423 0.0086056814 -0.00547578 4285820443
-0.001788076 0.0059282854 -0.0030911062 4285755163
-1.3954937e-05 0.0067723021 -0.0042288098 4285493789
0.0015722811 0.0083198622 -0.0060682353 4285494044
0.0025920868 0.011977449 -0.010012282 4285625114
0.0041491389 0.013523072 -0.01184503 4285755673
0.0058862045 0.014364861 -0.012974186 4285623584
0.0083911046 0.012394421 -0.011299798 4285557793
0.011695854 0.0076139569 -0.006828906 4285623838
0.016229659 -0.0013793856 0.0018301383 4285689629
0.022040505 -0.01458215 0.01466668 4285624093
0.028564533 -0.02988413 0.029575448 4285689629
-0.014017761 -0.0037465096 0.0058539733 4285821719
-0.012350712 0.0064382777 -0.0049040187 4285296928
-0.011240099 0.010112599 -0.0088606682 4285493533
-0.0098178275 0.012371294 -0.011402696 4285754908
-0.0078961514 0.012508705 -0.011829922 4285820444
-0.005625505 0.011233114 -0.010850782 4285820953
-0.002635736 0.0071329921 -0.0070638098 4285755419
-0.00069245324 0.0072722882 -0.0074955896 4285624348
0.00052118301 0.010235608 -0.010732753 4285558813
0.0015284792 0.013903271 -0.014665885 4285558814
0.0030724518 0.015452344 -0.01649248 4285821718
0.0051770955 0.014884584 -0.016217912 4285821718
0.0076733083 0.012906864 -0.014546452 4285886999
0.010772824 0.0088154003 -0.010783279 4285821464
0.014301218 0.0033166558 -0.0056315102 4285821208
0.019078845 -0.0064066947 0.0036941692 4285689883
0.025561187 -0.021760054 0.01857635 4285689883
0.03257373 -0.03851337 0.03482474 4285624349
-0.01362649 0.0011396855 -0.0021053869 4285295909
-0.013142854 0.0076649114 -0.0088757668 4285493788
-0.011709593 0.0099308118 -0.011415409 4285755674
-0.010461114 0.012904871 -0.014654206 4285623838
-0.0085475594 0.013041686 -0.015079634 4285623584
-0.0062854327 0.011761114 -0.014101917 4285689884
-0.0033049285 0.0076471269 -0.010322666 4285821464
-0.0011901967 0.0070774257 -0.010052243 4285624348
0.00020097569 0.0093409866 -0.012582103 4285624349
0.0012064278 0.01301951 -0.016506683 4285624349
0.0027479753 0.014572833 -0.01832954 4285558558
0.0048496388 0.014002599 -0.018055907 4285624349
0.0071495697 0.012725502 -0.01708602 4285624093
0.0098513514 0.010034814 -0.014724772 4285624093
0.012574485 0.0073457435 -0.012368197 4285558558
0.016323471 0.0011241138 -0.0065381117 4285558813
0.022156116 -0.012160443 0.0062318183 4285558814
0.029739931 -0.031089284 0.024534971 4285558814
-0.013765063 -0.0004824847 -0.003269162 4285295398
-0.013606641 0.0074860528 -0.011429908 4285493535
-0.012510385 0.01118128 -0.015367107 4285690649
-0.011103228 0.013452042 -0.017896041 4285887508
-0.0091977939 0.013588265 -0.01831967 4285821464
-0.0067701116 0.01159168 -0.016643327 4285952789
-0.0037962086 0.0074640363 -0.012872379 4285821463
-0.0016871504 0.0068917349 -0.012602396 4285624349
6.3233078e-05 0.0077407211 -0.01372988 4285624349
0.0014389195 0.01000987 -0.016251339 4285624349
0.002986066 0.01156795 -0.018072134 4285558814
0.0050927252 0.01099591 -0.017801283 4285558558
0.0072047673 0.010424376 -0.01753155 4285558559
0.0091268048 0.010562778 -0.017958144 4285624094
0.011048879 0.010701284 -0.018384663 4285624348
0.014375942 0.0058764964 -0.013952753 4285754653
0.018960575 -0.0031986535 -0.0053683184 4285754653
0.026499074 -0.022190027 0.012900896 4285689118
0.033346735 -0.038336985 0.028369214 4285689118
-0.014069635 0.0073163658 -0.013977548 4285361699
-0.012812026 0.010308489 -0.017205477 4285427998
-0.011407088 0.012585618 -0.019729003 4285624603
-0.0091620721 0.011294894 -0.018754097 4285624093
-0.0070801489 0.010718226 -0.018479871 4285623838
-0.0046397559 0.0087160543 -0.016811168 4285623838
-0.0023624748 0.0074279457 -0.015843133 4285624093
-0.00025632605 0.0068533272 -0.015574055 4285624094
0.0014861859 0.0077040568 -0.016698087 4285689884
0.0034106113 0.00784228 -0.017125467 4285559068
0.0053350925 0.0079806224 -0.017552773 4285559068
0.0074521415 0.0074072555 -0.01728577 4285690139
0.0087938197 0.0096809715 -0.019794485 4285755673
0.01051525 0.010530725 -0.02091343 4285952534
0.013033435 0.0085351467 -0.019261258 4286017559
0.01739626 0.0001412034 -0.011385754 4285886234
0.024293248 -0.016778566 0.0047710389 4285886234
0.031318206 -0.033689044 0.020899564 4285886234
0.036570504 -0.044195637 0.030788887 4285623583
-0.013716746 0.003575027 -0.013022769 4285230118
-0.012947559 0.0087244213 -0.018341854 4285427744
-0.011373848 0.010292388 -0.020162638 4285559068
-0.0092976801 0.0097129866 -0.019888856 4285624604
-0.0072160773 0.009134084 -0.019616194 4285689629
-0.005305402 0.0092708766 -0.020040851 4285820954
-0.0030366331 0.007977739 -0.0190742 4285821208
-0.00093880296 0.0074003413 -0.018804897 4285755418
0.0011644252 0.0068234354 -0.018536711 4285689884
0.0030860491 0.00696145 -0.01896348 4285558813
0.0050077289 0.0070995837 -0.019390162 4285558813
0.0067371316 0.0079518855 -0.020509422 4285690138
0.0080712512 0.010231659 -0.023011571 4285755419
0.0097847432 0.011083022 -0.024127137 4285623839
0.01229422 0.0090802163 -0.022477914 4285689629
0.015834663 0.0035122633 -0.017380733 4285886488
0.021679975 -0.0098964572 -0.0047062896 4285820954
0.028668186 -0.026862226 0.011391312 4285820954
0.034940392 -0.040967815 0.024706554 4285689374
-0.012752064 0.0057042837 -0.018084031 4285032748
-0.011340942 0.0079950392 -0.020599239 4285493789
-0.0094332397 0.0081313699 -0.021023411 4285624604
-0.0076989271 0.0089854226 -0.022142719 4285821464
-0.0059698597 0.0098391995 -0.023260791 4285886743
-0.0038884208 0.0092583001 -0.022989567 4285952278
-0.0018015765 0.0086778998 -0.022719461 4285952533
0.00010652468 0.0088148415 -0.023143299 4285689884
0.0020146891 0.0089518726 -0.023567082 4285624349
0.0041123703 0.0083725899 -0.023299141 4285624349
0.0058311671 0.0092263073 -0.02441442 4285755929
0.0071550757 0.011511877 -0.026909383 4285755419
0.0088579431 0.012364723 -0.028021008 4285558048
0.011356056 0.010354504 -0.026374146 4285558048
0.014681365 0.0054835901 -0.021975938 4285624094
0.019071318 -0.002960965 -0.014145404 4285689883
0.025398416 -0.017836794 -0.00014124438 4285624349
0.032469831 -0.03484913 0.015898939 4285624349
0.037748046 -0.045419581 0.02573381 4285427234
-0.012557279 0.0026756525 -0.017832376 4285098029
-0.011644281 0.0071339235 -0.022428406 4285427998
-0.0099100173 0.0079900324 -0.023546176 4285690394
-0.0085275695 0.010285527 -0.026049979 4285623838
-0.0066331513 0.01042112 -0.026471045 4285557793
-0.0045600273 0.0098374262 -0.026199602 4285623584
-0.0024814978 0.0092541799 -0.025929244 4285755164
-0.00039757788 0.0086714849 -0.025660038 4285755418
0.0015051141 0.0088081136 -0.026082616 4285624349
0.0034078658 0.0089448839 -0.026505107 4285558558
0.0047348253 0.011237189 -0.028995991 4285690139
0.0060458258 0.013528444 -0.031483263 4285887254
0.0081299953 0.012946293 -0.031213645 4285887509
0.010619383 0.010928899 -0.029569782 4285821718
0.013327401 0.0081950501 -0.027242228 4285821464
0.016467307 0.0040278062 -0.023546249 4285624349
0.021926489 -0.0080273971 -0.012312006 4285558559
0.029161118 -0.025812998 0.0043850429 4285492768
0.035889179 -0.041437976 0.018998321 4285492768
0.039495528 -0.046303339 0.023323275 4285164328
-0.012114983 0.0069999099 -0.024947422 4285296163
-0.010897316 0.010024451 -0.028140327 4285690138
-0.0095277615 0.012325592 -0.030636398 4285821718
-0.0076467954 0.012460224 -0.031054473 4285689884
-0.0055873208 0.01187335 -0.030781638 4285689884
-0.0029791594 0.0091226026 -0.02843911 4285821464
-0.0009008944 0.0085372925 -0.028170273 4285690138
0.00099633634 0.0086735338 -0.02859164 4285624349
0.0027045272 0.0095307529 -0.029701412 4285624349
0.0038321689 0.012549758 -0.032873634 4285558558
0.0057162158 0.012685403 -0.033291817 4285558558
0.0077973716 0.01210086 -0.033023208 4285558558
0.010283399 0.010076612 -0.031383429 4285558814
0.012785431 0.0080536231 -0.029747115 4285559069
0.015303459 0.0060319453 -0.028114308 4285493279
0.01949946 -0.0017447099 -0.021010078 4285493279
0.025858175 -0.016710266 -0.0070811845 4285493279
0.033607271 -0.035982467 0.010922052 4285493279
0.038695641 -0.045897804 0.020019926 4285361698
-0.012417309 0.0061504617 -0.026768297 4285164074
-0.011712424 0.011356853 -0.032027386 4285559069
-0.010353096 0.013663828 -0.034516312 4285953044
-0.0084829293 0.013797663 -0.034932006 4285821718
-0.0062561892 0.01248391 -0.03396906 4285887509
-0.0036569275 0.0097238049 -0.031631093 4285690139
-0.0010362715 0.0069653019 -0.029297754 4285558813
0.00048835203 0.0085480362 -0.031094074 4285558814
0.0023801625 0.0086839944 -0.031514153 4285558558
0.0036973283 0.010988757 -0.033993121 4285624348
0.0059696995 0.0096789673 -0.033039797 4285558813
0.0080558583 0.0090925992 -0.032773927 4285559068
0.010546502 0.007062085 -0.031140054 4285624604
0.012648702 0.0064771026 -0.03087757 4285624859
0.015166014 0.0044488013 -0.029249476 4285625113
0.0187371 -0.0011869371 -0.024210963 4285624348
0.024663212 -0.014756382 -0.011677839 4285493024
0.032606523 -0.034810498 0.0069672242 4285493024
0.038543578 -0.047642171 0.018769328 4285558559
-0.012217015 0.0031252578 -0.026515547 4285295144
-0.012015801 0.010527328 -0.033833142 4285493278
-0.010658704 0.012840714 -0.0363167 4285558814
-0.008615952 0.012248114 -0.036043502 4285558559
-0.0063897297 0.01092992 -0.0350837 4285558814
-0.0039720759 0.0088868216 -0.033439133 4285493278
-0.0015383661 0.0068449229 -0.031798024 4285558813
-1.8838793e-05 0.0084317401 -0.033589996 4285624604
0.0020562224 0.0078419596 -0.033323515 4285558558
0.0037538931 0.0087029785 -0.034427658 4285624094
0.0062224455 0.0066640526 -0.032793932 4285558558
0.0085103177 0.0053510964 -0.03184722 4285558304
0.011207588 0.0025900751 -0.029536923 4285492258
0.013320126 0.0020035952 -0.029278316 4285558304
0.015847381 -3.0577183e-05 -0.027657304 4285558559
0.019012727 -0.0042353421 -0.023996133 4285492769
0.0251504 -0.01857011 -0.010813657 4285492769
0.0324581 -0.036514789 0.0057453178 4285426979
0.037960835 -0.047939487 0.016160168 4285426979
-0.011683006 -0.0013664961 -0.024891976 4285557794
-0.011979014 0.0082448721 -0.034259774 4285361954
-0.010446288 0.0098364279 -0.036051869 4285427744
-0.0083985254 0.0092419237 -0.03578138 4285493278
-0.0059896484 0.0071914792 -0.034139834 4285559069
-0.0039257668 0.0065984279 -0.033872791 4285558814
-0.0014900938 0.0045500919 -0.032236986 4285558558
0.00040404499 0.0046860799 -0.032657679 4285624349
0.0026752912 0.0033672079 -0.031710774 4285623839
0.0045748577 0.0035038069 -0.032132514 4285557794
0.0068621598 0.0021863729 -0.031189039 4285557793
0.0091601498 0.00086981058 -0.030247871 4285558048
0.011468835 -0.00044591725 -0.029308937 4285558049
0.013384519 -0.00030764937 -0.029733878 4285492513
0.015913725 -0.0023483112 -0.028118143 4285492514
0.019494768 -0.0080183744 -0.023107875 4285492514
0.026056122 -0.023848653 -0.008600736 4285492514
0.032947198 -0.040396042 0.0065589324 4285492514
0.037809204 -0.049678765 0.014913216 4285361189
-0.011150472 -0.0058756098 -0.023280876 4285163309
-0.011094149 0.0023031458 -0.031257831 4285427489
-0.0097175539 0.0046310648 -0.033735998 4285493533
-0.0074817985 0.0033046454 -0.032784913 4285624859
-0.0054129809 0.0027096272 -0.032520678 4285558813
-0.0033387765 0.0021151006 -0.032257564 4285624349
-0.0012591593 0.0015210211 -0.031995527 4285492513
0.00082582608 0.00092750788 -0.03173463 4285426723
0.0031045265 -0.00039520115 -0.030792695 4285426723
0.0053939335 -0.0017170608 -0.029853001 4285492513
0.0071130544 -0.00085001439 -0.03095858 4285492513
0.0092195421 -0.0014415458 -0.030702058 4285492514
0.011331372 -0.0020325333 -0.030446682 4285492514
0.013650198 -0.003351748 -0.029513206 4285492514
0.016184021 -0.0053986534 -0.027903359 4285426724
0.019975696 -0.011814378 -0.022228841 4285426214
0.026121384 -0.026236266 -0.0091131236 4285360678
0.032585949 -0.041378319 0.0046559311 4285360678
0.037012681 -0.049234375 0.011637744 4285229353
-0.0089906603 -0.00059612095 -0.031435717 4285295143
-0.0069169328 -0.0011931211 -0.031174298 4285426469
-0.0046603195 -0.0025222674 -0.030231057 4285492514
-0.0027532689 -0.002385594 -0.030654801 4285426979
-0.00066334754 -0.0029810742 -0.03039672 4285492514
0.0014319755 -0.0035760924 -0.030139703 4285492259
0.0037207976 -0.0049024522 -0.029203266 4285360933
0.005829528 -0.0054962337 -0.028949095 4285426469
0.0075566955 -0.0046264827 -0.030054804 4285426723
0.0094746985 -0.0044882894 -0.030480437 4285492259
0.011193939 -0.0036188588 -0.031584203 4285492258
0.013713703 -0.0056734607 -0.029976197 4285492258
0.016045336 -0.0069960207 -0.029048726 4285492259
0.02004192 -0.014162168 -0.022711977 4285426214
0.025976835 -0.027897649 -0.010304304 4285426214
0.032437209 -0.043086052 0.0034315623 4285426214
0.036646899 -0.050236374 0.0097213611 4285294633
-0.0086095631 -0.0043744594 -0.030516183 4285295143
-0.0065281838 -0.004973121 -0.03025811 4285426469
-0.0042641014 -0.0063061789 -0.029319748 4285426724
-0.0023491979 -0.0061689392 -0.02974523 4285426723
-0.00043424964 -0.0060316026 -0.030170657 4285426723
0.0016660579 -0.0066284239 -0.029916424 4285360933
0.0037717335 -0.0072247237 -0.029663283 4285426469
0.0058828034 -0.0078205541 -0.029411212 4285426468
0.0076126643 -0.0069483668 -0.030515932 4285426723
0.0095331818 -0.006810002 -0.030942131 4285426723
0.01125513 -0.0059381947 -0.03204488 4285492768
0.014179368 -0.0094655231 -0.029090118 4285492513
0.016722398 -0.011524908 -0.027492061 4285426724
0.020727575 -0.018712372 -0.02117347 4285492259
0.025832316 -0.029558703 -0.011495253 4285426469
0.031652734 -0.042596266 0.00018640235 4285229098
-0.0099749565 -0.0090402439 -0.028498661 4285097518
-0.008401338 -0.0074283332 -0.030286854 4285361189
-0.0063149706 -0.0080288276 -0.030031513 4285361189
-0.0042231828 -0.008628808 -0.029777275 4285426469
-0.0023057759 -0.0084914118 -0.030203335 4285360934
-0.00020587817 -0.0090905726 -0.029950731 4285295143
0.0018994212 -0.0096892789 -0.029699193 4285295144
0.0041978471 -0.011023737 -0.028771393 4285295399
0.0063165501 -0.011621185 -0.028522689 4285360934
0.0086337179 -0.012954086 -0.027598821 4285360933
0.010765813 -0.013550319 -0.02735291 4285426469
0.012903266 -0.01414603 -0.027108077 4285492004
0.015448226 -0.016211987 -0.025515422 4285295143
0.018416649 -0.019746952 -0.022578482 4285163563
-0.010110866 -0.010627657 -0.029637415 4285163564
-0.0087086111 -0.0082716495 -0.03210184 4285361189
-0.0064509809 -0.0096140802 -0.031168632 4285295399
-0.0043595359 -0.010216281 -0.030915957 4285360678
-0.0020831153 -0.011557125 -0.029986754 4285295143
2.1774322e-05 -0.012158141 -0.029736891 4285295143
0.0025018603 -0.014236033 -0.028135292 4285295144
0.0046228543 -0.014835671 -0.02788876 4285229609
0.00731989 -0.017649725 -0.025617693 4285294889
0.0098453909 -0.019724026 -0.024025857 4285294889
0.012582466 -0.022534996 -0.021763448 4285163563
-0.0099092498 -0.013698921 -0.029419154 4285294124
-0.008501254 -0.011335924 -0.031879976 4285294888
-0.0060647503 -0.013424069 -0.030273892 4285229609
-0.0039656647 -0.014027938 -0.030024547 4285229098
-0.001323007 -0.016855195 -0.027748208 4285163054
-0.0048102699 -0.020966366 -0.026010323 4285359658
-0.0025136843 -0.02231466 -0.025092203 4286080798
