# .PCD v0.7 - Point Cloud Data file format
VERSION 0.7
FIELDS x y z rgba
SIZE 4 4 4 4
TYPE F F F U
COUNT 1 1 1 1
WIDTH 968
HEIGHT 1
VIEWPOINT 0 0 0 1 0 0 0
POINTS 968
DATA ascii
0.01343501 0.016547199 0.028822444 4288359478
0.015074097 0.018764947 0.026407417 4290191654
0.017480897 0.016748447 0.028234512 4290126884
0.020570781 0.011205584 0.033590373 4289537833
0.010577697 0.019082986 0.023631912 4288817714
0.012208905 0.021306708 0.021223031 4289931808
0.013696097 0.024237577 0.018111251 4289473574
0.01581426 0.023628753 0.018527381 4288557869
0.018470775 0.02018984 0.02176097 4289277223
0.021562193 0.01462993 0.027103163 4289931554
0.024281021 0.011194304 0.030327845 4289996833
0.026744226 0.0091745257 0.032141961 4289408038
0.028647438 0.009983927 0.031141896 4289407783
0.030104913 0.012913957 0.028034937 4289408549
0.031989131 0.013722599 0.027037781 4289603879
0.034933191 0.0095844418 0.030954007 4290256933
0.038684163 0.0019153729 0.038372613 4290191654
0.0098671652 0.021035124 0.018872008 4289407528
0.011360154 0.023974795 0.015766069 4290323999
0.012959193 0.02620345 0.013366997 4290585629
0.014933188 0.026301675 0.013080174 4290454814
0.017705757 0.02214139 0.017010648 4290323999
0.020510841 0.017982785 0.020936523 4290585629
0.023071412 0.015244916 0.023453549 4289931553
0.025088783 0.01534567 0.023160715 4289473829
0.026962217 0.016155779 0.022166625 4289604644
0.028243694 0.01980203 0.018369786 4289800483
0.029946102 0.02132016 0.016678531 4289604389
0.032701984 0.0178761 0.019889757 4289277224
0.036258683 0.010890067 0.026595782 4289015083
0.040184427 0.0024897233 0.034692746 4289930533
0.0076565146 0.020060539 0.017229445 4288751924
0.0092801265 0.022296641 0.014831763 4289997088
0.011012372 0.023819748 0.013138838 4289931554
0.012606293 0.026054565 0.010745626 4289734948
0.014704999 0.025440443 0.011161186 4289604133
0.017340975 0.021978993 0.014380861 4289997088
0.019868391 0.019230757 0.016895864 4289931809
0.022279095 0.0171954 0.018707354 4289539364
0.024282806 0.017295469 0.018416502 4289604643
0.025998935 0.01881839 0.016726479 4289539364
0.027411222 0.021763403 0.013639608 4290520093
0.029100243 0.023285147 0.011953663 4290585629
0.031537961 0.021251604 0.013761597 4290127648
0.034764998 0.015664715 0.019057602 4289866019
0.038979273 0.0058158636 0.028533403 4289866019
0.0070811249 0.021333672 0.013196178 4289275439
0.0089381747 0.022146471 0.01220729 4289473829
0.01078986 0.022959083 0.01121925 4290193184
0.012763575 0.023057181 0.010932378 4289800738
0.014867447 0.022441175 0.011345502 4289604388
0.017242404 0.020397339 0.013157004 4289997088
0.019498095 0.019068401 0.01426705 4289735713
0.021764627 0.017740045 0.015375629 4289539618
0.023760093 0.017839711 0.015085977 4289605154
0.025611907 0.018653002 0.014098441 4289670179
0.027019201 0.021606367 0.011019053 4289931553
0.028553883 0.023845475 0.0086400565 4289931298
0.030831179 0.022518177 0.0097474027 4289996834
0.034200661 0.016200498 0.015728034 4289735204
0.038719181 0.0048952699 0.026573684 4289996834
0.006745141 0.021190468 0.010576153 4288425524
0.0084749237 0.022721905 0.0088902991 4290061093
0.010567639 0.022102993 0.0093031954 4290716444
0.012665808 0.021484453 0.0097153801 4290913048
0.014639441 0.021582637 0.0094285961 4290913048
0.016878471 0.020248462 0.010537598 4289735713
0.019128358 0.018914875 0.011645138 4289801504
0.021250974 0.018297937 0.012054069 4289605154
0.023238204 0.018397193 0.011765618 4289997599
0.02479486 0.020643663 0.00938835 4289604898
0.026481494 0.022173818 0.0077094473 4289669923
0.028306214 0.022988107 0.0067276899 4289408294
0.030883698 0.020225752 0.0092223752 4289473318
0.03410019 0.01460398 0.014492851 4289604389
0.038930524 0.0018342212 0.026700478 4289669668
0.0045581125 0.020239465 0.0089478269 4288817713
0.0061716773 0.022494338 0.0065666642 4289539620
0.0081342347 0.02259168 0.0062812567 4290454814
0.0099724121 0.023407917 0.0052985512 4289866273
0.012186628 0.022067998 0.0064076129 4290324254
0.014281873 0.021447215 0.006818654 4290651674
0.016515099 0.020108439 0.0079251193 4289605154
0.018623915 0.019488562 0.0083342884 4290063133
0.020600181 0.019587167 0.0080473442 4289604898
0.022435779 0.020403866 0.0070654806 4289801248
0.024265958 0.021220382 0.0060844682 4289931553
0.026090708 0.022036739 0.0051043313 4290716699
0.028505214 0.019982588 0.0069003645 4290520093
0.031238955 0.016494438 0.010081051 4290520093
0.034770802 0.0094211325 0.016723201 4290454814
0.039455175 -0.0026695579 0.028206155 4289669669
0.0038801134 0.022276286 0.0042484198 4288818223
0.0055993125 0.023815736 0.0025707353 4290126884
0.0074293315 0.024633609 0.00159082 4289931298
0.009253975 0.025451306 0.000611756 4288688939
0.011454273 0.024106398 0.0017194729 4289277734
0.013795149 0.02204141 0.0035206489 4289997089
0.015887436 0.021418452 0.0039304476 4290716698
0.017850041 0.021516286 0.0036454163 4289932063
0.019674817 0.022334486 0.0026667248 4289997088
0.021494182 0.023152523 0.0016889013 4289866273
0.023594623 0.022530373 0.002097832 4290193439
0.025554514 0.022628464 0.001813503 4290454814
0.02810904 0.019847672 0.0042979475 4290520093
0.031139299 0.014909275 0.0088546332 4290650908
0.034977816 0.0063754693 0.016862873 4290651164
0.040135521 -0.0079096407 0.030389696 4290454814
0.0016002543 0.022067867 0.0019355062 4287313979
0.0032034889 0.024334952 -0.00043408386 4289538343
0.0047905445 0.026601397 -0.0028012721 4290258208
0.0067257881 0.026697364 -0.0030827243 4290585884
0.0085369088 0.027516536 -0.0040581347 4290324254
0.01097703 0.024720646 -0.0015644608 4290258718
0.013179667 0.023371644 -0.00046039186 4290585884
0.015393164 0.022023253 0.00064223073 4289866273
0.017077526 0.023565829 -0.0010265745 4289800738
0.018751083 0.025107943 -0.0026936727 4289800995
0.020694623 0.025205027 -0.0029757759 4290454814
0.023067497 0.023135718 -0.0011839755 4289800483
0.025164966 0.022511333 -0.00077617168 4289080873
0.027861942 0.018999748 0.0023928899 4288819243
0.03088842 0.014046125 0.0069383234 4289931554
0.03518429 0.0033214465 0.016996074 4290258463
0.040501215 -0.011728033 0.031178143 4289931298
0.0015042797 0.020513535 0.00073262677 4286725184
0.0029918663 0.023512796 -0.0023255227 4289145644
0.0044578724 0.026511032 -0.0053804172 4289407783
0.0062662512 0.027332168 -0.0063538589 4289735458
0.0081932992 0.027427819 -0.0066340473 4289669923
0.010500606 0.025348149 -0.0048382124 4289342759
0.012694728 0.023994423 -0.0037362846 4290127904
0.014635406 0.02409105 -0.0040182164 4289604388
0.016441241 0.024912514 -0.0049908562 4289604388
0.018379241 0.025009207 -0.0052722422 4289473573
0.020176968 0.02583047 -0.0062435428 4290323999
0.021969279 0.026651554 -0.0072139865 4290585629
0.02419322 0.025299914 -0.0061159143 4289211944
0.026576368 0.023224838 -0.0043304609 4289211944
0.030033417 0.016083255 0.0022717975 4289866019
0.034467407 0.0046017542 0.012994612 4290193184
0.040396564 -0.013388105 0.029893827 4290323233
0.0014083385 0.018959492 -0.00047003292 4287444539
0.003012117 0.021239489 -0.0028295862 4288360753
0.0045997202 0.023518831 -0.0051867468 4288622894
0.0064135157 0.024342313 -0.0061592655 4288819498
0.0084697492 0.023710813 -0.0057495302 4288557868
0.010531429 0.023079671 -0.0053405119 4288623403
0.012469243 0.023176059 -0.0056221047 4289212454
0.014143053 0.024726585 -0.007282651 4289343269
0.015940778 0.025549769 -0.0082524391 4289146408
0.018007955 0.024919331 -0.0078438865 4289538853
0.019660138 0.026469111 -0.0095011005 4289931554
0.021444339 0.027291935 -0.010468679 4290193184
0.023659769 0.025935538 -0.0093726991 4289800739
0.026182514 0.023127429 -0.0069039324 4290062113
0.029632676 0.015963979 -0.00031750463 4290323999
0.034212612 0.0037218258 0.011065766 4290520093
0.040604666 -0.016499475 0.029981699 4289996324
-0.0027748235 -0.024730064 0.039225269 4287969329
-0.00056793168 -0.025357135 0.039610706 4287051839
0.0016512536 0.015215367 0.00039937347 4287705659
0.0030321218 0.018962201 -0.0033368114 4287968054
0.004977759 0.019058559 -0.0036198739 4288361008
0.0066813193 0.020614471 -0.0052817436 4288427053
0.008621648 0.020710774 -0.0055638691 4288492588
0.01043554 0.021536626 -0.0065345457 4289015849
0.012373228 0.021632992 -0.0068161329 4288885289
0.014047172 0.023187809 -0.008473332 4289081384
0.015844904 0.024013158 -0.0094414232 4288819498
0.01791182 0.023380533 -0.0090345377 4288753964
0.019844154 0.023477055 -0.009315013 4288557613
0.021491056 0.025030985 -0.010967997 4288753964
0.023417961 0.025127448 -0.011247528 4288950314
0.025789216 0.02303889 -0.0094704619 4289408038
0.029534135 0.014397167 -0.0015297085 4289669670
0.03441871 0.00066217035 0.011194691 4289800228
0.041437201 -0.022531062 0.03280047 4289800228
-0.0058512948 -0.019912019 0.032012988 4289477653
-0.0040689446 -0.017610952 0.029636983 4289212964
-0.0017928034 -0.018974602 0.030715991 4288884269
0.0002848953 -0.018872261 0.030413281 4290126118
0.0011813231 -0.010711886 0.022523616 4290127139
0.0010274015 0.0040373132 0.008438671 4288623914
0.0015549771 0.013655417 -0.00080786273 4288819753
0.003167402 0.01594875 -0.0031586196 4288623403
0.0051183216 0.016045354 -0.0034424569 4288427053
0.0070692897 0.016142067 -0.0037262235 4288688939
0.0088966787 0.01697062 -0.0046972688 4288688938
0.010718685 0.017799016 -0.0056674443 4288492588
0.012664359 0.017895777 -0.0059501939 4288558124
0.014346562 0.019455343 -0.0076052593 4288754474
0.016152412 0.020283237 -0.0085728476 4288950569
0.018227182 0.019648872 -0.0081687765 4288557869
0.0201675 0.019745797 -0.0084504178 4288492078
0.021965243 0.020573601 -0.0094165802 4288426799
0.023902845 0.020670593 -0.0096976608 4288753965
0.026284385 0.018576112 -0.0079271495 4288557358
0.029736986 0.011369877 -0.0013748407 4288230194
0.035084456 -0.0045965612 0.013366275 4288230194
0.04179978 -0.02639778 0.033551451 4288230194
-0.0066277906 -0.016421884 0.0259034 4289149214
-0.0047649704 -0.014850415 0.024224441 4289212708
-0.0027091615 -0.014749296 0.023924809 4290128158
-0.00054867938 -0.015382871 0.024313703 4290128158
0.0006519109 -0.0094038248 0.018509302 4289604899
0.00070961937 0.0039188191 0.0058346149 4289343268
0.0015713982 0.011361331 -0.0013276171 4288558123
0.003186807 0.013661198 -0.0036737081 4288492844
0.0052583776 0.013023771 -0.0032714512 4288492844
0.0069730431 0.014588811 -0.004928207 4288623659
0.0088004284 0.015419513 -0.0058975704 4288689194
0.010622445 0.016250055 -0.0068660621 4288492588
0.012696896 0.015613183 -0.0064638946 4288492588
0.014645163 0.01571019 -0.0067469329 4288427309
0.016593454 0.015807301 -0.0070298929 4288558123
0.018678781 0.015171297 -0.0066290516 4288361774
0.020629793 0.01526875 -0.0069122445 4288165168
0.022295924 0.016832195 -0.0085612275 4288426799
0.024096368 0.017662391 -0.0095260069 4288426799
0.026187079 0.017027095 -0.0091256108 4288361008
0.029939301 0.0083342418 -0.001226427 4288557359
0.035289064 -0.007679306 0.01347727 4288557359
0.042005595 -0.029544935 0.033611726 4288557359
-0.0072097592 -0.014376052 0.021193355 4289279519
-0.0053603426 -0.012800984 0.019519705 4289670688
-0.003318198 -0.01270055 0.019222055 4290390044
-0.0011715181 -0.013336971 0.019611254 4289212454
1.6469508e-05 -0.0073413625 0.013822185 4289605154
0.0006120801 0.0023357719 0.0046094693 4290259994
0.0017001405 0.0083266199 -0.0011648405 4288362283
0.0035517067 0.0091603696 -0.0021363404 4288296748
0.0053979345 0.0099939257 -0.0031069238 4288492844
0.0071181431 0.01156348 -0.0047610775 4288689194
0.0088275746 0.013132662 -0.0064136144 4288820009
0.010904431 0.012493625 -0.0060135182 4288689194
0.012729179 0.013326585 -0.0069806967 4288754474
0.014811505 0.012688033 -0.0065812226 4288492843
0.016765073 0.012785412 -0.0068649519 4288492843
0.018992437 0.011412159 -0.0057844799 4288165423
0.020672232 0.012980469 -0.0074321572 4288034864
0.022625811 0.013078161 -0.0077156406 4288230704
0.024579383 0.013175964 -0.0079990234 4288427054
0.02682836 0.011804238 -0.0069213435 4288230449
0.030291513 0.0045555905 -0.00040429085 4288230449
0.035493147 -0.010770403 0.013581879 4288164404
0.041899204 -0.031231508 0.032306913 4288164404
-0.009543635 -0.014627203 0.018856924 4289345818
-0.0076942071 -0.013047941 0.017186496 4289670179
-0.005756598 -0.012208506 0.016203668 4289997344
-0.0037227087 -0.012108497 0.015907206 4290586139
-0.0015844144 -0.012747489 0.016295932 4289866529
-0.0004036203 -0.0067351386 0.010521412 4290783508
0.00051457062 0.00075302273 0.0033845585 4289540384
0.0017159618 0.0060223415 -0.001692486 4288166188
0.0035702437 0.0068583265 -0.0026626503 4288101164
0.0053013451 0.0084326416 -0.0043151518 4288165678
0.0069011562 0.010744832 -0.0066486988 4288623658
0.0088544786 0.01084175 -0.0069327336 4288689194
0.010807831 0.010938771 -0.0072166994 4288689193
0.012889858 0.010297991 -0.0068190005 4288623403
0.014845978 0.010395378 -0.0071031842 4288623403
0.016802119 0.010492869 -0.0073872861 4288296238
0.018895021 0.0098529682 -0.0069909059 4288034864
0.020853875 0.0099508166 -0.0072752368 4288034864
0.022670561 0.010786004 -0.0082390923 4288034353
0.024771575 0.010146849 -0.0078436267 4287969074
0.027025556 0.0087710768 -0.0067700446 4288034354
0.030793203 2.7440488e-05 0.0010864828 4287903283
0.035849676 -0.014606483 0.014358055 4287902773
0.042104207 -0.034390911 0.032357644 4287902773
-0.0099229403 -0.014027111 0.015543744 4289280029
-0.0080814995 -0.012443997 0.013877882 4289539618
-0.0061520226 -0.011602804 0.012897866 4289343268
-0.004227832 -0.010761797 0.011918752 4289212708
-0.0019964762 -0.012144819 0.012990892 4289081893
-0.00071601197 -0.0068567619 0.0079139136 4290194713
0.00030753389 -8.841604e-05 0.0014772043 4288755748
0.0016192831 0.004454948 -0.0029054964 4287447344
0.0034735575 0.0052930638 -0.0038739899 4287709228
0.0052047893 0.006871663 -0.0055231387 4287774253
0.0068048649 0.0091902986 -0.0078516752 4288297513
0.0087580383 0.0092872009 -0.0081356969 4288231724
0.010837059 0.0086440071 -0.0077393372 4288165678
0.012921523 0.0080012009 -0.0073436899 4288362029
0.015142631 0.006618835 -0.0062692212 4288492844
0.017106742 0.0067167282 -0.0065544872 4287904049
0.019070871 0.0068147331 -0.0068396619 4288231213
0.020756343 0.0083919168 -0.0084814141 4288034864
0.022715056 0.0084898621 -0.0087656388 4288230704
0.024818502 0.0078486651 -0.0083722202 4288034353
0.027222233 0.0057295635 -0.0066251336 4287969074
0.031143673 -0.0037786439 0.0018874053 4287968819
0.036205411 -0.018455207 0.015124515 4287771958
0.04215312 -0.036819875 0.031725973 4287641144
-0.011964545 -0.016489439 0.015271317 4290069254
-0.010208201 -0.014157809 0.012924179 4289410588
-0.0083720498 -0.012570642 0.011262409 4289540384
-0.0067438409 -0.0094964802 0.0082371496 4290128924
-0.0047318675 -0.0093975887 0.0079438537 4290194203
-0.002511736 -0.010785468 0.0090142414 4289736223
-0.0009211041 -0.0077128261 0.0059947167 4289999128
0.014783103 0.0065401122 -0.008834268 4287511858
0.016875453 0.005895786 -0.0084412666 4287905324
0.018836733 0.0059936419 -0.0087260315 4287773999
0.02079802 0.006091617 -0.0090107089 4287708464
0.022475502 0.0076727942 -0.01064785 4287904303
0.024575965 0.0070293024 -0.010255683 4288100398
0.027123753 0.0041623265 -0.0078376839 4288100143
0.031493336 -0.0075972825 0.0026785359 4287903540
0.036713056 -0.023057558 0.016555924 4287772468
0.042201772 -0.039252892 0.031091262 4287510329
-0.012515221 -0.0143786 0.010606565 4290198539
-0.010679055 -0.012787327 0.0089480896 4289671963
-0.0089493841 -0.01045043 0.0066099316 4289867294
-0.0072358288 -0.0081141964 0.0042742211 4290782998
-0.0052348115 -0.0080158487 0.0039825141 4290586904
-0.0030258931 -0.0094085857 0.0050511565 4290652183
-0.0011258908 -0.0085642785 0.0040790923 4290195733
0.022094458 0.0076040924 -0.013201149 4287577648
0.024189245 0.0069581345 -0.012809798 4288101163
0.026878111 0.0033388212 -0.00972383 4287773744
0.03124268 -0.0084553584 0.00076616555 4287707953
0.036761869 -0.025447302 0.015955083 4287707954
0.041939571 -0.04020375 0.029108081 4287576373
-0.013064541 -0.012245961 0.0059586819 4289738009
-0.011241768 -0.010651059 0.0043055229 4290849044
-0.0093340613 -0.0098046437 0.003333617 4289605408
-0.0076283552 -0.0074624345 0.0010041222 4289212709
-0.0056356005 -0.0073645115 0.00071360916 4289409058
-0.0034352131 -0.0087619275 0.0017800722 4289670178
-0.0015433244 -0.0079158843 0.0008108709 4289409314
-0.013612498 -0.010091491 0.001327686 4289737498
-0.01171032 -0.0092433915 0.00035820156 4290456089
-0.0099089444 -0.0076450929 -0.0012884215 4290194203
-0.0080200657 -0.0067974254 -0.0022557974 4289277988
-0.0060355589 -0.0066999123 -0.0025451146 4289147174
-0.0039473288 -0.0073521659 -0.0021575689 4290520858
-0.0020662732 -0.0065045431 -0.003123533 4289081893
-0.013889156 -0.010173358 -0.0012551062 4289736988
-0.012085088 -0.0085707679 -0.0028988607 4289801503
-0.010196324 -0.0077210888 -0.0038646366 4290586394
-0.0083128549 -0.0068715587 -0.0048295408 4289408804
-0.0064346977 -0.006022118 -0.0057936162 4288885544
-0.0043548457 -0.0066769794 -0.0054065026 4290325783
-0.0024819225 -0.0058275685 -0.0063696392 4288886309
-0.029485796 -0.017066181 0.0039164089 4287249209
-0.027623285 -0.015457369 0.0022667684 4286399039
-0.017963801 -0.011950411 -0.0018993206 4287314999
-0.016061891 -0.011098236 -0.0028656274 4287772213
-0.014165252 -0.010246269 -0.0038310532 4288427054
-0.01236647 -0.0086397305 -0.0054706596 4289211944
-0.01048312 -0.0077881292 -0.0064339973 4289342759
-0.0085071139 -0.0076911673 -0.0067221802 4288427053
-0.0066316724 -0.0068397895 -0.00768416 4289015849
-0.0044514351 -0.0082511455 -0.0066248514 4289604898
-0.0026845969 -0.0066455528 -0.0082593821 4289343779
-0.029513683 -0.01941926 0.0033584964 4286464064
-0.027648348 -0.01780612 0.0017118119 4286398528
-0.025646623 -0.01770895 0.0014190525 4285875268
-0.016070936 -0.013435602 -0.0034145983 4287117883
-0.01426135 -0.011824325 -0.0050525479 4287641144
-0.012370016 -0.010970369 -0.0060154311 4288034099
-0.010483976 -0.010116562 -0.0069774576 4287903794
-0.0085054152 -0.010019496 -0.0072660334 4287772979
-0.0065267533 -0.0099223182 -0.0075545385 4287707443
-0.0045479909 -0.0098250061 -0.007842958 4287969329
-0.0027810372 -0.0082151294 -0.0094741434 4288230959
-0.02967773 -0.020255975 0.0014469344 4286921788
-0.027744297 -0.019398741 0.00047885813 4286398529
-0.025669347 -0.020061545 0.00086056627 4285940804
-0.014178216 -0.014920436 -0.004929577 4286398018
-0.012189202 -0.014823109 -0.0052198702 4287052603
-0.010295071 -0.013966724 -0.0061814385 4287445304
-0.0083085373 -0.013869286 -0.0064711915 4287772723
-0.0065227263 -0.012254484 -0.0081019066 4287969329
-0.0045414157 -0.012157068 -0.0083907172 4287904049
-0.0026658252 -0.011301167 -0.0093491748 4287904303
-0.029841486 -0.021088071 -0.00046105124 4286856509
-0.027840208 -0.02099108 -0.00075387396 4286660414
-0.025692288 -0.022418149 0.00029898249 4286529343
-0.023761246 -0.021558687 -0.00066690706 4286267459
-0.014095571 -0.018024795 -0.0048130685 4286136644
-0.01219346 -0.017166063 -0.005774186 4286790973
-0.010201771 -0.017068483 -0.0060647735 4287314233
-0.0082099922 -0.016970813 -0.0063553127 4287707443
-0.0064186528 -0.015351407 -0.0079835067 4287838513
-0.0044320859 -0.015253738 -0.0082730884 4287904304
-0.002551116 -0.014395453 -0.0092306584 4288036394
-0.029734056 -0.024973556 0.00032224692 4286725694
-0.027795237 -0.02411183 -0.00064329244 4286790973
-0.025715437 -0.024778731 -0.00026570074 4286463808
-0.023781698 -0.023917019 -0.0012303088 4286659904
-0.012197945 -0.019512996 -0.0063315863 4286660159
-0.010203708 -0.019415312 -0.006622565 4287445048
-0.0082093664 -0.0193175 -0.0069134654 4287642164
-0.0063150786 -0.018456668 -0.0078714909 4287838768
-0.0043232553 -0.018358752 -0.0081618438 4287446578
-0.0025424436 -0.016735367 -0.0097849788 4287775274
-0.027610149 -0.028773971 0.00080064125 4286333249
-0.025665801 -0.027909733 -0.00016395561 4286529344
-0.023726691 -0.027045645 -0.0011276957 4286071364
-0.012478366 -0.019567542 -0.0088922316 4286987324
-0.010489672 -0.019470148 -0.0091824168 4287706679
-0.008306291 -0.020903029 -0.0081406655 4287707443
-0.0062119998 -0.021570183 -0.0077659385 4287642674
-0.0043176301 -0.020707078 -0.0087222056 4287707953
-0.0025340058 -0.019079328 -0.010342353 4287251503
-0.012574665 -0.021148391 -0.010115879 4286922043
-0.010680623 -0.020283513 -0.011070755 4287707953
-0.0085975155 -0.020953529 -0.010696148 4287708208
-0.0064090453 -0.022390343 -0.0096584167 4287642418
-0.004517395 -0.021525241 -0.010612613 4287577393
-0.0067055374 -0.022436544 -0.012209551 4287250739
-0.0048193261 -0.021569528 -0.013161317 4287381553
0.0010740645 0.0058599934 -0.0068407347 4282283083
0.0028026551 0.0074426159 -0.0084861713 4282348619
0.0047555976 0.0075392798 -0.0087703438 4283002949
0.0064680725 0.0091213509 -0.010413319 4283590979
0.00075395405 0.0057921633 -0.0094044982 4281696328
0.0024772622 0.0073788464 -0.011045853 4281565768
0.0045420676 0.0067302957 -0.01065108 4281826633
0.0063720942 0.0075717196 -0.011612507 4281826633
0.0084424093 0.006923683 -0.011218349 4282415174
0.01039264 0.0070205405 -0.011501864 4282610248
0.012471147 0.0063731 -0.011108669 4282871369
0.00077003613 0.0034912154 -0.0099295778 4281696839
0.0023815893 0.0058295205 -0.012244861 4281566534
0.0043288395 0.0059258938 -0.012528205 4281435973
0.0062761419 0.0060223714 -0.01281148 4281566534
0.0082234889 0.0061189756 -0.013094665 4281173833
0.010170873 0.0062156767 -0.013377772 4281304138
0.012118287 0.0063125044 -0.013660795 4281826634
0.013934921 0.0071558505 -0.014618238 4281891913
0.01601319 0.0065065101 -0.014226574 4281957194
0.017960658 0.0066036806 -0.014509329 4281892168
0.020047057 0.0059549734 -0.014118667 4281957194
0.021997232 0.0060525164 -0.014401634 4282348363
0.023947399 0.0061501563 -0.014684522 4282478668
0.026485711 0.0032655373 -0.012278623 4282676038
0.030842565 -0.0085633919 -0.0018144175 4283003458
0.036505528 -0.026350401 0.014008405 4283003458
0.041832812 -0.041895211 0.027799498 4283460674
-0.00062670931 -0.0026585385 -0.0067926608 4284049980
0.00078588352 0.0011862665 -0.010457757 4281827144
0.0025148503 0.0027817413 -0.012093169 4281500743
0.0043502077 0.0036276206 -0.013052159 4281566024
0.0063000731 0.0037242249 -0.013335804 4281304904
0.0082499757 0.0038209409 -0.01361937 4281304903
0.010074656 0.0046666041 -0.014576481 4281239368
0.012021933 0.0047634244 -0.01485948 4281434954
0.013969228 0.004860349 -0.015142403 4281499978
0.015916545 0.0049574077 -0.015425223 4281565769
0.017863872 0.0050545707 -0.01570796 4281499978
0.019672414 0.0058999881 -0.016662288 4281630794
0.021617038 0.0059972554 -0.016944446 4281957194
0.023561653 0.0060946271 -0.017226523 4282087753
0.02624077 0.0024533942 -0.014155979 4282088264
0.030742221 -0.010157712 -0.003047891 4282023239
0.036401778 -0.027996369 0.012735 4282023239
0.041726064 -0.043586358 0.02649118 4282022473
-0.00083212927 -0.0034748018 -0.0086805373 4283526719
0.00080149621 -0.0011226758 -0.010989025 4281696583
0.0025332868 0.00047721714 -0.01262149 4281696839
0.0044883601 0.00057395548 -0.01290599 4281566278
0.0063237622 0.0014220402 -0.013863181 4281500743
0.0081537999 0.0022700354 -0.014819521 4281369928
0.0099784695 0.0031178296 -0.015774958 4281239369
0.011925597 0.0032146275 -0.016057946 4281239113
0.01387275 0.0033115596 -0.016340837 4281304393
0.015819922 0.0034086034 -0.016623644 4281239369
0.017631149 0.0042561889 -0.01757676 4281500234
0.019575635 0.0043533295 -0.017858995 4281696584
0.021661473 0.0037004203 -0.017471528 4281826888
0.023464585 0.0045479536 -0.01842319 4281826634
0.026289653 0.00014607608 -0.014692104 4281826634
0.030791355 -0.012501463 -0.0036126822 4281696584
0.036602393 -0.031141214 0.012797965 4281696584
0.041464441 -0.044527672 0.024515465 4281761353
-0.00081971288 -0.0057943314 -0.0092195328 4283657279
0.00092835352 -0.004189454 -0.010851089 4282220354
0.0027798526 -0.0033386275 -0.011809163 4281762373
0.0045091175 -0.0017344579 -0.013437804 4281500998
0.0063472129 -0.00088409334 -0.014393687 4281697094
0.008179944 -3.3892691e-05 -0.01534872 4281370184
0.010132305 6.3069165e-05 -0.015632551 4281304649
0.012084693 0.00016012788 -0.015916303 4281369929
0.01403711 0.00025731325 -0.016199965 4281369674
0.015856422 0.0011073798 -0.017152704 4281304394
0.01767035 0.0019572377 -0.018104531 4281369673
0.019478871 0.0028069615 -0.019055478 4281631304
0.021423204 0.0029041991 -0.019337609 4281827144
0.02336753 0.0030015707 -0.019619633 4281761609
0.02648491 -0.0029173344 -0.01456413 4281761353
0.031138916 -0.016353063 -0.0028469684 4281761353
0.036954526 -0.035046197 0.013520913 4281761353
0.041357845 -0.046216018 0.023209304 4281761098
-0.00091616437 -0.0073617697 -0.010432616 4284049469
0.00094336644 -0.0065085515 -0.01139022 4282743103
0.0029116012 -0.0064113066 -0.011676755 4281959233
0.0046463944 -0.0048025474 -0.013302885 4281763139
0.0063704215 -0.0031942427 -0.014927313 4281632578
0.0082058422 -0.0023417473 -0.015881035 4281632834
0.010160755 -0.0022446737 -0.016165245 4281567043
0.012115702 -0.0021474883 -0.016449369 4281435718
0.013940405 -0.0012951866 -0.017401271 4281500743
0.015892688 -0.001197882 -0.017684817 4281435208
0.017709296 -0.00034569949 -0.018635392 4281695819
0.019658893 -0.0002483055 -0.018918373 4281500489
0.021467401 0.00060368329 -0.019867532 4281827144
0.023701876 -0.00080753118 -0.018818107 4281761353
0.026679635 -0.0059890077 -0.014442615 4281826888
0.031187264 -0.018709108 -0.0034212628 4281696074
0.036546312 -0.035194069 0.010910461 4281761354
0.040787436 -0.045642674 0.019910429 4281826124
0.0063933916 -0.0055083707 -0.015464012 4284379949
0.0081094652 -0.00389608 -0.017083839 4283921458
0.010064233 -0.0037990287 -0.017368037 4282547518
0.012019031 -0.0037018284 -0.017652128 4282089283
0.013973854 -0.0036045387 -0.017936151 4281828928
0.015795857 -0.0027500838 -0.018885866 4281828674
0.017747998 -0.0026526973 -0.019169316 4281892934
0.019561894 -0.0017983839 -0.020117719 4281892169
0.021370387 -0.00094425678 -0.021065205 4281631813
0.023748105 -0.0031162426 -0.019354835 4281631304
0.026873836 -0.0090689585 -0.014327507 4281565769
0.03153348 -0.022581555 -0.0026717531 4281761098
0.036442202 -0.036845215 0.0096330587 4281761098
0.012049686 -0.0060152933 -0.018189728 4284706094
0.013877057 -0.0051585808 -0.019138657 4283920183
0.015699033 -0.0043020025 -0.020086698 4283462203
0.017515618 -0.0034455359 -0.021033902 4282808893
0.019603036 -0.0041070804 -0.020653434 4282482749
0.021555036 -0.0040094554 -0.020936672 4282089795
0.023937602 -0.0061875507 -0.019232076 4282088774
0.026921289 -0.01139877 -0.01488097 4281892680
0.031432118 -0.024191543 -0.0039173421 4281826634
0.036186472 -0.037737809 0.0076945219 4281826378
0.031330761 -0.025801197 -0.0051626731 4284245819
0.03108076 -0.02664791 -0.0070662368 4284704564
-0.007101085 -0.021702267 -0.015414373 4283393609
-0.011157583 -0.023470066 -0.016054654 4282934864
-0.009177532 -0.023373015 -0.016343525 4282348108
-0.0071973763 -0.023275845 -0.016632309 4282021199
-0.0053193122 -0.022405036 -0.017579516 4281825359
-0.0032368042 -0.023081109 -0.017209621 4281956683
-0.001363989 -0.0222103 -0.01815586 4282154053
0.00039319322 -0.020566456 -0.019758573 4282024003
0.0022526309 -0.019696064 -0.020702662 4282742594
0.0042224079 -0.019598648 -0.020989344 4283003714
0.0061922334 -0.019501112 -0.021275941 4283919418
0.0081621073 -0.019403443 -0.021562442 4284246328
0.010627206 -0.022395529 -0.01922744 4284573749
-0.011347484 -0.024267241 -0.017930405 4282869583
-0.0092736371 -0.024946295 -0.017561255 4282085713
-0.0073929839 -0.024073318 -0.01850724 4282086478
-0.0054155923 -0.023976177 -0.018795533 4281760588
-0.0034381263 -0.023878895 -0.019083736 4281695564
-0.0014605895 -0.023781486 -0.019371858 4281891658
0.00018655509 -0.02135808 -0.021626865 4282022473
0.0021561161 -0.021260828 -0.021913635 4282022473
0.0042412952 -0.021938421 -0.021545431 4282218568
0.0063319281 -0.022615649 -0.021177942 4282219079
0.0081860833 -0.021742992 -0.022119286 4282414918
0.010776863 -0.025518127 -0.019137604 4282742338
0.013647433 -0.030840792 -0.014853152 4283202358
-0.016773816 -0.03157822 -0.013677647 4282543184
-0.015131842 -0.028366856 -0.016597698 4282738513
-0.0093696974 -0.026519224 -0.018778728 4282020179
-0.0072906315 -0.027200036 -0.018411918 4281824593
-0.0055118501 -0.025547013 -0.020011326 4281694799
-0.0036391616 -0.024672009 -0.02095432 4281498703
-0.0017718002 -0.023797177 -0.021896401 4281499213
0.00020024553 -0.023699947 -0.022183632 4281761099
0.0021723546 -0.023602553 -0.022470767 4281825868
0.004259944 -0.024282195 -0.022104608 4281826379
0.0061167292 -0.023407392 -0.023044767 4281891913
0.0082098134 -0.024086498 -0.0226792 4281957194
0.010926012 -0.028649032 -0.019054128 4282152523
0.014053363 -0.035539679 -0.013478792 4282154563
0.016584683 -0.038545318 -0.011166646 4282806853
-0.016870011 -0.033163674 -0.014904933 4282346579
-0.015139382 -0.030724414 -0.017162809 4282542418
-0.0094657503 -0.0280919 -0.019995997 4281823828
-0.0072878897 -0.029554971 -0.018976932 4281627988
-0.0054044947 -0.028677471 -0.019919867 4281563473
-0.0036309175 -0.02702029 -0.021515055 4281433424
-0.0017608888 -0.026143171 -0.022455892 4281498958
0.00021370128 -0.026045792 -0.022743488 4281760333
0.002188351 -0.025948294 -0.023031002 4281629518
0.0041630566 -0.025850646 -0.023318412 4281695308
0.0061378069 -0.025752895 -0.023605751 4281826379
0.0082333125 -0.026434056 -0.023242177 4281891148
0.010951247 -0.031009309 -0.019627484 4281957194
0.013953831 -0.037140377 -0.014717433 4282219588
0.01674206 -0.041711859 -0.011112741 4283067463
-0.0095617659 -0.029664256 -0.021213027 4282541654
-0.0073843226 -0.031131603 -0.020197244 4281953369
-0.0053993016 -0.031034105 -0.02048667 4281626713
-0.0035185665 -0.030154504 -0.021427458 4281693523
-0.0017502159 -0.028493188 -0.023018433 4281760078
0.00022691861 -0.02839569 -0.023306405 4281825104
0.0023165755 -0.029079624 -0.022944001 4281759314
0.0041813627 -0.028200299 -0.023882071 4281694289
0.0060407855 -0.027321063 -0.024819301 4281759313
0.008015424 -0.027223177 -0.02510651 4281825868
0.010729704 -0.031811476 -0.021501319 4281695818
0.013728358 -0.037959851 -0.016604131 4281956683
-0.0017397813 -0.030847155 -0.023584103 4282150994
0.00013026223 -0.029965684 -0.024521461 4281890384
0.0022196211 -0.030651793 -0.024160707 4281693523
0.0039693527 -0.028986685 -0.025745345 4281954899
0.0059437864 -0.028888948 -0.026032628 4282085458
0.007918261 -0.028791077 -0.026319819 4282020943
0.010508448 -0.032609053 -0.023371605 4281891659
0.013125665 -0.036425546 -0.020427274 4282282318
0.015898455 -0.04102347 -0.016840506 4282935118
0.018178731 -0.042488486 -0.015841845 4283328840
-0.034919996 0.0066578239 0.037680693 4285164328
-0.033135045 0.0096097887 0.034530576 4285689374
-0.030978922 0.0082821548 0.035660081 4285820188
-0.028471101 0.0033903494 0.040349681 4285885469
-0.035676952 0.012904271 0.028592922 4285558558
-0.03379612 0.014432617 0.026876722 4285689628
-0.031795312 0.014529973 0.026584271 4285557793
-0.029522281 0.011766925 0.029134542 4285886234
-0.027156714 0.0082900375 0.03239195 4285754654
-0.024910737 0.006244272 0.034225717 4285493024
-0.022724491 0.0049141496 0.035347637 4285427489
-0.020369571 0.0021554381 0.037886217 4285361954
-0.018400501 0.0029702261 0.036878236 4284966704
-0.037950452 0.013360061 0.025515664 4285493023
-0.036072377 0.014892399 0.023803178 4285820954
-0.034329873 0.017859403 0.020672701 4285689374
-0.032413263 0.018673215 0.019673627 4285623583
-0.030094605 0.015183166 0.022929352 4285689628
-0.027819317 0.012411661 0.025472566 4285821464
-0.025522199 0.0096413121 0.028012671 4285624604
-0.023507226 0.0097396746 0.027718399 4285624604
-0.021492075 0.0098381341 0.027424172 4285624603
-0.019720946 0.012086593 0.025008913 4285689884
-0.017797697 0.012901336 0.024009351 4285951513
-0.015445653 0.010134116 0.026541784 4286017049
-0.012624256 0.003786996 0.032600272 4286017303
-0.0096617863 -0.0032738149 0.039357219 4285885723
-0.038274232 0.014646433 0.021446399 4285493278
-0.036406826 0.016182505 0.019738816 4285755674
-0.034612369 0.018437874 0.01732469 4285952789
-0.032638807 0.018533833 0.01703617 4285821464
-0.030394081 0.015752118 0.019577 4285821718
-0.028057087 0.012252256 0.022821635 4285624348
-0.025839183 0.010192141 0.024649303 4285624349
-0.023984138 0.01172819 0.022943906 4285624350
-0.021982636 0.011825942 0.022651635 4285755674
-0.02030601 0.014798887 0.019538052 4285755163
-0.018398974 0.015615001 0.018542483 4285623073
-0.016237166 0.01427535 0.019661494 4285623584
-0.013617471 0.0093444735 0.024299785 4285689119
-0.010683522 0.0022607595 0.031043936 4285689628
-0.0073161311 -0.00769265 0.040593781 4285755419
-0.040410127 0.013687782 0.019802645 4285164328
-0.038540084 0.015228145 0.018097945 4285559069
-0.036740143 0.017490108 0.015687987 4285624094
-0.034831818 0.018307641 0.014693365 4285623838
-0.032798868 0.017681573 0.015111662 4285623838
-0.030625086 0.015612643 0.016940549 4285624094
-0.028294262 0.012101702 0.020177614 4285624349
-0.026228312 0.011477493 0.020591293 4285624349
-0.024383936 0.013017245 0.018890847 4285624349
-0.022393364 0.013114445 0.018600158 4285624348
-0.020564903 0.014653645 0.01690213 4286018323
-0.018663261 0.015471559 0.01590905 4285886744
-0.016593795 0.014848001 0.016322583 4285952279
-0.014161762 0.011342637 0.019545376 4285952278
-0.011242773 0.0042366758 0.026274811 4286083858
-0.0077015571 -0.007188201 0.037206702 4285624093
-0.040667187 0.014278881 0.016459864 4285624348
-0.03886177 0.016547386 0.014054103 4285820953
-0.036894251 0.01664279 0.013766261 4285821463
-0.034864444 0.016014297 0.014183234 4285821209
-0.032699484 0.01393836 0.016008243 4285624093
-0.030585583 0.012587108 0.017126899 4285624349
-0.028530877 0.011960082 0.017540444 4285559068
-0.026616346 0.012780391 0.016546849 4285624349
-0.024782654 0.014323883 0.014851309 4285624349
-0.022803005 0.014420509 0.014562193 4285624094
-0.020823214 0.01451724 0.014273122 4285624094
-0.01884326 0.014614068 0.013984108 4285755163
-0.016690332 0.013265364 0.015097573 4285755163
-0.014437322 0.011194564 0.016910385 4285558303
-0.011433352 0.0033442006 0.024324346 4285558303
-0.0075189658 -0.011005029 0.038030054 4285558303
-0.042634707 0.011154488 0.016938712 4284901168
-0.040977221 0.015609685 0.012423029 4285820954
-0.039182354 0.017884109 0.010023797 4285952024
-0.037225757 0.017978955 0.009737527 4286018324
-0.035083104 0.01589537 0.011560639 4285952534
-0.032859411 0.013086677 0.01408409 4285755419
-0.030748587 0.011730887 0.015199833 4285624349
-0.028696824 0.011101551 0.015612092 4285624348
-0.02678499 0.011923842 0.014620561 4285689884
-0.025029335 0.014196999 0.012227563 4285624093
-0.023133378 0.015018709 0.011238499 4285755164
-0.021161821 0.015115008 0.010950614 4285689629
-0.019022945 0.013761193 0.012062663 4285623838
-0.016786825 0.011683002 0.013872778 4285624349
-0.014445346 0.0088808611 0.016379733 4285558814
-0.011440236 0.0010068715 0.023774933 4285559069
-0.0071483254 -0.016283751 0.040240426 4285559069
-0.043035511 0.01394818 0.011497794 4285361953
-0.041178759 0.015500613 0.0098049436 4285624093
-0.039389003 0.017781176 0.0074115451 4285623839
-0.037378807 0.017147247 0.0078278687 4285558048
-0.035239372 0.015057079 0.0096463207 4285820698
-0.03301901 0.012239553 0.012163527 4285755163
-0.030911278 0.010879286 0.013276326 4285624349
-0.029002313 0.011703484 0.012286754 4285624348
-0.027098577 0.012527503 0.011298064 4285689883
-0.02527542 0.014079012 0.009610761 4285821208
-0.023462925 0.015630122 0.0079250354 4285952534
-0.021418836 0.014998548 0.008337032 4285952533
-0.019285757 0.013640128 0.0094465297 4285886999
-0.01688328 0.010100909 0.012648184 4285689884
-0.014453579 0.0065631047 0.015845943 4285624604
-0.011172667 -0.0035151169 0.025313713 4285493279
-0.0065904297 -0.02303718 0.043827668 4285493279
-0.045141477 0.01301828 0.0098710135 4284966703
-0.043383826 0.016036958 0.0067784023 4285755673
-0.041486856 0.016862158 0.0057918224 4285755674
-0.039595071 0.017687153 0.0048061069 4285689629
-0.037590522 0.017050765 0.0052215401 4285689629
-0.035457004 0.01495377 0.0070358105 4285821208
-0.033307064 0.012857668 0.0088477507 4285755674
-0.031274904 0.012222908 0.0092593711 4285624349
-0.029446553 0.013778783 0.0075744539 4285624348
-0.02748384 0.0138743 0.007287588 4285690139
-0.025596153 0.014699735 0.006302977 4285755673
-0.023635801 0.014795333 0.0060166083 4285820698
-0.021675292 0.014891036 0.00573029 4285820954
-0.01954801 0.013527952 0.006837273 4285820954
-0.017065693 0.0092483684 0.010727584 4285689629
-0.014373306 0.0035121366 0.016004886 4285624349
-0.010906097 -0.0080540627 0.026839368 4285558558
-0.0066932552 -0.024718218 0.042526547 4285558303
-0.045427267 0.014387652 0.0058600083 4285230373
-0.043578532 0.015948139 0.0041749571 4285493278
-0.041633505 0.016042113 0.0038901363 4285755929
-0.039744403 0.016869087 0.0029064715 4285821719
-0.037742805 0.016230382 0.0033206288 4285887254
-0.035735603 0.015592046 0.0037340391 4285755929
-0.033658553 0.014221527 0.0048444457 4285624349
-0.031637449 0.01358404 0.0052559599 4285558813
-0.029750098 0.014411397 0.004272921 4285558813
-0.027867969 0.015238591 0.003290711 4285821719
-0.025840964 0.01460167 0.0037015919 4285624348
-0.02396391 0.015428811 0.0027202759 4285492259
-0.021850679 0.014060669 0.0038258061 4285492258
-0.01989286 0.014156304 0.0035399329 4285689374
-0.017247785 0.0084004551 0.0088105518 4285886489
-0.014382098 0.0011842027 0.015463203 4285689629
-0.010731835 -0.011878781 0.027658142 4285623839
-0.0071720593 -0.023474738 0.038452182 4285492259
-0.045568217 0.013568267 0.0039577167 4285361698
-0.043671425 0.014397532 0.0029744338 4285493278
-0.041779812 0.015226655 0.0019919928 4285558814
-0.039781366 0.014585525 0.0024048239 4285624349
-0.037894767 0.015414566 0.0014232472 4285558304
-0.035890516 0.01477389 0.0018353667 4285558559
-0.033944804 0.014868237 0.0015507136 4285558813
-0.031998891 0.014962688 0.0012660995 4285558814
-0.030052815 0.015057229 0.00098153763 4285493278
-0.028178792 0.015886139 2.1737069e-06 4285559068
-0.02623507 0.01598078 -0.00028188154 4285821973
-0.024291191 0.016075514 -0.00056589767 4285821718
-0.022347149 0.01617036 -0.00084985234 4285887253
-0.020236876 0.014797844 0.00025278702 4285952533
-0.017601091 0.009024322 0.0055112485 4285820954
-0.014479589 -0.00041431934 0.0142259 4285558303
-0.010831807 -0.013516098 0.026390832 4285558303
-0.007837493 -0.020747334 0.033008002 4285688864
-0.045565482 0.010540612 0.0041492712 4285426214
-0.043612767 0.010634817 0.0038632099 4285557538
-0.041713055 0.011466406 0.0028812196 4285623839
-0.039762642 0.011560671 0.0025956314 4285558304
-0.037870619 0.012392141 0.0016148817 4285493023
-0.035922516 0.012486465 0.001329774 4285493023
-0.033974212 0.012580894 0.0010447074 4285493279
-0.032025728 0.012675442 0.00075969286 4285493278
-0.030146461 0.013506636 -0.00021884218 4285493278
-0.028272439 0.014337659 -0.0011965428 4285559069
-0.026403654 0.015168525 -0.0021733977 4285559069
-0.024462599 0.015263095 -0.0024570189 4285624603
-0.022521403 0.015357763 -0.0027405899 4285624603
-0.020497125 0.014716677 -0.0023324862 4285624349
-0.017867927 0.0089256391 0.0029134285 4285624348
-0.014577013 -0.0020125434 0.012988817 4285623584
-0.010931734 -0.015153117 0.025123741 4285557794
-0.045467857 0.0060251653 0.0057245195 4285294633
-0.043504473 0.0061198249 0.0054368582 4285360934
-0.041540865 0.0062145889 0.0051492304 4285492514
-0.039577071 0.0063094571 0.004861651 4285492258
-0.037730012 0.0078829005 0.003187092 4285558304
-0.03577121 0.0079777166 0.00290039 4285624349
-0.033812221 0.008072637 0.0026137363 4285558304
-0.031986188 0.009645313 0.00094252266 4285558559
-0.030170795 0.011217631 -0.00072709285 4285558814
-0.02829406 0.012050889 -0.0017035361 4285559068
-0.026422564 0.012884021 -0.0026791189 4285493279
-0.024478938 0.01297868 -0.0029631425 4285427488
-0.022535156 0.013073452 -0.0032471102 4285493278
-0.020425651 0.011692271 -0.0021511354 4285558814
-0.017877702 0.0066221431 0.002391113 4285624350
-0.014586195 -0.0043482408 0.012441114 4285491748
-0.011304323 -0.01457689 0.021790583 4285623329
-0.045371201 0.0014928058 0.0072866008 4285360678
-0.043447364 0.0023297146 0.0063043255 4285360934
-0.041422855 0.001683183 0.0067081172 4285426469
-0.039504003 0.0025200322 0.005726723 4285492258
-0.037590358 0.0033567175 0.004746167 4285492514
-0.035681907 0.0041932687 0.0037664473 4285492513
-0.033651207 0.00354743 0.0041696373 4285492513
-0.031814229 0.0051248968 0.002500169 4285492513
-0.029987898 0.0067019984 0.00083229505 4285492514
-0.028172206 0.0082786158 -0.00083391555 4285426724
-0.026218038 0.0083736777 -0.0011195652 4285360678
-0.024263728 0.0084688291 -0.0014051674 4285229098
-0.022309262 0.0085641071 -0.0016907062 4285097773
-0.045322921 -0.002312474 0.0081438553 4285031984
-0.043390971 -0.0014730841 0.0071620494 4285361189
-0.041411411 -0.0013776273 0.0068720225 4285426468
-0.039487157 -0.00053841621 0.0058914907 4285492514
-0.037568096 0.00030069798 0.0049117692 4285492514
-0.035593349 0.00039621443 0.0046226773 4285558049
-0.033682007 0.0012351051 0.003644269 4285492513
-0.031775888 0.0020738468 0.0026667081 4285492514
-0.030013036 0.0043984726 0.00031279214 4285492258
-0.028122772 0.005236648 -0.0006622877 4285426724
-0.026163351 0.0053319335 -0.00094873272 4285360678
-0.024203759 0.0054273233 -0.0012351293 4285229354
-0.045322601 -0.0053842217 0.008301232 4285032239
-0.043385271 -0.0045424178 0.0073202513 4285360934
-0.041453104 -0.0037008002 0.0063401461 4285426469
-0.039581511 -0.0021135435 0.0046719834 4285492514
-0.037662458 -0.0012722984 0.0036939234 4285492513
-0.03568783 -0.0011768267 0.0034048222 4285492513
-0.033713009 -0.0010812357 0.0031157807 4285492768
-0.031738002 -0.00098552555 0.0028267968 4285426724
-0.029900584 0.00060058385 0.001164034 4285426469
-0.028002229 0.0014412627 0.00018942356 4285360678
-0.026034828 0.0015369132 -9.8202378e-05 4285360423
-0.024067249 0.0016326681 -0.00038578734 4285295399
-0.022099543 0.0017285347 -0.00067330152 4285163819
-0.043230455 -0.0098647252 0.0095361117 4285294634
-0.041284796 -0.0090203509 0.0085556842 4285360678
-0.039454821 -0.0066802278 0.0062016398 4285361189
-0.037582908 -0.0050885305 0.0045368206 4285361188
-0.035660956 -0.004245013 0.0035600998 4285426979
-0.033807572 -0.0026540235 0.0018981434 4285426978
-0.031832676 -0.0025583431 0.0016091596 4285361188
-0.029995155 -0.00096797198 -5.0276518e-05 4285295143
-0.027953874 -0.0016195104 0.00034648553 4285294888
-0.025981199 -0.0015236363 5.8058649e-05 4285294889
-0.024008352 -0.001427643 -0.0002303049 4285294888
-0.022035364 -0.0013315454 -0.00051861256 4285229608
-0.019897703 -0.0027286634 0.00055972859 4285229098
-0.039108638 -0.014264256 0.010460425 4285228844
-0.0372728 -0.011917345 0.0081106275 4285163563
-0.035452973 -0.0095710382 0.0057632364 4285163818
-0.03364918 -0.007225439 0.0034182463 4285295398
-0.031729553 -0.0063796863 0.0024436973 4285295398
-0.029815149 -0.0055340901 0.0014699977 4285295143
-0.027834665 -0.0054379702 0.0011803228 4285229098
-0.025928039 -0.0045925453 0.00020791963 4285163309
-0.023949932 -0.0044963136 -8.123368e-05 4285163308
-0.021971669 -0.0043999776 -0.00037032738 4285229609
-0.019993272 -0.0043035448 -0.00065936707 4285229098
-0.022067059 -0.0059745386 -0.0015891939 4285163053
-0.020006794 -0.0066290721 -0.0011982881 4285163308
0.00095814094 -0.0088316724 -0.01193247 4284967214
0.002928935 -0.0087342933 -0.012219366 4284902188
0.0045499206 -0.0063632876 -0.014510706 4284902954
0.00097267702 -0.011158772 -0.012477797 4285098029
0.0027184524 -0.009541072 -0.01409886 4285163818
0.0045699701 -0.0086837485 -0.015051764 4285032493
0.008135017 -0.0062097907 -0.017620686 4284967468
0.00098697841 -0.01348985 -0.013026215 4285229354
0.0026219226 -0.011105485 -0.015309554 4285229608
0.0044734105 -0.010246024 -0.016260777 4285163819
0.0063195415 -0.0093866736 -0.017211169 4285098028
0.0081603229 -0.0085275099 -0.018160637 4285098283
0.010120194 -0.0084302053 -0.018445577 4285295144
0.012207258 -0.00909435 -0.018067166 4285295399
0.014169894 -0.008996658 -0.018352311 4285230119
0.015867393 -0.0073762387 -0.019962333 4285229864
0.017554086 -0.0057562068 -0.021570671 4285098284
0.019367952 -0.0048976168 -0.022515714 4284967214
-0.00097734109 -0.015922599 -0.013289583 4285229099
0.00077940524 -0.014295883 -0.014905655 4285229863
0.0024118908 -0.011905208 -0.017183594 4285295653
0.0043768808 -0.011808023 -0.017469574 4285229353
0.0062229969 -0.010946512 -0.018418267 4285163563
0.0083070137 -0.011613265 -0.018041261 4285163563
0.010147803 -0.010751791 -0.018988993 4285229609
0.012364332 -0.012181751 -0.017950982 4285229353
0.014202476 -0.011320204 -0.0188981 4285229608
0.016035229 -0.01045876 -0.019844387 4285361444
0.017592305 -0.0080708638 -0.022110589 4285361699
0.019408859 -0.0072100237 -0.023054291 4285229608
0.021501107 -0.00787545 -0.022677831 4285098029
0.023598751 -0.0085405037 -0.022302072 4285032494
0.0267235 -0.014544733 -0.017314941 4284901423
-0.0011820272 -0.016728111 -0.015169227 4285229098
0.00068281218 -0.01586397 -0.016119223 4285295399
0.0024289303 -0.014233418 -0.017730255 4285230119
0.0043964721 -0.014136113 -0.018016614 4285229609
0.0062452666 -0.01327239 -0.018963989 4285163818
0.0083316974 -0.013941117 -0.018589046 4285163819
0.010175176 -0.013077423 -0.019535463 4285229354
0.012267079 -0.013745613 -0.019161109 4285229353
0.014234807 -0.013647683 -0.019447006 4285294889
0.016070247 -0.012784012 -0.020391963 4285295144
0.017900288 -0.011920445 -0.021336075 4285294889
0.019724935 -0.011057071 -0.02227927 4285163308
0.021825004 -0.011724256 -0.021905638 4285229098
0.023787351 -0.011625953 -0.022190254 4285163819
0.026916269 -0.017647095 -0.017217167 4285163564
0.03097957 -0.0282548 -0.0083094295 4285032494
-0.0011707284 -0.019067064 -0.015723189 4285163308
0.00058624521 -0.017431773 -0.017332576 4285295399
0.002332475 -0.015796937 -0.018940259 4285164328
0.0042998604 -0.01569964 -0.019226596 4285099049
0.0061486363 -0.014833793 -0.020172302 4285098538
0.0082347803 -0.015504666 -0.01979899 4285164074
0.010326363 -0.016175151 -0.019426383 4285229609
0.012296617 -0.01607722 -0.019712742 4285294888
0.014137421 -0.015211277 -0.020656906 4285229353
0.016105015 -0.015113212 -0.020942673 4285229098
0.018072614 -0.015015036 -0.021228354 4285229099
0.020040223 -0.01491674 -0.02151395 4285229098
0.022007832 -0.014818311 -0.021799434 4285163563
0.024118414 -0.015486978 -0.021428894 4285164074
0.027254207 -0.021524914 -0.016470267 4285163563
0.031026777 -0.030628331 -0.0088972431 4284966449
-0.0011596493 -0.021409936 -0.016280269 4284901168
0.00060012564 -0.019770227 -0.017886708 4285098538
0.0023491643 -0.018130988 -0.019491449 4284967723
0.0042032786 -0.017262861 -0.020436343 4285033259
0.0061705597 -0.017165452 -0.020722572 4285033003
0.0082591139 -0.017838351 -0.020351298 4285098793
0.010477036 -0.019281156 -0.019323714 4285230119
0.01257918 -0.019953206 -0.018954201 4285229609
0.01429873 -0.018314622 -0.020554103 4285229609
0.016271569 -0.018216304 -0.020840641 4285098283
0.018244423 -0.018117853 -0.021127079 4285032238
0.020354722 -0.018788941 -0.02075839 4285097774
0.02233028 -0.018690117 -0.021045029 4285097774
0.024448689 -0.019360557 -0.020677257 4285229608
0.027445793 -0.024646021 -0.016386991 4285163818
0.013113964 -0.025386408 -0.016895479 4285032494
0.015105542 -0.025287293 -0.017184848 4285097773
0.016833328 -0.023643889 -0.018782483 4285032493
0.018550323 -0.022000954 -0.020378416 4284966959
0.020668436 -0.022673778 -0.020012533 4284901169
0.022651944 -0.022574551 -0.020300327 4284966449
0.024778157 -0.023246713 -0.019935424 4285032494
0.02763686 -0.027775444 -0.016310079 4285163819
0.030972321 -0.03461615 -0.010733904 4285097773
0.015910503 -0.032289654 -0.013838643 4285164583
