# .PCD v0.7 - Point Cloud Data file format
VERSION 0.7
FIELDS x y z rgba
SIZE 4 4 4 4
TYPE F F F U
COUNT 1 1 1 1
WIDTH 969
HEIGHT 1
VIEWPOINT 0 0 0 1 0 0 0
POINTS 969
DATA ascii
0.021254951 0.012984715 0.028566349 4289798953
0.015211577 0.019597217 0.019607138 4289341484
0.016725443 0.02183434 0.017157689 4289407530
0.018708583 0.021951478 0.016813308 4289211689
0.021514252 0.018537637 0.019970372 4289080874
0.025350044 0.01088912 0.027321629 4289538343
0.012335606 0.021422345 0.01522867 4289473574
0.013688147 0.024374429 0.012085004 4290062624
0.015178125 0.026616607 0.0096447449 4290454814
0.017136894 0.026732314 0.0093046017 4289866019
0.019917399 0.02330618 0.012457618 4289800739
0.023225952 0.017757077 0.017700464 4290062113
0.026917096 0.010794424 0.024331328 4290389024
0.030144822 0.0059588477 0.028861221 4289408038
0.033585373 0.00041782111 0.034081444 4289015594
0.0097898878 0.021848451 0.012260884 4288882483
0.011452425 0.023386855 0.010521015 4289604389
0.012948107 0.025635775 0.0080846772 4289931299
0.014110062 0.029305581 0.0042554401 4290585374
0.016052548 0.029420312 0.0039181113 4290454558
0.01898016 0.025271781 0.0077626854 4290454814
0.022273857 0.019704539 0.012994671 4290389279
0.025441092 0.014850132 0.017523266 4290127904
0.027784687 0.013548478 0.01856754 4289539108
0.03031401 0.011537597 0.020305146 4289473829
0.032148845 0.012366816 0.019261513 4289539108
0.034880009 0.0096478239 0.021689694 4289866019
0.038913984 0.0019641891 0.028970089 4290192163
0.0072616078 0.022288874 0.0093004908 4289472043
0.0090721585 0.023117829 0.0082619861 4289603369
0.011030603 0.023233201 0.007921651 4289604389
0.012521252 0.025488313 0.0054912418 4289866018
0.013837125 0.028455593 0.0023674611 4290258718
0.015938129 0.027857281 0.002726391 4289996578
0.018700635 0.024408493 0.0058657266 4289800738
0.021823533 0.019536253 0.010390179 4289931553
0.024306484 0.017515969 0.012130644 4289473573
0.026289266 0.017633487 0.011786636 4289474084
0.02809721 0.018463206 0.010749225 4289474084
0.029722262 0.020004582 0.0090199057 4289866019
0.032237452 0.017986607 0.010755086 4289604389
0.035683174 0.012411714 0.015947718 4289342759
0.040285423 0.0025707632 0.025282439 4289538343
0.0048957579 0.022027716 0.0070443451 4288949040
0.0065558963 0.023574393 0.0053114425 4290191654
0.0085061006 0.023689177 0.0049724635 4290389279
0.010609437 0.023088556 0.0053290855 4290781979
0.012250841 0.024634439 0.0035996772 4290127904
0.014039975 0.025464572 0.0025667977 4289997088
0.016146082 0.024864405 0.0029231571 4290062368
0.018749196 0.022119973 0.0053596646 4289931810
0.021373853 0.01937696 0.0077924691 4289735203
0.023343049 0.019493569 0.0074507389 4289735459
0.024968337 0.021039087 0.0057245884 4289539364
0.026233541 0.02401261 0.0026167911 4289735713
0.028186521 0.024128556 0.0022781081 4289997344
0.030499531 0.022816718 0.0033212453 4289604389
0.033736888 0.017936792 0.0078145042 4288884779
0.037382741 0.011631981 0.013681198 4289080873
0.041453246 0.0039032474 0.020918448 4289408038
0.0026838146 0.021057893 0.0054889563 4289145899
0.0039122142 0.024763472 0.001672972 4289734949
0.0057039261 0.025595516 0.00064101256 4290062114
0.0076405406 0.025709499 0.00030438974 4289408038
0.0098830573 0.024388224 0.0013555866 4290323999
0.011825133 0.024502724 0.0010181721 4290127904
0.014242204 0.022465199 0.0027596876 4289604643
0.016353412 0.021863166 0.0031134784 4289670179
0.018633742 0.020544477 0.0041584615 4289539364
0.020592038 0.020660356 0.0038185567 4289735203
0.022381227 0.021493092 0.0027876124 4289669923
0.023993243 0.023042142 0.0010671318 4289604644
0.025245491 0.026023515 -0.0020317072 4289800738
0.027007705 0.026854921 -0.003057682 4290455069
0.02948398 0.024821691 -0.0013258271 4290389533
0.032341499 0.02135767 0.0017807763 4290127903
0.035966936 0.015032232 0.0076358933 4290193438
0.039828748 0.0079941452 0.014170479 4290258463
0.045269519 -0.0047642812 0.026194561 4290323999
0.00019930303 0.021534435 0.0025470685 4288950059
0.0015756898 0.024530552 -0.00056755356 4289800228
0.0030752942 0.026805177 -0.0029847398 4290520093
0.0048535727 0.027638584 -0.0040126881 4289473574
0.0066265129 0.028471772 -0.0050396388 4289146408
0.0090052038 0.026425339 -0.003296705 4289669668
0.011244629 0.025099613 -0.0022482155 4290651419
0.013811175 0.022335559 0.00018104538 4289539364
0.015916713 0.021731049 0.00053414889 4289670179
0.01802765 0.021126956 0.00088639744 4289473829
0.019811504 0.021961402 -0.00014196523 4289604644
0.021589959 0.022795625 -0.0011693165 4289669923
0.02353465 0.022910886 -0.0015067151 4289408293
0.025130667 0.024463449 -0.0032210285 4289931553
0.026538875 0.026733901 -0.0056213876 4289866019
0.028649742 0.026130375 -0.0052686101 4289473829
0.031677965 0.021936771 -0.0014813021 4289931553
0.035663944 0.014155477 0.0057336036 4290193439
0.039896924 0.00565999 0.01362451 4290192928
0.045718331 -0.0085725039 0.026989777 4289669668
-0.0017219149 0.019133478 0.0023860391 4287773234
-0.00074908882 0.024307393 -0.0028031385 4289473575
0.00089534 0.02586586 -0.0045234077 4290258208
0.0020954423 0.029591326 -0.0083176885 4289866019
0.0040048175 0.029703584 -0.0086496687 4290258464
0.0057643205 0.030538183 -0.0096726473 4290520093
0.0084341913 0.027040318 -0.0065510934 4290651163
0.010665081 0.025709823 -0.0055045215 4290389533
0.013064791 0.023658313 -0.0037700804 4289931808
0.015159266 0.023050986 -0.0034167347 4289735969
0.017259147 0.022444092 -0.0030642422 4289539618
0.019032257 0.023280047 -0.0040890696 4290651163
0.021137521 0.022673666 -0.0037373556 4290847514
0.023248166 0.022067711 -0.0033864966 4290847514
0.025190018 0.022182919 -0.0037233131 4290323998
0.026778135 0.023739398 -0.005432765 4289473318
0.028894093 0.02313406 -0.0050825858 4289865763
0.031926617 0.018927798 -0.0013060775 4289734948
0.036101043 0.010402851 0.0065747574 4289996580
0.0407153 0.00044196099 0.015813451 4289996580
-0.0019115321 0.0072993934 0.011221549 4288299299
-0.001835376 0.017567635 0.0011919141 4288689194
-0.00086158514 0.022756696 -0.0039856816 4289342758
0.00049965456 0.025769144 -0.0070842579 4289669669
0.0016950257 0.029505096 -0.010869334 4289800483
0.0034518167 0.030341536 -0.011890208 4289277224
0.0055028126 0.029729083 -0.011531303 4289342759
0.0080166087 0.026944451 -0.0091064768 4290323998
0.010241676 0.02560924 -0.0080622146 4289931553
0.012477539 0.024274815 -0.0070197945 4289931809
0.01456365 0.02366484 -0.0066666743 4289800994
0.016655166 0.023055274 -0.0063144183 4289931808
0.018420219 0.023892932 -0.0073361574 4290651163
0.020179888 0.024730358 -0.0083568888 4289997089
0.022790717 0.021952182 -0.005948347 4290127903
0.024901055 0.02134417 -0.0055990228 4290847513
0.027193464 0.020013772 -0.0045658052 4289342759
0.029496603 0.018684164 -0.003534412 4289342503
0.032720894 0.013743103 0.00091412105 4289734948
0.037091509 0.0044707134 0.0094561521 4289800484
0.041719548 -0.0055195317 0.018668976 4289341993
-0.001760114 0.0042486191 0.011385582 4289933594
-0.0014042221 0.013092823 0.0027583372 4289081893
-0.00027985126 0.017570514 -0.0017199609 4288885289
0.0009538196 0.021319389 -0.0055033909 4289539363
0.0020163991 0.025793612 -0.0099707367 4289343014
0.003928218 0.025906004 -0.01030315 4289081128
0.0056904778 0.02674501 -0.011323222 4289211944
0.0079042912 0.025404774 -0.01028048 4289997088
0.0096639246 0.026243828 -0.011299939 4289997088
0.011891261 0.024904583 -0.010259393 4289735459
0.013969012 0.02429191 -0.0099064605 4289670179
0.015889086 0.024405427 -0.010239811 4290651419
0.017477626 0.025970183 -0.011942987 4289473574
0.019560775 0.025358189 -0.011590787 4289015594
0.022162758 0.022570871 -0.0091874236 4289146408
0.024960112 0.019059852 -0.0061041918 4289146408
0.027607836 0.016275465 -0.003708588 4289669668
0.030456301 0.012767702 -0.00063405372 4289538853
0.033877432 0.0070878118 0.0044823233 4289211689
0.038080066 -0.0014871806 0.012317993 4288949293
0.04272189 -0.011506759 0.02150495 4288294963
-0.0012531988 -0.012063459 0.024299201 4289477399
-0.0014759861 0.00045982003 0.012232166 4290195223
-0.0011102743 0.0093304962 0.0036233049 4289016614
0.00016166642 0.013092279 -0.00015848689 4288819753
0.001265388 0.017581739 -0.0046230033 4289146919
0.0027690493 0.019882433 -0.0070207864 4288950568
0.0045501366 0.020724595 -0.0080425404 4288754474
0.0063258857 0.021566547 -0.0090632821 4288885034
0.0076398514 0.02459389 -0.012139884 4289212199
0.0093968213 0.025434937 -0.013157207 4289473828
0.011305965 0.025547586 -0.01348883 4289735459
0.013215128 0.025660351 -0.01382037 4289931553
0.014961369 0.026501123 -0.014835629 4290520348
0.01653664 0.028069369 -0.016533095 4290323999
0.018606035 0.027454406 -0.016180182 4290323999
0.02153578 0.023202784 -0.012416337 4290323999
0.024671499 0.018225983 -0.0079761799 4290585629
0.027844897 0.013251483 -0.0035424326 4290192928
0.031055953 0.0082793757 0.00088483654 4289277224
0.03503174 0.00040249527 0.0080276337 4289015083
0.039066702 -0.0074707121 0.015160218 4288099123
0.043160848 -0.015340284 0.022282634 4286267713
-0.0017632581 -0.011510454 0.0209831 4289803288
-0.0017253198 -0.0004144758 0.010320079 4290456854
-0.00095305964 0.0062870532 0.0037918482 4289082403
0.00032491609 0.01005996 1.7391518e-05 4288623913
0.0019996874 0.011637449 -0.0016948041 4288427308
0.0036637597 0.013214394 -0.0034050066 4288623403
0.0054637194 0.014059812 -0.0044283662 4288492844
0.0068104528 0.017097574 -0.0075040553 4288296749
0.0081356913 0.020134181 -0.010575918 4288492588
0.0095940977 0.022439104 -0.012960471 4288820008
0.011193752 0.024012782 -0.014659059 4289016104
0.012942705 0.024855781 -0.015673183 4289604644
0.014523542 0.026428558 -0.017368339 4290127904
0.015928157 0.028730735 -0.019743213 4289539108
0.01798919 0.028113075 -0.019390495 4289539108
0.021080595 0.023118466 -0.014954467 4289800738
0.024730265 0.015937932 -0.0084841903 4290389023
0.028257541 0.0094899535 -0.0027029151 4289865764
0.031833254 0.003044948 0.0030700434 4289014828
0.035820603 -0.0048549473 0.010192383 4287641143
-0.0054513589 -0.016321979 0.02319213 4289019418
-0.0032782853 -0.016936816 0.023522366 4289672218
-0.0022723526 -0.010944173 0.017677117 4290129434
-0.0018413216 -0.0020181388 0.0090970807 4290259994
-0.0010677911 0.004702881 0.0025837366 4289212964
0.00034920126 0.0077529401 -0.00049780682 4289278244
0.0020268448 0.0093349144 -0.0022071479 4288689194
0.0036937892 0.010916315 -0.0039145146 4288362029
0.0054964535 0.011764042 -0.0049366709 4288492844
0.0069955103 0.014077611 -0.0073234197 4288427308
0.0081748031 0.017856009 -0.011071919 4288427308
0.0097907707 0.019434847 -0.012770081 4288492844
0.011553194 0.020280689 -0.013784943 4288754474
0.013150353 0.021858633 -0.015479664 4289277479
0.014574157 0.02416832 -0.017852914 4289277734
0.015816517 0.027209178 -0.02090326 4289735458
0.01787726 0.026589341 -0.02055217 4289604388
0.020967418 0.021579586 -0.016127665 4289800484
0.024788734 0.013645798 -0.0089952387 4289865763
0.028845306 0.0049842522 -0.0011949409 4289865763
0.032608964 -0.0022108257 0.0052389782 4289145899
0.036426425 -0.0094025955 0.011663651 4286921788
-0.008591596 -0.012191616 0.016807724 4289217043
-0.0063184015 -0.01354675 0.01782582 4289934104
-0.0042892061 -0.013428293 0.017472349 4289867549
-0.003040731 -0.0088920444 0.013012467 4289998364
-0.0023557656 -0.0014130771 0.0058224667 4289670943
-0.0013180114 0.0038550049 0.00069233216 4289213219
0.00023499876 0.0061777085 -0.0016990816 4289343523
0.0020537265 0.0070282966 -0.0027225381 4288558379
0.0037235282 0.0086142123 -0.0044270894 4288558123
0.0055289082 0.0094642416 -0.0054480499 4288492844
0.0070309937 0.011784449 -0.0078302994 4288492844
0.0086686388 0.013368756 -0.0095289573 4288558379
0.010141186 0.015687436 -0.011905903 4288688938
0.011911716 0.016535863 -0.012920463 4288492844
0.013676882 0.017384075 -0.013934007 4289146919
0.015111791 0.019700862 -0.01630416 4289669923
0.016365426 0.022751026 -0.019349741 4289277479
0.018436637 0.022129711 -0.019002179 4289473318
0.021536324 0.017105374 -0.014591035 4289669669
0.025539726 0.0084146932 -0.0068016732 4289734948
0.029431809 0.00046154857 0.00030006468 4289015338
0.033025909 -0.0060211122 0.0060396641 4287576119
-0.0090744048 -0.011601597 0.01351445 4289869079
-0.0071835034 -0.010745302 0.012479583 4290195478
-0.0051706098 -0.010627814 0.012128938 4290652949
-0.0036775246 -0.0075564235 0.0090472884 4290194204
-0.0028692409 -0.00079474598 0.0025579669 4288559908
-0.00029333308 0.0068166703 -0.0049442453 4287578414
0.0016580783 0.0069311485 -0.0052837348 4288624169
0.0033226795 0.0085210055 -0.0069839982 4288688938
0.0052688234 0.0086353719 -0.0073224092 4288427564
0.007066194 0.0094871968 -0.0083402088 4288231213
0.0088582113 0.010338858 -0.0093570463 4288362029
0.010490689 0.011927269 -0.011051379 4288689193
0.012426209 0.012041479 -0.011387587 4288427308
0.014042571 0.01362922 -0.013078976 4289081383
0.015485901 0.01595293 -0.015445514 4289081383
0.016913081 0.018275835 -0.017809208 4288950568
0.019162435 0.01691673 -0.016788887 4289081383
0.022274323 0.011878081 -0.012391644 4288950314
0.026116081 0.0038981736 -0.0052996883 4288426799
0.029841309 -0.0033424199 0.0011073109 4287183674
0.033085037 -0.008372888 0.0054819658 4286071618
-0.027225759 -0.015016243 0.016129117 4288231723
-0.011563379 -0.011115253 0.010581179 4289152019
-0.0095562078 -0.010998338 0.010231348 4290064408
-0.0076733828 -0.010140374 0.0091995485 4290980369
-0.0057958364 -0.0092825741 0.0081687048 4290456854
-0.0043130331 -0.0062031895 0.0050955452 4290456089
0.0030657724 0.0076969415 -0.0088553159 4288558889
0.0053010248 0.0063318461 -0.0078366334 4288362284
0.0073984228 0.0057069957 -0.0074975742 4288165934
0.0091985427 0.0065612346 -0.0085141053 4288427564
0.010839272 0.0081544518 -0.0102065 4288296749
0.012469247 0.0097471848 -0.011897007 4288558379
0.014247911 0.0106005 -0.012909539 4288623659
0.016021201 0.011453599 -0.01392106 4288492588
0.017624296 0.01304511 -0.015606605 4288885289
0.019886656 0.011682451 -0.014591899 4288754218
0.022840558 0.0073676929 -0.010882596 4288819244
0.026691187 -0.00063538551 -0.0038106292 4288688174
0.03007428 -0.0064211339 0.0012316853 4287641654
0.032965586 -0.0099909604 0.0042484999 4287052859
-0.026854236 -0.020360991 0.018317562 4286332994
-0.025324512 -0.016521215 0.014539875 4287969583
-0.023718741 -0.013427213 0.01145108 4288299809
-0.014034837 -0.010614477 0.0076552182 4289476634
-0.012036011 -0.010498181 0.007306736 4290128413
-0.010037057 -0.010381743 0.0069583319 4290652183
-0.008286573 -0.0087790489 0.0052491948 4289212708
-0.0064197779 -0.0079197437 0.004221892 4288950569
-0.0050769225 -0.0040895939 0.00047774985 4288951334
0.0069872178 0.005622372 -0.010045527 4287185714
0.0090843625 0.0049954504 -0.0097080199 4287707953
0.010879148 0.0058516338 -0.010721863 4288100399
0.012668572 0.0067076385 -0.011734671 4288754728
0.014293361 0.0083044767 -0.01342083 4289016614
0.016069362 0.0091599077 -0.014431134 4288362029
0.017839985 0.010015123 -0.015440425 4288623659
0.020107262 0.0086485147 -0.014429958 4288688939
0.023065452 0.0043210834 -0.010731452 4288492333
0.02674685 -0.0029652864 -0.0043504648 4288164658
0.029955789 -0.00802809 6.6645443e-06 4286725948
0.032846149 -0.011608712 0.003015276 4286268223
0.035763394 -0.015187621 0.0060193203 4286595644
-0.026970368 -0.021993041 0.017072484 4287118139
-0.025340077 -0.018889114 0.013986023 4288099634
-0.023525927 -0.017279312 0.012268359 4288099889
-0.02172238 -0.015670039 0.010552699 4288034864
-0.02014542 -0.012568891 0.0074757915 4289082914
-0.018479157 -0.01021488 0.0050838031 4287841064
-0.016602155 -0.009353444 0.0040559918 4288625189
-0.01461434 -0.0092379153 0.0037093237 4289409058
-0.012626413 -0.0091222674 0.0033627339 4289735969
-0.01063836 -0.0090065002 0.0030162074 4290717719
-0.0090225972 -0.0066548958 0.00063350983 4290324764
-0.0074228793 -0.0043040812 -0.001746349 4289343014
-0.0058392063 -0.0019540787 -0.0041233171 4290064153
0.010457534 0.0057753623 -0.013261109 4287970093
0.012554444 0.0051464438 -0.012925028 4288624168
0.014179405 0.0067476183 -0.014607853 4289147684
0.01611723 0.006862171 -0.014944294 4288754728
0.017726066 0.0084625632 -0.016624104 4288493098
0.020494446 0.0048634782 -0.013603074 4288492844
0.023289734 0.0012660995 -0.010586623 4288492334
0.026974773 -0.0060415566 -0.0042230748 4288034098
0.03001257 -0.010376945 -0.00054824725 4286268223
-0.02708644 -0.023624748 0.015827652 4287118139
-0.025455687 -0.020512238 0.012747778 4288164658
-0.023641367 -0.018898129 0.011033431 4288165168
-0.021732505 -0.018033057 0.010001451 4288099889
-0.020044539 -0.015671521 0.0076106302 4288886054
-0.018372569 -0.01331073 0.0052226707 4288755493
-0.016716618 -0.010950789 0.0028375685 4288951078
-0.014960755 -0.0093395412 0.0011339076 4289212453
-0.012859751 -0.0099719316 0.0014663041 4289801503
-0.010995824 -0.0091087967 0.00044268742 4289801248
-0.0096330643 -0.0052562132 -0.0032883584 4289866784
-0.0079171173 -0.003646791 -0.0049847439 4289866784
-0.0060824789 -0.0027850047 -0.0060029812 4290522389
0.015841505 0.0060507879 -0.016801605 4289018144
0.017447814 0.0076553896 -0.01847766 4288754729
0.020379607 0.0033003986 -0.014794736 4288623914
0.023343673 -0.0010524988 -0.011117354 4288492843
0.027029665 -0.0083816051 -0.0047707185 4287904304
-0.027202461 -0.025256187 0.014583025 4287052603
-0.025571231 -0.022135049 0.011509759 4287968819
-0.023654442 -0.021267511 0.01047796 4288165679
-0.021742884 -0.020400107 0.0094471257 4288231213
-0.019944225 -0.018782452 0.0077390652 4288754473
-0.018266562 -0.016414896 0.0053551123 4288689194
-0.016604893 -0.014048204 0.0029740818 4288166189
-0.014959235 -0.011682287 0.00059588626 4288623913
-0.012974281 -0.011566862 0.00024977885 4288688939
-0.01135261 -0.0092021003 -0.0021240525 4288885289
-0.0098707862 -0.0060885921 -0.0051704422 4289604899
-0.0080308542 -0.0052244961 -0.0061880369 4289735459
-0.0060670041 -0.0051098168 -0.0065300968 4289474083
0.020264786 0.0017376319 -0.015986171 4288035118
0.023566868 -0.0041219741 -0.010983642 4287838768
0.027084257 -0.010725662 -0.005321417 4287249973
-0.027028125 -0.029147148 0.015374117 4287052858
-0.025487814 -0.025263801 0.011628022 4288034609
-0.023872096 -0.022134878 0.0085642282 4288231214
-0.021963198 -0.021265544 0.0075355601 4288165678
-0.020059537 -0.020396397 0.006507894 4288492843
-0.018161122 -0.019527443 0.0054812338 4288950823
-0.016380858 -0.017906293 0.0037798528 4288231213
-0.014726818 -0.015533492 0.0014052503 4288100654
-0.012970503 -0.01391349 -0.00029176101 4287904303
-0.011345815 -0.011542171 -0.0026610708 4288035119
-0.009613499 -0.0099233389 -0.0043537207 4288558124
-0.0076391287 -0.0098081678 -0.0046977103 4289081638
-0.0057937168 -0.008941479 -0.0057144985 4288689959
-0.025007728 -0.031422138 0.014445495 4287053369
-0.023477394 -0.02752848 0.01070955 4287642674
-0.021869097 -0.024391316 0.0076538827 4288100399
-0.019960079 -0.023519687 0.0066268872 4288165934
-0.018056262 -0.022648282 0.0056009479 4288754473
-0.016270455 -0.021022566 0.003901979 4288296493
-0.014610715 -0.018642955 0.0015313532 4288034608
-0.012967005 -0.016264156 -0.0008363761 4288034608
-0.011218477 -0.014640249 -0.0025285697 4288231214
-0.0094806068 -0.013016842 -0.0042188121 4288100399
-0.0075010136 -0.012901388 -0.0045637237 4288296749
-0.0059079863 -0.010525078 -0.0069222637 4289215004
-0.021566529 -0.029039636 0.0091133695 4287446069
-0.019861151 -0.026651353 0.0067395587 4288034608
-0.01806188 -0.025020629 0.0050414484 4288558123
-0.016273223 -0.023390464 0.00334532 4288296493
-0.014495194 -0.021760806 0.0016511325 4287969073
-0.012845773 -0.019375227 -0.00071258284 4287838515
-0.010971054 -0.018502906 -0.0017314153 4287969328
-0.0092249699 -0.016874701 -0.0034197988 4288165934
-0.0074895285 -0.015247017 -0.0051061707 4288623914
-0.0061509535 -0.011352628 -0.0087993639 4288299554
-0.01784825 -0.028914988 0.0058213454 4287446323
-0.016276252 -0.025762364 0.0027856063 4287445558
-0.014610499 -0.023369573 0.00042399578 4287839024
-0.012842961 -0.021736078 -0.0012649763 4288231469
-0.010965545 -0.020861454 -0.002282613 4288035118
-0.0092166066 -0.019228771 -0.0039681392 4288231724
-0.0074783154 -0.017596647 -0.0056516835 4288623913
-0.014725782 -0.024978049 -0.00080291741 4287119924
-0.012840409 -0.024100929 -0.001820432 4288036394
-0.010960311 -0.023224019 -0.0028368775 4288101164
-0.0092085078 -0.021586925 -0.0045195194 4288035373
-0.0075931139 -0.019190103 -0.0068670074 4288558379
-0.0092006959 -0.023949042 -0.005074 4288234018
-0.0075823031 -0.021545619 -0.0074170018 4288362538
-0.0078225918 -0.02237609 -0.0092969704 4287578923
-0.0023582093 0.0051342025 -0.0058005592 4282874683
-0.00082068518 0.0074688941 -0.0081792315 4283853373
-0.0026067421 0.00430879 -0.0076747583 4282090814
-0.0010715984 0.0066498369 -0.010048046 4281828419
0.00058791041 0.008247897 -0.011740806 4281894209
0.0026660748 0.0076195225 -0.011400262 4282874174
-0.0024502613 0.0012541711 -0.0075148279 4281894719
-0.0011845678 0.0050909221 -0.011236883 4281698368
0.00033484027 0.0074375719 -0.013602265 4281698369
0.002267044 0.0075509921 -0.013938361 4281828674
0.0044906214 0.0061765835 -0.012924365 4282351424
0.0065766536 0.0055467337 -0.012586701 4283983935
-0.0025638379 -0.00031522661 -0.0087116947 4281765179
-0.0011600703 0.0027856529 -0.011750688 4281698624
0.00050245225 0.0043925196 -0.013437337 4281437248
0.0022971034 0.0052525476 -0.014448159 4281502019
0.0040864088 0.0061123446 -0.015457985 4281632324
0.0060185827 0.0062260032 -0.015793882 4281763138
0.0081016608 0.0055939332 -0.015457292 4281893953
0.010036588 0.0057079718 -0.015793499 4282480963
0.01228407 0.0043311343 -0.014786654 4283134529
-0.0024082214 -0.0033822358 -0.0085611455 4281634618
-0.0011358671 0.00047639757 -0.012267627 4281698368
0.00052952394 0.0020877272 -0.01395142 4281502273
0.0023268685 0.0029500574 -0.014961041 4281436739
0.0044095665 0.0023155808 -0.014626241 4281371204
0.006053593 0.0039259493 -0.01630602 4281501764
0.0079883486 0.0040398762 -0.016642276 4281501764
0.0097697191 0.0049017146 -0.017648768 4281828928
0.011701833 0.0050157011 -0.017984401 4281894719
0.013316371 0.0066248626 -0.019658715 4283722048
0.037977569 -0.022188947 0.0039409716 4282542929
-0.0026564598 -0.0042042583 -0.01043278 4281764414
-0.00097483024 -0.0025878102 -0.012116153 4281763903
0.00069611892 -0.00097190589 -0.013797536 4281763649
0.002498854 -0.000107117 -0.014806423 4281501763
0.0042962506 0.00075750798 -0.015814349 4281436228
0.0060883239 0.0016219094 -0.016821202 4281502019
0.0078750588 0.0024861023 -0.017827043 4281501763
0.0096564405 0.003350094 -0.018831858 4281567300
0.01127651 0.0049637556 -0.020503886 4281632578
0.01304448 0.0058271959 -0.02150619 4282220609
0.014807083 0.00669045 -0.022507463 4282221119
0.017056368 0.0053054467 -0.021507364 4282547264
0.019983273 0.00092436373 -0.017843675 4282873409
0.032900982 -0.020322308 7.8162178e-05 4282869583
0.035462163 -0.022447169 0.0017199572 4282607698
0.037856612 -0.023822747 0.0026955884 4282739278
-0.0026358217 -0.0065281838 -0.010960344 4283989544
-0.00095133856 -0.0049072653 -0.012640867 4282615859
0.00086211041 -0.004039824 -0.013650049 4281894974
0.0025279 -0.0024197996 -0.015327092 4281567808
0.0043280087 -0.0015529096 -0.016333763 4281435973
0.0061227679 -0.00068617612 -0.017339468 4281502019
0.0079121999 0.0001803115 -0.018344115 4281502019
0.0093900785 0.0025509596 -0.020681771 4281437759
0.011007637 0.004168734 -0.022349969 4281633344
0.012772925 0.005034171 -0.023350127 4281763394
0.01469402 0.0051477328 -0.023683667 4281959234
0.01694284 0.0037584007 -0.022686835 4281828674
0.019868646 -0.00063565373 -0.019033011 4281828164
0.023672935 -0.0087836385 -0.012063675 4282087753
0.027192542 -0.015425906 -0.0064319791 4282413388
0.030062057 -0.01906167 -0.0034617083 4282673743
0.032781139 -0.021945 -0.001158813 4282608463
0.035161685 -0.023325786 -0.00018425845 4282608209
0.037918355 -0.026206642 0.0021123048 4283197258
-0.0012017302 -0.005720228 -0.014504977 4283529524
0.00060904026 -0.0048508048 -0.015512023 4282680119
0.0024144799 -0.0039815828 -0.01651806 4281893953
0.004214596 -0.0031125322 -0.017523054 4281893954
0.0060093664 -0.0022436529 -0.018527091 4281370693
0.0077988058 -0.0013750046 -0.01953005 4281436994
0.0094299577 0.00024776161 -0.021197354 4281568064
0.011050366 0.0018700361 -0.022862742 4281698113
0.012976676 0.001983799 -0.023197269 4281698369
0.014580976 0.0036053285 -0.024859633 4281763904
0.016829338 0.0022116676 -0.02386607 4281566533
0.019754041 -0.0021953657 -0.020222105 4281631304
0.02355643 -0.010367103 -0.013270855 4281826633
0.027074454 -0.017028838 -0.0076539563 4282022218
0.029943023 -0.020675406 -0.0046918923 4282673998
0.032838464 -0.024320245 -0.001734389 4282608718
0.035401084 -0.02645795 -0.0001028385 4282542673
0.038162339 -0.029347122 0.0021862481 4282935119
0.0043906383 -0.0061857402 -0.017381892 4283465263
0.0060434006 -0.0045576543 -0.01904979 4282549558
0.0078355297 -0.003686659 -0.020051599 4281567808
0.0094695352 -0.0020594299 -0.021716045 4281763649
0.011092801 -0.00043267012 -0.023378575 4281633344
0.013021655 -0.00031876564 -0.023713553 4281698369
0.014628816 0.0013072342 -0.02537306 4281698113
0.017042948 -0.00084646791 -0.02372135 4281632579
0.020138154 -0.0060217679 -0.019426834 4281829184
0.023777794 -0.013461292 -0.013155978 4281631558
0.027299613 -0.020142138 -0.0075547965 4282087498
0.029998304 -0.023044005 -0.0052618515 4282740043
0.032895483 -0.026699491 -0.002313016 4282804558
0.0062243864 -0.0076345727 -0.018912602 4284639794
0.0078719743 -0.0060023591 -0.020576153 4282417978
0.0095088221 -0.0043706372 -0.022237808 4282025533
0.011134949 -0.0027394518 -0.023897445 4281895484
0.013066348 -0.0026253909 -0.024232859 4281699133
0.014837049 -0.0017530322 -0.02522889 4281567808
0.017255932 -0.0039128959 -0.023583025 4281632579
0.020189187 -0.0083451718 -0.019960664 4281829184
0.023829788 -0.015806183 -0.013706678 4281762883
0.027181245 -0.021748774 -0.0087795984 4282152523
0.029879143 -0.024659276 -0.006493194 4282738514
0.011176802 -0.0050502047 -0.02441941 4283793449
0.01295289 -0.0041755438 -0.025414763 4282550324
0.014723599 -0.0033010095 -0.02640911 4281633089
0.017141856 -0.0054673776 -0.024768166 4281305923
0.020405844 -0.011432633 -0.019839443 4281501254
0.023881471 -0.018155038 -0.014260464 4281826889
0.027062893 -0.023355067 -0.010004131 4282543184
-0.016734876 -0.029840946 -0.0015751179 4282674764
-0.015529558 -0.024368286 -0.0065827835 4281892934
-0.013657618 -0.023487717 -0.0075945836 4282480453
-0.011550859 -0.024136961 -0.0072765741 4282938433
-0.0095613599 -0.024021097 -0.0076233465 4284639283
0.014770554 -0.0056112111 -0.026931698 4282484024
0.016864734 -0.0062592402 -0.026609974 4281829949
0.020124607 -0.01224193 -0.021693923 4281894209
0.023427501 -0.0182219 -0.016785281 4281892424
0.026773427 -0.024199247 -0.011883957 4282674254
-0.01707384 -0.029917873 -0.0041329507 4282543949
-0.015872959 -0.024430439 -0.0091281403 4281631303
-0.014006395 -0.023548037 -0.010137333 4281761353
-0.012145098 -0.022665806 -0.011145504 4281892679
-0.01004393 -0.023317434 -0.010828121 4283069248
0.023647362 -0.021336488 -0.016685875 4284314159
-0.01718881 -0.031525105 -0.0053589661 4282084693
-0.015987005 -0.026022613 -0.010342626 4281369419
-0.014237475 -0.024368748 -0.012011716 4281435209
-0.01249861 -0.022715352 -0.013678895 4281369928
-0.010403123 -0.023369461 -0.01336219 4281500998
-0.0084272735 -0.023254305 -0.013706522 4281632324
-0.006323535 -0.023907743 -0.013391031 4282025533
-0.0047362894 -0.021486551 -0.015713355 4283397688
-0.017415266 -0.032360241 -0.0072456626 4282216783
-0.015872613 -0.029157691 -0.010236094 4281434699
-0.014234442 -0.026727758 -0.012562724 4281435209
-0.012612306 -0.024298616 -0.014886534 4281500743
-0.010639399 -0.024183765 -0.015230449 4281501254
-0.0086663887 -0.024068758 -0.015574263 4281631813
-0.0066932961 -0.023953654 -0.015918022 4281567554
-0.0048504509 -0.023067728 -0.016919272 4281634109
-0.0031459294 -0.021411419 -0.018576642 4283726129
-0.0011806786 -0.021296374 -0.018918728 4284509744
-0.017641369 -0.033190757 -0.0091287708 4281824339
-0.01598689 -0.030753545 -0.011453392 4281694800
-0.014231678 -0.029090777 -0.013116797 4281696329
-0.012606543 -0.026655018 -0.015436115 4281762119
-0.010753207 -0.025766715 -0.016437812 4281566024
-0.0089051537 -0.024878606 -0.017438503 4281566023
-0.0070623942 -0.023990676 -0.018438166 4281435973
-0.0050947554 -0.023875743 -0.01878087 4281566279
-0.003259901 -0.022987962 -0.019778987 4281893699
-0.0012948103 -0.022872962 -0.020121062 4282025024
0.00039387867 -0.021213084 -0.021772111 4282744378
0.0023537129 -0.021098129 -0.022113068 4283462458
-0.016101137 -0.03234911 -0.012670482 4282412114
-0.014229205 -0.031457826 -0.013673944 4281630028
-0.01248179 -0.029791124 -0.015332574 4281891913
-0.010745045 -0.028124869 -0.016989278 4281631303
-0.0090189464 -0.026459157 -0.018643999 4281500489
-0.0070488527 -0.02634421 -0.018987225 4281566023
-0.0052087009 -0.025454164 -0.019984668 4281631559
-0.0031084307 -0.026113957 -0.019673435 4281893188
-0.0012735091 -0.025223956 -0.020669779 4281959233
0.00041800737 -0.0235596 -0.022318026 4281959744
0.002239611 -0.022670113 -0.023311833 4281960764
0.0044862516 -0.024103448 -0.022348782 4282548793
-0.012595858 -0.031379946 -0.016544456 4282279513
-0.01073714 -0.030487046 -0.017543754 4281759059
-0.0090082139 -0.028816819 -0.019195655 4281694033
-0.0071627609 -0.027924448 -0.020192457 4281694543
-0.0053226128 -0.027032271 -0.021188242 4281696329
-0.003222663 -0.027694255 -0.020878641 4281631559
-0.0013877451 -0.026802108 -0.021873308 4281631558
0.00030393153 -0.025133416 -0.023518225 4281502273
0.0022661462 -0.025018319 -0.023859596 4281436738
0.0043716989 -0.025679469 -0.023550587 4281437248
0.0067746639 -0.027892582 -0.021942677 4281960253
0.0087477602 -0.027776465 -0.022285646 4282224943
0.010569513 -0.026884317 -0.023277419 4284313903
-0.009122096 -0.030398928 -0.020402344 4282279513
-0.0071496293 -0.030283861 -0.020746002 4281889874
-0.0053067952 -0.029389381 -0.021740584 4281434188
-0.0033368655 -0.029274225 -0.022083605 4281500998
-0.0016370378 -0.027600914 -0.023726711 4281241153
0.00032764301 -0.02748581 -0.024068626 4281436484
0.0022923835 -0.027370557 -0.024410436 4281371204
0.0044003241 -0.028033748 -0.024103461 4281435973
0.0070970096 -0.031809911 -0.021204541 4281893698
0.0093750469 -0.033249706 -0.020253411 4282091069
0.011512656 -0.033910722 -0.019951334 4282353974
0.012886193 -0.030681871 -0.022884065 4284115258
-0.0073905066 -0.031084076 -0.022602273 4282214488
-0.0055503584 -0.030187607 -0.023594717 4281952859
-0.0037155189 -0.029291272 -0.024586176 4281171539
-0.0020209067 -0.02761402 -0.026224991 4281108043
-6.1761588e-05 -0.027499236 -0.026565934 4281566533
0.0018974431 -0.027384326 -0.02690679 4281631304
0.0041426718 -0.028830603 -0.025953511 4281565513
0.0068357363 -0.032617763 -0.023062276 4281959744
0.0092589669 -0.034842387 -0.021467855 4282284359
0.011396255 -0.035505563 -0.02116739 4282806088
0.016408473 -0.030474864 -0.02606901 4284573239
-0.0038293526 -0.03086634 -0.025787396 4281624673
-0.0022693612 -0.028401516 -0.028069703 4281561434
-0.0003130585 -0.028286889 -0.028410142 4281630029
0.001783438 -0.028955124 -0.028104657 4281565003
0.0043138601 -0.03197144 -0.02586385 4281630793
0.0068658255 -0.034986354 -0.023626694 4282220098
0.0089947022 -0.035652295 -0.023326531 4282544203
-0.00028942153 -0.030640543 -0.028961508 4281627224
0.001809448 -0.031310797 -0.028658113 4281824849
0.0039137378 -0.031980574 -0.028355552 4282022473
0.0064595416 -0.035004437 -0.026124001 4282545479
-0.021867525 0.0082523003 0.047215592 4285361188
-0.020136204 0.010474525 0.044706717 4285820699
-0.017443832 0.0063881353 0.048651334 4285820443
-0.024837162 0.012110494 0.040581819 4285426979
-0.023428176 0.016448312 0.035932198 4285623839
-0.021628466 0.017971598 0.034150433 4285688864
-0.019080561 0.014573164 0.037376102 4285688863
-0.015950069 0.0076620355 0.044170152 4285820189
-0.025755506 0.016122669 0.033617467 4285624093
-0.024058644 0.018355709 0.031124577 4285755164
-0.022272211 0.019882534 0.029348407 4285623584
-0.01995514 0.017882813 0.031141315 4285689373
-0.017177988 0.013063952 0.035783269 4285755674
-0.014135715 0.0068376437 0.041843645 4285690394
-0.011393812 0.0027284399 0.045759555 4285559068
-0.008738447 -0.00067420304 0.048958335 4285559069
-0.0059343316 -0.0047795847 0.052863557 4285558559
-0.029786702 0.013566419 0.033798978 4285230119
-0.028071005 0.015806802 0.031307675 4285558814
-0.026271258 0.017338499 0.02953244 4285624348
-0.024584796 0.019577365 0.027046375 4285952278
-0.022598114 0.019692805 0.026699889 4285952278
-0.020287011 0.017686214 0.028488763 4286018579
-0.017516445 0.012851872 0.033120032 4285887253
-0.015048478 0.010140941 0.035612296 4285690138
-0.012791146 0.0088451877 0.036680114 4285558813
-0.010760624 0.0089636222 0.036326334 4285624348
-0.0084868446 0.0076689795 0.03739148 4285689628
-0.0063264333 0.0070815161 0.0377458 4285820699
-0.003144972 0.00084430724 0.043767124 4285754399
-0.03218497 0.013964251 0.030776795 4285229864
-0.03037462 0.015500665 0.029002909 4285493023
-0.028477695 0.016326427 0.027942877 4285624094
-0.026585963 0.017151933 0.026883855 4285558048
-0.024699431 0.017977227 0.02582581 4285623839
-0.022607636 0.017382935 0.026189893 4285689374
-0.020402346 0.016079493 0.027263228 4285624093
-0.017964859 0.013358034 0.029753994 4285624094
-0.015732341 0.012056388 0.030822679 4285624349
-0.013488904 0.010755487 0.031889532 4285624349
-0.01170937 0.012290902 0.030121639 4285689883
-0.0096976832 0.012408309 0.029771201 4285755419
-0.0075617768 0.011817232 0.030128095 4285819678
-0.0049132332 0.0083928183 0.03331143 4285754143
-0.0014607571 0.00072036684 0.040728331 4285819934
0.0021832436 -0.0076565742 0.04884081 4285689118
-0.034476731 0.013663657 0.02847375 4285098538
-0.032849658 0.016629562 0.025280546 4285886234
-0.030866619 0.016744375 0.02493437 4285886234
-0.02878638 0.01614695 0.025298554 4285886999
-0.026700582 0.015549935 0.025661837 4285755419
-0.024814006 0.01637736 0.024605446 4285624093
-0.022512291 0.014357112 0.026385747 4285558558
-0.020302054 0.013049655 0.027454793 4285624349
-0.018080872 0.011742882 0.028522041 4285624604
-0.016188268 0.012571044 0.027464829 4285624349
-0.014069185 0.011976488 0.027822781 4285689628
-0.012300231 0.013515614 0.026060026 4285886489
-0.010420676 0.014343284 0.025005359 4285623583
-0.0085463822 0.015170716 0.023951672 4285491749
-0.0059175901 0.011734314 0.027130026 4285491748
-0.0030031092 0.0068787336 0.031713147 4285623583
8.1203878e-05 0.0013151318 0.036994029 4285689884
0.0033434108 -0.0049559698 0.04297122 4285492768
-0.036498319 0.011227496 0.02830736 4285098283
-0.034946289 0.014917642 0.024408273 4285689629
-0.033237997 0.017176736 0.021933168 4285558048
-0.031357307 0.018005665 0.020879239 4285557538
-0.029094379 0.015976399 0.022661038 4285689373
-0.026815135 0.013948202 0.024440009 4285755419
-0.024621788 0.012635186 0.025508519 4285624348
-0.022522446 0.012036942 0.025867868 4285624349
-0.020525176 0.012152985 0.025519527 4285624348
-0.018638078 0.012982845 0.024464909 4285624603
-0.016643204 0.013098925 0.024117131 4285624348
-0.014763877 0.013928562 0.023063973 4285624093
-0.013008188 0.015471168 0.021306913 4285755418
-0.011142064 0.016300172 0.020256244 4285886489
-0.0091574155 0.016416043 0.01991054 4285952023
-0.006540291 0.01296816 0.02308251 4286018068
-0.0037669763 0.0088093206 0.026952881 4286149649
-0.00069750473 0.0032275692 0.032222889 4285624093
0.0024151541 -0.0023515597 0.037485465 4285493023
-0.038941372 0.012374327 0.024591926 4285296419
-0.037300248 0.015358046 0.021409504 4285493278
-0.035503183 0.016906321 0.019647781 4285755928
-0.033807982 0.0191711 0.01717997 4285689883
-0.031658668 0.017850943 0.018252511 4285689628
-0.029401701 0.015814826 0.020030282 4285886999
-0.027029011 0.013063237 0.022511821 4285821463
-0.024838794 0.011745736 0.023577452 4285624093
-0.022742409 0.0111451 0.023935661 4285624093
-0.020962898 0.01269304 0.022177454 4285689884
-0.019083824 0.013524555 0.021125887 4285755164
-0.017210003 0.014355853 0.02007531 4285689373
-0.015225861 0.014471374 0.01972945 4285689374
-0.013596296 0.016733259 0.017273806 4285623583
-0.011740904 0.01756376 0.016226657 4285689373
-0.0096435249 0.016963892 0.016585167 4285689628
-0.0069090724 0.012789741 0.020452142 4285690139
-0.0040131845 0.0079027563 0.025014978 4285558558
-0.00042098388 -0.00055503845 0.033075973 4285493024
0.0028327517 -0.0068654791 0.039024323 4285229608
-0.03930426 0.012934417 0.021249015 4285427489
-0.037499111 0.014487356 0.019489143 4285493023
-0.035704535 0.016039819 0.017731145 4285558558
-0.034011666 0.018310837 0.01526878 4285690394
-0.031959336 0.017705131 0.015632641 4285821463
-0.029708322 0.015662149 0.017406385 4285755928
-0.027242523 0.012182876 0.020587146 4285624348
-0.024851549 0.0094237924 0.023058839 4285624348
-0.023066629 0.01097624 0.02130295 4285689883
-0.021506932 0.013964564 0.018141989 4285755418
-0.019858595 0.016233653 0.015687913 4285952533
-0.01766279 0.014912494 0.01674946 4286018069
-0.015456077 0.013592027 0.017809227 4285952278
-0.01335654 0.012989901 0.018165514 4285755164
-0.011493023 0.013823017 0.017118614 4285624093
-0.0093878545 0.013221413 0.017474066 4285624093
-0.0067725442 0.0097517967 0.020629514 4285558814
-0.0037436374 0.0041329935 0.025879592 4285493279
0.0001177229 -0.0057839304 0.035317898 4285493024
0.0033833981 -0.012113154 0.041249078 4285821464
-0.039251406 0.0098988563 0.021446623 4285493023
-0.037611958 0.012899652 0.018277865 4285427743
-0.035728861 0.013734907 0.017228328 4285493023
-0.034032974 0.016012572 0.014770404 4285493278
-0.031884503 0.014683679 0.015836321 4285558813
-0.029821482 0.014076442 0.016196724 4285559068
-0.027554739 0.012028009 0.01796269 4285559069
-0.02547523 0.011421904 0.018320348 4285624349
-0.023599099 0.012257352 0.017272424 4285755419
-0.021942493 0.014533281 0.014821839 4285754909
-0.020301905 0.016808406 0.012374075 4285623328
-0.018227149 0.016202465 0.012732835 4285623584
-0.015570689 0.011997387 0.016592938 4285820699
-0.013353501 0.010673329 0.017647538 4285754908
-0.011366662 0.010789156 0.017301325 4285755419
-0.009256389 0.010185674 0.017654184 4285624349
-0.0062585846 0.0045476705 0.022896152 4285558814
-0.0029602088 -0.0025259331 0.029526841 4285558814
0.00065490976 -0.011034198 0.037543505 4285754143
-0.038950715 0.0046831444 0.02375108 4285294633
-0.037126388 0.0062457621 0.021994453 4285426468
-0.035400759 0.0085314661 0.019536316 4285558558
-0.033600207 0.010092914 0.017783999 4285427234
-0.031810228 0.011653796 0.016033646 4285493279
-0.02983835 0.011767849 0.015689336 4285559069
-0.027965199 0.012605026 0.014643479 4285558813
-0.025995661 0.012719139 0.014299732 4285624349
-0.024130266 0.013556086 0.013255326 4285821209
-0.022377092 0.015115313 0.011511762 4285821208
-0.020634536 0.016674019 0.009770127 4285623583
-0.018565435 0.016065553 0.010128161 4285557538
-0.016030494 0.012569249 0.013280479 4285754908
-0.013586286 0.0097965002 0.015729841 4286083858
-0.011240877 0.0077469051 0.017477628 4285689629
-0.0086328685 0.0042551011 0.020617481 4285623838
-0.0056203008 -0.0013992712 0.025843378 4285689628
-0.0019218475 -0.010657467 0.034544092 4286017048
-0.038651507 -0.00055398047 0.026039202 4285360424
-0.036898863 0.001739651 0.023581233 4285491749
-0.035162125 0.0040324181 0.021126159 4285426213
-0.033350643 0.0055987686 0.019375261 4285558303
-0.031549718 0.0071645677 0.017626319 4285624349
-0.029759366 0.00872989 0.015879255 4285625114
-0.028177146 0.011745021 0.012734232 4285559068
-0.026514817 0.014033958 0.010292519 4285624604
-0.024764303 0.015597269 0.0085526425 4285624348
-0.022917543 0.016435318 0.0075132661 4285887253
-0.020966481 0.016548619 0.0071729403 4285886743
-0.018790808 0.015213221 0.0082279015 4286018069
-0.016374391 0.012430146 0.010675261 4286083604
-0.0138187 0.008924298 0.013815666 4285754909
-0.01123596 0.0054201484 0.016951386 4285689119
-0.0083801709 0.00047017634 0.021473918 4285622564
-0.0049838386 -0.0073719546 0.028771039 4286539288
-0.038601223 -0.0036276355 0.02620763 4285295143
-0.036757667 -0.0020553917 0.024454352 4285360934
-0.035012547 0.00024433434 0.022002783 4285426469
-0.033011694 0.00035981089 0.021653213 4285492259
-0.031290356 0.0026583001 0.01920598 4285426723
-0.02977686 0.0064109862 0.015364055 4285558048
-0.028092843 0.008707568 0.012923457 4285624093
-0.02662741 0.012457669 0.0090900753 4285426978
-0.024980713 0.014752284 0.006656142 4285493023
-0.023243304 0.016319171 0.0049220026 4285559068
-0.021188375 0.015705422 0.0052790362 4285624093
-0.018903751 0.013638958 0.0070271119 4285690138
-0.016717616 0.012299985 0.0080769155 4285689883
-0.013933297 0.0073304772 0.01260001 4285623583
-0.010991018 0.0016372427 0.017811093 4285754144
-0.0078826919 -0.0047793239 0.023708843 4286999053
-0.038633797 -0.0059792921 0.025670249 4285295143
-0.036872406 -0.0036723018 0.023220759 4285360933
-0.034951519 -0.0028263927 0.02217121 4285426468
-0.033035804 -0.0019806921 0.021122646 4285492259
-0.031218376 -0.00040535629 0.019377436 4285426469
-0.029698838 0.0033584237 0.01554282 4285492259
-0.028009105 0.0056617707 0.013106233 4285623839
-0.026436482 0.0086936355 0.0099763423 4285690138
-0.024781365 0.010995135 0.0075459946 4285690138
-0.023142252 0.013295844 0.0051184725 4285558303
-0.021082219 0.01268021 0.0054729152 4285558813
-0.018792812 0.010607533 0.0072151031 4285624349
-0.016257904 0.0070787966 0.010342188 4285624349
-0.013461322 0.0020948946 0.01485138 4285689374
-0.010626968 -0.0028866455 0.019354042 4286346253
-0.036732469 -0.007486254 0.024079431 4285294634
-0.034978595 -0.0051731765 0.021636337 4285425959
-0.032969926 -0.00505732 0.021285344 4285492004
-0.031239863 -0.0027454048 0.018846568 4285492259
-0.029430117 -0.0011661723 0.017106157 4285492259
-0.027630974 0.00041259825 0.015367631 4285492258
-0.025943417 0.002722308 0.012936553 4285558048
-0.024271827 0.005031243 0.010508304 4285689629
-0.022722628 0.008070536 0.007389335 4285689374
-0.020867545 0.0089155659 0.0063535701 4285624094
-0.018570658 0.0068368316 0.0080893934 4285492513
-0.016143028 0.0040284246 0.010514636 4285492259
-0.013108015 -0.0024314821 0.016394753 4286410769
-0.010383945 -0.0066971853 0.020192735 4286605588
-0.034743715 -0.0097273514 0.023184072 4285425704
-0.033084776 -0.0066737384 0.020052157 4285426469
-0.031261589 -0.0050895363 0.018312655 4285361188
-0.029353518 -0.0042397827 0.017268848 4285426979
-0.027548816 -0.0026564673 0.015532717 4285492259
-0.025855538 -0.00033993274 0.01310562 4285558049
-0.024074707 0.0012422055 0.011373818 4285558049
-0.022410695 0.003557235 0.0089519788 4285623838
-0.020544838 0.0044050068 0.0079159755 4285689628
-0.018461008 0.0037865043 0.0082629584 4285754654
-0.015914459 0.00023684651 0.011371193 4285688354
-0.012989886 -0.0055093616 0.016544998 4286409493
-0.010381188 -0.0090552047 0.019642554 4286670614
-0.031098325 -0.0089102536 0.019160867 4285163819
-0.029277477 -0.0073218197 0.017425176 4285294889
-0.02756523 -0.0049978793 0.01499968 4285294888
-0.025768224 -0.0034106076 0.013268318 4285426469
-0.024085212 -0.0010881424 0.010848092 4285492259
-0.022312108 0.0004979521 0.009121066 4285558048
-0.020549614 0.0020835698 0.0073959269 4285558048
-0.018351916 0.00072778761 0.0084301811 4285622563
-0.015800893 -0.0028324127 0.011529226 4285490984
-0.012872338 -0.0085956305 0.016688839 4286408474
-0.027777571 -0.0058670044 0.013083488 4285294379
-0.025983084 -0.0042755604 0.011355862 4285491749
-0.024095979 -0.0034225136 0.010319296 4285558048
-0.022320006 -0.0018319786 0.0085950997 4285558304
-0.020554651 -0.00024189055 0.0068727992 4285492259
-0.018466007 -0.00086452812 0.0072155856 4285491749
-0.01580191 -0.0051727891 0.010993611 4285490984
-0.013105389 -0.0094790459 0.014766071 4286539543
-0.024107005 -0.005760923 0.0097874068 4285491494
-0.022222403 -0.0049057826 0.0087530259 4285492259
-0.02055994 -0.0025714636 0.0063466132 4285492259
-0.018357757 -0.0039356127 0.007373292 4285426469
-0.020457197 -0.0056468397 0.0065021906 4285557539
-0.01836108 -0.0062733442 0.0068402458 4285426468
-0.02035502 -0.0087305903 0.0066513717 4285687589
-0.018253807 -0.009359017 0.0069868863 4285425448
0.0047496744 0.0069915727 -0.011060582 4284903464
-0.0031519197 -0.0058344379 -0.014165554 4284967724
-0.0031312145 -0.0081577301 -0.014692634 4285360679
-0.0013151355 -0.0072859824 -0.01569904 4285295909
0.00077430531 -0.0079289302 -0.015372317 4285165094
0.0025851317 -0.0070572421 -0.016377617 4285231138
-0.0027093999 -0.012764297 -0.013226745 4285360423
-0.001019042 -0.011130199 -0.014898229 4285426469
0.00079980493 -0.010256015 -0.015903343 4285295909
0.0027551986 -0.010141283 -0.016243502 4285295908
0.004421521 -0.0085081607 -0.01791054 4285033513
-0.0024224445 -0.016625926 -0.012437479 4285425958
-0.00072385743 -0.014986999 -0.014107079 4285426469
0.0011030659 -0.014110208 -0.015111935 4285492259
0.0027829483 -0.01247219 -0.016778063 4285493023
0.004452128 -0.010834627 -0.018442262 4285492514
0.0061105937 -0.0091976151 -0.020104472 4285557794
0.0077583417 -0.0075611174 -0.021764718 4285426468
0.0095478222 -0.0066858381 -0.022762612 4285165093
-0.004377082 -0.019087493 -0.012638351 4285294123
-0.0024033673 -0.018972084 -0.012982004 4285426468
-0.00056575239 -0.018092632 -0.013987144 4285426723
0.00098881125 -0.015685871 -0.016313527 4285492513
0.002668865 -0.01404354 -0.017976332 4285558049
0.0043381937 -0.012401678 -0.019637223 4285557538
0.0061437525 -0.011523612 -0.020636398 4285623329
0.0077943541 -0.0098826513 -0.022293802 4285492003
0.0097388513 -0.0097680688 -0.022631686 4285295143
0.011528365 -0.0088905916 -0.023627795 4285164074
0.013154827 -0.0072506219 -0.025280748 4284902444
-0.0044914559 -0.020671427 -0.013846355 4285228589
-0.0026512258 -0.019789815 -0.014850383 4285426724
-0.00081629679 -0.018908381 -0.015853385 4285492258
0.0010133013 -0.018027104 -0.016855417 4285558049
0.0028375946 -0.017146036 -0.017856365 4285558049
0.0043683872 -0.014734037 -0.020173382 4285492258
0.0061766319 -0.013853617 -0.021171391 4285492258
0.0079795457 -0.012973443 -0.022168338 4285492259
0.0097771063 -0.01209347 -0.023164272 4285426724
0.011724163 -0.011978611 -0.023502506 4285426979
0.013041101 -0.0088044703 -0.026465472 4285426978
0.014496762 -0.0063960776 -0.028768865 4285361188
0.016750855 -0.0078109577 -0.027793003 4285231394
0.020174906 -0.014575213 -0.022235285 4285035809
-0.0030319206 -0.019834533 -0.017374048 4284967723
-0.0010665134 -0.019719481 -0.01771616 4285229863
0.00089895725 -0.01960431 -0.01805819 4285492514
0.0028644912 -0.01948899 -0.01840012 4285492513
0.0043982789 -0.017070375 -0.02071264 4285426723
0.0062092245 -0.016187705 -0.021709412 4285492258
0.0080148168 -0.015305176 -0.022705194 4285492259
0.0099670701 -0.015190154 -0.023044441 4285426979
0.011764664 -0.014307894 -0.024038602 4285426979
0.013084769 -0.011124939 -0.026995413 4285426978
0.01470351 -0.0094767883 -0.028640209 4285558049
0.016799748 -0.010128982 -0.028322186 4285492259
0.02005947 -0.016146056 -0.023432862 4285295399
0.00078463927 -0.021181218 -0.01926074 4285361443
0.0026089326 -0.020295873 -0.020258354 4285426978
0.0044278949 -0.019410722 -0.021254962 4285426979
0.0060950629 -0.017756015 -0.022905305 4285426724
0.007900659 -0.016871355 -0.023899425 4285426978
0.009700913 -0.015986919 -0.024892479 4285426978
0.011650342 -0.01587192 -0.025231119 4285558049
0.01312815 -0.01344952 -0.027528398 4285558048
0.014749728 -0.011796832 -0.029170375 4285558048
0.016848344 -0.012451023 -0.028854426 4285689119
0.020109333 -0.018485226 -0.023978718 4285491749
0.023749275 -0.026053652 -0.017808294 4284966449
0.004313603 -0.020983025 -0.022453928 4285099303
0.0061272345 -0.020095907 -0.023447832 4285229863
