# .PCD v0.7 - Point Cloud Data file format
VERSION 0.7
FIELDS x y z rgba
SIZE 4 4 4 4
TYPE F F F U
COUNT 1 1 1 1
WIDTH 627
HEIGHT 1
VIEWPOINT 0 0 0 1 0 0 0
POINTS 627
DATA ascii
-0.01151925 -0.0053818896 0.018784367 4288886563
-0.010066845 -0.0024208277 0.015550897 4289410844
-0.008343488 -0.00087735057 0.013738148 4290720013
-0.0064819604 -4.2393804e-05 0.01263519 4290458639
-0.0040197186 -0.0020390227 0.01436203 4290328078
-0.0018496513 -0.002619192 0.014672473 4289409059
0.00048272684 -0.0039064065 0.015688069 4289802013
0.0021877736 -0.0023634881 0.013879288 4290325784
0.0042065941 -0.0022354797 0.01348279 4289738010
0.0057308078 1.3574958e-05 0.010972831 4289148449
0.0075741224 0.00084815919 0.0098740309 4289213729
0.0097526535 0.00026917458 0.01018336 4289082914
0.012282453 -0.0017222464 0.011897542 4288755749
0.01482838 -0.0037125647 0.013608672 4288691233
0.019173417 -0.012763038 0.022335634 4288823068
0.024493096 -0.025338732 0.034555811 4289150489
-0.012067877 -0.004919827 0.015459206 4288688428
-0.010622967 -0.0019504502 0.012233697 4289408548
-0.0087614916 -0.001113452 0.011132333 4290782998
-0.0066080019 -0.0016970932 0.011444248 4291110419
-0.0042977259 -0.002990365 0.012460761 4290782233
-0.0022846386 -0.0028630644 0.012065131 4289867038
-0.00011478737 -0.0034453198 0.012374084 4289736733
0.002060499 -0.0040271431 0.012682036 4289736734
0.0039171427 -0.0031897873 0.011582118 4289344034
0.0056037717 -0.0016434789 0.0097803921 4289344289
0.0072797202 -9.7692013e-05 0.0079808012 4290717208
0.0096253455 -0.0013879165 0.0089909621 4290651929
0.012154493 -0.0033859611 0.010700397 4290717719
0.015401565 -0.0082169846 0.015210096 4289802524
0.019754976 -0.017295502 0.023914307 4289147938
0.024720542 -0.028493926 0.034704234 4289082404
-0.012615435 -0.0044442266 0.012143858 4288622893
-0.01103491 -0.0021792948 0.0096318498 4289670179
-0.0093245544 -0.00062789023 0.0078281164 4289146918
-0.0073278807 -0.00050185621 0.0074355416 4289081383
-0.0050288104 -0.0018001944 0.0084509626 4289735714
-0.0028727539 -0.0023856461 0.008760903 4289670945
-0.00071125105 -0.0029706731 0.0090698451 4289670943
0.0014557019 -0.003555268 0.0093778558 4289605408
0.0034662038 -0.0034278035 0.0089829825 4289474849
0.0053122118 -0.0025887638 0.0078868084 4290259994
0.0071529187 -0.0017500147 0.0067917928 4290783508
0.0093281455 -0.0023335814 0.0070984736 4289605408
0.012199167 -0.0057602599 0.010203231 4290521878
0.015447585 -0.010606587 0.014701307 4289605919
0.019979283 -0.020424195 0.024083063 4289147429
0.024586063 -0.030236907 0.033450168 4288753963
-0.013161931 -0.003955029 0.0088382177 4289081638
-0.011446137 -0.0023990124 0.007036563 4290652184
-0.009886574 -0.00012871623 0.0045336057 4290194204
-0.0078980811 -3.2261014e-06 0.0041426271 4289539873
-0.0056075193 -0.0013065189 0.0051564611 4290848788
-0.0031524785 -0.0033233315 0.0068701431 4290063389
-0.0011503026 -0.003196612 0.0064767376 4289802015
0.00085194409 -0.0030698031 0.0060833842 4289539873
0.0028542653 -0.0029428601 0.0056901127 4289801503
0.0046922676 -0.0021022037 0.0045971591 4290913813
0.0066920258 -0.0019752011 0.0042045563 4289605408
0.0092010759 -0.0039878488 0.0059081055 4288885543
0.011898674 -0.0067124963 0.0083067715 4289016614
0.015318187 -0.012287378 0.013491914 4289474594
0.019847356 -0.022135921 0.022851452 4289409059
0.02445161 -0.031979561 0.032196339 4288754984
-0.014876269 -0.0078828186 0.010155145 4286595133
-0.014127675 -0.0013002753 0.0034336429 4289736734
-0.012284994 -0.00045800954 0.0023406632 4289736734
-0.010592997 0.0011010021 0.00054701418 4289344033
-0.0084672235 0.00050896406 0.00085946172 4289409569
-0.0060343556 -0.0015159622 0.0025725514 4290324764
-0.00358532 -0.0035397559 0.0042825416 4289736479
-0.0012763068 -0.0048460588 0.0052896664 4289736479
0.00040810183 -0.0032869577 0.0034979247 4289605409
0.0024049245 -0.0031603873 0.0031057186 4289670943
0.0044017993 -0.0030336827 0.0027135853 4290129433
0.0067325272 -0.0043381453 0.0037167892 4290391064
0.0090740249 -0.0056417882 0.0047179684 4290325528
0.011598554 -0.0076599866 0.0064137317 4290063899
0.015013885 -0.013252705 0.011586707 4289932574
0.019537847 -0.023132361 0.020924542 4289474338
0.024136882 -0.033007108 0.030247744 4288951334
-0.0038641356 -0.0044657141 0.0024001319 4289348113
-0.0017142706 -0.0050581396 0.0027065203 4289609488
-3.5043806e-05 -0.0034949481 0.00091897696 4290524939
0.0019562803 -0.0033687204 0.00052785873 4290589453
0.0037836097 -0.002524361 -0.00055976585 4291178248
0.005939085 -0.0031159222 -0.00025418773 4289411863
0.0084387995 -0.0051424056 0.0014414974 4289085208
0.010954622 -0.0071677044 0.0031340569 4290915088
0.014535174 -0.013495959 0.0089903921 4289671709
0.019228704 -0.024124064 0.019001048 4289344543
0.024002653 -0.034746893 0.028995972 4288886564
-0.020729546 -0.02189517 -0.030430129 4284507958
-0.018789966 -0.021773368 -0.030811941 4284639028
0.0051598437 0.0073396638 0.058316812 4285819933
-0.0032129996 0.013922483 0.048747703 4285230373
-0.0019053556 0.017405219 0.044668026 4285755419
-0.0001613535 0.018875733 0.042796314 4285951258
0.0025142841 0.016325362 0.045328982 4285951514
0.0056906678 0.011766799 0.050057016 4285886488
0.0085798763 0.0085501298 0.053312391 4285558048
0.010835627 0.0080134198 0.053634077 4285361698
0.012761256 0.0088158473 0.05249159 4285427489
0.013999719 0.012294799 0.04842595 4285426979
0.015384544 0.015103109 0.045096152 4285558048
0.017978761 0.013228178 0.046880722 4285819933
0.021481691 0.0080109984 0.052309573 4285819934
-0.0045338906 0.017598741 0.041650482 4285690139
-0.003246963 0.021091178 0.037582994 4285558558
-0.0012158006 0.021219853 0.037183985 4285557793
0.0012860782 0.019331805 0.038981348 4285623584
0.004282821 0.01542864 0.0429703 4285689628
0.0069873668 0.012871429 0.045490891 4285624348
0.0090537556 0.013002679 0.045085214 4285493278
0.010617387 0.015148789 0.042489588 4285493278
0.01182439 0.018636741 0.038438246 4285624604
0.01369652 0.019438133 0.037308007 4285623839
0.016090298 0.018226102 0.038364105 4285557538
0.019208238 0.014331207 0.042329758 4285623584
0.023082515 0.007755585 0.049198583 4285689629
-0.0054060407 0.019285738 0.036775224 4285624604
-0.0039804541 0.022113565 0.033449922 4285887254
-0.001960136 0.022241514 0.033053014 4285886999
0.00037369505 0.021020602 0.034117211 4285887253
0.0035152771 0.016428955 0.038829207 4285952789
0.0060462393 0.014536306 0.040616088 4285690139
0.0079343505 0.015340634 0.039484128 4285624348
0.00964972 0.016818561 0.037624866 4285689884
0.011184298 0.018969454 0.035039913 4285886998
0.01287562 0.020446021 0.033185482 4285886488
0.015258227 0.019228816 0.034240555 4285755164
0.018007932 0.016666219 0.036746107 4285689373
0.021864302 0.010067366 0.043602213 4285755674
0.027426235 -0.0025828481 0.056975 4285755674
-0.0077105351 0.018158071 0.035236653 4285362209
-0.0062764548 0.020995136 0.031916101 4285428253
-0.0045613684 0.022476856 0.030059773 4285624349
-0.0023953505 0.02192742 0.030393887 4285624094
8.9187175e-05 0.020025063 0.032184817 4285624093
0.0029083714 0.016770706 0.03542947 4285624094
0.0052687488 0.015547261 0.036485277 4285558558
0.0074753501 0.015000753 0.036811687 4285624348
0.009018328 0.017158709 0.034229897 4285624093
0.010545246 0.019315757 0.031651292 4285689628
0.012401391 0.02012052 0.030527424 4285886743
0.014778171 0.018898569 0.031580336 4285952534
0.017521726 0.016326711 0.034080628 4285755674
0.021370903 0.009705402 0.040921822 4285689884
0.027107477 -0.0036622286 0.054989047 4285624094
-0.0078382008 0.016483963 0.034031779 4285427744
-0.0065518543 0.020009264 0.029988702 4285558813
-0.0048392341 0.021495249 0.028136048 4285689884
-0.002676174 0.02094337 0.028469156 4285755418
-3.8571656e-05 0.018355265 0.030983146 4285689628
0.0026206002 0.01576858 0.033493016 4285624093
0.0048161224 0.015219033 0.033819944 4285624349
0.0068526678 0.015348338 0.033420093 4285624349
0.008555077 0.016834222 0.031569846 4285624093
0.010246813 0.018319465 0.029721804 4285623838
0.011927865 0.01980418 0.027875882 4285623838
0.014123674 0.019255146 0.028203048 4285623839
0.016858391 0.016673908 0.030698568 4285624094
0.020878218 0.0093525201 0.03824804 4285493533
0.02697229 -0.0054141358 0.053728558 4285493533
-0.0084021986 0.016855545 0.030643556 4285558814
-0.0068268664 0.01902809 0.028064687 4285755674
-0.0049658753 0.019836847 0.026942518 4285886999
-0.0029566176 0.019964047 0.026547745 4285886999
-0.00032247603 0.017366849 0.029055938 4286018579
0.0020154677 0.016133003 0.030109588 4285690138
0.0043642074 0.014899962 0.031161133 4285624348
0.0063952729 0.015028916 0.030762352 4285624348
0.008092545 0.016518816 0.028916396 4285690139
0.0097791366 0.01800818 0.027072567 4285755163
0.011455059 0.019496925 0.025230948 4285952534
0.013995174 0.017585479 0.027001649 4286018069
0.01672909 0.014995374 0.029490817 4285821208
0.020927273 0.006970033 0.037743762 4285690139
0.026837125 -0.0071657747 0.05246827 4285624349
-0.0089651346 0.017240621 0.02726512 4285624094
-0.0072494857 0.018735476 0.025418274 4285558813
-0.00524313 0.018862374 0.025023986 4285623329
-0.0032366663 0.018989362 0.024629742 4285557794
-0.00076202676 0.017066449 0.026407979 4285689884
0.0015700907 0.015827842 0.027459458 4285689883
0.0037516169 0.015273012 0.027785815 4285624349
0.0056104437 0.016084239 0.026666075 4285624349
0.0074639693 0.016895227 0.025547452 4285690139
0.0091427453 0.01838845 0.023708448 4285755164
0.01081083 0.019881133 0.021871563 4285754909
0.01334228 0.017962478 0.023639128 4285755164
0.016067356 0.015362985 0.026123516 4285952279
0.020435475 0.0066288039 0.035078283 4285689884
0.026336271 -0.0075538829 0.049770467 4285623838
-0.0098172687 0.019011728 0.022447102 4285689628
-0.0079669915 0.019824076 0.021330193 4285886999
-0.0058209784 0.01926434 0.02166165 4285821208
-0.0036695115 0.018705092 0.021992058 4285820953
-0.0013567246 0.017460756 0.023043998 4285887254
0.0011254363 0.015531771 0.024815936 4285756183
0.0031400956 0.015659563 0.024420287 4285558813
0.0051548295 0.015787452 0.024024688 4285558813
0.0068364479 0.017285191 0.022188254 4285755929
0.008507397 0.01878231 0.020354029 4285952534
0.010339621 0.019594319 0.01924134 4285623584
0.012865063 0.017668717 0.021005157 4285623329
0.01576129 0.014375851 0.02420257 4285623583
0.019944405 0.0062966645 0.032419425 4285689628
0.025836127 -0.0079328641 0.047079228 4285755419
-0.010377739 0.019428365 0.019091289 4285558559
-0.0085354596 0.020242356 0.017977614 4285690138
-0.0065481104 0.020367999 0.017587025 4285756184
-0.004407648 0.019805837 0.017917957 4285624348
-0.0019503497 0.017868556 0.019689806 4285558814
0.00036475435 0.01662004 0.020738102 4285493278
0.0025296174 0.016059704 0.021064453 4285493534
0.0043724515 0.016874306 0.019951094 4285493278
0.0058771409 0.019062832 0.017401129 4285558558
0.0077040009 0.019876618 0.016291045 4285821718
0.0095255412 0.020690143 0.01518207 4285887253
0.011865159 0.019443765 0.01622599 4285887254
0.014746998 0.016138949 0.019418076 4285821463
0.019094368 0.0073461309 0.028334692 4285755419
0.025336673 -0.0083026737 0.044394523 4285755419
-0.011924017 0.014897719 0.021188825 4285229864
-0.010647561 0.018477239 0.017188191 4285427489
-0.0088079199 0.019293278 0.016076591 4285426723
-0.0068233721 0.019418746 0.015686546 4285426724
-0.0048387162 0.019544296 0.015296537 4285493023
-0.0025429316 0.018289976 0.016345333 4285493278
-7.8115612e-05 0.016346648 0.01811089 4285493533
0.0019202046 0.016473375 0.017718431 4285493023
0.0037550293 0.017289691 0.016608205 4285427488
0.0052520707 0.019484296 0.014064662 4285492769
0.007239867 0.019610651 0.013674486 4285492769
0.0088844709 0.021115009 0.011851937 4285492513
0.011041284 0.020552438 0.012178592 4285492513
0.013911432 0.017235838 0.0153649 4285558814
0.018425386 0.0077251121 0.024977535 4285558558
0.025020285 -0.0093516186 0.042430535 4285558558
-0.012049552 0.013247393 0.02000099 4285492769
-0.010627765 0.016145088 0.016728181 4285820954
-0.0086380728 0.016270749 0.016337037 4285820699
-0.0067982674 0.017089032 0.015227128 4285820698
-0.0048110485 0.017214738 0.014836613 4285689629
-0.0026683919 0.016648367 0.015163906 4285689629
-0.00052028522 0.016082436 0.015490197 4285558558
0.0014725514 0.016208798 0.015098803 4285558303
0.0033020712 0.017026924 0.013991281 4285558559
0.00512629 0.017844811 0.012884881 4285492768
0.0071139596 0.017971128 0.012494709 4285492513
0.0091016777 0.018097565 0.012104612 4285492258
0.011089444 0.018224098 0.011714578 4285558559
0.013784477 0.015587434 0.014178827 4285558304
0.018116429 0.0067364201 0.023056142 4285426468
0.024522087 -0.009705402 0.039757416 4285229608
-0.010608245 0.013808794 0.016265184 4285950749
-0.0084688626 0.013239697 0.016591266 4285885468
-0.0064738356 0.013365768 0.016199127 4286016538
-0.0043261833 0.012797356 0.016523775 4286016538
-0.0024834611 0.013618253 0.015415005 4285951259
-0.00048814341 0.013744645 0.01502303 4285951258
0.0015072562 0.013871148 0.014631115 4285885724
0.0035027303 0.013997763 0.014239267 4285951514
0.0053323545 0.014818192 0.013133418 4285951258
0.0073252656 0.014944836 0.012742214 4285951003
0.0094895028 0.01437822 0.013064083 4285885724
0.011485187 0.014505245 0.012672484 4285820189
0.014010828 0.012553267 0.014416866 4285754908
0.017987166 0.0050595328 0.021849602 4285754653
0.024206584 -0.010742672 0.037801757 4285623584
-0.010589015 0.011468381 0.015799217 4286081564
-0.008447241 0.010897152 0.016123228 4286016538
-0.0062999986 0.01032643 0.016446192 4286081819
-0.0041472912 0.0097561553 0.016768161 4286082073
-0.0024541654 0.011276141 0.014945421 4286016283
-0.00029859319 0.010706253 0.015266977 4286147609
0.0017020442 0.010833077 0.014874022 4286082073
0.0037027486 0.010959998 0.014481124 4286081818
0.0055377893 0.011782959 0.013375841 4286213654
0.0077043585 0.011214182 0.013695538 4286082329
0.010047447 0.0099502727 0.014725663 4286082329
0.01222752 0.0093825683 0.015042875 4285951259
0.014413003 0.0088152662 0.015359145 4285885469
0.018395377 0.00129769 0.022772819 4285885723
0.024255132 -0.013165087 0.037268199 4285885723
-0.010425959 0.0084242597 0.016045384 4286015773
-0.0082791112 0.0078511909 0.016366716 4286081308
-0.0064257644 0.0086768791 0.015258975 4286212379
-0.0042733476 0.008104369 0.015579365 4286212379
-0.0024251677 0.0089299381 0.014472798 4286212123
-0.00026721507 0.0083579719 0.014792249 4286277659
0.0017359741 0.0084849447 0.014398787 4286211868
0.0037392341 0.0086120218 0.014005382 4286277659
0.0057425685 0.0087392181 0.013612047 4286277659
0.0077459514 0.0088665038 0.013218772 4286212124
0.0097493902 0.0089939088 0.012825571 4286146589
0.011926483 0.0084238127 0.013141733 4286016028
0.014285281 0.0071566552 0.014165722 4286081819
0.018802607 -0.0024771169 0.023686696 4286016283
0.024485016 -0.01628869 0.037439354 4285950749
-0.010407466 0.0060733557 0.015571851 4286081308
-0.008404877 0.0061997548 0.015178107 4286277659
-0.0064021721 0.0063262582 0.014784414 4286408729
-0.0043993704 0.0064528659 0.014390782 4286342939
-0.0025511421 0.007280618 0.013285816 4286277148
-0.00023613498 0.0060055703 0.014314551 4286277403
0.001769606 0.0061326921 0.013920572 4286343194
0.0037754215 0.0062599182 0.013526659 4286277403
0.0059467033 0.005686909 0.013842098 4286343194
0.0079553239 0.0058145374 0.013447795 4286408728
0.009963993 0.0059422702 0.013053559 4286408728
0.011972703 0.0060701072 0.012659393 4286212379
0.014333718 0.0047986954 0.013679698 4286081308
0.018672394 -0.0041663945 0.022471242 4286015773
0.024532748 -0.018721513 0.03689824 4286015773
0.011845343 0.00441432 0.011467967 4286408219
0.014205877 0.0031384751 0.012485117 4286277659
0.018542206 -0.005855374 0.021256 4286015518
0.024217533 -0.019755386 0.034945082 4286015519
0.014605429 -0.00063368678 0.013402741 4286473754
-0.015354175 0.00048087537 -0.0038190857 4285623073
-0.013530176 0.0013262704 -0.0049051233 4285819934
-0.011566322 0.0014500618 -0.0052913707 4286081309
-0.009158954 -0.00058980286 -0.003583109 4286081309
-0.0067354254 -0.0026284903 -0.0018779878 4285753378
-0.0044488795 -0.0039451867 -0.0008729957 4285425194
-0.016758636 -0.0048831552 -0.0011047386 4284966449
-0.015616614 -0.00041486323 -0.0056830794 4285558814
-0.013937548 0.0011563972 -0.0074646249 4285689374
-0.012124136 0.0020034313 -0.0085468832 4285689118
-0.0097254552 -4.3585896e-05 -0.0068417918 4285952024
-0.0073106065 -0.0020894706 -0.0051397979 4285820699
-0.0050325766 -0.0034110546 -0.0041364208 4285689629
-0.0030550919 -0.0032859594 -0.0045250189 4285689628
-0.0010775328 -0.0031607598 -0.0049135573 4285755164
0.00057804585 -0.0015902221 -0.0066898465 4285755164
0.002222959 -2.0191073e-05 -0.0084639899 4285951769
0.0041899867 0.00010469556 -0.0088501982 4286017048
0.0068333372 -0.002658695 -0.0064669251 4286017049
0.0098416544 -0.0068644136 -0.0027041566 4286016793
0.013754323 -0.014676824 0.0045088734 4285688864
0.01825729 -0.024650067 0.013782721 4285426979
0.022835327 -0.034618407 0.02304193 4285426979
-0.017839361 -0.0014291853 -0.0071578659 4285492769
-0.016575802 0.0023249835 -0.011026426 4285820953
-0.014770512 0.0031736195 -0.012105606 4285623329
-0.012680892 0.0025703013 -0.011792614 4285623328
-0.010143444 -0.00020948052 -0.0093957745 4285623584
-0.0078847371 -0.0015368611 -0.0083919019 4285820954
-0.0056152344 -0.0028633922 -0.0073901117 4285689629
-0.0038014278 -0.0020136833 -0.0084704962 4285624349
-0.0016765445 -0.0026141405 -0.0081640389 4285689628
-2.881512e-05 -0.0010397136 -0.0099355411 4285886489
0.0016082451 0.00053417683 -0.011704925 4285689119
0.0034008771 0.0013830215 -0.012780791 4285557538
0.0060326867 -0.0013898835 -0.01040175 4285623583
0.0090291239 -0.0056095496 -0.0066463836 4285754908
0.013103306 -0.01417087 0.0012410227 4285624094
0.017949577 -0.025623113 0.011872571 4285493279
0.022163166 -0.034175299 0.019732825 4285427744
-0.018507972 -0.0001296252 -0.011102099 4285427233
-0.017115179 0.0029065162 -0.014265641 4285690394
-0.01517595 0.0030285716 -0.014647177 4285952534
-0.012947392 0.0016946942 -0.013640843 4285820953
-0.010413423 -0.0010941327 -0.011249758 4285886743
-0.0083078556 -0.0016983747 -0.010941409 4285952534
-0.0061968304 -0.0023021996 -0.010633988 4285689884
-0.0045463778 -0.00072342157 -0.012403022 4285624093
-0.0025905408 -0.00059960783 -0.012787296 4285624093
-0.0011167042 0.0017053783 -0.015243713 4285886998
0.00066785142 0.0025558248 -0.016316511 4285952533
0.0026131533 0.0026793107 -0.016698468 4285820699
0.0052334182 -0.00010310113 -0.014323641 4285755419
0.0083893873 -0.0050630942 -0.0098870024 4285821464
0.01245334 -0.013651364 -0.0020170789 4285689883
0.017288713 -0.025139451 0.0085907392 4285493024
0.021492058 -0.033718608 0.016433489 4284901934
-0.019175198 0.0011878908 -0.015033409 4285493534
-0.017653499 0.0035015643 -0.017495129 4285558814
-0.015580669 0.0028926507 -0.017182179 4285689628
-0.013357949 0.0015540123 -0.016177945 4285755419
-0.010977272 -0.00051394105 -0.014483929 4285755163
-0.0087302476 -0.0018508211 -0.013484314 4285624094
-0.0064724274 -0.0031868964 -0.012486722 4285624093
-0.0048244521 -0.0016039312 -0.014251987 4285689884
-0.0031871162 -2.1524727e-05 -0.016015064 4285624093
-0.0018814839 0.0030188039 -0.019154318 4285821464
-0.00010761619 0.0038707107 -0.02022337 4285887253
0.0023244582 0.0018068925 -0.018538877 4285886998
0.0047726594 -0.00025585294 -0.016857436 4285755674
0.0079219304 -0.0052315667 -0.012430854 4285624349
0.01180443 -0.013118349 -0.0052653924 4285624094
0.016805479 -0.025370419 0.0060045868 4285493023
0.020822007 -0.03324838 0.01314396 4284900913
-0.019296054 -0.00040848553 -0.016182557 4285493278
-0.01763507 0.001178965 -0.017947668 4285558558
-0.01570148 0.0013006404 -0.018328119 4285623838
-0.013767794 0.0014224425 -0.01870849 4285624094
-0.011246178 -0.0013847053 -0.016328003 4285689374
-0.0090023018 -0.0027262196 -0.015330959 4285624093
-0.0067476332 -0.0040668994 -0.014336003 4285624093
-0.0049471557 -0.0032114759 -0.015408926 4285624093
-0.0034673177 -0.00089304149 -0.017856944 4285624094
-0.0023241825 0.0028873384 -0.021676876 4285624093
-0.00039262325 0.0030098408 -0.022056216 4285623838
0.0020361207 0.00093916804 -0.020375902 4285623839
0.0046493858 -0.0018612742 -0.018012673 4285558558
0.0074551851 -0.0053909644 -0.014968101 4285558814
0.011330305 -0.013302296 -0.0078190453 4285559069
0.016322969 -0.025592268 0.003425071 4285493534
0.020332094 -0.033494808 0.010548014 4284901169
-0.019689023 -0.00053425878 -0.018712923 4285427743
-0.017894458 0.00032230467 -0.019783638 4285689883
-0.016105127 0.0011786073 -0.020853203 4285952533
-0.014032822 0.00056540966 -0.020543367 4285952534
-0.011808272 -0.00078184903 -0.019545868 4285820953
-0.0092739798 -0.0035969242 -0.017174236 4285689628
-0.0068703294 -0.0056763291 -0.015494335 4285624093
-0.004914999 -0.0055526793 -0.015878614 4285689883
-0.0037471391 -0.0017599016 -0.019695401 4285624093
-0.0024458021 0.0012976974 -0.022820862 4285624093
-0.0006772466 0.0021536425 -0.023885634 4285755163
0.0020792447 -0.0013903975 -0.020839665 4285755164
0.0045261458 -0.0034663975 -0.019167695 4285689884
0.007501848 -0.0077400655 -0.015447158 4285624349
0.011551211 -0.016408317 -0.007632656 4285493278
0.016193667 -0.027270183 0.0022177789 4285427999
-0.019809477 -0.0021256134 -0.019858465 4285493533
-0.018153463 -0.00052967668 -0.021616187 4285820953
-0.016366784 0.00032863021 -0.022683609 4285689374
-0.014153536 -0.0010238141 -0.021687269 4285886744
-0.011782844 -0.0031121746 -0.020005893 4286018069
-0.0093959831 -0.0051993951 -0.018327605 4285755164
-0.0072969459 -0.0058127567 -0.018024396 4285689884
-0.0055017807 -0.0049533099 -0.019093052 4285624349
-0.004183922 -0.0018860102 -0.02221537 4285689883
-0.0025673881 -0.00029163063 -0.02396463 4285821464
-0.00063612312 -0.00016915798 -0.024343923 4285952534
0.001791317 -0.0022530854 -0.02267307 4285952534
0.0040668212 -0.0036004931 -0.021688152 4285952788
0.0072067343 -0.0086229593 -0.017293725 4285689883
0.011598047 -0.018787816 -0.0081341881 4285558813
0.0160644 -0.028947763 0.0010107253 4285493278
-0.021862801 -0.0038380101 -0.020623261 4285295908
-0.020472851 -0.0007583797 -0.02375401 4285756184
-0.018688954 0.00010186434 -0.024819415 4285623839
-0.017051384 0.0017010719 -0.026570154 4285557794
-0.014705535 -0.00039555132 -0.024888838 4285689374
-0.01234353 -0.0024910197 -0.023210665 4285754909
-0.0098162256 -0.0053240955 -0.020850629 4285820954
-0.0078746714 -0.0052014738 -0.021232313 4285689884
-0.006087523 -0.0043403357 -0.022297772 4285624349
-0.004777167 -0.0012647659 -0.025412155 4285690138
-0.0030086339 -0.00040458143 -0.02647379 4285689883
-0.0012453981 0.00045539439 -0.027534293 4285558049
0.0011733435 -0.001635626 -0.025866639 4285558049
0.0036082081 -0.0037255287 -0.024202012 4285755418
0.0070825517 -0.010238476 -0.018456198 4285755418
0.011471335 -0.020434201 -0.0093188342 4285558814
0.015583325 -0.029150993 -0.0015554074 4285493024
0.018866619 -0.034179248 0.0027997997 4284901678
-0.022647534 -0.001718998 -0.025200911 4285295908
-0.021134865 0.00062677264 -0.027636651 4285755674
-0.019223392 0.0007468909 -0.028012872 4285887253
-0.017593671 0.0023500174 -0.029758884 4285820953
-0.015256502 0.00024625659 -0.028080726 4285886743
-0.013049461 -0.0011152476 -0.02708956 4285952788
-0.010533694 -0.0039578453 -0.024733741 4285689628
-0.0089062788 -0.0023544133 -0.026478896 4285624349
-0.0071351789 -0.0014921203 -0.027539598 4285624349
-0.0055263825 0.0001104176 -0.029280953 4285821719
-0.0036088601 0.00023187697 -0.029657651 4285887253
-0.0018536374 0.0010935366 -0.030714968 4285623838
0.00039138272 -0.00026470423 -0.029730624 4285558304
0.0028148778 -0.0023619533 -0.028068647 4285624348
0.0064472146 -0.0096349865 -0.021655854 4285690138
0.010998519 -0.020601526 -0.011860454 4285624604
0.015278686 -0.030084267 -0.0034369286 4285427488
-0.023297805 -0.00032187998 -0.029077498 4285295909
-0.021795508 0.002029866 -0.031506397 4285558813
-0.019894879 0.0021492839 -0.03188049 4285690138
-0.018134911 0.0030124485 -0.032937836 4285558558
-0.015949864 0.0016450509 -0.031945676 4285558303
-0.013754014 0.00027839839 -0.030955512 4285492768
-0.011249777 -0.0025736541 -0.028603947 4285493278
-0.0096328929 -0.00096651167 -0.030343803 4285559069
-0.0075641796 -0.0015882701 -0.030039411 4285493533
-0.0059605315 1.8283725e-05 -0.031776477 4285559324
-0.004208032 0.00088182092 -0.032831736 4285887764
-0.0024608336 0.0017451942 -0.033885907 4285821973
-0.00038919598 0.0011240765 -0.033581678 4285756184
0.002022922 -0.0009804219 -0.031922363 4285690904
0.0056427084 -0.008276172 -0.025523294 4285624859
0.010353494 -0.020018026 -0.015072523 4285493278
0.014798854 -0.030271433 -0.005991498 4285427743
-0.023416441 -0.0018921793 -0.030207934 4284966703
-0.021913793 0.00046615303 -0.032632053 4285097774
-0.020289153 0.0020775944 -0.034370687 4285229354
-0.018393919 0.0021967888 -0.034743637 4285361189
-0.016212028 0.00082473457 -0.033754058 4285229609
-0.014019348 -0.00054647028 -0.032766573 4285295143
-0.012113124 -0.00042623281 -0.033141419 4285427489
-0.010358132 0.00043930113 -0.034195814 4285361954
-0.0083004497 -0.00018535554 -0.033890884 4285493279
-0.0063940026 -6.4730644e-05 -0.0342655 4285493534
-0.0046468303 0.00080066919 -0.035318095 4285493279
-0.0027429461 0.00092137605 -0.035692032 4285493534
-0.00083900988 0.001042217 -0.036065876 4285493534
0.0013997294 -0.00032514334 -0.035086669 4285493533
0.004839588 -0.0068994835 -0.029377796 4285493533
0.0098822489 -0.020164818 -0.01759945 4285493533
0.014495134 -0.031193092 -0.0078645963 4285427998
-0.023270253 -0.0049592257 -0.029974675 4285295144
-0.021626789 -0.003342405 -0.031713843 4285426723
-0.020131689 -0.0009778589 -0.034131542 4285426724
-0.018231254 -0.00085835159 -0.034505516 4285360933
-0.016187605 -0.0014865845 -0.034199815 4285229354
-0.013992719 -0.0028620809 -0.033215947 4285229099
-0.01208397 -0.0027416945 -0.033591308 4285163564
-0.010175139 -0.002621159 -0.033966571 4285229354
-0.0082662329 -0.0025005192 -0.034341775 4285295654
-0.0063572638 -0.0023797303 -0.034716897 4285493024
-0.0047665797 -0.00076510012 -0.036444914 4285493024
-0.0028628409 -0.00064439327 -0.036818817 4285493278
-0.00095905364 -0.0005235821 -0.037192654 4285427488
0.0012791939 -0.0018953383 -0.036216564 4285427743
0.0047173761 -0.0084895119 -0.030521926 4285427488
0.009411715 -0.020302534 -0.020119766 4285427488
0.014016531 -0.031364128 -0.010407632 4285295909
-0.023124676 -0.0080347955 -0.029747562 4285295144
-0.021340776 -0.0071638227 -0.030804973 4285492259
-0.019837275 -0.0047922432 -0.033219434 4285492258
-0.017788693 -0.0054224879 -0.032916412 4285558304
-0.016020529 -0.0045521259 -0.03397046 4285558304
-0.01382079 -0.0059316754 -0.032990836 4285492768
-0.012055125 -0.005061239 -0.034044199 4285492514
-0.010294743 -0.0041909963 -0.035096422 4285492514
-0.0085396431 -0.0033209175 -0.036147572 4285492514
-0.006477166 -0.0039495975 -0.035846695 4285492514
-0.0047272965 -0.003079623 -0.036896639 4285426468
-0.0026593357 -0.003707692 -0.036596656 4285492514
-0.00075034797 -0.0035865456 -0.036971509 4285492769
0.0016597919 -0.0057108775 -0.035326358 4285493024
0.0049346127 -0.011576012 -0.030320309 4285492769
0.0094590522 -0.022675715 -0.020616768 4285427233
0.013538644 -0.031526104 -0.012944079 4285361443
-0.023243863 -0.0096130073 -0.030883713 4285426214
-0.021190431 -0.010245442 -0.030583398 4285426724
-0.019406408 -0.0093720704 -0.031639159 4285558048
-0.017487533 -0.0092514455 -0.032016791 4285558048
-0.01571133 -0.0083784088 -0.033070803 4285558303
-0.013649486 -0.0090097636 -0.032771833 4285492769
-0.011878457 -0.0081368089 -0.033824641 4285492513
-0.010112699 -0.0072640479 -0.034876324 4285492514
-0.0083522275 -0.0063915029 -0.035926871 4285426979
-0.0062847212 -0.0070220083 -0.035628647 4285492514
-0.0043706335 -0.0069007874 -0.036004692 4285558049
-0.0024564937 -0.0067794323 -0.036380634 4285492514
-0.00037811324 -0.0074088797 -0.036084276 4285492514
0.001872547 -0.0087886304 -0.035117116 4285492514
0.0053207614 -0.015421614 -0.029453566 4285427234
0.0093338601 -0.024302609 -0.021787385 4285427234
0.013236355 -0.032429174 -0.014803804 4285295144
-0.023099203 -0.012701221 -0.030665621 4285426469
-0.021175321 -0.012580514 -0.031044427 4285558304
-0.019388605 -0.011704862 -0.032099068 4285558304
-0.017467197 -0.011584088 -0.032477207 4285558559
-0.0156883 -0.01070863 -0.033530168 4285558559
-0.013769388 -0.010587752 -0.033907633 4285558559
-0.01199834 -0.0097126067 -0.034958836 4285492768
-0.010081936 -0.0095916241 -0.035335612 4285492513
-0.008318767 -0.0087167174 -0.036385078 4285426723
-0.0060929209 -0.010102898 -0.0354167 4285426723
-0.0041736327 -0.009981364 -0.03579377 4285426979
-0.0022542924 -0.0098596811 -0.036170755 4285361188
-0.00033489987 -0.0097378939 -0.036547657 4285426724
0.0017512441 -0.010368943 -0.03625429 4285295654
0.0050284006 -0.016268924 -0.031274613 4285295398
0.0090366453 -0.025176555 -0.023626836 4285360934
0.012934428 -0.033327468 -0.016660172 4285097773
-0.023086909 -0.015040562 -0.031129118 4285426724
-0.021160517 -0.014919713 -0.031508412 4285427233
-0.019371089 -0.014041714 -0.032561984 4285492513
-0.01744717 -0.013920777 -0.032940619 4285492513
-0.01566558 -0.013043031 -0.033992473 4285492514
-0.013744134 -0.012922004 -0.034370441 4285492513
-0.011970412 -0.01204446 -0.035420597 4285492514
-0.0099009983 -0.012679517 -0.035126124 4285426979
-0.0081324726 -0.011802033 -0.036175065 4285426979
-0.0062134042 -0.011680648 -0.036552187 4285361443
-0.0039772689 -0.013070494 -0.035588942 4285426979
-0.001891546 -0.013703957 -0.035297338 4285361189
-0.00012813509 -0.012826353 -0.036344871 4285361189
0.0017965026 -0.012704097 -0.036722705 4285361189
0.0050748326 -0.018621571 -0.031756155 4285295399
0.0089116693 -0.026800603 -0.024795419 4285295399
0.012807429 -0.034975737 -0.017846134 4285031983
-0.022943351 -0.018143609 -0.030921714 4285229098
-0.021011759 -0.018022418 -0.031302039 4285294889
-0.019216973 -0.017141871 -0.032355096 4285229608
-0.017148241 -0.017779693 -0.032062493 4285361444
-0.015358616 -0.016899206 -0.033114344 4285295909
-0.013574246 -0.016018972 -0.034165032 4285295909
-0.011795145 -0.015138961 -0.035214599 4285296163
-0.0097207092 -0.015775859 -0.034922786 4285426469
-0.0077938326 -0.015654102 -0.03530154 4285426469
-0.0060225464 -0.014774203 -0.036349285 4285230373
-0.0039398819 -0.015410185 -0.036058795 4285295909
-0.0018518157 -0.016045719 -0.035769284 4285295909
7.7966601e-05 -0.015923291 -0.036148243 4285230119
0.0020078011 -0.015800692 -0.036527093 4285229863
0.0051209405 -0.020978272 -0.032240681 4285229609
0.0089584365 -0.029181331 -0.025297841 4285229609
-0.016571414 -0.023173973 -0.029852359 4285099050
-0.014768403 -0.022290476 -0.030905252 4284967469
-0.012970638 -0.021407202 -0.031956948 4285360424
-0.011178147 -0.020524144 -0.033007529 4285360424
-0.0090906583 -0.021162435 -0.032719906 4285229354
-0.0073033608 -0.02027946 -0.03376928 4285164073
-0.0055213608 -0.019396678 -0.034817517 4284967724
-0.0034283213 -0.020034239 -0.034530707 4285033769
-0.0014907084 -0.019911408 -0.034911282 4285099559
0.00044694915 -0.019788459 -0.035291769 4285099304
0.0023846589 -0.019665375 -0.03567218 4285033258
0.005504474 -0.024857812 -0.03139843 4285229354
0.0090048909 -0.031566173 -0.025803233 4285098028
