# .PCD v0.7 - Point Cloud Data file format
VERSION 0.7
FIELDS x y z rgba
SIZE 4 4 4 4
TYPE F F F U
COUNT 1 1 1 1
WIDTH 961
HEIGHT 1
VIEWPOINT 0 0 0 1 0 0 0
POINTS 961
DATA ascii
0.0039814301 -0.013961107 0.015800543 4288689449
0.0066746026 -0.016691446 0.018129211 4288623913
0.0088546127 -0.017265022 0.018378023 4290521113
0.011040032 -0.017838135 0.018625706 4289343524
0.013230853 -0.018410705 0.018872298 4290521369
0.015427083 -0.018982843 0.019117814 4289605408
0.017628685 -0.019554406 0.019362185 4289671454
0.017345916 -0.010799453 0.010651231 4288756769
-0.031120539 -0.00051127374 0.0048430637 4287119669
-0.029726595 0.0025212988 0.0016151424 4288558379
-0.02781228 0.0026579946 0.001190288 4288689448
-0.026035823 0.0035182312 6.6503882e-05 4288951588
-0.024405219 0.0051014572 -0.0017544944 4289213474
-0.022498392 0.005237937 -0.0021774489 4288755748
-0.020591401 0.005374521 -0.00260037 4288493353
-0.018238202 0.003343232 -0.00093335472 4288297514
-0.015868865 0.0013132095 0.00073016807 4288428584
-0.013791457 0.00072902441 0.00099928118 4288363304
-0.012021907 0.0015894845 -0.00012242235 4288232233
-0.010257598 0.0024497285 -0.0012429338 4287905068
-0.0081744492 0.0018662363 -0.00097480044 4288230959
-0.0059211999 0.00056178123 -1.4757738e-05 4288100654
-0.0033225082 -0.0021844506 0.0023279842 4287970094
-2.2374094e-05 -0.0078135282 0.0074336808 4287969839
0.0034931749 -0.014160343 0.013221301 4287904303
0.0063554421 -0.017620593 0.016235482 4288821028
0.0083544552 -0.017476074 0.015793171 4290325529
0.010534212 -0.018051766 0.016040463 4289736479
0.012536041 -0.0179068 0.015597712 4290128669
0.014909923 -0.019201644 0.016531721 4289409058
0.017105855 -0.019775823 0.016775701 4289540128
0.017393924 -0.013153709 0.010146782 4289346074
-0.030259706 0.0031204969 -0.0016323365 4288100909
0.0056864172 -0.017099172 0.012966901 4288888604
0.0076772943 -0.016955234 0.012526385 4289933339
0.010029189 -0.018256277 0.013461795 4289867294
0.012025546 -0.018111706 0.013020243 4289801503
0.014579378 -0.020133547 0.014639061 4289539873
0.016772315 -0.02071014 0.014882047 4289539873
0.017441574 -0.015512004 0.0096393079 4289476379
0.0055434369 -0.018739656 0.011770729 4288823068
0.0073565654 -0.017870814 0.010643315 4289671710
0.0095249824 -0.018451713 0.010889817 4290521624
0.011515867 -0.018307552 0.010449465 4290259228
0.014249261 -0.021060757 0.012749825 4290259483
0.016439196 -0.021639735 0.012991831 4290063133
0.017297924 -0.017150417 0.0084448867 4289475613
0.0050509945 -0.018925197 0.009202959 4289085209
0.006858822 -0.018054515 0.0080783051 4290063898
0.0086614043 -0.017184168 0.0069549382 4290259228
0.010824233 -0.017767549 0.0072011091 4290848023
0.013363298 -0.019803554 0.008813329 4291175444
0.015918411 -0.0218383 0.01042207 4290129178
0.016963571 -0.018062368 0.0065683052 4289671709
0.0045593381 -0.019101605 0.0066417642 4288887584
0.0060074218 -0.016770512 0.0041524693 4289670433
0.0076195002 -0.015169606 0.0023499765 4288885289
0.0097686723 -0.01575616 0.0025975183 4289081383
0.01247891 -0.018528506 0.0048898384 4289735968
0.014834754 -0.019842051 0.0058148243 4290390553
0.016057953 -0.016784489 0.0026528053 4289542424
0.0035453662 -0.017073788 0.0020390861 4290130198
0.004803516 -0.014005572 -0.0011245459 4290586139
0.0067592561 -0.0138641 -0.0015572235 4289212199
0.0087150559 -0.013722524 -0.0019898452 4289408804
0.011411063 -0.016504601 0.00029906258 4290651928
0.013753038 -0.017823502 0.0012237579 4290063388
0.01534427 -0.016219273 -0.00057048909 4289737244
0.0028817169 -0.016491532 -0.0011851657 4289867294
0.0043093488 -0.014148876 -0.0036600325 4290455579
0.006080091 -0.013274252 -0.0047714897 4289539108
0.0083921216 -0.014599964 -0.0038435869 4289604899
0.010899708 -0.016657919 -0.0022392161 4290521114
0.013048314 -0.017248645 -0.0019946583 4289604643
0.014821962 -0.016373396 -0.0031063631 4289737243
0.0023932531 -0.016631916 -0.0037200227 4289605663
0.0039926358 -0.015018962 -0.0055100247 4289342758
0.0059400871 -0.014878117 -0.0059408918 4289343014
0.0082515851 -0.016208231 -0.005016163 4289015849
0.010389142 -0.016802087 -0.0047709085 4289735714
0.012532081 -0.017395422 -0.0045267586 4289343013
0.014680408 -0.017988287 -0.0042836489 4289148193
0.02468922 -0.018008858 -0.005776857 4288299044
0.026858998 -0.018599376 -0.005537984 4288167464
0.029451381 -0.020656601 -0.0039564418 4288167464
0.033116218 -0.026379466 0.00097797997 4288101929
0.0001295805 -0.017642304 -0.0051387949 4287906598
0.0020793974 -0.017501533 -0.0055703754 4288623913
0.0040292963 -0.017360635 -0.0060018674 4288819753
0.0059792623 -0.017219633 -0.0064333081 4288885033
0.0082928799 -0.018553913 -0.0055123838 4288754218
0.010432761 -0.01914978 -0.0052692899 4288950569
0.012578033 -0.019745171 -0.0050272429 4288950568
0.014918461 -0.021077156 -0.0041119764 4288689449
0.017269578 -0.02240824 -0.0031989785 4288689449
0.0194363 -0.023001693 -0.0029613879 4288492844
0.021608356 -0.023594618 -0.0027249511 4288558379
0.02358532 -0.023450643 -0.0031615952 4288492843
0.025562301 -0.023306571 -0.0035981769 4288820518
0.027745062 -0.023898333 -0.0033638151 4288623913
0.030558471 -0.02669695 -0.0011197198 4288558634
0.034870904 -0.034643002 0.00580745 4288297004
0.00016086549 -0.019988336 -0.0056325244 4288496158
0.0019395724 -0.019106932 -0.0067409845 4288493354
0.0040655993 -0.019706354 -0.0064967396 4289016104
0.0063759498 -0.021045357 -0.0055784779 4289081383
0.0086970404 -0.022383511 -0.0046624476 4288819498
0.010660306 -0.022241309 -0.0050966451 4288819498
0.012623623 -0.022098958 -0.0055307569 4289146919
0.014776587 -0.022695817 -0.0052920142 4288885289
0.017127175 -0.024031296 -0.0043821828 4288754728
0.019488465 -0.025365904 -0.0034745606 4288885543
0.021860428 -0.02669958 -0.0025692713 4288755239
0.024042832 -0.027293846 -0.0023366082 4288558633
0.025824729 -0.026410788 -0.0034447843 4288427818
0.027806893 -0.026266187 -0.0038824016 4288558633
0.030622041 -0.029073402 -0.0016452689 4288558379
0.035145771 -0.037781209 0.0059318822 4288296493
0.00036254153 -0.023081332 -0.005453934 4288626719
0.0021466315 -0.022197366 -0.0065619433 4288363049
0.0044537336 -0.023541138 -0.0056462856 4288950824
0.0065927953 -0.024141692 -0.0054064998 4288950569
0.0091000795 -0.02622591 -0.0038219141 4288623403
0.010887109 -0.025341235 -0.0049302066 4288754219
0.013042342 -0.025940239 -0.0046937028 4288754218
0.015013549 -0.025797203 -0.0051294761 4288558124
0.017368939 -0.027136743 -0.00422394 4288558124
0.019150823 -0.026251927 -0.0053307125 4288754219
0.021716982 -0.028331116 -0.0037585702 4288885033
0.023899032 -0.028927602 -0.0035274867 4288688939
0.026086424 -0.029523492 -0.0032975059 4288427053
0.028073762 -0.029378533 -0.0037362706 4288427309
0.03068525 -0.03145393 -0.0021737758 4288361518
0.034577012 -0.03796792 0.0033841934 4288099633
0.00056351721 -0.026182838 -0.0052814791 4288233254
0.0025261976 -0.026041172 -0.0057159225 4288362539
0.0044889562 -0.025899395 -0.0061503062 4288362028
0.0068088993 -0.027246431 -0.0052407393 4288820009
0.0091395751 -0.028592631 -0.0043334048 4288492844
0.011297077 -0.029193774 -0.0040991437 4288361773
0.013086867 -0.028306589 -0.0052063037 4288558124
0.015060578 -0.028163388 -0.0056426357 4288688939
0.017034337 -0.028020039 -0.0060788738 4288623404
0.019008134 -0.027876571 -0.006515027 4288623404
0.021573555 -0.029962353 -0.0049476493 4289081384
0.023755262 -0.030561015 -0.0047181193 4288427054
0.026144832 -0.031901881 -0.0038230848 4288492334
0.028134678 -0.031756729 -0.0042623971 4288295983
0.030955963 -0.034580916 -0.0020397399 4288164913
0.034640636 -0.040372103 0.0028378312 4288099633
0.00042301044 -0.027798243 -0.0064594345 4288625443
0.0025585741 -0.028403655 -0.0062223431 4288558379
0.0046995506 -0.02900856 -0.0059863608 4288557869
0.0066675544 -0.028866261 -0.0064218026 4288688938
0.008816652 -0.029470339 -0.0061874297 4288362284
0.011154838 -0.030820236 -0.005284952 4288165934
0.013317376 -0.03142307 -0.0050533544 4288296749
0.015296265 -0.031279482 -0.0054908302 4288558379
0.017275192 -0.031135775 -0.0059282128 4288754473
0.019254161 -0.030991919 -0.0063655023 4289212199
0.021824185 -0.03308396 -0.0048040319 4288557613
0.024010863 -0.033684403 -0.0045772847 4288491823
0.02660756 -0.035774253 -0.0030215066 4288557359
0.028605243 -0.035628535 -0.0034625586 4288164658
0.031433575 -0.038460866 -0.0012480523 4288033588
0.03491421 -0.043524653 0.0029517505 4287706679
0.0001123473 -0.028663903 -0.0083076824 4288298023
0.0024177581 -0.03002096 -0.0074016545 4288492843
0.0043828711 -0.029879019 -0.0078365672 4288623148
0.0065262355 -0.030485816 -0.0076026637 4288754473
0.0083133206 -0.029594727 -0.0087061431 4288034608
0.01082914 -0.031697899 -0.0071380977 4288427563
0.013174824 -0.033051416 -0.0062405039 4288362283
0.015720047 -0.035152182 -0.0046787616 4288231469
0.017898299 -0.035755798 -0.0044520814 4288362028
0.020276062 -0.037106611 -0.0035612863 4288623659
0.022664517 -0.038456589 -0.0026727337 4288557613
0.025063643 -0.039805561 -0.0017864499 4287706933
0.02747344 -0.041153699 -0.00090239011 4287968563
0.029484285 -0.04100702 -0.0013463516 4288034099
0.032117531 -0.043100417 0.00019659288 4287445049
0.035397172 -0.047432259 0.0037212074 4287641143
0.0021043234 -0.030886509 -0.0092490446 4287316274
0.0042419434 -0.031496033 -0.0090156142 4287577393
0.0062069744 -0.031353958 -0.0094504114 4287643439
0.0079914331 -0.030460909 -0.010551685 4287119413
0.010320548 -0.031820118 -0.0096538048 4286923573
-0.026178293 0.039151885 0.030790288 4282154308
-0.024955697 0.04264408 0.026673891 4280132668
-0.022761442 0.04144017 0.027726002 4279934278
-0.019830011 0.036885101 0.032460313 4280324938
-0.017600708 0.035683855 0.033504765 4280980033
-0.015661746 0.03582355 0.03307537 4282089284
-0.01356937 0.035293493 0.033381134 4281762629
-0.011783354 0.036103174 0.032216635 4281111613
-0.011112705 0.041598748 0.025915559 4280850238
-0.010323316 0.046422068 0.020357314 4279285559
-0.0084236264 0.046559278 0.019936875 4280719679
-0.0048577487 0.040007796 0.026838444 4279939379
-0.030291311 0.037959959 0.029744685 4282412879
-0.029581912 0.044158224 0.022680283 4280718403
-0.028646141 0.049006723 0.017100714 4281046334
-0.027188532 0.051160637 0.014475346 4281505079
-0.025177144 0.050622243 0.014797159 4280722993
-0.022579946 0.047393832 0.018059041 4280655929
-0.020251364 0.045512259 0.019845612 4280980543
-0.018207438 0.044976413 0.02016037 4281111613
-0.016158015 0.044441029 0.020473965 4281241408
-0.014570311 0.045921635 0.018587574 4280915518
-0.01346834 0.04941655 0.014506482 4280328764
-0.012070768 0.051566705 0.011894835 4281567298
-0.010034092 0.051030695 0.012211468 4281697859
-0.0073263124 0.047810815 0.015449293 4281307199
-0.002731856 0.03721318 0.026711229 4281242174
-0.031612433 0.042455096 0.02195736 4281500744
-0.030791186 0.047995836 0.015648782 4280198714
-0.029464856 0.050831959 0.012291616 4280458813
-0.027741 0.051641092 0.011143768 4281241918
-0.025737874 0.051099829 0.011465769 4280720698
-0.023439482 0.049209438 0.013253946 4280004659
-0.021124907 0.047320247 0.015038636 4280851768
-0.019094601 0.046781182 0.01535473 4281112124
-0.017211653 0.046916839 0.01493774 4281112124
-0.015795223 0.04907475 0.01232673 4280916539
-0.01423642 0.050557703 0.010450078 4279612979
-0.012688141 0.052039955 0.0085757989 4280264759
-0.010659747 0.051501118 0.0088925902 4280525624
-0.0079610199 0.048269618 0.012124157 4280264248
-0.0042221844 0.041001577 0.019720152 4279809839
-0.032010555 0.042244196 0.019344483 4281696839
-0.031461239 0.049157709 0.011581033 4280785214
-0.030008197 0.051324286 0.008966459 4280003384
-0.028152883 0.051457547 0.0085552875 4279940144
-0.026013359 0.050236471 0.009609485 4279353133
-0.023718283 0.048339203 0.011393467 4280134708
-0.021407045 0.046443153 0.013173908 4280915518
-0.019679733 0.047254965 0.012027126 4280915773
-0.017804891 0.047389992 0.011611897 4280980544
-0.016395956 0.049553856 0.0090075247 4281111360
-0.014686845 0.050364539 0.0078649819 4280785214
-0.012982927 0.051174968 0.0067236032 4280394809
-0.010957491 0.050633647 0.0070394129 4280459833
-0.0085945353 0.048741899 0.0088087656 4280394809
-0.0050345995 0.04212429 0.015662085 4280851514
-0.032145478 0.040681988 0.018205047 4281826634
-0.031862028 0.048977487 0.0089919213 4280719934
-0.030550331 0.051830046 0.0056510922 4281112124
-0.028703108 0.051962681 0.0052416753 4281372989
-0.026430212 0.050057128 0.0070255306 4281372989
-0.023996644 0.04747358 0.0095363408 4281241918
-0.021983065 0.046928786 0.0098527241 4281176383
-0.020413473 0.048420981 0.0079800598 4281111358
-0.018701889 0.049233891 0.006838439 4281046334
-0.01699549 0.050046459 0.0056980681 4280980799
-0.014978632 0.049502209 0.0060139541 4281111104
-0.013437763 0.050992627 0.0041478742 4281241918
-0.011417951 0.050448731 0.00446322 4281241664
-0.0090610012 0.048549905 0.0062289704 4281306688
-0.0056769177 0.042587325 0.012342237 4281242685
-0.032280326 0.03912 0.01706576 4281825104
-0.031994693 0.047441885 0.0078719016 4280784959
-0.030818626 0.050985206 0.0038068425 4280981563
-0.029113129 0.051799409 0.0026679505 4279875119
-0.026846245 0.049886853 0.004448114 4279874354
-0.024274558 0.046612598 0.0076825805 4280459578
-0.022116952 0.045384139 0.0087262299 4281111359
-0.020397432 0.046199646 0.0075844582 4281045824
-0.018683091 0.04701487 0.0064438935 4280981309
-0.016973935 0.047829829 0.0053044874 4281112124
-0.015112318 0.047963984 0.0048922505 4281111613
-0.01373148 0.050139055 0.0023040585 4280591158
-0.012040567 0.050952934 0.0011688713 4278700843
-0.0096923001 0.049046881 0.0029315706 4279612979
-0.0063180514 0.043063864 0.0090321507 4279026224
-0.032415107 0.037558246 0.015926629 4281955154
-0.032260723 0.046590917 0.0060224123 4280523583
-0.031086475 0.050144993 0.001965953 4280330038
-0.029522344 0.051645212 0.00010076351 4279353133
-0.027685791 0.051777083 -0.00030628778 4278961453
-0.025272593 0.04917448 0.0021957774 4278831148
-0.022984684 0.047256939 0.0039664712 4280915518
-0.020979509 0.046707161 0.0042814184 4281046334
-0.019273058 0.047523968 0.0031442288 4281112124
-0.017262258 0.046974748 0.0034580473 4281177659
-0.015560843 0.047791347 0.0023220889 4280851259
-0.014184877 0.049972642 -0.00026015006 4280004913
-0.012499202 0.050788268 -0.0013925023 4280655929
-0.0099915005 0.04819309 0.0010890979 4280069683
-0.0066217333 0.042190008 0.007175805 4278636073
-0.0011544153 0.028009936 0.021908335 4279224103
-0.032549798 0.035996724 0.014787652 4282738259
-0.032526307 0.045744568 0.0041762814 4280849474
-0.031353869 0.049309429 0.00012844615 4280915264
-0.029930718 0.051500022 -0.0024597999 4281305923
-0.028240837 0.052317485 -0.0035919268 4281436739
-0.026268274 0.051762983 -0.0032715444 4280981053
-0.023703851 0.048466358 -5.1999465e-05 4280785213
-0.021709621 0.047913574 0.00026370585 4281047099
-0.019709915 0.047361262 0.00057825632 4281112378
-0.01785931 0.047494482 0.00016834587 4281112378
-0.016008556 0.047627799 -0.00024152733 4279939634
-0.014477514 0.049130566 -0.0020956043 4280916793
-0.012794424 0.049948156 -0.0032257698 4281436993
-0.010455515 0.048028283 -0.0014709737 4281437249
-0.0075966828 0.044057257 0.0024414305 4281437248
-0.0024880245 0.031197738 0.015703671 4281307199
-0.0330576 0.0462805 0.00088064745 4280458304
-0.031756565 0.049167134 -0.0024315771 4279807288
-0.030338243 0.051363878 -0.0050137779 4280915008
-0.028653614 0.052183151 -0.0061431732 4280589628
-0.026974142 0.053002089 -0.0072713261 4280068663
-0.024567835 0.050381482 -0.0047809174 4280460089
-0.022438161 0.049137846 -0.0037409961 4280981053
-0.020449392 0.048582487 -0.0034256503 4280981818
-0.018763967 0.049402207 -0.0045549283 4281111869
-0.017240778 0.05090867 -0.0064040571 4280590904
-0.01540865 0.051040694 -0.0068097673 4279353133
-0.013576403 0.051172815 -0.0072154431 4280069174
-0.011083763 0.048558977 -0.0047437428 4280199733
-0.0084019378 0.045260489 -0.0015579723 4280004150
-0.0038189068 0.034416679 0.0095216259 4280068663
-0.033321887 0.045447841 -0.00095552765 4280913988
-0.03229396 0.049724661 -0.0057091853 4280393278
-0.030744955 0.051236812 -0.0075612227 4279937083
-0.029065557 0.052057825 -0.0086877896 4279546423
-0.027104244 0.051498067 -0.008368264 4279807288
-0.024698786 0.048868611 -0.0058842823 4280850749
-0.022569604 0.04762052 -0.0048475862 4280981309
-0.020884208 0.048442278 -0.0059752427 4280916028
-0.01951243 0.05064268 -0.0085418597 4280915773
-0.017842755 0.051463522 -0.0096659511 4281112124
-0.016178288 0.052284006 -0.010788801 4280981053
-0.014032386 0.051037498 -0.0097554401 4281046078
-0.0118757 0.04979188 -0.0087244613 4280981309
-0.0092056021 0.046481565 -0.0055443626 4281176384
-0.0049768314 0.036978353 0.0040788241 4280915518
-0.033453055 0.043926634 -0.0020651203 4281240389
-0.03242407 0.048216611 -0.0068091564 4280913478
-0.030598745 0.048347436 -0.0072138961 4281109828
-0.028773233 0.04847835 -0.0076186219 4281175363
-0.02666086 0.047224492 -0.0065816343 4281175873
-0.024537645 0.045971483 -0.0055469908 4281045569
-0.02270098 0.046103448 -0.0059540002 4281307708
-0.021166854 0.047619224 -0.007799129 4281176383
-0.019335218 0.047751002 -0.0082048932 4281242683
-0.017660119 0.048574328 -0.0093285292 4281243704
-0.015671529 0.048014797 -0.0090163546 4281306433
-0.01367747 0.047455754 -0.0087053161 4281371458
-0.011513263 0.046206243 -0.0076792678 4281306433
-0.0086688846 0.042194746 -0.0037934454 4281306433
-0.0051123127 0.035423554 0.0029451288 4281045314
0.001778733 0.015539978 0.02324466 4281306433
-0.033319131 0.041014858 -0.0017313622 4281631558
-0.032148615 0.044623159 -0.0057459408 4280848454
-0.030315392 0.044754516 -0.0061524613 4281044804
-0.028200991 0.043496266 -0.0051192623 4280980033
-0.026075765 0.042238906 -0.0040884521 4280980289
-0.023939714 0.040982407 -0.0030599805 4280850238
-0.022386819 0.042503797 -0.0049060574 4280849984
-0.020844415 0.04402452 -0.0067497361 4280589374
-0.018851057 0.043462943 -0.006440415 4280719679
-0.016695745 0.042208172 -0.0054159509 4280850494
-0.014688767 0.041647762 -0.0051095048 4280720189
-0.012676343 0.041087776 -0.0048041726 4280719678
-0.01049396 0.039835222 -0.0037854994 4280915519
-0.0079664849 0.037197661 -0.0013412721 4280850493
-0.0049080849 0.032483574 0.0032382682 4280850493
0.0016376264 0.013921548 0.022064585 4280850493
-0.032788955 0.036001667 0.00075617433 4281631049
-0.031469285 0.038924478 -0.0025339387 4281109064
-0.029344887 0.03766245 -0.0015063435 4280979778
-0.027349971 0.037098344 -0.0011993572 4281045314
-0.02534955 0.036534727 -0.00089351833 4281111358
-0.023489259 0.036668234 -0.00130588 4281176894
-0.02192542 0.038194746 -0.0031511113 4281111104
-0.020372093 0.039720643 -0.0049939835 4280980289
-0.018061101 0.03776541 -0.0032580504 4280980289
-0.01589027 0.036507305 -0.0022403002 4280979778
-0.013549671 0.034554429 -0.00051082298 4280979778
-0.011677854 0.034689285 -0.00092535093 4281045058
-0.0094772875 0.033433594 8.6020678e-05 4281240898
-0.0074329227 0.032873929 0.00038271584 4281110594
-0.0043653101 0.028145168 0.0049486607 4281175873
0.0018411875 0.010913905 0.022307027 4281175873
-0.032128461 0.030266877 0.0039462559 4282282574
-0.030792162 0.033199597 0.0006590113 4281174599
-0.028789721 0.032633722 0.00096259452 4281240388
-0.026921891 0.032767564 0.00054840744 4281175618
-0.025196679 0.033600535 -0.00058178604 4281241664
-0.023331165 0.033734392 -0.00099532306 4281371968
-0.021317385 0.033169672 -0.00069400296 4281176638
-0.019599669 0.034002375 -0.0018223245 4281240898
-0.017426819 0.032739975 -0.00080844387 4280980289
-0.015399262 0.032176517 -0.00050996989 4280979778
-0.013207436 0.030915625 0.00049989298 4281045058
-0.01148919 0.03174872 -0.00062828884 4281044803
-0.0092837922 0.03048902 0.000378659 4281175874
-0.0074011721 0.030624814 -3.8139522e-05 4281240898
-0.0041628964 0.025183655 0.0052261576 4281436738
0.0016997941 0.0092916042 0.021124117 4281436738
-0.031865992 0.026612036 0.0049668103 4282152268
-0.030386448 0.028852232 0.0024004523 4281175619
-0.028510906 0.028986491 0.001984451 4281306434
-0.026775129 0.029822335 0.00085343421 4281306944
-0.025044501 0.03065785 -0.00027633272 4281176639
-0.023319021 0.031493098 -0.0014048833 4281502528
-0.021154955 0.030225478 -0.00039250962 4281437759
-0.019281261 0.030360062 -0.00080776215 4281240898
-0.017100886 0.02909375 0.00020117871 4281306179
-0.015377469 0.029929202 -0.00092665106 4281175874
-0.01334209 0.029364184 -0.00063150749 4281110339
-0.01146248 0.029499557 -0.0010477882 4281175619
-0.0094188415 0.028935313 -0.00075433776 4281371459
-0.0073697641 0.028371569 -0.00046201609 4281306179
-0.0044689588 0.02431161 0.003371831 4281305923
0.0013865344 0.0083687305 0.019233484 4281305923
0.0099835768 -0.018049367 0.045678195 4281371204
-0.031736329 0.023648445 0.0052627977 4281824848
-0.030385405 0.026599608 0.0019854195 4281045058
-0.028370239 0.026030198 0.00228283 4281371203
-0.026629053 0.026868541 0.0011522807 4281306434
-0.025035419 0.028410081 -0.00068992749 4281241153
-0.023307212 0.029247679 -0.001817463 4281306688
-0.02114097 0.027975768 -0.00080884807 4281306688
-0.019114308 0.027407628 -0.00051364675 4281371714
-0.01708217 0.026839986 -0.00021958351 4281306434
-0.015511751 0.028380267 -0.0020562634 4281306179
-0.013159879 0.026408441 -0.00034417212 4281044548
-0.011114001 0.025842063 -5.2943826e-05 4281240644
-0.0090626627 0.025276132 0.00023718737 4281305669
-0.0070058778 0.02471073 0.00052613765 4281240644
-0.0042674206 0.021339674 0.0036416389 4281436484
0.001760602 0.0046452135 0.020171542 4281436484
0.010009449 -0.020453677 0.045142066 4281436484
-0.031870477 0.022089139 0.0041253362 4282283084
-0.030250475 0.023636635 0.0022803452 4281566788
-0.02823028 0.023065366 0.0025749691 4281370949
-0.026344128 0.023200415 0.0021566339 4281436484
-0.02488444 0.025452491 -0.00039529428 4281436738
-0.023295715 0.026998103 -0.0022330843 4281240898
-0.021127291 0.025721949 -0.001228258 4281044803
-0.019098267 0.025151767 -0.00093524903 4281306179
-0.016758032 0.023172289 0.00077435747 4281371204
-0.015023813 0.024012879 -0.00035265088 4281240389
-0.012820162 0.022739634 0.00064464472 4281240133
-0.010766592 0.022171598 0.00093249977 4281305669
-0.008871112 0.02230816 0.00051273406 4281370694
-0.0068093166 0.021740906 0.00079891086 4281697093
-0.0038977228 0.017655443 0.0046105701 4281567298
0.0021335818 0.00090873241 0.021100219 4281632579
0.010209188 -0.023565434 0.045307059 4281567298
-0.031610437 0.018404309 0.0051239785 4282609739
-0.030116208 0.020665109 0.0025690887 4281958469
-0.028227687 0.020800203 0.002150137 4281894209
-0.026199631 0.020227358 0.0024414081 4281697604
-0.024876185 0.023194253 -0.00081654266 4281762373
-0.023139834 0.024036732 -0.0019426458 4281698113
-0.021113932 0.023464017 -0.0016506854 4281698369
-0.018782534 0.021477215 5.5842102e-05 4281829694
-0.016587667 0.020198788 0.0010515861 4281829184
-0.014537342 0.019628108 0.0013383459 4281698113
-0.012481544 0.019057892 0.0016240198 4281762374
-0.010259628 0.017781697 0.0026139785 4281828164
-0.008353591 0.017919004 0.0021918695 4282025024
-0.0061154291 0.016644176 0.0031783823 4282154309
-0.0030231066 0.011840533 0.0076811891 4282351934
0.0028481409 -0.004252106 0.023425702 4282351934
-0.031613834 0.016128112 0.0046924856 4283328584
-0.030116491 0.018395692 0.00214177 4282676804
-0.028225414 0.018530935 0.0017222296 4282612544
-0.026194997 0.017956045 0.0020113029 4282742084
-0.024584591 0.019511759 0.00017522648 4282873153
-0.022840172 0.020357005 -0.00095108524 4283004989
-0.020806581 0.019782599 -0.00066244788 4283135549
-0.018617697 0.018499244 0.00033122674 4283069759
-0.028488696 0.0039823875 -0.0027533695 4284573239
-0.026584983 0.0041184053 -0.0031758156 4284311608
-0.02496212 0.0057053715 -0.0049917884 4284115769
-0.023063399 0.0058412477 -0.0054129604 4283985464
-0.021018706 0.0052521899 -0.0051384941 4283855669
-0.018671535 0.0032139421 -0.0034751361 4283593018
-0.016308226 0.0011769086 -0.0018152315 4283395649
-0.014390275 0.0013145804 -0.0022403542 4283003203
-0.01247219 0.0014523566 -0.0026654322 4282741573
-0.010553986 0.0015902668 -0.0030904459 4282676294
-0.008635655 0.0017282963 -0.0035154102 4282612033
-0.0065527298 0.0011427253 -0.0032488527 4282286398
-0.003795784 -0.0023363829 -0.00021984242 4282220863
-0.00033282861 -0.0087067634 0.0055645257 4282416959
0.0030057132 -0.014350444 0.010648642 4283135804
-0.032300539 0.0014126301 -0.0023559816 4282415938
-0.030659318 0.0030049384 -0.0041729966 4282285633
-0.028893553 0.0038686097 -0.0052912403 4281631049
-0.026995294 0.0040042102 -0.0057124943 4281565768
-0.025377505 0.0055951923 -0.0075241216 4281894974
-0.023627236 0.0064580739 -0.0086386949 4281764669
-0.021299534 0.0044117123 -0.0069760028 4281633853
-0.01895573 0.0023666471 -0.0053168451 4281698113
-0.016595781 0.00032281876 -0.0036611399 4281434953
-0.014834262 0.0011869222 -0.0047778925 4281500489
-0.012765355 0.00059781969 -0.0045101354 4281565769
-0.010849938 0.00073550642 -0.0049345465 4281565769
-0.0089344084 0.00087329745 -0.0053589111 4281697603
-0.0070187673 0.0010112152 -0.0057832124 4281566533
-0.0041012764 -0.0032049865 -0.0020717233 4281500999
-0.00064284727 -0.0095953494 0.0036988407 4281565768
0.0028636456 -0.015982121 0.0094588548 4282285888
-0.032305807 -0.00088953972 -0.0028065965 4281565768
-0.030661657 0.00070730597 -0.0046209944 4281436228
-0.028623573 0.0001129508 -0.0043486962 4280978503
-0.026717447 0.00024908781 -0.0047717104 4280979013
-0.024951294 0.0011151433 -0.005888273 4281044804
-0.023190305 0.0019809529 -0.0070035988 4281240899
-0.020998128 0.00065819919 -0.0060404995 4281045059
-0.018943258 6.557256e-05 -0.0057715261 4280979268
-0.016882919 -0.00052661449 -0.0055036498 4281239879
-0.014970563 -0.00038938224 -0.0059275618 4281239879
-0.012901962 -0.00098069757 -0.0056613823 4281304903
-0.010827914 -0.0015715286 -0.0053963428 4281174599
-0.0087484233 -0.0021618381 -0.0051324135 4281108808
-0.0066634789 -0.0027516857 -0.0048695607 4281370694
-0.0040728264 -0.0055246949 -0.0025448445 4281239624
-0.00061358884 -0.011934638 0.0032107458 4281434698
0.0025495254 -0.016885996 0.00758278 4281827908
-0.03218209 -0.0039286241 -0.0025658254 4282022218
-0.030532382 -0.0023269951 -0.0043782303 4281108808
-0.028354652 -0.0036556274 -0.0034155054 4281043784
-0.026440687 -0.0035189688 -0.0038402928 4280979268
-0.024666481 -0.0026501715 -0.0049570082 4280914499
-0.022897452 -0.0017815828 -0.0060725352 4280783683
-0.020843051 -0.002376616 -0.0058051599 4281044548
-0.018931113 -0.002239652 -0.006229165 4281175619
-0.016868435 -0.0028338283 -0.0059635052 4281109829
-0.014800295 -0.0034274831 -0.0056989631 4281305414
-0.012726691 -0.0040206388 -0.0054355515 4281109318
-0.010806229 -0.0038826391 -0.0058611156 4281109318
-0.0087243915 -0.0044750348 -0.0055993302 4281109064
-0.0066371225 -0.0050668716 -0.0053386902 4281305158
-0.0040446892 -0.007848531 -0.003020905 4281304903
-0.00092313066 -0.012818232 0.0013486873 4281565513
0.0020639189 -0.017055407 0.005025195 4282023493
-0.032188177 -0.0062411875 -0.0030240314 4282088263
-0.030535556 -0.0046350509 -0.0048337756 4281304904
-0.028490104 -0.0052333102 -0.0045664469 4281370694
-0.026576258 -0.0050966665 -0.0049912119 4281109829
-0.024662264 -0.0049599111 -0.0054159341 4281109829
-0.022748083 -0.004823029 -0.0058406116 4281109829
-0.020978831 -0.0039522201 -0.0069544474 4280979268
-0.019067027 -0.0038152933 -0.0073784394 4281044803
-0.017155088 -0.0036782622 -0.0078023849 4281240644
-0.014936872 -0.0050075725 -0.0068514096 4281240644
-0.012863595 -0.0056029707 -0.0065895943 4281174853
-0.010784879 -0.0061978847 -0.0063288463 4281239879
-0.0088617653 -0.0060595945 -0.0067549227 4281109064
-0.0067748241 -0.0066536665 -0.0064958753 4281305414
-0.0043496899 -0.0087117925 -0.0048689917 4281435463
-0.0015703626 -0.012232877 -0.0018777587 4281762373
-0.032065652 -0.009295024 -0.0027940515 4281891914
-0.030407466 -0.0076841414 -0.0046018269 4281370183
-0.028357029 -0.0082842335 -0.0043372512 4281370948
-0.02643799 -0.0081472471 -0.0047631934 4281436738
-0.024518788 -0.0080101341 -0.0051890817 4281502019
-0.022741646 -0.00713671 -0.0063031185 4281436738
-0.020824797 -0.0069995672 -0.0067283362 4281371458
-0.018907808 -0.0068622753 -0.0071534831 4281306179
-0.016990669 -0.006724894 -0.0075785993 4281240898
-0.014920533 -0.0073228106 -0.0073178224 4281436993
-0.012844905 -0.0079202577 -0.007058125 4281502528
-0.011080261 -0.0070470273 -0.0081689395 4281306944
-0.0089990869 -0.0076438636 -0.0079103149 4281045059
-0.0069124736 -0.008240141 -0.0076528378 4281371459
-0.0044880547 -0.010304876 -0.0060307309 4281633853
-0.0018786825 -0.013102673 -0.0037297681 4282873154
-0.03194385 -0.012357324 -0.0025703143 4282154053
-0.030411474 -0.010002516 -0.0050649904 4281305923
-0.028626785 -0.0091267154 -0.0061793253 4281370439
-0.026573837 -0.0097287372 -0.0059168935 4281632578
-0.024933517 -0.0081145018 -0.00771714 4281763649
-0.023019612 -0.0079776794 -0.0081417896 4281698369
-0.021250255 -0.0071025491 -0.0092523992 4281698113
-0.019044012 -0.0084417164 -0.0083055422 4281436738
-0.017127007 -0.0083043426 -0.0087306276 4281306689
-0.015057191 -0.0089044943 -0.0084714405 4281437503
-0.013137255 -0.0087666884 -0.008897014 4281828928
-0.011059195 -0.0093660578 -0.0086394362 4281763649
-0.0088150203 -0.010701925 -0.0077005513 4281242429
-0.0067234114 -0.01130005 -0.0074458495 4281764924
-0.0044603646 -0.012634367 -0.0065109283 4281960764
-0.0020179078 -0.01470425 -0.0048976615 4283592254
-0.032336883 -0.012461931 -0.0051045436 4284119084
-0.03080941 -0.010100968 -0.0075932313 4283922733
-0.028762251 -0.010705709 -0.0073312484 4283921969
-0.026846156 -0.010568991 -0.0077565759 4284512039
-0.023155302 -0.0095545724 -0.0092920735 4284578084
-0.021241389 -0.0094176754 -0.0097166672 4284643108
0.013218284 -0.03542994 -0.0067620557 4283005754
0.0161427 -0.039037652 -0.0038760742 4283331388
-0.01823584 -0.030888662 -0.0087701809 4283790899
-0.016730927 -0.028482914 -0.011218911 4283397944
-0.014939494 -0.027588546 -0.01232112 4282874938
-0.012845587 -0.028204396 -0.012080396 4282744634
-0.01105924 -0.027310163 -0.013181301 4282548283
-0.009118937 -0.027170762 -0.013611281 4282483004
-0.0070167221 -0.027785636 -0.013372125 4282155328
-0.0050735511 -0.027645797 -0.013802564 4282024768
-0.0029631518 -0.028259836 -0.013565032 4281894209
-0.00084732473 -0.028873421 -0.013328576 4282155074
0.0016188286 -0.03099367 -0.011759786 4282155328
0.0035756528 -0.030852348 -0.012192877 4281829949
0.005710341 -0.031464174 -0.0119603 4281763904
0.0074894987 -0.0305693 -0.013058806 4281829184
0.0099958703 -0.032686196 -0.011498502 4281698368
0.012889832 -0.036307164 -0.0086141098 4281828163
0.016375799 -0.042183541 -0.0037459088 4282546499
0.019331088 -0.045799799 -0.00087487698 4283328074
-0.018082753 -0.034009337 -0.0085990448 4282807873
-0.016572088 -0.031596728 -0.011044109 4282219843
-0.014775306 -0.03069976 -0.01214592 4281828674
-0.01267641 -0.031317487 -0.011907903 4281567043
-0.010884698 -0.030420646 -0.013008403 4281763394
-0.0089392327 -0.030280888 -0.013439542 4281763649
-0.0068320185 -0.030897647 -0.013203094 4281632579
-0.0047194026 -0.031513847 -0.012967804 4281240898
-0.0027683042 -0.0313733 -0.013399897 4281175618
-0.00081712008 -0.03123264 -0.013831934 4281436738
0.0011341423 -0.031091847 -0.014263893 4281371204
0.0032604225 -0.031706557 -0.01403123 4281436739
0.0052144937 -0.031565294 -0.014463617 4281370948
0.0073488951 -0.032179162 -0.01423257 4281501254
0.0096716136 -0.033547588 -0.013339786 4281174598
0.012561794 -0.037179723 -0.010462759 4281370694
0.016043402 -0.043073833 -0.0056067137 4282219078
-0.017639436 -0.038658381 -0.0070951935 4282805578
-0.016562127 -0.033959195 -0.011544345 4281762374
-0.014913432 -0.032300331 -0.013313366 4281501254
-0.013121787 -0.031401515 -0.014412271 4281370694
-0.01102313 -0.032021262 -0.014175801 4281305159
-0.009077806 -0.031881519 -0.01460691 4281239369
-0.0069709346 -0.032500483 -0.01437203 4281239368
-0.0050227493 -0.032360293 -0.01480359 4281044294
-0.0029077195 -0.032978386 -0.014570387 4281109574
-0.0011261106 -0.03207954 -0.015666509 4281175109
0.00065024942 -0.031180881 -0.016761409 4281240134
0.0027708709 -0.031798214 -0.016529089 4281044294
0.004896868 -0.032414995 -0.01629792 4281239369
0.0072083287 -0.033788696 -0.015406093 4281239369
0.00916503 -0.033647001 -0.015838867 4281238094
0.012234177 -0.038047567 -0.012307985 4281172813
0.015523367 -0.04320249 -0.0081241196 4282348363
-0.017924018 -0.039514013 -0.0089430762 4282739533
-0.016552486 -0.036325753 -0.012047553 4281435719
-0.015051514 -0.033900604 -0.0144806 4281043528
-0.013259832 -0.03299962 -0.015577881 4281304649
-0.011317436 -0.032860227 -0.01600845 4281239368
-0.0092163421 -0.033481866 -0.015774073 4281239368
-0.00727107 -0.033342034 -0.016205097 4281174088
-0.0051617846 -0.033962876 -0.015972303 4281108808
-0.00304709 -0.034583159 -0.015740661 4281044039
-0.0010962151 -0.034442522 -0.016172623 4281109318
0.00051094219 -0.03278131 -0.017928423 4281239623
0.0028057732 -0.034160852 -0.017036324 4281109064
0.0049340911 -0.034779653 -0.016807312 4281108809
0.0070677884 -0.035397947 -0.016579406 4281239113
0.0090243407 -0.035256252 -0.01701214 4281369164
0.012092173 -0.039669976 -0.013490805 4281499724
0.015004132 -0.043322146 -0.010634868 4282413389
-0.018208168 -0.040364958 -0.010787553 4282935884
-0.01669094 -0.037932262 -0.013219388 4281237839
-0.015039124 -0.036264554 -0.014982523 4281041998
-0.013244767 -0.035361171 -0.016078824 4281108044
-0.011455584 -0.034458056 -0.017173821 4281107789
-0.0093548335 -0.035081901 -0.016941009 4281108044
-0.0074097179 -0.034942076 -0.017372007 4281043018
-0.0054645054 -0.034802116 -0.017802922 4281108044
-0.003352806 -0.035424836 -0.0175722 4280977484
-0.0014047474 -0.035284422 -0.018003562 4281107789
0.00054338574 -0.035143875 -0.018434843 4281172813
0.0028403252 -0.036527589 -0.017546544 4281238604
0.0049709603 -0.037148386 -0.017319681 4281238603
0.0069272928 -0.037006855 -0.017752478 4281304393
0.0088836737 -0.03686519 -0.018185189 4281434443
0.011765182 -0.040530592 -0.015330835 4281629774
0.01467336 -0.044193968 -0.012482218 4282476118
-0.018781729 -0.039678216 -0.013957942 4281759059
-0.01697693 -0.038772203 -0.015055059 4281171538
-0.015327558 -0.03710027 -0.016814427 4280911439
-0.013535798 -0.036194928 -0.017908456 4281042253
-0.011593703 -0.036055587 -0.018338976 4281040723
-0.0096515007 -0.03591609 -0.018769411 4281172049
-0.0075483359 -0.036541842 -0.018538708 4281172814
-0.0056032725 -0.036401898 -0.018969594 4281041233
-0.0036581196 -0.036261812 -0.019400397 4280975444
-0.0015440136 -0.036886416 -0.019171761 4281237075
0.00057547539 -0.037510462 -0.018944269 4281302353
0.0027003586 -0.038133994 -0.018717879 4280714833
0.0046538077 -0.037992805 -0.019150143 4280649809
0.0066073164 -0.037851498 -0.019582322 4281172559
0.008743044 -0.03847383 -0.019358026 4281433423
0.011438608 -0.041386575 -0.017167406 4281824338
-0.019064687 -0.040515445 -0.015792416 4281888088
-0.017409883 -0.038838901 -0.017549807 4281497429
-0.01561556 -0.037931353 -0.018642874 4281235289
-0.01382643 -0.037024051 -0.019734709 4281300823
-0.011887148 -0.036884889 -0.020164592 4281430108
-0.0097897388 -0.037513353 -0.019934332 4281560924
-0.0078475885 -0.037373751 -0.020364678 4281625694
-0.0060686916 -0.036466673 -0.021453856 4281821023
-0.0041290149 -0.03632699 -0.021883456 4282017374
-0.023654141 -0.044052079 -0.019754644 4282667368
0.025931329 -0.0052680895 0.03296094 4285229863
0.02715311 -0.002341263 0.029700838 4285558049
0.02937416 -0.002888985 0.029957816 4285885723
0.032220937 -0.005519487 0.032319333 4285885724
0.034670141 -0.0067598447 0.033273626 4285819934
0.03670577 -0.0066112652 0.032824267 4285427234
0.038956195 -0.0071564689 0.033075113 4285427489
0.040559538 -0.0056201965 0.031226266 4285427744
0.041271687 -0.0013108477 0.026584174 4285493279
0.042174578 0.0023030192 0.022647563 4285820954
0.044628993 0.0010636598 0.023601163 4285951258
0.048690949 -0.0050248876 0.029432651 4286017049
0.021797659 -0.00011440367 0.025163203 4285361699
0.022805462 0.0035171509 0.021210987 4285558304
0.024390383 0.0050558373 0.019369032 4285689373
0.026372513 0.0052001923 0.018931251 4285754654
0.029181033 0.0025581643 0.021294624 4285951769
0.031592377 0.0013106689 0.022253972 4285755418
0.033802472 0.00076024234 0.022512015 4285558814
0.03601788 0.00021035224 0.022768911 4285493533
0.037369549 0.002444312 0.020233039 4285493533
0.038485251 0.0053728595 0.017003488 4285755674
0.03980219 0.00760445 0.014475491 4285623329
0.042454682 0.0056634843 0.016127929 4285558048
0.046034887 0.00094348192 0.020559214 4285689373
0.051036 -0.0079428703 0.029152174 4285689628
0.020478353 0.0024327114 0.019753855 4285427234
0.021669384 0.0053746849 0.016513634 4286149139
0.023241239 0.0069167465 0.014677908 4285557284
0.025209909 0.0070601255 0.0142431 4285491748
0.027797796 0.0051071122 0.015904363 4285623328
0.030401684 0.0031554252 0.01756214 4285689628
0.032598123 0.0026018173 0.017821543 4285558559
0.03479987 0.0020487309 0.018079806 4285493023
0.035921589 0.004986383 0.014855448 4285624094
0.037021942 0.0079225451 0.011635864 4286018324
0.038768146 0.0087642819 0.010506488 4285952278
0.041409258 0.0068159252 0.012156505 4285820954
0.044749565 0.0027770102 0.015885014 4285820953
0.04927386 -0.0047447681 0.023073331 4285821208
0.019943554 0.0021992624 0.017161675 4285229863
0.020931695 0.0058512092 0.013230246 4286018323
0.022495799 0.0073971301 0.01139948 4286017814
0.024659891 0.006838657 0.011664145 4286017814
0.027241722 0.0048786923 0.013321761 4285886743
0.029839579 0.0029199794 0.014975987 4285755418
0.031818811 0.0030644238 0.014539074 4285624350
0.033583827 0.0039094239 0.013406962 4285558813
0.034692857 0.0068548769 0.010191981 4285624094
0.036219608 0.0083988011 0.0083700102 4285689883
0.03818009 0.0085422993 0.0079375505 4285952789
0.040590297 0.0072865635 0.0088910889 4285952534
0.043693755 0.0039333552 0.011919394 4285886999
0.047284249 -0.00081633031 0.016325399 4285690139
0.019604906 0.0012708902 0.015273914 4285164328
0.020591222 0.0049336478 0.011351125 4285558814
0.02235359 0.0057801604 0.010220805 4285689628
0.024314001 0.0059229285 0.0097878184 4285689373
0.026892474 0.0039561167 0.01144129 4285623838
0.029486954 0.0019906014 0.013091315 4285623839
0.031463388 0.0021348521 0.012655027 4285624349
0.03322579 0.0029818863 0.011525091 4285558813
0.034549497 0.0052334666 0.0090102796 4285558814
0.036295872 0.0060795099 0.0078840982 4285624094
0.038036868 0.0069252849 0.0067591276 4285623839
0.039997187 0.0070688874 0.006326789 4285623583
0.042639509 0.0051075965 0.007966809 4285623838
0.046217859 0.00034169108 0.012364028 4285624349
0.052392989 -0.012135305 0.024338368 4285558558
0.019461822 -0.00035896897 0.014085773 4284901169
0.020053327 0.0047268048 0.008779766 4285493533
0.021810446 0.0055750683 0.0076522958 4285624349
0.023562247 0.0064230412 0.0065260734 4285689373
0.026131991 0.0044490993 0.0081764944 4285689118
0.028926242 0.001771152 0.010516753 4285689373
0.031108361 0.0012099892 0.010774339 4285689629
0.033081993 0.001354143 0.010338752 4285624093
0.034406155 0.0036123246 0.0078287851 4285624604
0.036152598 0.0044605583 0.0067042354 4285558813
0.037671838 0.0060127899 0.0048905928 4285624348
0.03940488 0.0068602562 0.0037691575 4285755164
0.041813996 0.0055958629 0.0047163963 4285886489
0.04538285 0.00081397593 0.0091041997 4285755163
0.051313855 -0.010999762 0.020363573 4285689373
0.019911498 0.0031126291 0.0076030921 4285559068
0.021268088 0.005379118 0.0050903689 4285689883
0.022608705 0.0076445118 0.0025813002 4285952278
0.025167074 0.0056631714 0.0042292867 4286018068
0.028366338 0.0015607625 0.0079488698 4286083858
0.030964714 -0.00041743368 0.0095881931 4285886999
0.032938216 -0.0002732724 0.0091526378 4285624349
0.034262829 0.0019914955 0.0066475179 4285624604
0.036009334 0.0028419197 0.0055245981 4285624604
0.037085593 0.005811438 0.002336774 4285689883
0.03858906 0.0073669925 0.00052998587 4285952279
0.040989671 0.006097585 0.0014758687 4285886488
0.044549014 0.0012997687 0.0058542099 4286017303
0.049539402 -0.0077292621 0.014342662 4286017559
0.019769698 0.001498729 0.0064266268 4285493279
0.020726539 0.0051922053 0.0025351048 4285689629
0.022062268 0.0074638426 3.2003969e-05 4285623329
0.024409171 0.0061852857 0.00098580495 4285623329
0.027391039 0.0027787536 0.004007468 4285952279
0.030188803 8.3692372e-05 0.0063338727 4285755419
0.031940743 0.00093649328 0.0052112415 4285623838
0.033471223 0.0024980828 0.0034015514 4285558814
0.034772255 0.0047678426 0.00090660341 4285689884
0.036057267 0.0070364848 -0.0015846845 4285886999
0.03755033 0.0085956752 -0.0033858772 4285557793
0.039939754 0.0073210746 -0.0024408139 4285557794
0.043257508 0.0032151416 0.0012433678 4285689119
0.047999799 -0.0051355883 0.0090292022 4285689373
0.054214589 -0.017727539 0.020906091 4285623838
0.019036215 0.0020229369 0.003177911 4285689629
0.020385705 0.0043019876 0.00067667663 4286084368
0.021719208 0.0065800175 -0.0018209945 4285689118
0.023652444 0.0067209005 -0.0022479091 4285558049
0.026209403 0.0047264174 -0.00060935132 4285755164
0.028782349 0.0027332604 0.0010257158 4285821209
0.030731585 0.0028756559 0.00059552304 4285624349
0.032464899 0.0037293881 -0.00052126125 4285558814
0.033755731 0.0060049072 -0.0030089784 4285624093
0.035030518 0.008279413 -0.0054931119 4286018323
0.036513187 0.0098421723 -0.0072886627 4285886489
0.038891412 0.0085624531 -0.0063444544 4285754908
0.042197198 0.0044425428 -0.0026674997 4285755418
0.046462532 -0.0025151819 0.0037351511 4285821208
0.051953979 -0.01301828 0.013539072 4285689628
0.017140403 -0.00044049323 0.0031271726 4285425958
0.017712787 0.0047050267 -0.002128562 4285427233
0.019645849 0.0048457012 -0.002555592 4285755673
0.021174192 0.0064152777 -0.0043585971 4285952788
0.022896918 0.007269986 -0.0054717362 4285887254
0.025029734 0.0066963881 -0.0052099209 4285953043
0.027378259 0.0054094642 -0.0042629428 4285558813
0.029311361 0.00555069 -0.0046895687 4285558814
0.031244447 0.0056920201 -0.0051161069 4285558814
0.032740768 0.0072599351 -0.006911546 4285558813
0.034447432 0.0081141219 -0.0080206431 4285624349
0.036148719 0.0089680627 -0.0091285147 4285689883
0.0382974 0.0083963647 -0.0088695697 4285755674
0.041138466 0.0056878328 -0.0065653417 4285690394
0.044927642 0.00013185292 -0.0015394147 4285624604
0.050400011 -0.010405354 0.0082439966 4285558813
0.016610835 -0.0006146878 0.00057810731 4285818913
0.016785402 0.0059797987 -0.0060403999 4285624094
0.018508153 0.0068364739 -0.00715206 4285690139
0.020427777 0.0069762766 -0.0075760465 4285689628
0.022347411 0.0071161836 -0.0079999454 4285624094
0.024682095 0.0058237314 -0.007053243 4285558303
0.026817251 0.0052482188 -0.006793512 4285493023
0.028957732 0.0046732351 -0.006534854 4285558813
0.030888021 0.0048143715 -0.0069607701 4285559068
0.032600109 0.0056710243 -0.0080695059 4285559068
0.034306835 0.0065274239 -0.0091769584 4285492769
0.036008179 0.0073835701 -0.010283189 4285492514
0.038156532 0.0068096593 -0.010025818 4285492514
0.040767841 0.0048069879 -0.0084084868 4285558814
0.044089627 0.0006621927 -0.0047546932 4285493279
0.049316771 -0.0091943443 0.0043271855 4285427488
0.016664062 -0.0029379427 9.5482916e-05 4286343193
0.016842902 0.0036764443 -0.0065091355 4285360423
0.018369043 0.0052545369 -0.008305205 4285624094
0.020490516 0.0046755224 -0.0080443379 4285558813
0.022617349 0.0040969625 -0.0077845324 4285558813
0.02474951 0.0035189539 -0.0075258547 4285624603
0.026887 0.0029414371 -0.0072682789 4285493024
0.029029818 0.0023644269 -0.0070117889 4285559068
0.030962635 0.0025057644 -0.0074382583 4285624858
0.032677449 0.0033648089 -0.0085459417 4285624859
0.034607552 0.0035061538 -0.0089716455 4285558814
0.036314305 0.0043648481 -0.010077374 4285558304
0.038467642 0.003789179 -0.0098227775 4285558558
0.040626273 0.0032139942 -0.0095692715 4285492513
0.043484122 0.00048933923 -0.0072817383 4285493023
0.048703052 -0.0093983039 0.0017788988 4285492768
0.017489426 -0.00079512596 -0.0049277162 4285490983
0.019026484 0.00078807771 -0.0067228666 4285623838
0.020956498 0.00092863292 -0.0071491478 4285689629
0.023295447 -0.00037230551 -0.0062100897 4285689884
0.025437949 -0.00095178187 -0.0059552984 4285623584
0.027375979 -0.00081031024 -0.006383094 4285558049
0.029526461 -0.0013889447 -0.0061299382 4285558048
0.03146714 -0.0012470335 -0.0065581398 4285689884
0.0334078 -0.0011050254 -0.006986252 4285689884
0.035127971 -0.00024326146 -0.0080933748 4285624094
0.036842767 0.00061824918 -0.0091992756 4285623583
0.038777988 0.00076019764 -0.0096259387 4285623584
0.040941626 0.00018318743 -0.0093751131 4285426468
0.043803882 -0.002549842 -0.0070951721 4285492258
0.048791483 -0.011749193 0.0012657549 4285492259
0.017938174 -0.0045603961 -0.0040416187 4285557029
0.019483479 -0.0029722452 -0.0058353236 4285623329
0.021421349 -0.0028311238 -0.0062633371 4285623584
0.023767766 -0.0041358918 -0.0053292206 4285623584
0.025917921 -0.0047169328 -0.0050777951 4285623839
0.027863808 -0.0045748875 -0.005507323 4285623839
0.029809691 -0.0044327229 -0.0059367595 4285623839
0.031755559 -0.0042904392 -0.0063661104 4285689630
0.033919003 -0.0048700571 -0.0061172815 4285689374
0.03586749 -0.0047273636 -0.0065470384 4285623838
0.037593018 -0.0038629025 -0.0076535931 4285557794
0.03953876 -0.0037201792 -0.0080825752 4285492513
0.041256204 -0.0028560758 -0.0091871815 4285492259
0.044122882 -0.0055975467 -0.0069147358 4285360934
0.049113132 -0.014825061 0.0014242567 4285295399
0.017993625 -0.0068869889 -0.0045273677 4285425959
0.019541841 -0.005294241 -0.0063184118 4285491748
0.021885052 -0.0066037178 -0.005386957 4285492259
0.024034869 -0.0071870983 -0.0051371995 4285492259
0.026190026 -0.0077700317 -0.0048884954 4285492513
0.02793169 -0.0069027469 -0.0059974566 4285558049
0.029880095 -0.0067603961 -0.006427451 4285623838
0.032043234 -0.0073423758 -0.0061802305 4285558303
0.034211673 -0.0079238191 -0.0059341453 4285558304
0.036165353 -0.0077807158 -0.0063650291 4285558049
0.038118992 -0.0076375157 -0.0067958254 4285492258
0.039847195 -0.0067705661 -0.0079012522 4285426469
0.041570015 -0.0059038401 -0.0090054357 4285426468
0.044441104 -0.0086536855 -0.0067405254 4285360678
0.049433999 -0.017909348 0.0015765317 4285360678
0.017656956 -0.0077617094 -0.00637527 4285491749
0.019599851 -0.0076203495 -0.006804496 4285491748
0.021945197 -0.0089340061 -0.005876787 4285492004
0.024097351 -0.0095194578 -0.0056291521 4285426468
0.026048282 -0.0093771592 -0.0060598757 4285492513
0.028208427 -0.0099617243 -0.0058138575 4285558304
0.030162022 -0.0098189861 -0.0062449947 4285623839
0.032115601 -0.0096761286 -0.006676035 4285558048
0.033851951 -0.0088067502 -0.00778188 4285558049
0.036022697 -0.0093900859 -0.0075378492 4285426723
0.037976194 -0.0092468709 -0.0079686046 4285426468
0.040154856 -0.0098293722 -0.0077261329 4285360678
0.042110935 -0.0096857399 -0.0081572793 4285360678
0.044758566 -0.011718348 -0.0065724365 4285426469
0.049754113 -0.021002173 0.0017226785 4285426469
0.018103482 -0.011552423 -0.0055077262 4285557028
0.02005423 -0.01141049 -0.005938679 4285491748
0.022004994 -0.011268452 -0.0063695591 4285557538
0.023955775 -0.011126265 -0.0068003349 4285557794
0.025906565 -0.010983959 -0.007231025 4285623074
0.028275385 -0.012299947 -0.0063115358 4285623329
0.030231498 -0.012157016 -0.0067432187 4285623839
0.032401945 -0.012742758 -0.006500937 4285558303
0.034360688 -0.012599409 -0.0069330297 4285426468
0.0365391 -0.013184391 -0.0066922754 4285360934
0.038722791 -0.013768829 -0.0064526536 4285295654
0.040911775 -0.014352754 -0.0062140971 4285229608
0.043333713 -0.015663981 -0.0053056739 4285360678
0.045766268 -0.016974382 -0.004399471 4285230119
0.050772451 -0.026285738 0.0038719717 4285295143
0.018353373 -0.014623605 -0.0053259972 4285556519
