# .PCD v0.7 - Point Cloud Data file format
VERSION 0.7
FIELDS x y z rgba
SIZE 4 4 4 4
TYPE F F F U
COUNT 1 1 1 1
WIDTH 509
HEIGHT 1
VIEWPOINT 0 0 0 1 0 0 0
POINTS 509
DATA ascii
-0.0068507865 0.0038273931 0.038988255 4287706170
-0.0049031377 0.0046667904 0.037827387 4289144879
-0.0022549033 0.0012977794 0.041000269 4289799209
0.00066079944 -0.003471747 0.045610569 4291433249
-0.0099252909 0.0076101124 0.032426335 4287575353
-0.0082206652 0.009858191 0.029827742 4288622130
-0.0061875284 0.00999403 0.029395813 4290062368
-0.0036844239 0.007315658 0.03184595 4289276459
-0.001039654 0.0039354414 0.035011493 4289602858
0.0020003393 -0.0015525594 0.040329553 4289668394
0.005083248 -0.0070375651 0.045638576 4288294453
-0.012420774 0.0078991577 0.029486882 4289210669
-0.010934487 0.011566341 0.025451759 4289080108
-0.0091388747 0.013113394 0.023582516 4289669669
-0.0070099384 0.012541965 0.023874024 4288819244
-0.0046409369 0.010559395 0.025602313 4288950058
-0.0020158514 0.0071668029 0.028763929 4289800483
0.00075871497 0.0030706897 0.032637693 4290061858
0.0031897351 0.0010925606 0.034353025 4288949549
0.0055090189 -0.00017926097 0.035348296 4289212455
0.0075779855 -4.0456653e-05 0.034909174 4289538089
0.009913668 -0.0013109744 0.035901114 4287182908
-0.014898643 0.0082030073 0.026553763 4286789698
-0.0134065 0.0118815 0.022525342 4289081129
-0.011613548 0.013432644 0.020659806 4289604389
-0.009607546 0.013566487 0.020233503 4290258463
-0.0076013207 0.013700433 0.019807229 4290193184
-0.0052436441 0.011710472 0.021533037 4290193184
-0.0027500018 0.0090138465 0.023972237 4290455069
-0.00011237711 0.0056111291 0.027123133 4289473573
0.0019266978 0.0057476759 0.026690179 4289538854
0.0038381964 0.0065916479 0.025542127 4289277224
0.0058749914 0.0067282468 0.025109807 4289472553
0.0083112642 0.0047441423 0.026819361 4289733673
0.011442564 -0.0007725209 0.032092474 4289275948
0.014755182 -0.0069927722 0.038069367 4291106593
0.017833814 -0.011796869 0.042611584 4288621108
-0.017056212 0.0063878745 0.025784442 4287313468
-0.015550196 0.010078162 0.021761062 4288688684
-0.01385814 0.01234486 0.019179499 4289146409
-0.011746272 0.011767603 0.019471189 4289866018
-0.0098519474 0.012611978 0.018328005 4289800739
-0.0078485161 0.012745678 0.017902279 4289538853
-0.0056110695 0.01145909 0.018908108 4289081384
-0.0032431632 0.0094632506 0.020626927 4289735714
-0.00098128617 0.0081784949 0.021627711 4289473828
0.0007918328 0.0097332671 0.019770028 4289473828
0.0026820451 0.010577954 0.018628145 4289735203
0.0046973675 0.010713086 0.018200355 4290127904
0.0069786757 0.0094300434 0.019197317 4289604389
0.0096776262 0.0060209185 0.022327473 4289604389
0.01281821 0.00048731267 0.027585706 4290192419
0.015578881 -0.0029174611 0.030702909 4288753198
0.018653642 -0.0077371746 0.035234742 4288688429
0.021765925 -0.012554221 0.039758645 4287248443
-0.017894804 0.0097023174 0.019561844 4289864489
-0.015993118 0.010549054 0.018418463 4290389278
-0.01388444 0.0099692419 0.018709114 4290716699
-0.011878915 0.010102861 0.018282773 4289931554
-0.009984538 0.010949396 0.017141158 4289996834
-0.0079812407 0.011083059 0.016715439 4289669923
-0.0058609992 0.010504417 0.017003926 4289277734
-0.0036157966 0.0092140213 0.018004926 4289408548
-0.0016038641 0.0093485638 0.017577598 4289604899
0.00028353184 0.010195114 0.016437816 4289343013
0.001910992 0.012464859 0.013875389 4290455069
0.0035226196 0.014733694 0.011316368 4289669924
0.0056493506 0.014156096 0.011603931 4288492333
0.0083232597 0.010734253 0.014731282 4288492333
0.011300169 0.0058922768 0.019272344 4289081128
0.014033131 0.0024745911 0.022387309 4289539363
0.017079785 -0.0023624152 0.026913708 4289146919
0.020894423 -0.010749161 0.034972019 4288753199
-0.020227477 0.0093365535 0.017366918 4288491058
-0.018529758 0.01161661 0.014793614 4290389534
-0.016538158 0.011749066 0.014370063 4289081128
-0.014334537 0.010450937 0.015376264 4290258718
-0.012120023 0.0091535971 0.016380267 4289866018
-0.010005832 0.0085721239 0.016668255 4289996833
-0.0079999864 0.0087059215 0.016241962 4289473574
-0.0061104745 0.009554483 0.015103111 4289343014
-0.0041068643 0.0096883327 0.014677448 4289604899
-0.0022249445 0.010536589 0.013540352 4289343013
-0.00022361428 0.010670498 0.013115326 4289343013
0.0013962239 0.012946352 0.010559307 4289669668
0.0027404651 0.016648732 0.0065871924 4290062368
0.0049861073 0.015354417 0.007585207 4290062879
0.0075130761 0.012634136 0.0099983048 4289800993
0.010613173 0.0070625246 0.015239207 4290062368
0.013474993 0.0029200017 0.019056058 4289669668
0.016798731 -0.0033588409 0.024986995 4289211944
0.020900249 -0.013197683 0.034439676 4288296494
-0.022453204 0.0082626119 0.015891774 4288425779
-0.021043114 0.012703784 0.011177095 4289603878
-0.019363642 0.014989167 0.0086124819 4288688683
-0.017287746 0.014402561 0.0089067966 4288557869
-0.014783494 0.010946177 0.012053141 4289015849
-0.012360714 0.0082090497 0.014481114 4290389278
-0.010249496 0.0076251328 0.014768081 4289931554
-0.0082464367 0.0077587143 0.014342362 4289538853
-0.006475918 0.0093261525 0.012494585 4289670179
-0.0044777766 0.0094596073 0.012070062 4289604899
-0.002479434 0.0095931813 0.011645569 4289408549
-0.00048089772 0.0097268671 0.011221113 4289670178
0.0011366829 0.012009107 0.0086704493 4289343270
0.0027384385 0.014290407 0.0061231665 4289343269
0.0048538819 0.013707615 0.0064098537 4289016104
0.0073800087 0.010978438 0.0088166371 4289212198
0.010340825 0.0061044917 0.013338426 4289866529
0.013479549 0.00051798671 0.018558202 4289211944
0.016947292 -0.006495744 0.025179768 4288426544
0.02076003 -0.014935456 0.033199579 4286856509
-0.02476491 0.0079145804 0.013704384 4288162619
-0.023153707 0.010928594 0.010424832 4288883759
-0.02166114 0.01466161 0.0064364281 4289996323
-0.019894376 0.016232543 0.0045922827 4289931553
-0.017829463 0.015643008 0.0048872344 4289604389
-0.015231334 0.011455007 0.0087396372 4289735203
-0.012817383 0.0087084621 0.011162991 4290193184
-0.010714471 0.0081217363 0.01145008 4289669668
-0.0086060017 0.0075355098 0.011736067 4289866273
-0.0069567785 0.0098259896 0.0091831908 4289670179
-0.0049667731 0.0099588856 0.008760374 4289931808
-0.0030981004 0.010810576 0.0076292772 4290520603
-0.00098615885 0.010224991 0.0079148263 4290586139
0.0010044277 0.010358229 0.0074921213 4289800993
0.0028656572 0.011209741 0.0063628331 4289605409
0.0049861297 0.010625049 0.0066468101 4289735458
0.0075167567 0.0078873485 0.0090461522 4289669923
0.010481521 0.002998285 0.013555719 4289146408
0.013764247 -0.0033231005 0.01946613 4287707188
0.017238066 -0.010358423 0.026070153 4286398528
-0.025171749 0.0084310398 0.010385765 4288033843
-0.023378581 0.010007903 0.0085390657 4288950313
-0.021790557 0.01302921 0.0052709356 4289473575
-0.020023562 0.014604516 0.0034299437 4289996579
-0.017958939 0.014012732 0.0037233122 4289342504
-0.015467338 0.010533407 0.0068561174 4289800739
-0.013272926 0.009221442 0.0078545604 4289735204
-0.011288993 0.0093536004 0.0074327886 4289538853
-0.0091914982 0.0087643489 0.0077195037 4289997344
-0.0073205009 0.0096182004 0.0065893084 4289670178
-0.0055733249 0.011192881 0.0047530401 4289997344
-0.0035939291 0.011325121 0.0043325201 4289997344
-0.0013662875 0.010015987 0.0053243563 4290978838
0.00099891424 0.0079870969 0.0070195943 4289997343
0.0031215847 0.0074002072 0.0073013846 4289801248
0.0051177293 0.0075339898 0.0068776291 4289670178
0.0079222247 0.0033477023 0.010677306 4289473828
0.010896295 -0.0015562102 0.015173605 4288296238
0.014187969 -0.0078968331 0.021067543 4286726459
-0.025118202 0.005335547 0.010633798 4288099634
-0.023413986 0.007642068 0.0080782566 4288491825
-0.02162835 0.0092228726 0.0062364172 4288622893
-0.019853123 0.010803126 0.0043968428 4289342503
-0.017780811 0.010209598 0.0046869218 4289473063
-0.015808105 0.010340758 0.0042673573 4289931299
-0.013835184 0.010472022 0.003847817 4289996835
-0.011972554 0.011327244 0.0027208962 4289931809
-0.0098886937 0.010734893 0.0030088238 4289670179
-0.0081468448 0.012313493 0.0011768192 4289670179
-0.0064154342 0.013891481 -0.00065289624 4288427054
-0.0043309927 0.013299495 -0.00036485493 4288688683
-0.0018694848 0.010539047 0.0020358488 4289343013
0.00061357766 0.0077801645 0.0044320766 4289735714
0.0028597713 0.00646808 0.0054168757 4289997599
0.0051168203 0.0051568076 0.0063994508 4289670433
0.0080573112 0.00023510307 0.010891454 4289016359
0.011035323 -0.0046839193 0.015375545 4288100909
0.014190737 -0.01032225 0.020552969 4286596153
-0.024973616 0.0015042499 0.01158548 4287771449
-0.023260996 0.0038178563 0.0090330169 4288164658
-0.021467134 0.0054035857 0.0071925856 4288165168
-0.019584008 0.0062619522 0.0060626063 4288361519
-0.017808333 0.0078466386 0.0042262319 4288623404
-0.016043097 0.0094307885 0.0023921244 4289081129
-0.014288291 0.01101432 0.00056035817 4289473574
-0.012433611 0.011871167 -0.0005632937 4290062114
-0.010471068 0.012001924 -0.00098050199 4290062369
-0.0087396577 0.013584204 -0.0028071404 4290062369
-0.0070187002 0.01516588 -0.0046314094 4289408038
-0.0049452186 0.014570929 -0.0043426827 4289277223
-0.0023715422 0.011075728 -0.0012430064 4290258463
0.00035533309 0.0068574622 0.0025534816 4290520604
0.0027273744 0.0048158616 0.0042376015 4289801249
0.0052472949 0.0020508394 0.0066196751 4288820773
0.008326076 -0.003610462 0.01180025 4288298023
0.011173703 -0.0078202263 0.015571414 4287709994
-0.024921492 -0.0016105548 0.011819711 4287771449
-0.023108982 -1.9289553e-05 0.0099784601 4287902774
-0.021306902 0.0015713274 0.0081395321 4288230704
-0.019515216 0.0031613559 0.0063029043 4288165679
-0.017836146 0.0054796189 0.0037625581 4288231214
-0.016068026 0.0070683137 0.0019310284 4288296238
-0.014417812 0.0093848407 -0.00060296804 4288819499
-0.012673251 0.010972179 -0.002429327 4289408038
-0.010713495 0.011102699 -0.0028459746 4289342503
-0.0092155039 0.014145032 -0.0060751131 4289473574
-0.0075023323 0.01573056 -0.0078945244 4289408038
-0.0053163394 0.014405251 -0.0069036847 4289277224
-0.0027490035 0.010898568 -0.0038107205 4289800739
9.7513199e-05 0.0059394166 0.00067828596 4289670179
0.0027238801 0.0024369434 0.0037588403 4289277734
0.0055085868 -0.0017904565 0.0075334888 4289344034
0.0081913397 -0.0052889735 0.010602267 4288626463
0.01062727 -0.0073325261 0.01226818 4288758298
-0.025144003 -0.0025387183 0.0099278409 4287641654
-0.023239933 -0.0016748086 0.0087963846 4288034099
-0.021340951 -0.00081118196 0.0076661259 4288100399
-0.019447073 5.2221119e-05 0.0065370258 4287969583
-0.017660268 0.001646392 0.0047047175 4288231213
-0.015988573 0.0039708316 0.0021708384 4288231214
-0.014225326 0.0055636838 0.00034363568 4288231214
-0.01247254 0.0071558878 -0.0014812276 4288558123
-0.0107302 0.0087475106 -0.0033037867 4288754473
-0.0092289671 0.011798829 -0.0065271603 4288885033
-0.0073949248 0.012659013 -0.0076430449 4288950313
-0.0053247288 0.012059331 -0.0073568588 4289146663
-0.0028790683 0.0092713609 -0.0049722269 4289735714
9.2051923e-05 0.0035673007 0.00020502508 4289081893
0.0028487295 -0.00067535788 0.0039758701 4289082914
0.0056375861 -0.0049157068 0.0077399313 4288887838
0.007788673 -0.0055093691 0.0080093127 4288300063
-0.025092632 -0.0056639388 0.010154534 4287575353
-0.023183167 -0.0047975332 0.0090235732 4287771959
-0.021375284 -0.0031977668 0.0071897823 4288100398
-0.019379541 -0.0030654296 0.0067650583 4288165678
-0.017485395 -0.0021997616 0.00563756 4288231469
-0.015700817 -0.00060127676 0.0038090013 4288165679
-0.014033817 0.0017295256 0.0012810286 4288100143
-0.012382619 0.0040593818 -0.0012435168 4288492844
-0.010634728 0.0056557432 -0.0030640438 4288820009
-0.0090124533 0.0079838857 -0.0055822823 4288362028
-0.0071703643 0.0088467374 -0.0066982359 4288623403
-0.0052129477 0.008977361 -0.0071141925 4289016360
-0.0026396438 0.0054490641 -0.0040387306 4288623658
8.6307526e-05 0.0011910349 -0.0002711378 4288493608
0.0029729232 -0.0037961528 0.0041867718 4288495139
0.0053724721 -0.0058556497 0.0058505442 4287972134
-0.024768949 -0.011006154 0.012485629 4287182908
-0.022939771 -0.0094007477 0.01065048 4287575608
-0.021217316 -0.0070601329 0.0081152134 4288099634
-0.019312665 -0.0061916783 0.0069870204 4288230958
-0.017413117 -0.0053234696 0.0058599748 4288165934
-0.015622996 -0.0037202314 0.0040333867 4288231469
-0.014057249 -0.0006474033 0.00080892816 4288165934
-0.012293346 0.00095430017 -0.0010118689 4288231469
-0.010539919 0.0025554225 -0.002830416 4288623658
-0.0086819679 0.0034213886 -0.0039482284 4288296493
-0.0068291798 0.0042871162 -0.0050648693 4288165678
-0.0048612207 0.0044184253 -0.0054830741 4288165678
-0.0024012402 0.0016137734 -0.0031144489 4287970348
8.0265105e-05 -0.0011893138 -0.00075029954 4288298789
-0.019147627 -0.010064252 0.0079030339 4287380023
-0.017442957 -0.007718049 0.005376583 4287904304
-0.015649952 -0.0061102435 0.0035525933 4287969328
-0.013974167 -0.0037657544 0.0010324474 4288165934
-0.012204722 -0.0021593049 -0.00078637525 4288100654
-0.010445729 -0.00055345893 -0.0026028473 4288427308
-0.0086972117 0.0010518208 -0.0044170581 4288296493
-0.0067242458 0.0011833236 -0.0048364401 4288035119
-0.0047511011 0.0013149604 -0.0052557662 4288165934
-0.0024094135 -0.00076200813 -0.003589686 4287970348
-5.1535666e-05 -0.0028377399 -0.0019269437 4288232998
-0.017371804 -0.010856576 0.0055883229 4286922809
-0.015677199 -0.0085044205 0.003068896 4287707953
-0.01410497 -0.0054136217 -0.00014405511 4287969839
-0.012226015 -0.0045421422 -0.0012633018 4287904303
-0.010464132 -0.0029317066 -0.0030772202 4288492844
-0.0087127388 -0.0013218895 -0.0048887916 4288231214
-0.0068545341 -0.00045142323 -0.0060034366 4288231469
-0.0048815161 -0.00031983107 -0.006422759 4288165934
-0.0025404841 -0.0024034455 -0.0047613941 4288101674
-0.00018328428 -0.0044858456 -0.0031033717 4288560419
-0.010818169 -0.0030900314 -0.0056372294 4288427819
-0.0089574382 -0.0022173151 -0.0067508789 4288230959
-0.0069847479 -0.002085872 -0.0071702311 4288100654
-0.0050118715 -0.0019543096 -0.0075895311 4288035628
-0.0030388236 -0.0018226281 -0.0080088051 4288363303
-0.0092017353 -0.0031080619 -0.0086095529 4287250738
-0.007231839 -0.0029768273 -0.0090283239 4287904303
-0.0052617714 -0.0028454736 -0.0094470577 4287970859
-0.0035360456 -0.0012283027 -0.011246496 4288037414
0.017018124 -0.0083743557 0.012367649 4283395393
0.019057475 -0.0082370713 0.011935161 4282021964
0.021547485 -0.01027637 0.013590043 4282542164
0.011828706 -0.0052382126 0.0071519334 4284318493
0.013848942 -0.0051024631 0.0067233238 4282483259
0.015435331 -0.0027820393 0.0042087995 4281177403
0.017153196 -0.0011905953 0.0023925118 4280329019
0.019460484 -0.0025109425 0.0033552721 4280000578
0.022541944 -0.0074686036 0.0077839885 4278958903
0.02612691 -0.014605932 0.014284002 4281175364
0.011276692 -0.0047195181 0.003872931 4282547518
0.01314697 -0.0038537607 0.0027517378 4281765433
0.014723085 -0.0015275031 0.00024426356 4281113143
0.016136155 0.0015280321 -0.0029529631 4281697859
0.01842694 0.0002021566 -0.001989942 4281370183
0.021338485 -0.0040422156 0.0017390735 4280002108
0.024437342 -0.0090139881 0.0061528664 4281372478
0.027573682 -0.013983078 0.010558775 4281632834
0.030266002 -0.016761638 0.012885807 4281762374
0.0084494203 -0.0028555021 -0.00035886467 4283136824
0.010308899 -0.0019884035 -0.0014762506 4281635129
0.012163192 -0.0011215657 -0.0025924668 4281113143
0.013723679 0.00121025 -0.0050918311 4278963494
0.015415274 0.002808705 -0.0068961047 4281567553
0.017694861 0.0014776662 -0.0059339553 4281502529
0.020442199 -0.0020486787 -0.002902586 4281111359
0.023371343 -0.0063050017 0.00081312098 4281047353
0.026017308 -0.0090956241 0.003143413 4281240898
0.029005364 -0.013347663 0.0068467837 4281436740
0.032188542 -0.018328749 0.011231629 4282021963
0.0059179887 -0.0024381503 -0.0031945817 4283593273
0.0076358914 -0.00083401054 -0.0050016232 4281700664
0.0094820857 3.4369528e-05 -0.0061145881 4281439288
0.011323065 0.00090250373 -0.0072263665 4281242428
0.013014719 0.0025052503 -0.0090275742 4280330038
0.014695846 0.0041073635 -0.010826416 4280590394
0.017113727 0.0020366833 -0.0091756545 4280589884
0.020004157 -0.0022355244 -0.0054615708 4280524604
0.022926729 -0.0065054372 -0.0017541964 4281176384
0.025723957 -0.010039188 0.0012586806 4281240389
0.028868273 -0.015038438 0.005640408 4281695819
0.032050043 -0.020034991 0.010014249 4282673998
0.0037959665 -0.0042196289 -0.0039484799 4282484533
0.0052526966 -0.0011354461 -0.0071360813 4281895228
0.0068242028 0.0012099221 -0.0096283816 4281176894
0.008795701 0.0013422146 -0.010046791 4281242428
0.010767318 0.0014746264 -0.010465145 4281046588
0.012451202 0.0030811951 -0.012261439 4281046334
0.014271133 0.0039503425 -0.013366971 4281176128
0.016832277 0.0011360571 -0.011031952 4281240898
0.019718826 -0.0031496584 -0.0073267007 4280914753
0.022792127 -0.0081693158 -0.0029414762 4280979523
0.025745608 -0.012450263 0.00074978359 4281825103
0.028891176 -0.017464779 0.0051198881 4282346069
0.0030117929 -0.0021669492 -0.0085760104 4282156348
0.004455775 0.00092515349 -0.011754446 4280522054
0.0061500892 0.0025364682 -0.013550047 4281107023
0.0083876401 0.0011888593 -0.012589011 4278375463
0.010636002 -0.00015787035 -0.011630219 4280394553
0.012751393 -0.00076454133 -0.011361063 4281046334
0.014432929 0.0008463487 -0.013153557 4281176893
0.016998574 -0.0019764677 -0.010825914 4280979778
0.019889221 -0.0062750801 -0.0071312794 4280783938
0.022966463 -0.011309907 -0.0027581546 4281567809
0.025452703 -0.01338876 -0.0011313427 4282216018
0.028434426 -0.017680861 0.002544323 4282411093
-0.014578938 -0.0072206333 -0.0038840566 4283068229
0.00052189082 -0.0017081499 -0.011392203 4282221118
0.0023597181 -0.00083417445 -0.01249886 4281244214
0.0037935898 0.0022660345 -0.015668705 4280785978
0.0056130514 0.0031390414 -0.016771287 4282086223
0.0079803541 0.001044713 -0.015124742 4279743793
0.010363802 -0.0010484681 -0.013481498 4278376228
0.012763392 -0.0031404272 -0.011841589 4281046078
0.014740337 -0.0030074343 -0.012260907 4281242683
0.017313112 -0.005838573 -0.0099412398 4281307199
0.02005896 -0.0094090328 -0.0069418894 4281240899
0.022831585 -0.012977548 -0.0039481204 4281562453
0.025317132 -0.01506307 -0.0023260172 4282280533
-0.014815308 -0.0081170574 -0.0057489919 4282088263
-0.013487995 -0.0035098195 -0.010320005 4281567298
-0.011635371 -0.0026334599 -0.011428782 4281764413
-0.0095597059 -0.0032484904 -0.011155379 4282222139
-0.0075952858 -0.0031176358 -0.011572995 4284246583
-0.0020752102 -0.00048969686 -0.014890365 4282742084
-0.0001180917 -0.00035887212 -0.0153061 4281307709
0.0015790239 0.0012610927 -0.017095998 4280527154
0.0031328723 0.0036248714 -0.019570157 4281632578
0.0048062876 0.0052434951 -0.02135485 4281697349
0.0071595684 0.0031416267 -0.019710183 4281372734
0.0098105073 -0.00044669956 -0.016699135 4281113143
0.012488239 -0.0040330812 -0.013693684 4280983348
0.014754534 -0.0053872317 -0.012744953 4281568829
0.017477866 -0.0089703277 -0.009749 4281633089
0.020076584 -0.011808395 -0.0074412059 4281562963
0.022696752 -0.014644898 -0.0051378664 4281757529
0.024868101 -0.015251584 -0.004883362 4282149464
0.02736374 -0.017342947 -0.0032681245 4282541654
-0.014945358 -0.0097570941 -0.0069199326 4282021963
-0.013508551 -0.0058847889 -0.010791411 4281697859
-0.011764467 -0.0042581111 -0.012588673 4281501508
-0.0099169314 -0.0033797547 -0.013694723 4281959488
-0.0080745518 -0.002501674 -0.01479957 4282351168
-0.0061180964 -0.002371259 -0.015215431 4283004479
-0.0041614622 -0.0022407323 -0.015631255 4282285888
-0.0022046342 -0.002110064 -0.016047023 4281697859
-0.00050213933 -0.00048547983 -0.017834935 4281047099
0.0010599419 0.0018852949 -0.020306107 4280589884
0.0026061758 0.0042551383 -0.022773821 4280198713
0.0044070408 0.0051312521 -0.023869246 4280394043
0.0066164136 0.0037685186 -0.022911943 4280002874
0.0092583075 0.00016859919 -0.019907054 4280591924
0.012070246 -0.0041752383 -0.016225066 4281242938
0.014768425 -0.0077711418 -0.013231938 4281371969
0.017493382 -0.011365108 -0.010244394 4281629264
0.01994266 -0.013466544 -0.0086244401 4281888343
0.022408046 -0.015566729 -0.0070078541 4281953114
0.02473297 -0.016920827 -0.0060744341 4282017373
-0.015075371 -0.011396848 -0.008090673 4281956174
-0.013637818 -0.007513538 -0.011954268 4281827144
-0.011782438 -0.0066326335 -0.013060433 4281631814
-0.010159694 -0.004251942 -0.015540184 4281566533
-0.0082035288 -0.0041216835 -0.015956074 4281697348
-0.0062472001 -0.0039912984 -0.016371921 4281567044
-0.004412435 -0.0031113252 -0.017473377 4281632834
-0.0025828183 -0.0022315904 -0.018573657 4281110849
-0.0010124967 0.00014620274 -0.021041825 4281436738
0.00054196268 0.0025230497 -0.023506552 4281306434
0.0022129864 0.0041501373 -0.025284398 4281241409
0.0041436106 0.0042795092 -0.02569427 4281110594
0.0066252723 0.0014153495 -0.023375031 4281176384
0.0092687979 -0.0021954402 -0.020378556 4281307963
0.012082197 -0.006552361 -0.016706556 4281111360
0.014636267 -0.0094112828 -0.014402406 4281562708
0.01750857 -0.013763987 -0.010742722 4281953623
0.019808766 -0.015124388 -0.0098074656 4282149464
0.022273466 -0.017231233 -0.0081955846 4282148698
-0.015205331 -0.013036303 -0.0092612114 4281890383
-0.013658814 -0.0098945573 -0.012430002 4281565003
-0.012022525 -0.0075065419 -0.014907838 4281696073
-0.010288477 -0.0058716163 -0.016696498 4281566023
-0.0083324611 -0.0057413876 -0.017112374 4281566534
-0.0063762665 -0.0056110322 -0.017528206 4281501508
-0.0044199079 -0.0054805502 -0.017943993 4281436484
-0.0025875866 -0.0045984462 -0.019043237 4281240898
-0.0010142326 -0.0022138804 -0.02150723 4281306433
0.00054330379 0.00016967952 -0.023967739 4281176384
0.0022171959 0.0018013939 -0.025743008 4281240899
0.0042852238 0.0011801347 -0.025472187 4281241154
0.0067713633 -0.0016925037 -0.023160353 4281045058
0.0092789754 -0.0045635998 -0.02085299 4280914498
0.01209382 -0.0089335814 -0.01719098 4281501508
0.014649689 -0.011801191 -0.014893679 4281694289
0.017227024 -0.014667191 -0.012600819 4282084184
0.019674931 -0.016781919 -0.010990268 4282018393
-0.015335239 -0.014675461 -0.010431541 4281693778
-0.013788164 -0.011524908 -0.013594022 4281694798
-0.012040749 -0.0098848864 -0.015382344 4281761353
-0.010303833 -0.0082454011 -0.01716839 4281435973
-0.0084613413 -0.0073608011 -0.018268468 4281435208
-0.0066239983 -0.0064763948 -0.019367339 4281370439
-0.0046704412 -0.006346114 -0.019782538 4281305158
-0.0029648095 -0.0047082603 -0.021561604 4281370693
-0.0011429638 -0.0038245693 -0.022656947 4281370693
0.00041495264 -0.0014343932 -0.0251127 4281175363
0.0024851784 -0.0020578429 -0.024844054 4281044803
0.0042914674 -0.0011748374 -0.025935832 4281240898
0.0067794248 -0.0040560812 -0.023630869 4281632834
0.0094288811 -0.0076885074 -0.020651767 4281826378
0.012105137 -0.011318974 -0.017678307 4282020688
0.014662813 -0.014195211 -0.015387824 4282280789
0.016945872 -0.015565671 -0.014455548 4282018138
0.019088984 -0.016183354 -0.014201725 4281821278
-0.01228039 -0.010753758 -0.017226176 4281562708
-0.010432705 -0.009866707 -0.018325871 4281172304
-0.0085901842 -0.0089799166 -0.019424358 4281434443
-0.0066342577 -0.0088495985 -0.019840145 4281565513
-0.0047993734 -0.0079630762 -0.020936826 4281435208
-0.0029696599 -0.007076785 -0.022032315 4281370184
-0.0011451244 -0.00619068 -0.023126658 4281239623
0.00054503232 -0.0045492798 -0.024898998 4281240389
0.0023565367 -0.0036638677 -0.025990382 4281240389
0.0042973831 -0.0035338625 -0.026402459 4281109828
0.006787166 -0.0064238161 -0.024104292 4281631049
0.0094382614 -0.010067075 -0.021133648 4281695563
0.012116142 -0.013708405 -0.018168589 4282152013
0.014530431 -0.015838839 -0.016560791 4282347088
0.016517233 -0.015705131 -0.016982166 4282279513
-0.010674573 -0.010728873 -0.020164201 4281693523
-0.0089503601 -0.0090814307 -0.021941001 4281498448
-0.0071182773 -0.0081929713 -0.023035599 4281629518
-0.0050493032 -0.0088214427 -0.022770235 4281369163
-0.0030985326 -0.0086912513 -0.023184771 4281369419
-0.0012739748 -0.0078029707 -0.024277536 4281369928
0.00028738379 -0.0053994283 -0.026724365 4281239623
0.0020962656 -0.0045119897 -0.027813565 4281370694
0.0040342957 -0.0043821931 -0.028225061 4281565513
0.0065205395 -0.0072811395 -0.025932651 4281826889
0.0093076229 -0.011692703 -0.022293853 4282021199
0.012126818 -0.016101949 -0.018661818 4282086223
0.014543079 -0.01823885 -0.017059291 4282086223
-0.0051779971 -0.010435596 -0.02392252 4281887579
-0.0032273605 -0.010305442 -0.024337048 4281693524
-0.0014027655 -0.0094149709 -0.025428204 4281238604
0.00041665137 -0.0085247606 -0.026518127 4281435208
0.0022308901 -0.0076347962 -0.027606871 4281566789
0.0041741282 -0.0075046271 -0.028019458 4281565513
0.0065279976 -0.0096526965 -0.026408808 4281761098
0.0091770291 -0.013318054 -0.023453863 4282086223
0.011710659 -0.016222395 -0.021177741 4282085969
0.01426575 -0.019125171 -0.018906081 4282345814
-0.0034795031 -0.011156768 -0.026164791 4281691993
-0.0017835274 -0.0095019788 -0.027928816 4281366869
0.00015925616 -0.0093721151 -0.0283415 4281499978
0.0022335202 -0.010004118 -0.028080201 4281565768
0.0040452704 -0.0091120079 -0.029166713 4281565768
0.0063984692 -0.011266686 -0.027560746 4281564493
0.0089071319 -0.014181621 -0.025285875 4282216529
0.01157923 -0.017856278 -0.02234379 4282215253
0.0019735396 -0.010849155 -0.029901197 4282018649
0.0040502772 -0.011483073 -0.029641951 4282085458
0.0062689856 -0.012880392 -0.028712483 4281759569
0.0087767765 -0.015804164 -0.026443889 4282280279
0.0061395317 -0.014493786 -0.029864015 4281823063
0.025598895 -0.02008193 -0.025109334 4282274669
-0.0039100721 -0.0013654307 -0.013785768 4285032494
