# .PCD v0.7 - Point Cloud Data file format
VERSION 0.7
FIELDS x y z rgba
SIZE 4 4 4 4
TYPE F F F U
COUNT 1 1 1 1
WIDTH 302
HEIGHT 1
VIEWPOINT 0 0 0 1 0 0 0
POINTS 302
DATA ascii
-0.00842648 -0.00056965649 0.026746465 4287968054
-0.0068616346 0.0017323643 0.024149543 4289014064
-0.004554078 0.00045278668 0.025076171 4289471788
-0.0019270405 -0.0022576973 0.027406918 4289537069
0.00056438148 -0.0042507574 0.029029964 4290714149
0.0029122606 -0.0055269375 0.029947149 4288556084
0.0052709095 -0.0068022385 0.030861868 4289210158
0.0074753873 -0.0073614642 0.031073315 4289079343
0.0086797513 -0.0036308318 0.027082799 4288687154
0.010027967 -0.00061678886 0.023798173 4288687154
0.01221963 -0.0011766553 0.024012936 4291041313
0.015470054 -0.0060217306 0.028415797 4290648613
0.018757753 -0.010863774 0.032809757 4290844964
0.021901868 -0.014989026 0.036497988 4287639358
-0.011020593 -0.00024464726 0.023919085 4288032058
-0.0097478256 0.0035012662 0.019919613 4289015849
-0.0082037151 0.0058082864 0.017332518 4290062624
-0.0062208623 0.0059592426 0.016856389 4288885034
-0.0036212727 0.0032378435 0.019187192 4289866018
-0.001157105 0.0012360811 0.020811861 4289800739
0.0011637211 -4.6573579e-05 0.021732284 4289473318
0.0031711236 0.00010667741 0.021250566 4289211689
0.0051786974 0.00026005507 0.020768905 4289538854
0.0066842288 0.0025648847 0.018191634 4289342504
0.0085140914 0.0034348071 0.017014077 4289734693
0.0108569 0.0021543354 0.017929675 4289407784
0.013736498 -0.0012746453 0.020932661 4289211178
0.016642746 -0.0047014952 0.023929341 4290126883
0.020117633 -0.010274462 0.029005816 4289212453
0.023635067 -0.015843943 0.034072168 4288885798
0.027195085 -0.021410137 0.039128415 4287837238
-0.012175009 0.0031314567 0.017807378 4288817204
-0.010773942 0.0061660111 0.014522348 4289866529
-0.0092452615 0.0084784105 0.011943813 4289343014
-0.0071271509 0.0079075992 0.012172289 4288623148
-0.0048496276 0.0066169202 0.013099691 4289277479
-0.0024047494 0.0046071336 0.014724061 4290062369
-0.00026227534 0.0040384978 0.014946917 4289473574
0.0018856972 0.0034703463 0.015168577 4289604389
0.0035454705 0.0050613359 0.013296153 4289538853
0.0051948018 0.0066516101 0.011426371 4290520093
0.0070035122 0.0075220764 0.010255489 4289473573
0.0093245357 0.0062355548 0.011172991 4288950058
0.012181766 0.0027938634 0.0141732 4288950058
0.01506564 -0.00064569712 0.017167097 4289277989
0.018697992 -0.0069562942 0.022929845 4289409314
0.022927552 -0.015417397 0.030760678 4289147684
0.026477821 -0.02100186 0.035806216 4287575098
-0.013040289 0.0050920844 0.013120208 4289081128
-0.011506021 0.0074113235 0.010545155 4289670433
-0.0099874735 0.0097294971 0.0079739131 4290193183
-0.0080313832 0.0098783523 0.0075041596 4289539109
-0.0056139082 0.0078596994 0.0091301687 4290323999
-0.0033367574 0.0065647438 0.010054432 4290193184
-0.0013669059 0.0067149773 0.0095816199 4289408038
0.0007648021 0.0061434135 0.0098055042 4289473574
0.002573289 0.0070158243 0.0086361282 4289538853
0.0043766052 0.0078879297 0.0074680634 4290585629
0.0061747767 0.0087597668 0.0063013192 4290389279
0.0084846541 0.0074680001 0.0072182436 4290258464
0.011155173 0.0047352836 0.0095196366 4289734694
0.014024638 0.0012836382 0.012508854 4290323744
0.018002272 -0.0064889118 0.019645019 4289931298
0.022404179 -0.015697494 0.028150415 4289079598
0.026132945 -0.022020236 0.033875585 4287835199
-0.013903506 0.0070751309 0.008449018 4289015083
-0.012236446 0.0086745992 0.0065807868 4289276714
-0.01043155 0.0095482469 0.0054133888 4289342759
-0.0081791207 0.0082467794 0.0063401666 4289015848
-0.0059159473 0.006946221 0.0072644241 4289604389
-0.0037981421 0.0063711181 0.0074898824 4289408038
-0.0021513999 0.0079696327 0.0056268945 4289408294
0.0001308471 0.0066708252 0.006546868 4289343014
0.0019314364 0.0075448453 0.0053809565 4289473829
0.0038936511 0.0076947957 0.0049101934 4289866019
0.00551714 0.0092919394 0.0030531585 4289931298
0.007646434 0.008718431 0.0032763183 4289473575
0.010305405 0.0059760362 0.0055739749 4289734694
0.013340488 0.001789555 0.0092491247 4289930278
0.017487854 -0.0067307055 0.017060531 4289472044
0.021881688 -0.015968487 0.025546717 4289210159
0.025603175 -0.022311538 0.031259008 4288292413
-0.014621936 0.0083528459 0.0044917744 4289145389
-0.012674436 0.0085007846 0.0040238798 4289277223
-0.010726742 0.0086488426 0.0035560299 4289277223
-0.0084775016 0.0073426515 0.0044803265 4289146663
-0.0063708201 0.0067644045 0.0047066882 4289473828
-0.0044146553 0.0069134384 0.0042370409 4289343014
-0.0026169717 0.0077891424 0.0030733049 4289343014
-0.00034055859 0.0064855218 0.0039913785 4289604643
0.0016187355 0.006635122 0.0035212263 4289474084
0.0037447438 0.0060589015 0.0037433468 4289342759
0.0053685009 0.0076604411 0.0018894877 4289408038
0.0076693371 0.006359145 0.0028020367 4288950314
0.010155454 0.0043334216 0.0044024568 4289473064
0.013189204 0.00013365597 0.0080681741 4289800228
0.017333992 -0.0084131807 0.015860667 4289604134
0.021177538 -0.015505508 0.022261115 4290453029
-0.014768571 0.0067286193 0.0033328868 4289276458
-0.012966387 0.0076062754 0.0021692626 4289997344
-0.010873638 0.0070245266 0.0023971591 4290847769
-0.0084744543 0.0049845353 0.0040127933 4290978584
-0.0063654557 0.0044042319 0.0042369459 4290520604
-0.0045625567 0.0052823946 0.0030734837 4290062624
-0.0027647987 0.0061602741 0.0019113384 4289604899
-0.000650011 0.0055807605 0.0021343585 4289670178
0.0013064817 0.0057301298 0.0016648658 4289670434
0.003096737 0.0066077635 0.00050476007 4289212199
0.0050508603 0.0067571774 3.6003068e-05 4289866018
0.0075201988 0.0047234893 0.0016354378 4290128159
0.010179915 0.0019635707 0.003919892 4290193184
0.013214964 -0.0022493303 0.0075755753 4289146664
0.017180182 -0.010095328 0.014661031 4289342759
0.020656962 -0.015755922 0.019672072 4289930278
-0.015057474 0.0058368668 0.0014794115 4289081385
-0.013547853 0.0081804991 -0.0010703523 4290128159
-0.011463381 0.0075958595 -0.00084207021 4289800993
-0.00907287 0.0055486411 0.00077071972 4289539364
-0.0068192258 0.0042340904 0.0016875155 4290651418
-0.0050215721 0.0051140115 0.00052691624 4289866273
-0.0030708089 0.0052627027 5.8617443e-05 4289669923
-0.0011199042 0.0054114908 -0.00040964596 4289539363
0.00083114207 0.0055604279 -0.00087784603 4290062623
0.0026161596 0.0064398944 -0.0020351093 4290062623
0.0047336854 0.0058586672 -0.0018141028 4290586139
0.0071996227 0.0038181245 -0.00021873787 4290193438
0.010029875 0.00031935424 0.0027472228 4290455069
0.01288677 -0.0031772107 0.0057069138 4289866018
0.016846973 -0.01104781 0.012775725 4289081128
0.020137236 -0.015997127 0.017089522 4289276714
-0.015488073 0.0056842119 -0.0010639485 4289800993
-0.01383847 0.0072998479 -0.0029151049 4289473829
-0.011904426 0.0074467883 -0.003379738 4288688683
-0.0095199496 0.005392462 -0.0017703529 4288819498
-0.0072721392 0.0040730983 -0.00085546263 4289604643
-0.0053243488 0.0042214245 -0.0013231523 4290128159
-0.0035344213 0.0051030442 -0.002480207 4289604899
-0.0015889406 0.0052514076 -0.0029471722 4289474084
0.00035667419 0.0053999126 -0.0034140833 4290062623
0.0019704551 0.0070136711 -0.0052559376 4290062369
0.0040796846 0.0064296499 -0.0050346181 4289211943
0.0063656345 0.005114004 -0.0041282773 4289081385
0.0093580745 0.0008713454 -0.00048199296 4289343014
0.012559034 -0.0041004419 0.0038416423 4289081129
0.016334966 -0.011263952 0.010209439 4288949803
0.019800268 -0.016960576 0.015197223 4289604898
-0.017851345 0.0053941086 -0.003136117 4288884268
-0.016485535 0.0084871799 -0.0063674543 4289735204
-0.01485157 0.01010593 -0.0082115978 4289800739
-0.012786321 0.0095154494 -0.0079820212 4289211943
-0.010415822 0.007453464 -0.0063741542 4289211944
-0.0080292821 0.0053928494 -0.0047701132 4290585629
-0.005937025 0.0048046857 -0.004546741 4289866273
-0.0039971471 0.0049524978 -0.0050124675 4289604899
-0.0022176206 0.0058356673 -0.0061653703 4289866529
-0.00011695176 0.0052485019 -0.0059437566 4289473574
0.0011602193 0.0083358437 -0.0091530532 4290651164
0.0030900687 0.0084833503 -0.0096160248 4289735203
0.0050200522 0.0086309835 -0.010078941 4289081128
0.0081662983 0.0036395043 -0.0057536587 4289342758
0.01170259 -0.0028169677 -7.0423819e-05 4290323999
0.016002871 -0.012204744 0.008332463 4289211178
0.01964543 -0.018652827 0.013990408 4288557869
-0.018692054 0.0074772239 -0.0077399048 4288491568
-0.016913623 0.0083616376 -0.00889148 4289342248
-0.014995903 0.0085071772 -0.0093523096 4289865764
-0.013225064 0.0093912408 -0.010501893 4288688684
-0.0108606 0.0073222369 -0.0088975187 4288819498
-0.0087847561 0.0067305192 -0.0086719207 4289866019
-0.0067034364 0.0061393678 -0.0084475912 4289931299
-0.005089581 0.0077615678 -0.010283306 4289670179
-0.0031655878 0.0079082549 -0.010745138 4289669668
-0.001241453 0.008055076 -0.011206921 4289473574
0.00051722676 0.0089390129 -0.012353003 4289604389
0.0024389848 0.0090858787 -0.012814041 4289081128
0.0043608621 0.0092328787 -0.013275031 4288884778
0.0071505383 0.0056980625 -0.010323722 4290062369
0.010847792 -0.0015155077 -0.0039696544 4289276458
0.015313536 -0.011668809 0.0050964821 4289276458
0.019127674 -0.018873215 0.011422763 4288687409
-0.019252941 0.0081002265 -0.010949435 4286724673
-0.017482385 0.0089862794 -0.012097538 4286725439
-0.015572757 0.0091311932 -0.012556436 4286464063
-0.013662949 0.0092762113 -0.013015302 4286660414
-0.011454009 0.007940501 -0.012100913 4287249464
-0.0092343017 0.0066057891 -0.011189055 4287838259
-0.0073134154 0.0067519993 -0.011650328 4288557868
-0.0057072341 0.008377932 -0.013480913 4288754219
-0.0039514229 0.00926359 -0.01462487 4289211944
-0.0018752962 0.0086701736 -0.01440068 4289277479
4.0873885e-05 0.0088164881 -0.01486048 4289408293
0.0019571781 0.0089629292 -0.015320223 4288492333
0.0038736165 0.0091094971 -0.01577992 4288295983
0.0064835176 0.0063018054 -0.01351605 4289146409
0.009994667 -0.00019610673 -0.0078560337 4288752943
0.014625467 -0.011119366 0.0018702056 4288752943
0.018610753 -0.019084394 0.0088615995 4288752689
-0.019119129 0.0050197095 -0.010711502 4287640379
-0.017343201 0.005908303 -0.011859242 4288164405
-0.015428409 0.0060535669 -0.012319408 4288164658
-0.013513453 0.006198965 -0.012779523 4288230194
-0.011449024 0.0056018829 -0.012554586 4288361519
-0.0095310807 0.005747743 -0.013015248 4288295984
-0.0076129809 0.0058937073 -0.013475873 4289146664
-0.0058519542 0.0067818314 -0.014619552 4288819498
-0.0040960759 0.0076696724 -0.015761904 4289146664
-0.0020202994 0.0070740283 -0.015539262 4288884778
6.0915947e-05 0.0064788982 -0.015317857 4288950314
0.0021475628 0.0058843195 -0.015097652 4288688683
0.0038986728 0.0067722499 -0.016238518 4288754219
0.006337136 0.0046967044 -0.01466085 4288753709
0.0096705332 -0.0010804534 -0.0096936636 4288622384
0.014117077 -0.01129666 -0.00066839997 4288425778
0.01791361 -0.018546298 0.0056296159 4287116609
-0.018986054 0.001930669 -0.010479659 4287378749
-0.017204762 0.0028218031 -0.0116271 4288034098
-0.01542861 0.0037126765 -0.012773223 4287903283
-0.013364695 0.0031132251 -0.012549885 4288165168
-0.011295304 0.0025143176 -0.012327772 4288099889
-0.0095239431 0.0034051687 -0.013472494 4288558124
-0.0076033324 0.0035513043 -0.013933737 4288819753
-0.0055255294 0.0029533654 -0.013713397 4288819753
-0.00344228 0.0023559183 -0.013494231 4288492588
-0.0013535917 0.0017590597 -0.01327632 4288623403
0.00057554245 0.001906313 -0.013739262 4288688683
0.0023371875 0.0027971342 -0.014881127 4288688938
0.003923364 0.004430905 -0.016700055 4288492588
0.0063637272 0.0023489147 -0.015127722 4288558379
0.0098736063 -0.0041885823 -0.0094966255 4288295729
0.014144246 -0.013692692 -0.0011710804 4288098868
0.017760381 -0.020221785 0.0044347439 4286267458
-0.018577136 -0.0026626363 -0.0088850595 4287444029
-0.016785204 -0.0017685145 -0.010033451 4287838513
-0.014998384 -0.00087465346 -0.011180524 4288230704
-0.012924217 -0.0014755353 -0.010961287 4288230958
-0.010993451 -0.0013288558 -0.011425138 4288296493
-0.0092140809 -0.00043523312 -0.01257018 4288361773
-0.007285662 -0.00028850138 -0.013033301 4288885544
-0.0050434247 -0.0016344935 -0.012136463 4288885544
-0.0029499233 -0.0022333115 -0.011921436 4288754473
-0.00085098296 -0.0028316602 -0.011707593 4288492844
0.0010886192 -0.0026836023 -0.012173045 4288558379
0.0026934743 -0.0010441542 -0.013993312 4288623658
0.004628025 -0.00089623779 -0.014457379 4288492843
0.006735418 -0.0014933944 -0.014245238 4288361518
0.010075912 -0.0073051527 -0.0093056904 4287968563
0.013993021 -0.015347973 -0.0023515876 4288098868
-0.018860243 -0.0035230666 -0.010717079 4287248188
-0.016789399 -0.0041266307 -0.010498833 4287968819
-0.014999866 -0.0032304004 -0.011644953 4287969074
-0.012777358 -0.0045827478 -0.010746979 4288100143
-0.010841444 -0.0044357032 -0.011212097 4288296493
-0.008905381 -0.0042885095 -0.011677143 4288230958
-0.0069691539 -0.0041412115 -0.012142153 4288427564
-0.0048761368 -0.0047424361 -0.011928693 4288689193
-0.0027776808 -0.0053431019 -0.011716486 4288492843
-0.00099764764 -0.0044467747 -0.012859729 4288623658
0.00077721477 -0.0035506934 -0.014001676 4288558123
0.0027141422 -0.0034027249 -0.014466398 4288427309
0.0048210844 -0.0040022805 -0.014255834 4288361773
0.0069334283 -0.0046012849 -0.014046521 4288230958
0.009927094 -0.0089358389 -0.010468704 4288164403
0.013664 -0.0162559 -0.0042052288 4288098358
-0.01872921 -0.0066355169 -0.010501959 4287444283
-0.016934492 -0.0057368353 -0.011647795 4287771959
-0.015144892 -0.004838407 -0.012792313 4287838004
-0.012922928 -0.0061951876 -0.011897464 4287903794
-0.010690168 -0.0075511038 -0.011005082 4288034609
-0.0085978061 -0.0081547797 -0.010793311 4287969585
-0.0066537857 -0.0080068931 -0.011260201 4288492844
-0.0050224662 -0.0063572079 -0.013080665 4288820009
-0.0029243454 -0.006960094 -0.012870007 4288296749
-0.0011442751 -0.0060615912 -0.014011641 4288296493
0.0007950291 -0.0059135929 -0.014477056 4288558123
0.0025674254 -0.0050153732 -0.015616701 4288296493
0.005013369 -0.0071168244 -0.01406042 4288427309
0.0069583431 -0.0069680139 -0.014526908 4288296493
0.010128286 -0.01206509 -0.010286747 4288622128
0.0131578 -0.016409934 -0.0067271758 4288621618
-0.018598914 -0.0097565278 -0.010292881 4287182654
-0.016798846 -0.0088552609 -0.011438397 4287575608
-0.015003905 -0.00795421 -0.012582631 4287249208
-0.012922794 -0.0085612386 -0.012369924 4287445559
-0.010687932 -0.0099213347 -0.011481338 4287445559
-0.0084423274 -0.011280529 -0.010595204 4287576373
-0.0068003163 -0.0096257403 -0.012415131 4287772979
-0.004856281 -0.009477742 -0.012881947 4288296238
-0.0029121041 -0.0093296319 -0.013348718 4288230959
-0.00096778572 -0.0091813579 -0.013815415 4288165679
0.00081248581 -0.0082805455 -0.014955402 4288100399
0.0027544126 -0.0081322268 -0.015421347 4288361518
0.0050354302 -0.0094878227 -0.014543132 4288230958
0.0071550272 -0.010090709 -0.014338766 4288165423
0.010153927 -0.014451176 -0.010781681 4288623913
0.013362154 -0.019560486 -0.0065620113 4288033334
-0.0024241731 -0.013968445 -0.011811243 4287249719
-0.00046939403 -0.013819389 -0.012280459 4286857273
0.0032738969 -0.012766466 -0.01388984 4286595644
0.0053956807 -0.01337146 -0.013687765 4286791739
0.0075228661 -0.013975933 -0.013486901 4286857019
0.010353774 -0.017595202 -0.010610344 4287250484
0.018376425 -0.026597857 -0.014537177 4282797928
