# .PCD v0.7 - Point Cloud Data file format
VERSION 0.7
FIELDS x y z rgba
SIZE 4 4 4 4
TYPE F F F U
COUNT 1 1 1 1
WIDTH 647
HEIGHT 1
VIEWPOINT 0 0 0 1 0 0 0
POINTS 647
DATA ascii
0.0068777129 0.00046689063 0.015465913 4288168229
0.0097687244 -0.0029092282 0.018582204 4288298534
0.013389139 -0.009091109 0.024516175 4288887329
0.018484376 -0.020883523 0.036082178 4289214493
-0.0015186779 -0.0010374188 0.015217492 4290197773
0.00082854182 -0.0023137629 0.016216302 4289149724
0.0026922673 -0.0014748275 0.015093857 4289411098
0.0047181584 -0.0013407618 0.01467842 4289606429
0.0069142394 -0.001911059 0.014968304 4290455833
0.0098069087 -0.0052980781 0.018076116 4290716954
0.013077337 -0.010091469 0.022586903 4290586394
0.017810449 -0.020513758 0.032719173 4289735459
0.022081446 -0.028819323 0.040725827 4289343014
-0.008778125 0.0018470064 0.010308957 4289738264
-0.0064664632 0.00056354702 0.011311615 4290195223
-0.0039874539 -0.0014266595 0.013018502 4289933594
-0.0016515106 -0.0027083009 0.014016336 4289671709
0.00069522113 -0.0039891005 0.015011983 4289475104
0.0025589876 -0.0031479746 0.013891147 4289605664
0.0044174828 -0.0023070723 0.012771489 4289801503
0.0067805089 -0.0035864636 0.013764041 4290455833
0.0094995424 -0.0062780529 0.016160795 4289604643
0.012590623 -0.010380745 0.019958401 4289997089
0.016603727 -0.018011987 0.027259795 4290323999
0.020856388 -0.026345119 0.035250649 4289081128
-0.015800383 -0.006021589 0.016430201 4288950313
-0.014490783 -0.0023353472 0.012476256 4289213219
-0.012770731 -0.00078220665 0.010649027 4289278244
-0.011209629 0.0014806762 0.00811751 4290913303
-0.009211354 0.0016122162 0.0077072103 4291044119
-0.0070592463 0.0010339394 0.0080023687 4291044373
-0.004745286 -0.00025369227 0.0090013612 4289867293
-0.0022614822 -0.0022500604 0.010702467 4289540128
7.674098e-05 -0.0035358742 0.011696642 4289343778
0.0022613369 -0.0041115656 0.011985464 4289539873
0.0041171946 -0.0032686666 0.010867951 4290193948
0.0063072927 -0.0038437694 0.011155805 4289081384
0.0086752437 -0.0051271245 0.012144173 4288950568
0.011404201 -0.007826753 0.014532467 4288884778
0.015221355 -0.014775001 0.021119202 4289604133
0.019272562 -0.022427768 0.02839501 4289407273
0.023565806 -0.030784473 0.036358126 4289014574
-0.015792187 -0.0084068924 0.015934346 4286071108
-0.01462201 -0.0039966032 0.011281813 4289146408
-0.01304727 -0.0017263517 0.0087522734 4290193694
-0.011488434 0.00054290891 0.0062261242 4289997343
-0.0094929598 0.00067424774 0.005816387 4288819753
-0.0073438436 9.3542039e-05 0.0061105173 4290455323
-0.0050330609 -0.0011986718 0.0071068574 4289801759
-0.0027114674 -0.0024900958 0.0081011038 4289802015
-0.00037909299 -0.0037806481 0.0090931822 4289343523
0.0019640811 -0.0050704405 0.010083163 4289343523
0.0036503822 -0.0035142079 0.0082667116 4290651929
0.0054956414 -0.0026697144 0.0071530696 4290586138
0.0076801404 -0.0032472834 0.0074405316 4289997343
0.010394864 -0.0059566423 0.0098252315 4290128414
0.013486272 -0.010085598 0.013603361 4289604389
0.017511297 -0.017764308 0.020866642 4289277223
0.021961162 -0.026859388 0.029513484 4289146409
-0.014753185 -0.0056575611 0.010087574 4288491314
-0.01346872 -0.0019509494 0.0061550718 4290193184
-0.01176684 -0.00039014965 0.004338121 4290193438
-0.0097741745 -0.00025901943 0.0039289463 4289539363
-0.0074746907 -0.0015564933 0.0049242619 4289932318
-0.005164396 -0.0028531477 0.0059174392 4290783253
-0.0028432943 -0.0041490272 0.0069085304 4289540128
-0.00067279488 -0.0047301948 0.0071968753 4289474593
0.0015031472 -0.0053108707 0.0074842069 4289474339
0.0033510476 -0.004464142 0.0063715484 4289540128
0.0050242692 -0.0029043183 0.0045611542 4289474848
0.0068589151 -0.0020581856 0.0034513418 4289147683
0.0090378076 -0.002638258 0.0037384424 4290719504
0.011931848 -0.0060689524 0.0068136286 4290655499
0.015573144 -0.012348175 0.012670359 4290132749
0.019993795 -0.021473736 0.021302024 4290198283
0.024669521 -0.031306811 0.030615194 4289347348
-0.014741816 -0.0080354959 0.0095963683 4287837239
-0.013744261 -0.002883479 0.0042667296 4289408549
-0.012044862 -0.0013184175 0.0024534706 4289997854
-0.010205511 -0.00047075003 0.0013436843 4289539363
-0.0079118572 -0.0017730668 0.002336977 4289474338
-0.0057632551 -0.0023581311 0.0026280154 4289932829
-0.0036092103 -0.0029427037 0.0029180292 4289540639
-0.0012885146 -0.0042428523 0.0039059874 4289540894
0.00087909028 -0.0048263445 0.004193427 4289671453
0.0028855577 -0.0046936348 0.0037819091 4290522643
0.004384391 -0.0024142191 0.0012784284 4290065683
0.0060391501 -0.00085113943 -0.00052487291 4289477654
-0.013874423 -0.0045306012 0.0030824635 4289410079
-0.012174807 -0.0029611662 0.0012723859 4290457108
-0.010636099 -0.00067339838 -0.0012349784 4290064409
-0.014993448 -0.013746105 0.0067088958 4286529599
-0.014982916 -0.01613608 0.0062090773 4287184439
-0.014689479 -0.019986741 0.0070960391 4286923319
-0.014793914 -0.028884299 0.0043541361 4283000654
-0.015207596 -0.029082976 0.0017741304 4282870094
-0.013609603 -0.026732408 -0.000701949 4283131979
-0.015620571 -0.029272474 -0.00079936534 4282673488
-0.013741046 -0.028398432 -0.001899872 4282870604
-0.01631359 -0.027965344 -0.0047338791 4282542163
-0.014301665 -0.02783341 -0.0051473454 4282739023
-0.017145395 -0.025894344 -0.0093377084 4282541654
-0.014718294 -0.02800066 -0.0077033862 4282869328
-0.01541964 -0.026662789 -0.011613064 4282542163
-0.013278536 -0.027279593 -0.011343587 4283131723
-0.018104296 -0.025437094 -0.015101943 4282345049
-0.015977018 -0.026057161 -0.014831357 4282345558
-0.013408586 -0.028926775 -0.012527928 4282542163
-0.016390909 -0.026190422 -0.017362982 4282345048
-0.013973732 -0.028317012 -0.015741125 4282476629
-0.0145378 -0.027693689 -0.018944636 4282542674
-0.013293527 -0.023792341 -0.022723004 4282742339
-0.014956098 -0.027813472 -0.021465246 4282478413
-0.013716452 -0.023901485 -0.02523458 4282351679
-0.015229125 -0.028682984 -0.023307655 4282412879
-0.013844244 -0.025518827 -0.026397441 4281957958
-0.01564613 -0.028786786 -0.025816713 4282347088
-0.014119029 -0.026375018 -0.028229561 4281957959
-0.012907244 -0.02244287 -0.031976916 4283072309
-0.016062409 -0.028881446 -0.028319273 4282934864
-0.014246583 -0.027989544 -0.029390406 4282610248
-0.012585521 -0.026335008 -0.03112771 4283132233
0.0076978654 0.0099318177 0.057788745 4285556263
0.0009576641 0.017929211 0.046374083 4285360678
0.0025329031 0.020068377 0.043747537 4285754398
0.0050826855 0.01820229 0.045528241 4285689628
0.0088229924 0.011666998 0.052439697 4285886488
-0.014174581 0.017954707 0.045159578 4285623329
-0.012123853 0.018089831 0.044738598 4285820443
-0.0096344799 0.016212523 0.046526358 4285820188
-0.0069800615 0.013665728 0.049046531 4285754398
-0.0050616637 0.014472865 0.047886632 4285558048
-0.0034568831 0.016620278 0.045258753 4285558558
-0.0020249337 0.019436881 0.04190015 4285689884
-0.00045473874 0.021582201 0.039279446 4285689373
0.0012617409 0.023056775 0.037395053 4285623584
0.0036272258 0.021852389 0.038442403 4285689375
0.0071766376 0.015962884 0.044610493 4285689373
0.011966227 0.005392015 0.055887803 4285689374
-0.018409833 0.01598765 0.044781439 4285230373
-0.017325222 0.02083753 0.039206393 4285558814
-0.015574764 0.022318095 0.03731773 4285623839
-0.013404924 0.02177836 0.037636876 4285557794
-0.010937605 0.019892961 0.039424248 4285689373
-0.0083054081 0.017335847 0.04194244 4285689373
-0.0064083673 0.018143699 0.040788576 4285689884
-0.0045165494 0.018951342 0.039635792 4285624349
-0.0031000599 0.02177567 0.036286898 4285689884
-0.0015455075 0.023926556 0.03367427 4285952789
0.00015513971 0.025404505 0.031796321 4285886744
0.0028335713 0.022850953 0.034305401 4285886744
0.0060357451 0.018284023 0.039000891 4285886744
0.010125957 0.010362446 0.047337182 4285886489
-0.019219574 0.017670602 0.039885201 4285295908
-0.018009439 0.021859281 0.035058737 4285690648
-0.016409904 0.024019126 0.032441303 4285755673
-0.014110599 0.022800829 0.033495188 4285755164
-0.011654612 0.020908043 0.035279982 4285821209
-0.0088854432 0.01766625 0.038526498 4285886999
-0.0069963671 0.018475756 0.037375867 4285689883
-0.0051125064 0.019285008 0.036226377 4285624093
-0.0037034564 0.022117671 0.032885455 4285624093
-0.0019973218 0.023600269 0.031009553 4285689884
-0.00030177459 0.025082219 0.029135929 4285755163
0.0022059307 0.023193453 0.030910565 4285755164
0.0050642639 0.019958153 0.034139216 4285689629
0.008459188 0.014703743 0.039546721 4285624093
0.012760023 0.0060847923 0.048583306 4285624093
-0.019217916 0.01530689 0.039406978 4285164583
-0.018416978 0.021543019 0.032390177 4285493534
-0.016682088 0.023031257 0.030511217 4285755929
-0.014528871 0.022485957 0.030830463 4285821208
-0.012078881 0.020586118 0.032611571 4285755418
-0.0096126832 0.018687487 0.034389377 4285689884
-0.0074322671 0.018144198 0.034703277 4285624093
-0.0052463561 0.017601393 0.035016075 4285624349
-0.003524024 0.019089371 0.033140026 4285624349
-0.001971297 0.021253273 0.030537562 4285558558
-0.00011114031 0.02206343 0.029394684 4285624093
0.0022369064 0.020844564 0.030435851 4285624093
0.0044286884 0.020302594 0.030747754 4285755419
0.0069653913 0.018409297 0.032511674 4285755419
0.010725133 0.011787213 0.039354049 4285689628
-0.018411476 0.019195192 0.031922713 4285427998
-0.016813762 0.021368027 0.029315429 4285624349
-0.014803611 0.021500334 0.028902678 4285624094
-0.012647852 0.020953044 0.029219812 4285623839
-0.010190316 0.019047149 0.030994529 4285689629
-0.0075657815 0.016463093 0.033494748 4285689628
-0.005226668 0.015238889 0.034534156 4285689628
-0.0033452362 0.016052425 0.033388443 4285624348
-0.0016278997 0.01754453 0.031516723 4285624349
7.8845769e-05 0.019035995 0.029647293 4285689884
0.0019391738 0.019848399 0.028506109 4285755419
0.0037942231 0.020660587 0.027366025 4285886999
0.0061526969 0.01943817 0.028401913 4285820953
0.0095553696 0.01414904 0.033781856 4285952024
0.015274864 5.222857e-05 0.048562728 4285886488
-0.018131737 0.015478313 0.032912105 4285362464
-0.01680544 0.019022815 0.028849175 4285493789
-0.015077937 0.020519391 0.026978252 4285689883
-0.013070423 0.020651579 0.026566079 4285886998
-0.010766849 0.019420423 0.027609376 4285952533
-0.0081511512 0.016826928 0.03010487 4285952533
-0.005513899 0.01423496 0.032596014 4285886743
-0.0036350861 0.015050501 0.031452447 4285689884
-0.0020788535 0.017227843 0.028858954 4285624349
-0.0003772378 0.018723384 0.026993761 4285689628
0.0013137795 0.02021829 0.025130866 4285821208
0.0031608716 0.021032102 0.023994083 4285623583
0.0053414516 0.020485029 0.02430507 4285557539
0.008559823 0.015857585 0.028951725 4285689373
0.013213668 0.0057930872 0.039368555 4285689373
-0.017715905 0.011063769 0.034620434 4285164074
-0.016797416 0.016673423 0.028379912 4285427744
-0.015209425 0.018858865 0.025784405 4285689884
-0.013347134 0.019675151 0.02464552 4285689628
-0.011342265 0.019807234 0.024233947 4285557794
-0.0090363324 0.018571839 0.025273586 4285820699
-0.0065664388 0.016653717 0.02703605 4285755164
-0.0043919757 0.016103521 0.027346363 4285689628
-0.0026875585 0.017603546 0.025483767 4285624093
-0.0011548921 0.01978597 0.022900084 4285689628
0.00068948418 0.020601735 0.021765364 4285952788
0.0025286078 0.021417193 0.020631822 4285886744
0.0048700795 0.020184807 0.021664655 4285821209
0.0075660795 0.017588586 0.024137659 4285755929
0.011505522 0.010218613 0.031650856 4285821464
0.016567368 -0.0012393072 0.043472551 4285755419
-0.017347988 0.017066598 0.025002951 4285493023
-0.016052138 0.020631149 0.020962564 4285755929
-0.014058236 0.020762362 0.020553136 4285623584
-0.012359407 0.022266034 0.01869466 4285492004
-0.0099197067 0.020339154 0.020458398 4285755419
-0.0074638426 0.018413469 0.02221884 4285886744
-0.0051474273 0.017174527 0.023253193 4285689628
-0.0034534708 0.01867824 0.021395987 4285624349
-0.0016091205 0.019496039 0.020262847 4285624093
6.6302717e-05 0.020998687 0.01840963 4285624349
0.0022301525 0.02044598 0.018720707 4285690138
0.0042304099 0.020578474 0.018310612 4285755418
0.0069175661 0.017972805 0.020778956 4285624349
0.0098006018 0.014684275 0.023962 4285558559
0.014126966 0.0059239268 0.0328876 4285493279
0.019960923 -0.0083038956 0.047542572 4285493023
-0.017618664 0.016095564 0.023084836 4285427489
-0.016608875 0.021048389 0.017604882 4285690139
-0.015057381 0.023244709 0.015026612 4285886743
-0.013226949 0.024063293 0.013897588 4285952534
-0.010651175 0.021440677 0.016381698 4285887509
-0.0080538578 0.018819571 0.018861445 4285887509
-0.0057459474 0.017575681 0.019894233 4285624349
-0.0039016381 0.018395558 0.018762643 4285624349
-0.0020625815 0.019215196 0.017632207 4285624348
-6.5285712e-05 0.01934728 0.017222555 4285624349
0.0020982623 0.018792346 0.01753206 4285624094
0.004267253 0.018237859 0.017840518 4285624093
0.0066132098 0.016997032 0.018865971 4285624349
0.0091441348 0.015070453 0.020606684 4285558558
0.012929393 0.0083400682 0.027362542 4285558303
0.018563882 -0.0052491426 0.041271098 4285492514
-0.018028133 0.01582031 0.020447152 4285295653
-0.017306417 0.022170126 0.013534499 4285558814
-0.015620627 0.023681555 0.011685146 4285624348
-0.013503641 0.023120645 0.012002056 4285690139
-0.010781426 0.019798569 0.015201153 4285624349
-0.0081849359 0.017168567 0.017674545 4285558558
-0.0060327873 0.016610265 0.017984455 4285624349
-0.0041910894 0.017432168 0.016855018 4285624349
-0.0020333752 0.016874418 0.017163927 4285624349
-0.00019684061 0.017696165 0.016035693 4285557794
0.0022984073 0.01576031 0.017778615 4285689119
0.0043037869 0.015893117 0.017367447 4285688609
0.0066519417 0.014648005 0.018389178 4285819933
0.0090108663 0.013403758 0.019408738 4285688608
0.012794228 0.0066512227 0.026148701 4285623329
0.018245667 -0.0062938184 0.039310701 4285492003
-0.017880633 0.012780905 0.020701626 4285163564
-0.017293844 0.019844085 0.013081336 4285559069
-0.015605144 0.021360084 0.011234617 4285624348
-0.013338689 0.020104319 0.012269149 4285689883
-0.010761876 0.017464101 0.014739988 4285689884
-0.0084683932 0.016210265 0.015769163 4285820954
-0.0064743273 0.016341805 0.015359936 4285886488
-0.0044801496 0.016473435 0.014950747 4285952024
-0.0021649376 0.015221387 0.015975645 4286017814
-0.00016520917 0.01535359 0.015565472 4285951258
0.0021662489 0.014102802 0.016587174 4286016794
0.0043400042 0.013544165 0.016891418 4285951003
0.0070327073 0.010912441 0.019339027 4285885214
0.0095730461 0.0089732111 0.021068079 4285819679
0.013012161 0.0035809129 0.026362525 4285688098
0.018107045 -0.008024469 0.038066849 4285425703
-0.016715311 0.014732465 0.015502295 4285426214
-0.015301485 0.017644115 0.012218526 4285885979
-0.013027471 0.016384378 0.013248282 4285885468
-0.010742627 0.015125483 0.01427584 4285950748
-0.0084469356 0.013867378 0.015301293 4286016284
-0.0064503141 0.01399906 0.014891522 4286016284
-0.0042959675 0.013436556 0.015197771 4286081818
-0.0019758753 0.012180403 0.016218396 4286016283
2.9083341e-05 0.012312934 0.015807139 4286081564
0.0023654215 0.011058003 0.016824609 4286016284
0.0045442246 0.010497533 0.017126149 4286016028
0.0072414652 0.0078572556 0.019566359 4285950494
0.0097865015 0.0059117228 0.021289555 4285884958
0.013053069 0.0011951625 0.025858039 4285819169
0.017968461 -0.0097548068 0.036823213 4285556264
-0.016421251 0.010994121 0.016472181 4285491493
-0.014998805 0.013915107 0.01319314 4286016538
-0.012863979 0.013348699 0.013501452 4286016539
-0.010574248 0.012085676 0.014524786 4286147354
-0.0082736909 0.010823503 0.015545925 4286147354
-0.0064266101 0.011652187 0.014420135 4286147098
-0.004269883 0.011087619 0.014724256 4286146843
-0.001947578 0.0098271444 0.015741201 4286212378
0.00022271648 0.0092636794 0.016042685 4286278169
0.002563931 0.0080046952 0.017055856 4286146844
0.0047477819 0.0074423477 0.017354721 4286081308
0.0072787069 0.0054891557 0.019075843 4286081563
0.0094787702 0.0049280897 0.019371545 4286016028
0.012565129 0.00089107454 0.023218969 4285884703
-0.016128179 0.0072427988 0.017432736 4285556518
-0.014697131 0.010173127 0.014158407 4285950238
-0.012847688 0.011003837 0.013033519 4286081308
-0.010854218 0.011135072 0.01262421 4286212123
-0.0085568279 0.0098682567 0.013642726 4286277403
-0.0064031929 0.0093011707 0.013945764 4286277403
-0.0042440966 0.0087345392 0.014247755 4286277404
-0.0019196011 0.0074697882 0.015260981 4286408474
0.00041569024 0.0062059015 0.016272033 4286342683
0.0047827139 0.0050765723 0.016866589 4286342684
0.0095180944 0.0025537759 0.018875984 4286146078
0.01278192 -0.0021938011 0.023422247 4286146079
-0.016541272 0.006988503 0.014811384 4285819169
-0.014827583 0.0085236281 0.012972454 4286081564
-0.012978088 0.0093565211 0.011849159 4286277914
-0.010984752 0.0094877258 0.011439865 4286342683
-0.0088395663 0.0089177415 0.011742914 4286342939
-0.0065345019 0.0076471269 0.012756674 4286408219
-0.016812749 0.0060391054 0.012909541 4285949984
-0.014957976 0.0068744272 0.011786697 4286342939
-0.0020641759 -0.0030237511 -7.2529539e-05 4286147099
0.00025611371 -0.0043282136 0.00091234781 4285688354
0.0020880327 -0.0034781694 -0.00019380264 4285557538
0.0037456006 -0.0019105673 -0.0019945558 4285623328
0.0052208193 0.00037392974 -0.0044882093 4285689118
0.0070288368 0.0012227818 -0.0055892374 4285952024
0.0095399059 -0.00079741329 -0.0039125979 4286017049
0.012246827 -0.0035334453 -0.0015456136 4286017304
0.015887365 -0.0098521337 0.0042821337 4285952024
0.020686744 -0.02046749 0.014254889 4285820443
0.02556642 -0.03107737 0.024211286 4285426978
-0.0097009689 0.0021472573 -0.0070027318 4285818914
-0.0077352524 0.0022767931 -0.0074062441 4286015773
-0.0051367022 -0.00047614425 -0.005024232 4285950749
-0.0028383881 -0.0017866269 -0.0040381532 4285754398
-0.0005292967 -0.0030962303 -0.003054237 4285623584
0.001291953 -0.0022447035 -0.0041565802 4285689884
0.002939038 -0.00067342073 -0.0059519466 4285689883
0.0042323768 0.0023367181 -0.0091322418 4285886489
0.0060270578 0.003186889 -0.010228915 4285689119
0.0083471723 0.0018785596 -0.0092467833 4285623838
0.011396345 -0.002305828 -0.0054989029 4285689373
0.014659934 -0.0072070286 -0.0010660496 4285689374
0.019440455 -0.017856583 0.0088862088 4285558304
0.024301266 -0.028500661 0.018822128 4285558303
0.028671503 -0.036983758 0.026672369 4285229608
-0.013465747 -0.0011808425 -0.0059679244 4285623839
-0.011944987 0.0011189356 -0.008461928 4285689374
-0.010440171 0.0034177676 -0.010952575 4285754908
-0.0083299577 0.0028235093 -0.010658512 4285689373
-0.0057402775 6.1191618e-05 -0.0082811844 4285820954
-0.0032898076 -0.00197687 -0.0066024344 4285952279
-0.0011499114 -0.0025687814 -0.006314246 4285755164
0.00033129007 -0.00027097762 -0.0087995883 4285689629
0.0019652024 0.0013038218 -0.010589009 4285689883
0.0034171119 0.0035999343 -0.013068156 4286018579
0.0052011237 0.0044515952 -0.01416103 4285820954
0.0073333085 0.0038597137 -0.013870781 4285755164
0.010367915 -0.00033881515 -0.010129655 4285755418
0.013616733 -0.0052563846 -0.0057051498 4285886488
0.017826803 -0.013776675 0.0021581966 4285755419
0.022850841 -0.025176257 0.012763498 4285558304
0.027580278 -0.035128504 0.021974968 4285295399
-0.014330022 0.00082159787 -0.010614181 4285558558
-0.012822248 0.0031270981 -0.013100659 4285755163
-0.01102544 0.0039808005 -0.014195191 4285689119
-0.0090787262 0.0041090474 -0.014594821 4285623329
-0.0065005943 0.0013371781 -0.012221621 4285689374
-0.003900975 -0.0014331564 -0.0098527391 4285820699
-0.0017694272 -0.002027832 -0.0095644835 4285689628
-0.00029587373 0.00027610362 -0.012043426 4285689884
0.0013302341 0.0018547177 -0.013827967 4285624349
0.0029456951 0.0034327805 -0.015610294 4285690139
0.0048982762 0.0035622418 -0.016010525 4285821208
0.0068509094 0.0036918148 -0.016410684 4285755673
0.0096997246 0.00020331889 -0.013366735 4285821209
0.012393422 -0.0025598332 -0.011016438 4285624094
0.01603144 -0.0089378878 -0.0052319169 4285558813
0.020653898 -0.018928118 0.0039786417 4285558813
0.025731137 -0.030359149 0.014547182 4285427233
-0.014898583 0.0013905242 -0.013856759 4285426978
-0.01354808 0.004429847 -0.017030073 4285821209
-0.011761945 0.0052850395 -0.018120795 4285886744
-0.0095161051 0.0039576888 -0.017133931 4285886489
-0.0071018115 0.0019038841 -0.015457543 4285886743
-0.0046713948 -0.00014875084 -0.013784392 4285952533
-0.0027138591 -1.9453466e-05 -0.014185995 4285624349
-0.00092194229 0.00083675236 -0.015277518 4285624348
0.0010330528 0.00096611679 -0.015678426 4285559069
0.0029881112 0.0010956228 -0.016079253 4285558814
0.0049432218 0.0012252256 -0.016480012 4285558558
0.0065456256 0.0028070137 -0.018256189 4285558558
0.0088535808 0.0014848337 -0.017281285 4285624094
0.011172276 0.00016345829 -0.016308432 4285624350
0.014423691 -0.0047845021 -0.011907123 4285624093
0.018647972 -0.013356477 -0.0040855017 4285558303
0.023885222 -0.025549702 0.0071482081 4285558303
0.028636135 -0.035561875 0.016309945 4285361699
0.031510934 -0.038321123 0.018617129 4285098283
-0.014878906 -0.0009477511 -0.014320774 4285163819
-0.013824094 0.0035605431 -0.018871572 4285558813
-0.012040593 0.0044177398 -0.019960141 4285690139
-0.0097979233 0.0030857846 -0.018975871 4285755674
-0.0075444505 0.0017546043 -0.017993702 4285755418
-0.0052802116 0.00042430311 -0.017013688 4285689628
-0.0030051917 -0.00090514868 -0.016035797 4285624349
-0.00088489801 -0.0015048981 -0.01574835 4285624349
0.0012408011 -0.0021041185 -0.015461968 4285559069
0.0032010637 -0.0019742921 -0.015863871 4285559069
0.0048143193 -0.00038748235 -0.017639166 4285558813
0.0065931305 0.00047046691 -0.018725993 4285624348
0.008724384 -0.00012790412 -0.01844039 4285690139
0.010679472 2.078712e-06 -0.018840872 4285886744
0.013371484 -0.0027786344 -0.016503125 4285886489
0.016832516 -0.0084678754 -0.0114337 4285820698
0.022042526 -0.020700239 -0.0002219975 4285624094
0.027535716 -0.033653572 0.011654066 4285558304
0.031370893 -0.04005748 0.017369414 4285163819
-0.013651863 0.00049936771 -0.018639468 4285493534
-0.012014937 0.0020911172 -0.020417053 4285559069
-0.0097700879 0.00075490028 -0.019436495 4285624094
-0.0078290552 0.00088285655 -0.0198349 4285624093
-0.0057279542 0.00027940422 -0.019545319 4285689629
-0.0036214329 -0.00032353401 -0.019256804 4285689629
-0.0010135099 -0.0031194463 -0.016908938 4285624093
0.0011118688 -0.0037209019 -0.016624121 4285624348
0.0029013082 -0.0028603002 -0.017711682 4285624349
0.004512094 -0.0012692735 -0.019483237 4285624603
0.006112244 0.00032111257 -0.021252489 4285690138
0.0078804232 0.0011806786 -0.022335416 4285886999
0.0098246709 0.0013099164 -0.022733686 4285821209
0.012321074 -0.00075038522 -0.02108304 4285821209
0.015953887 -0.0071879104 -0.015341151 4285952024
0.020581832 -0.017269827 -0.0061997473 4285886234
0.025860887 -0.029534765 0.0049703475 4285492769
0.03045189 -0.038876727 0.013398899 4285164074
-0.013182059 -0.0040391684 -0.017036483 4285362209
-0.01183781 -0.00097383559 -0.020188987 4285493789
-0.010205932 0.00062207133 -0.021962214 4285624348
-0.0082703941 0.00074964017 -0.022359511 4285821209
-0.0064945742 0.0016110465 -0.023443019 4285952534
-0.0042365938 0.00027167052 -0.022468127 4286018069
-0.0018026903 -0.0018002912 -0.020810135 4285952534
0.00047949329 -0.0031378195 -0.019840034 4285689884
0.0022609383 -0.0022755638 -0.020924332 4285624093
0.0038639121 -0.0006807223 -0.022691013 4285624349
0.0054562315 0.00091356784 -0.024455465 4285821208
0.00721642 0.0017747879 -0.025535142 4285689119
0.0091524944 0.0019034892 -0.025931733 4285557794
0.011456333 0.00056812167 -0.02496553 4285558048
0.014890157 -0.0051580295 -0.01991648 4285689628
0.019123662 -0.013808258 -0.012155041 4285558814
0.024188923 -0.025380336 -0.0016877651 4285558814
0.028950628 -0.035483785 0.0074037481 4285427234
-0.01301147 -0.0071218163 -0.016819756 4285229863
-0.011812937 -0.0033109263 -0.020653361 4285493533
-0.010486752 -0.00023788959 -0.023795582 4285690139
-0.008867953 0.0013616905 -0.025562854 4285755418
-0.0069405027 0.0014888421 -0.025958406 4285689374
-0.0048506595 0.0008803457 -0.02566969 4285755163
-0.0024254508 -0.001198709 -0.024014814 4285952533
-0.00048709288 -0.0010704696 -0.024412336 4285755419
0.0012810081 -0.00020691752 -0.025492294 4285689628
0.0028708242 0.0013914481 -0.027253022 4285624093
0.0046256408 0.0022544116 -0.028330123 4285952534
0.0063751712 0.0031171218 -0.029405992 4285886743
0.0084814131 0.0025106147 -0.029120041 4285755164
0.010593042 0.0019045398 -0.028835075 4285689373
0.013641868 -0.0023716763 -0.025154976 4285755419
0.017100878 -0.0081136003 -0.020123977 4285624093
0.021944687 -0.018988974 -0.010354687 4285427488
0.026868718 -0.029858857 -0.00060170889 4285427489
0.031084707 -0.037789546 0.0064267647 4285098538
-0.013436608 -0.0072576627 -0.019350506 4285097773
-0.012545563 -0.0019588321 -0.024544584 4285295908
-0.011229523 0.0011222735 -0.027678268 4285756183
-0.0094644241 0.0019872114 -0.028756438 4285689629
-0.0075451359 0.0021138266 -0.02915032 4285623328
-0.0053015128 0.00076470524 -0.028178975 4285623328
-0.0030471236 -0.00058363378 -0.02720972 4285755164
-0.0011169314 -0.00045593828 -0.027605567 4285755419
0.00047302246 0.0011467114 -0.029363239 4285624348
0.0022251569 0.0020115227 -0.030438213 4285624349
0.0039719976 0.0028761104 -0.031512007 4285689884
0.0058916956 0.0030036047 -0.031905346 4285821208
0.0079922676 0.0023945197 -0.031619858 4285821463
0.0099146962 0.0025224462 -0.032013565 4285821463
0.012581909 -0.00029489398 -0.029696597 4285690394
0.015459392 -0.0038468167 -0.026706805 4285559069
0.019895919 -0.013284758 -0.018309969 4285559069
0.024984602 -0.024925314 -0.007899262 4285427488
0.029961953 -0.035824396 0.001818588 4285033003
-0.013125494 -0.0013296604 -0.027739745 4285427489
-0.011970855 0.0025003925 -0.031548046 4285559069
-0.010216415 0.0033668056 -0.032622416 4285887253
-0.0081486963 0.002752386 -0.03233254 4285886744
-0.0059135966 0.0013982952 -0.031362709 4285887254
-0.0035030916 -0.00069495291 -0.029714512 4285887508
-0.001578398 -0.00056763738 -0.030109243 4285624349
6.4224005e-06 0.0010390282 -0.031862568 4285624349
0.0019258857 0.0011662617 -0.032256037 4285558814
0.0038453899 0.0012935922 -0.032649431 4285624604
0.0057649352 0.0014210716 -0.033042736 4285624604
0.0076845214 0.0015486702 -0.033435963 4285624349
0.0094207786 0.0024151653 -0.034505736 4285559069
0.011895781 0.00032719225 -0.032870024 4285558814
0.014386827 -0.0017596036 -0.031237518 4285493279
0.018424805 -0.0097506717 -0.024208456 4285427234
0.023491781 -0.021427803 -0.013819192 4285427489
0.029037705 -0.034574687 -0.0020996351 4285229864
-0.013402164 -0.002173081 -0.029561946 4285295908
-0.01271075 0.0038964376 -0.035404935 4285493534
-0.010966979 0.0047643259 -0.036475509 4285558814
-0.0087511614 0.0034044757 -0.035505041 4285558814
-0.0063627921 0.0013030469 -0.033857264 4285558813
-0.004122775 -5.4962933e-05 -0.032891586 4285558813
-0.0018719956 -0.0014122128 -0.031928003 4285493278
-0.00011985749 -0.00054315478 -0.032999828 4285493278
0.001799453 -0.00041594356 -0.033393279 4285559069
0.003718812 -0.00028861314 -0.03378664 4285493279
0.0058160238 -0.00090242177 -0.033503808 4285493023
0.007738132 -0.00077464432 -0.033897534 4285492513
0.0096602589 -0.00064676255 -0.0342912 4285492768
0.012139916 -0.0027410164 -0.032661308 4285558559
0.014447115 -0.0040934458 -0.031708565 4285492259
0.018294483 -0.011368223 -0.025370829 4285360679
0.023164593 -0.022340365 -0.015679728 4285360679
0.028507972 -0.034787096 -0.0046603251 4285032238
-0.012527701 0.00083988905 -0.035172082 4285362210
-0.011091076 0.0032001659 -0.037600011 4285493278
-0.0090346895 0.0025805905 -0.037311058 4285493278
-0.0066496655 0.00047235936 -0.035667464 4285559069
-0.004248552 -0.0016346127 -0.0340271 4285624859
-0.0019982643 -0.0029962808 -0.033066656 4285558559
-0.00024610385 -0.0021250322 -0.034136876 4285493023
0.0018453486 -0.0027416646 -0.033854663 4285558558
0.0039421916 -0.0033578202 -0.033573467 4285492513
0.006222073 -0.0047170147 -0.032618713 4285492514
0.0083323568 -0.0053320304 -0.032340072 4285492259
0.010448001 -0.0059465691 -0.03206246 4285492259
0.012569029 -0.0065605938 -0.031785827 4285426724
0.014695408 -0.0071741566 -0.031510215 4285361189
0.01816418 -0.012985446 -0.02653297 4285229353
0.022837799 -0.023248233 -0.017536834 4285229353
-0.012191914 -0.0029723644 -0.034267485 4285164073
-0.010590814 -0.0013521165 -0.036014915 4285493278
-0.0085240528 -0.0019731969 -0.035729714 4285559323
-0.0062904507 -0.0033405572 -0.034769319 4285624604
-0.0040460788 -0.0047071129 -0.033810977 4285492769
-0.0019577369 -0.0053263977 -0.033529937 4285426468
-0.00020287186 -0.0044527948 -0.034599096 4285360679
0.002063036 -0.0058175176 -0.033644952 4285360423
0.0043397024 -0.0071814284 -0.032692861 4285426469
0.0066270754 -0.0085444599 -0.031742919 4285426469
0.0087450445 -0.0091611743 -0.031467501 4285426469
0.010685578 -0.0090320483 -0.031864919 4285360679
0.012811627 -0.0096480027 -0.031590905 4285295398
0.015131174 -0.011008389 -0.030647172 4285295399
0.018415567 -0.01609198 -0.02635441 4285295143
0.02289838 -0.025640599 -0.018051196 4285229098
-0.011703901 -0.0075470582 -0.032695856 4285032239
-0.010403723 -0.0044230968 -0.03579383 4285361188
-0.008331947 -0.0050460324 -0.035511281 4285360678
-0.0060934946 -0.0064175054 -0.034555074 4285360934
-0.0040082112 -0.007039316 -0.034275122 4285360678
-0.0022507161 -0.0061634853 -0.035343304 4285360678
9.2983246e-06 -0.0075330809 -0.034391265 4285360678
0.0021081194 -0.008153677 -0.03411378 4285360678
0.0043869391 -0.0095217898 -0.033165414 4285360678
0.0063219108 -0.0093933046 -0.033561897 4285360678
0.0086168349 -0.010760106 -0.032616653 4285360678
0.010557212 -0.010631002 -0.033014044 4285360934
0.01268293 -0.011249147 -0.032741573 4285360934
0.015001966 -0.012613975 -0.031800989 4285295144
0.018284965 -0.017712973 -0.02751926 4285295143
0.022571985 -0.026543431 -0.019904681 4285229099
-0.011676427 -0.0098839924 -0.033160847 4285032239
-0.010061566 -0.0082541108 -0.034904648 4285360933
-0.0081405044 -0.008127436 -0.035298929 4285426469
-0.0058972202 -0.0095029175 -0.03434699 4285360678
-0.0041344091 -0.0086246505 -0.035414733 4285360678
-0.0020440556 -0.009248212 -0.035137352 4285360678
5.1718205e-05 -0.0098713189 -0.034860946 4285360678
0.0021528676 -0.010493904 -0.034585591 4285360678
0.004259415 -0.011115991 -0.034311246 4285426469
0.0063713416 -0.011737615 -0.034037914 4285426469
0.0084886476 -0.012358733 -0.033765584 4285360934
0.010611337 -0.012979411 -0.033494215 4285360934
0.012924505 -0.014349125 -0.032555755 4285295398
0.015436189 -0.016467407 -0.030951757 4285295398
0.018916268 -0.022330441 -0.026015699 4285295143
0.022825412 -0.029688634 -0.019755229 4285163308
-0.01149638 -0.012978956 -0.032955624 4284966448
-0.010031544 -0.010590576 -0.035369948 4285295144
-0.0082661882 -0.0097102299 -0.036436789 4285360934
-0.0060234033 -0.011090115 -0.03548798 4285295398
-0.0040970147 -0.010962851 -0.035883177 4285360934
-0.0021705516 -0.010835454 -0.036278296 4285295399
9.380281e-05 -0.012213595 -0.0353336 4285295398
0.0021972954 -0.012838215 -0.035060346 4285360934
0.0041319244 -0.012709878 -0.035456847 4285360934
0.0062435232 -0.013333701 -0.035185061 4285426469
0.0087197125 -0.015461311 -0.033578943 4285360934
0.011211954 -0.017587669 -0.031976048 4285295143
0.013720259 -0.019712873 -0.030376308 4285229608
0.016244609 -0.021836884 -0.028779771 4285229354
-0.0098464489 -0.013687104 -0.035167161 4285294888
-0.0079176761 -0.013559937 -0.035563041 4285295144
-0.0058281049 -0.014188178 -0.035288919 4285360934
-0.0037331283 -0.014815927 -0.035015821 4285361189
-0.0014666766 -0.016198426 -0.034074947 4285360934
0.00064179674 -0.016825072 -0.033804379 4285295399
0.0025842339 -0.016696371 -0.034202594 4285295144
0.0048748925 -0.01807683 -0.033266362 4285360934
0.0071762651 -0.019456469 -0.032332256 4285360934
0.009488374 -0.020835325 -0.031400207 4285229354
0.0121754 -0.023721568 -0.029139191 4284967469
-0.011443373 -0.017677732 -0.033903532 4285097774
-0.0096620284 -0.016792081 -0.034970522 4285294888
-0.007412307 -0.018180422 -0.034029726 4285360933
-0.0054729432 -0.018052436 -0.034427691 4285228844
-0.0032070391 -0.019439496 -0.033489969 4285097773
-0.0091681965 -0.021426208 -0.033444285 4284966703
-0.006908305 -0.022818275 -0.032508824 4285033004
-0.0046376362 -0.024209537 -0.031575419 4284901679
