# .PCD v0.7 - Point Cloud Data file format
VERSION 0.7
FIELDS x y z rgba
SIZE 4 4 4 4
TYPE F F F U
COUNT 1 1 1 1
WIDTH 964
HEIGHT 1
VIEWPOINT 0 0 0 1 0 0 0
POINTS 964
DATA ascii
-0.018462256 0.0021591336 0.007825762 4288623658
-0.0165013 0.0022741184 0.0074764136 4288362029
-0.014540128 0.0023891926 0.0071270913 4288558123
-0.012664214 0.0032328889 0.0060773101 4288427564
-0.010617159 0.0026196688 0.0064285602 4288689194
-0.0085645318 0.0020068884 0.0067788996 4288558379
-0.0062257499 -0.00078961253 0.0092255529 4288427308
-0.0036728233 -0.0050405115 0.013065645 4288427819
-0.00059292465 -0.012927957 0.020390606 4288427819
0.0028510764 -0.022994488 0.029798029 4288296748
0.0057448298 -0.028692074 0.035009138 4288493354
0.0081469044 -0.030750744 0.036729179 4287839789
-0.024595648 0.0016987175 0.0062647201 4287578159
-0.022568978 0.0010815561 0.0066174623 4287838768
-0.020611271 0.0011961311 0.0062685236 4288296748
-0.018576108 0.00057965517 0.0066198949 4288493608
-0.016695201 0.0014255717 0.0055707246 4288362539
-0.014902078 0.0030021071 0.0038232207 4288558123
-0.012948863 0.0031167716 0.003475368 4288558379
-0.010907464 0.0025010332 0.0038259123 4288492843
-0.0087698102 0.0011553615 0.0048734322 4288623658
-0.0063410774 -0.0023801699 0.0080113783 4288493354
-0.0036931634 -0.0073741376 0.012538487 4288493353
-0.00061243773 -0.015285268 0.019844795 4288559144
0.0024261549 -0.022463091 0.026444631 4288559398
0.0047898367 -0.024530664 0.028166415 4288690469
0.008580558 -0.022099353 0.025350453 4288166953
0.010407962 -0.020519726 0.023597693 4289015083
0.012569401 -0.02112738 0.023927668 4289864743
0.01497151 -0.02319216 0.025643026 4289733928
0.016908854 -0.022341423 0.024584984 4291304984
0.017242592 -0.012021013 0.014529774 4286724929
-0.01110924 0.0016586483 0.0019267909 4287774254
-0.0088841692 -0.00042405725 0.0036677253 4287905068
-0.0065495819 -0.0032381043 0.0061016362 4287773998
-0.0040014759 -0.0075151771 0.0099223349 4288102184
-0.0010265633 -0.014718458 0.016516661 4288298789
0.0019009858 -0.021186545 0.022407101 4288364323
0.0059819892 -0.020945527 0.021681415 4288561184
0.0078040361 -0.01936201 0.019932808 4289343778
0.0097275227 -0.018510252 0.018878652 4290325018
0.01187522 -0.019120902 0.019209368 4290128158
0.014380693 -0.021923952 0.021613615 4289473828
0.015826888 -0.018148601 0.01779517 4290128158
0.0053298473 -0.018918909 0.016969321 4289084699
0.0072478354 -0.018065497 0.015917705 4289081893
0.0091606006 -0.017212272 0.014867099 4291044628
0.011411808 -0.018559001 0.01588838 4290258973
0.013556682 -0.019171931 0.016218027 4289081384
0.014507633 -0.012455009 0.0096533317 4289866784
0.0048920512 -0.018342242 0.013654185 4289214749
0.006911017 -0.018222898 0.01329525 4289801504
0.0090418532 -0.018839002 0.01362549 4289997344
0.011178225 -0.019454673 0.013954831 4289866783
0.012968812 -0.01786416 0.012218798 4289734949
0.013550933 -0.0089231282 0.0036077779 4290063899
0.0043490604 -0.017014191 0.0096607152 4289932829
0.006248273 -0.016157627 0.0086157564 4290128413
0.0084769353 -0.017514452 0.0096342023 4289343013
0.010716494 -0.018870585 0.010650834 4289212198
0.012265328 -0.015801385 0.0075464826 4289604899
0.0022236928 -0.01874797 0.0087848622 4288823069
0.004125461 -0.017889231 0.007741021 4289736478
0.0060219988 -0.017030701 0.0066981874 4290652438
0.008247517 -0.018392049 0.0077138171 4290389788
0.010483928 -0.019752651 0.0087275933 4290521113
0.011797015 -0.015195832 0.0042606071 4289474594
0.0017967746 -0.018135235 0.0054953229 4288953118
0.0036904812 -0.017274857 0.0044545736 4289802014
0.0055789873 -0.016414657 0.0034148302 4290782998
0.0076847374 -0.017038785 0.0037444402 4290259484
0.010023896 -0.019146323 0.0054405518 4290848533
0.011446327 -0.015318781 0.0016681217 4289540129
0.0013708323 -0.017509297 0.0022159424 4289345564
0.0032565072 -0.016647205 0.0011782423 4290325273
0.0051369667 -0.015785359 0.0001415927 4289605409
0.0072343573 -0.016412169 0.00047097914 4289212453
0.0095648319 -0.018526688 0.0021635946 4290193948
0.011096332 -0.01543273 -0.00091758557 4290259738
-0.0010371283 -0.016986914 -0.00070055015 4288953374
0.00084303319 -0.016123168 -0.0017356519 4290652438
0.0025068671 -0.013766199 -0.004133435 4290651928
0.0044794604 -0.013649717 -0.0044842158 4288754473
0.0066740587 -0.015025929 -0.0034731757 4289147174
0.0091067776 -0.017893776 -0.0011032429 4289670179
0.010747008 -0.015537784 -0.003496429 4290783509
-0.0014528781 -0.016333878 -0.0039611664 4289280539
0.00041924417 -0.015468486 -0.0049931835 4289997854
0.0021807626 -0.013854429 -0.006704364 4290128158
0.0042559132 -0.014487006 -0.0063744932 4289604898
0.0062258244 -0.014370605 -0.0067247301 4289146664
0.0085362568 -0.016499251 -0.0050386507 4290193439
0.010166056 -0.014137417 -0.0074250158 4289540128
-0.0015680417 -0.017921649 -0.0051732045 4288035884
0.0003041029 -0.017054126 -0.0062035676 4288754219
0.0020657927 -0.01543577 -0.0079114344 4289081128
0.0041406527 -0.01607053 -0.0075831972 4288819499
0.0061104298 -0.015954152 -0.0079334322 4288753964
0.0083069354 -0.017338723 -0.0069294181 4289735459
0.010050386 -0.015721008 -0.0086336862 4291239958
-0.0015834346 -0.020262644 -0.0057071373 4287773998
0.00049621612 -0.020899497 -0.0053816158 4287511604
0.0022661313 -0.019276351 -0.007087661 4287249463
0.0042409822 -0.019159801 -0.0074388962 4287772469
0.0061055273 -0.018290259 -0.0084659858 4286398528
0.008304283 -0.019679084 -0.0074657016 4286071873
0.010166407 -0.018809415 -0.008492223 4288558125
0.012141794 -0.018692374 -0.0088431975 4287642929
-0.0013999864 -0.02411893 -0.0048918389 4288036138
0.00048293918 -0.023246527 -0.0059208069 4287249974
0.0023606494 -0.022374295 -0.0069487449 4286987834
0.0041255057 -0.020747051 -0.0086504584 4286594623
0.012380831 -0.022543401 -0.0080361618 4286725438
0.014243215 -0.021671399 -0.0090608476 4287381044
0.016100332 -0.020799592 -0.010084501 4287250483
0.017825752 -0.019173875 -0.011778577 4287185969
-0.0015156195 -0.025714427 -0.0061097927 4287970349
0.00057148188 -0.026355207 -0.0057889931 4287838258
0.0025593564 -0.026238039 -0.0061426684 4286856763
0.0042249933 -0.023848727 -0.0085155657 4286790973
0.0062050819 -0.023731783 -0.0088676689 4286136644
0.012382548 -0.024893641 -0.008581209 4286136388
0.014247626 -0.024019331 -0.009604699 4287446323
0.016107455 -0.023145214 -0.010627165 4287119158
0.017961994 -0.02227132 -0.011648613 4287315253
0.019811258 -0.021397546 -0.012669056 4287315508
0.021918535 -0.022035882 -0.012350797 4287773489
0.024434246 -0.024940975 -0.010028477 4287838768
0.027245592 -0.029355906 -0.0063741133 4287905579
-0.001531966 -0.0280696 -0.0066546444 4287904559
0.00035366416 -0.027192771 -0.0076807765 4287773233
0.002443321 -0.027835444 -0.007362023 4287118649
0.0041092932 -0.025439665 -0.0097299581 4286790973
0.014372494 -0.027129985 -0.0094825616 4286856764
0.016237702 -0.026253425 -0.010504327 4287052858
0.018097632 -0.025377043 -0.011525041 4287445814
0.01995229 -0.024500869 -0.012544747 4287380278
0.022064622 -0.025141023 -0.012229106 4287576628
0.024853271 -0.029570296 -0.0085809194 4287707443
0.028084833 -0.036270767 -0.0029397085 4287772979
0.031225309 -0.042210653 0.0020272732 4287706933
-0.0016476437 -0.029666655 -0.0078738071 4287709229
0.00033975393 -0.029549673 -0.008227516 4288035373
0.0023273304 -0.02943255 -0.0085811578 4287315509
0.0041007772 -0.027791992 -0.010274342 4287118394
0.00608325 -0.027674943 -0.010626896 4286267459
0.012385175 -0.029606164 -0.0096804462 4286332738
0.014496773 -0.030249007 -0.0093667433 4286660159
0.016367368 -0.029369995 -0.010387793 4287183673
0.018358633 -0.029251695 -0.010741342 4287314743
0.020221349 -0.028372861 -0.011760849 4287511094
0.022341441 -0.029014751 -0.011448231 4287380023
0.025003035 -0.032696448 -0.0084763579 4287641654
0.028238386 -0.039416067 -0.00285092 4287706933
0.031522192 -0.046132654 0.0027660262 4287314233
0.00012235343 -0.03038232 -0.010115549 4287709229
0.0020028055 -0.029501408 -0.011137329 4287643184
0.0039850101 -0.029384509 -0.011489943 4287184439
0.0060770065 -0.030031145 -0.011174813 4286397763
0.0082868859 -0.031440884 -0.010193318 4286202434
0.010392584 -0.032086469 -0.0098804384 4286202178
0.012386061 -0.03196843 -0.01023468 4286529344
0.014500055 -0.032613285 -0.0099230781 4286856509
0.016373329 -0.031731971 -0.010942947 4287707189
0.018367127 -0.031613544 -0.011296961 4287707189
0.020232543 -0.030732468 -0.012315243 4287707189
0.022355005 -0.031376325 -0.012004767 4287641654
0.024884492 -0.034306437 -0.0097049624 4287510328
0.027981706 -0.040283397 -0.0047572702 4287510584
0.031261239 -0.047019571 0.00084535591 4286660159
0.010275781 -0.033687383 -0.011102356 4286792503
0.012621813 -0.035865419 -0.009462744 4286923063
0.014623307 -0.035746798 -0.0098183304 4287446324
0.016624913 -0.035628043 -0.010173835 4287772468
0.01850098 -0.034744263 -0.011192475 4287706933
0.020243451 -0.033096023 -0.012872737 4287706933
0.022368286 -0.033741899 -0.012564354 4287576118
0.024765979 -0.035916135 -0.01093334 4287510584
0.027861759 -0.041910365 -0.0059988089 4287445048
0.031139698 -0.048665985 -0.00041097216 4286595134
0.01687558 -0.0395367 -0.0094144056 4286987834
0.018885188 -0.039417364 -0.0097712502 4287445303
0.020510405 -0.036997326 -0.012111146 4287772469
0.022642989 -0.037644915 -0.011805832 4287706679
0.02478103 -0.038292021 -0.011501379 4287575864
0.027878083 -0.044303425 -0.0065804273 4287379769
0.030879293 -0.049545839 -0.0023261812 4286595134
-0.022220947 0.04296561 0.031466678 4281371714
-0.020731226 0.047157235 0.026675371 4279677238
-0.018803485 0.047271304 0.026332749 4280393534
-0.016065262 0.040594172 0.033390246 4278764849
-0.024699278 0.045372814 0.026172547 4281371714
-0.023136139 0.048895527 0.022130972 4280784193
-0.021599606 0.052416727 0.018094176 4281306433
-0.019777 0.053210579 0.017017478 4281697603
-0.017636076 0.051279008 0.018895147 4281307199
-0.014977463 0.045261655 0.025197173 4280917814
-0.012442678 0.040609218 0.030015787 4281439289
-0.01004789 0.037320696 0.033353902 4281242428
-0.0076259896 0.03403385 0.036687255 4281046078
-0.0061200932 0.037553649 0.032656215 4281437758
-0.0047379062 0.041752256 0.027894503 4280201263
-0.0026899204 0.041187782 0.028283542 4280526134
-0.02537217 0.049289286 0.019075794 4281110594
-0.023684524 0.05145365 0.016522536 4279481398
-0.022012748 0.053617135 0.013972135 4280002874
-0.020044781 0.053045191 0.014373338 4280525113
-0.0179905 0.051790219 0.015510233 4279612979
-0.015591644 0.047802716 0.019590082 4280199733
-0.013504617 0.046549764 0.020721292 4281176893
-0.011406623 0.045297556 0.021850562 4280849984
-0.0094805732 0.045411706 0.021508375 4280981308
-0.007930927 0.048256606 0.018228976 4280654908
-0.0063057467 0.050417773 0.015687274 4281437249
-0.0041988418 0.049166337 0.016815146 4281763139
-0.0013653785 0.043140277 0.023071242 4281437760
0.0018314868 0.035071064 0.031515948 4281046844
-0.02752354 0.049011037 0.016765265 4281045313
-0.025763258 0.050495625 0.01495344 4280850494
-0.023941003 0.051293552 0.01387999 4280784959
-0.02219902 0.05277722 0.012071466 4280329018
-0.020311847 0.052888699 0.011735903 4280263739
-0.018263333 0.05162897 0.012870459 4280524348
-0.015870869 0.047628075 0.0169413 4280784704
-0.013961479 0.047741055 0.016601933 4280784959
-0.01214049 0.048539266 0.01552899 4280850494
-0.01023335 0.048652239 0.015190123 4280720189
-0.0084200054 0.049450159 0.014118584 4279286068
-0.0067085102 0.050932474 0.012315905 4280980799
-0.0048088208 0.051045194 0.011978513 4281305923
-0.0022965446 0.047051836 0.016028402 4281306434
0.00045774132 0.041692048 0.021534083 4280068664
-0.029277444 0.044609927 0.018877177 4283065933
-0.02810362 0.052297074 0.010443823 4281241408
-0.026292272 0.053096391 0.0093739051 4280915518
-0.024196751 0.051142372 0.011244161 4280980798
-0.022234887 0.050565608 0.011642898 4281111104
-0.02018968 0.049301237 0.012774577 4281111104
-0.018133491 0.048037622 0.013904301 4281046334
-0.015900165 0.045399398 0.016497957 4280915774
-0.01424548 0.047574963 0.013960803 4280719678
-0.012429781 0.048374962 0.012890438 4280915520
-0.010710396 0.049861882 0.011089584 4280915774
-0.0087200552 0.049287248 0.011483608 4280264503
-0.0071102381 0.051460411 0.0089546237 4279742774
-0.0050202683 0.050199196 0.010078738 4279742773
-0.002817452 0.04825221 0.01193046 4279937593
0.00023852289 0.040815238 0.019612027 4280263484
-0.029645741 0.045831092 0.014761278 4282089029
-0.028414235 0.052850638 0.0070821214 4279159334
-0.026541397 0.052960984 0.0067488849 4279419944
-0.024451785 0.051000036 0.0086151417 4278963238
-0.022270948 0.04834982 0.011211203 4278506789
-0.020223469 0.047081243 0.012339013 4281046589
-0.018325463 0.047193319 0.01200149 4280981053
-0.016261376 0.045925863 0.013126453 4280785213
-0.014614344 0.048107356 0.010595715 4280719678
-0.012894951 0.04959853 0.0087980982 4280980799
-0.011095107 0.050399773 0.0077322479 4281111359
-0.0092067569 0.050511599 0.0073966961 4281111614
-0.0074145719 0.051312525 0.0063323136 4281242430
-0.0053303838 0.050046645 0.0074540079 4281176893
-0.0029300153 0.046715349 0.010757526 4280980034
0.00064634532 0.035811733 0.02205796 4281045314
-0.030076638 0.047762901 0.009925833 4281374008
-0.02859053 0.052031521 0.0051954351 4281048883
-0.026789784 0.052834406 0.0041306708 4281307709
-0.02485013 0.052251842 0.0045298561 4280526133
-0.022531353 0.04820735 0.0085832048 4280330038
-0.020412244 0.046241716 0.010439208 4280785724
-0.018436931 0.045661435 0.010832196 4280981309
-0.016538776 0.045773532 0.010494659 4281046078
-0.0148113 0.047269352 0.0086989235 4280784704
-0.013182506 0.049456306 0.0061764456 4280915263
-0.011478789 0.050950855 0.0043850429 4278375974
-0.0095050782 0.050370809 0.0047785714 4278701863
-0.0073333532 0.048408784 0.0066255368 4279418159
-0.0051452965 0.046447765 0.008469699 4281046333
-0.0025345236 0.041724294 0.013216002 4280981054
0.0013654828 0.028714586 0.026664788 4280981054
-0.032011427 0.045434006 0.0098309349 4281696583
-0.030378312 0.048326053 0.0065696817 4280460599
-0.02863346 0.049826756 0.00477379 4280199733
-0.026899107 0.051326849 0.002979856 4281046588
-0.025103413 0.052131653 0.0019176342 4280850748
-0.023014672 0.050157633 0.0037738979 4279677749
-0.020909555 0.048184648 0.0056273025 4280198969
-0.018788099 0.046212725 0.0074778013 4280850494
-0.016980693 0.047018439 0.0064137448 4280915263
-0.015178449 0.047823913 0.0053506587 4280654398
-0.013645314 0.050710678 0.0021075904 4280394299
-0.011770785 0.05082152 0.0017743632 4279287344
-0.0098960623 0.050932445 0.0014411565 4279808308
-0.0073487461 0.046189908 0.0061868019 4278376484
-0.0050598308 0.043529332 0.0087505113 4280916283
-0.0018362775 0.034632679 0.017831748 4280981309
-0.033893101 0.042403102 0.010464517 4282738769
-0.032487392 0.04809504 0.0042865127 4281436739
-0.030742563 0.04959989 0.0024939366 4280786744
-0.028875574 0.049709659 0.0021615624 4280069429
-0.027146384 0.051213749 0.0003718175 4279874099
-0.025212571 0.050626405 0.00076858699 4279742773
-0.023273163 0.050039403 0.0011644512 4280133689
-0.021174006 0.048059568 0.003013771 4280980799
-0.01913821 0.046777211 0.00413353 4281046078
-0.017256364 0.046888232 0.0037988015 4280915263
-0.015629709 0.04908786 0.0012866817 4279873078
-0.014018945 0.051286615 -0.001222562 4280785724
-0.012152575 0.051396936 -0.0015543681 4281306433
-0.010099597 0.050115928 -0.00043740682 4281567554
-0.0075561851 0.045358025 0.004297059 4281176384
-0.0049749166 0.04060239 0.0090248864 4280655163
-0.0014443249 0.029592186 0.020252394 4280655929
-0.033945382 0.040174626 0.010026483 4282086223
-0.032535814 0.045883998 0.0038612038 4281371203
-0.0307246 0.046693683 0.0027993917 4280980798
-0.028984666 0.048202567 0.0010110606 4280850749
-0.027117528 0.048312344 0.00067865103 4281241663
-0.02532167 0.049121358 -0.00038031489 4281046079
-0.0233825 0.048532128 1.386553e-05 4281111360
-0.021437697 0.047943346 0.00040704943 4281111360
-0.019487321 0.047354952 0.00079929084 4280980545
-0.017695911 0.048163936 -0.000258632 4280849728
-0.015994631 0.049671054 -0.0020397604 4280459579
-0.014303893 0.051177576 -0.0038189236 4279286579
-0.012533344 0.051985539 -0.004872974 4280003383
-0.010581888 0.051397555 -0.0044806525 4279807798
-0.0080504343 0.046623744 0.00024416111 4279808054
-0.0051858425 0.039759632 0.0071275271 4280461109
-0.0009527728 0.023832813 0.023377953 4280461109
-0.03234192 0.040861119 0.0063399207 4281305159
-0.030580528 0.042375453 0.0045510344 4281045313
-0.028829627 0.043889239 0.0027640648 4281176129
-0.026951812 0.04399959 0.00242972 4281176384
-0.025073744 0.044110022 0.0020953827 4281306433
-0.023269527 0.044921692 0.0010366067 4281306688
-0.021393694 0.045032129 0.00070276856 4281306688
-0.019597061 0.045843456 -0.0003544949 4281175874
-0.017805576 0.046654552 -0.0014107898 4281110593
-0.016188897 0.048866451 -0.0039111115 4281111360
-0.014413118 0.049676757 -0.0049645044 4280850238
-0.0127327 0.051187012 -0.0067384429 4280720189
-0.010598406 0.049196616 -0.0049052238 4280785469
-0.0083521977 0.046507351 -0.0023542438 4280523584
-0.0050033405 0.036122631 0.0081139971 4280784958
-0.00036208332 0.017348148 0.027203383 4280784958
-0.032028548 0.034408554 0.010252533 4281305414
-0.03018494 0.035224348 0.0091882329 4281305924
-0.028412335 0.036743704 0.007400671 4280915264
-0.02658166 0.037558861 0.0063387733 4280916284
-0.024756104 0.038373794 0.0052778441 4280785468
-0.023009606 0.039891824 0.0034950953 4281111103
-0.021197014 0.040706143 0.0024365857 4280981054
-0.01938957 0.041520208 0.0013790354 4281045824
-0.017669246 0.043036878 -0.00039884076 4281241665
-0.015959457 0.044553038 -0.0021748282 4281306688
-0.014172859 0.045366101 -0.0032284968 4281306434
-0.012481473 0.046881314 -0.0050011016 4281371714
-0.010615177 0.046991564 -0.0053329468 4281436484
-0.0083670095 0.044293743 -0.0027890764 4281045313
-0.0047235861 0.031770941 0.0098091755 4280718913
-0.03189823 0.03004469 0.011971673 4281695564
-0.030106843 0.031569347 0.01018404 4281502273
-0.028194547 0.031681534 0.0098434072 4281502019
-0.026487142 0.033911157 0.0073366687 4281241664
-0.02451133 0.033317413 0.0077190492 4281241409
-0.022677414 0.03413501 0.0066583231 4281306943
-0.020772189 0.034247067 0.0063191708 4281241919
-0.019104131 0.036474701 0.0038196165 4281241918
-0.017288312 0.037291445 0.0027622785 4281176128
-0.015562177 0.038812838 0.00098670833 4280915518
-0.013672188 0.038924295 0.00065050088 4281111358
-0.011961773 0.040444862 -0.0011221152 4281046589
-0.010076754 0.040556174 -0.0014573243 4281307199
-0.0079057366 0.03855494 0.00035930052 4281306690
-0.0040532276 0.024585951 0.014358448 4281241153
-0.031889416 0.027080607 0.012234056 4281826889
-0.030092426 0.028609801 0.010448785 4281500998
-0.02830594 0.030138504 0.0086654034 4281305923
-0.026461698 0.030958656 0.0076043624 4281306434
-0.024551682 0.031070799 0.0072642025 4281371968
-0.022567816 0.030475404 0.0076434892 4281502528
-0.020730913 0.031295344 0.0065839272 4281371968
-0.018899143 0.032115061 0.0055253357 4281372478
-0.017072529 0.032934558 0.0044677239 4281241153
-0.01525107 0.033753868 0.0034110527 4281241664
-0.013434775 0.034572903 0.0023553893 4281176638
-0.011623643 0.035391707 0.0013007112 4281307199
-0.0099101067 0.036916818 -0.0004690662 4281372734
-0.0075414032 0.033496771 0.0027723517 4281307198
-0.0038742945 0.020897578 0.015305748 4281307454
-0.032001168 0.025529262 0.011049652 4281695309
-0.030141257 0.026352301 0.0099873524 4281501763
-0.028286472 0.02717511 0.0089260209 4281567554
-0.026436798 0.027997691 0.0078656524 4281436738
-0.0245215 0.028110083 0.0075245071 4281436738
-0.022679403 0.028932415 0.0064655673 4281371458
-0.020766303 0.029044833 0.0061249342 4281240898
-0.018931799 0.02986683 0.0050675068 4281436738
-0.017020933 0.02997927 0.0047273878 4281371458
-0.015109852 0.030091789 0.0043872874 4281371714
-0.013285421 0.03091342 0.0033318307 4281241153
-0.011466168 0.031734824 0.0022773575 4281306179
-0.0095598549 0.031847306 0.0019382909 4281175618
-0.007273525 0.029125705 0.0044550821 4281175618
-0.003598623 0.016488127 0.01695673 4281502019
0.0016781986 -0.0067670867 0.040136263 4281502019
-0.031993099 0.022552598 0.011302473 4281695563
-0.030190311 0.024090707 0.0095227752 4281436484
-0.02833277 0.024915773 0.0084625874 4281567300
-0.026412442 0.025028344 0.0081204567 4281698113
-0.024633065 0.026565243 0.0063451305 4281502273
-0.022717625 0.026677672 0.0060039815 4281371458
-0.020877913 0.027502041 0.0049471632 4281306433
-0.018886037 0.026902795 0.0053217318 4281436738
-0.017051235 0.027727034 0.00426591 4281371458
-0.015221603 0.028551009 0.0032111164 4281371458
-0.01339712 0.029374745 0.0021572914 4281306434
-0.011488408 0.029487249 0.001817707 4281306434
-0.0095794871 0.029599849 0.0014781486 4281306434
-0.0072912201 0.026869688 0.003987832 4281175618
-0.0037140325 0.014903758 0.0157474 4281240389
0.0013571084 -0.0070022196 0.037449613 4281240389
-0.031866193 0.018137686 0.012982583 4283197768
-0.030114822 0.020395443 0.010487856 4282742339
-0.028249174 0.021223102 0.0094278697 4282480709
-0.02638863 0.022050571 0.0083688032 4282088519
-0.024603672 0.023592059 0.0065958146 4281958979
-0.022682942 0.023704749 0.0062536858 4281697859
-0.020761989 0.023817528 0.0059115719 4281566279
-0.018840805 0.023930397 0.0055694841 4281436484
-0.017000578 0.024757024 0.0045143832 4281501508
-0.015249394 0.02629697 0.0027476735 4281632578
-0.013335608 0.026409648 0.0024070889 4281567043
-0.011421621 0.026522417 0.0020665284 4281371459
-0.0095074326 0.026635271 0.0017259922 4281240898
-0.0073091462 0.024609592 0.0035174564 4281436484
-0.0040240139 0.01474506 0.01311793 4281436484
0.00063670427 -0.0043782219 0.031931035 4281436484
-0.024434231 0.019177508 0.0082666781 4282938434
-0.022502869 0.019290764 0.0079226121 4282415428
-0.02064693 0.020120259 0.0068662278 4281957703
-0.018639445 0.019517571 0.0072345473 4281696583
-0.016869456 0.021062795 0.0054677408 4281697093
-0.015026271 0.021891791 0.004413832 4281762374
-0.01318825 0.022720564 0.0033608992 4281567044
-0.011266291 0.022833768 0.003018897 4281436228
-0.0094359368 0.02366225 0.0019674525 4281305668
-0.0073273256 0.022345405 0.0030439533 4281305669
-0.0041389838 0.013165534 0.011912277 4281567044
0.00041750818 -0.0053015724 0.029972693 4281567300
-0.012955494 0.018301066 0.0050137304 4283853374
-0.011111848 0.019132365 0.003961511 4283200064
-0.00927338 0.019963488 0.0029102396 4282480964
-0.007251434 0.019359913 0.0032747034 4282415938
-0.0040598884 0.010152187 0.012120517 4282219844
0.00029839575 -0.0069371983 0.028724229 4282219844
-0.032641709 0.0011367872 0.0050526429 4281762628
-0.030754328 0.0019845814 0.0040034875 4281501763
-0.028744765 0.0013639778 0.0043573733 4281696838
-0.026729576 0.00074374676 0.0047103669 4281762373
-0.024846859 0.0015915632 0.0036622006 4282155073
-0.022825822 0.00097186118 0.0040142909 4282350149
-0.020948008 0.0018195584 0.0029671323 4282611779
-0.018921159 0.001200363 0.003318321 4283788093
-0.032695852 -0.0011697412 0.0045542531 4281435973
-0.030866593 0.00041676313 0.002806358 4281306179
-0.028857276 -0.00020605326 0.0031585749 4281174853
-0.026842363 -0.00082848966 0.0035099052 4281501508
-0.024959601 2.143532e-05 0.0024633743 4281828163
-0.023153536 0.0016068965 0.00071993656 4281763904
-0.021209486 0.0017205775 0.00037336163 4281763904
-0.019265227 0.0018343627 2.6818365e-05 4281762373
-0.017161474 0.00047765672 0.0010733232 4281827144
-0.015293702 0.0013271123 2.9858202e-05 4282677569
-0.013431124 0.0021763667 -0.0010126028 4283070524
-0.032692231 -0.004219003 0.0047513936 4281370693
-0.030857421 -0.0026279688 0.0030058678 4281306434
-0.028906375 -0.0025142655 0.0026577376 4281436484
-0.026889011 -0.0031387061 0.0030068848 4281567044
-0.02500353 -0.0022865534 0.0019615572 4281501763
-0.023194611 -0.00069662929 0.00022088178 4281044803
-0.021322094 0.00015495718 -0.00082198344 4281175618
-0.01937791 0.00026871264 -0.0011685342 4280979778
-0.017354064 -0.00035490096 -0.00082019717 4280914754
-0.01532466 -0.00097811222 -0.00047278591 4281175874
-0.013544179 0.00061057508 -0.0022079814 4280980034
-0.011511669 -1.2248755e-05 -0.0018609669 4281044548
-0.0095637962 0.00010219216 -0.0022078082 4281370439
-0.0072441325 -0.0027300343 0.0002152808 4281696838
-0.0047116056 -0.0070339143 0.0040185563 4281828418
-0.001851812 -0.013544932 0.0098906923 4282349894
-0.032631323 -0.0080175698 0.0056392029 4281825359
-0.030848779 -0.0056810156 0.0031989384 4281763139
-0.028892465 -0.005567044 0.0028498378 4281632069
-0.02693592 -0.0054529756 0.0025007669 4281174598
-0.025047712 -0.0045985505 0.001456596 4281109574
-0.023164637 -0.0037443265 0.0004134234 4281174854
-0.021212764 -0.0036302581 6.5397471e-05 4281109318
-0.019260675 -0.0035160854 -0.00028260238 4281175618
-0.017229035 -0.004141435 6.2640756e-05 4281175618
-0.015355848 -0.0032874271 -0.00097848848 4281240898
-0.013572499 -0.0016942471 -0.0027109049 4281306434
-0.01171232 -0.00084079802 -0.0037495531 4280979523
-0.0098573193 1.2435019e-05 -0.0047872178 4281174853
-0.0076365247 -0.0020898953 -0.0030606221 4281435719
-0.0049222559 -0.0078846887 0.0021148827 4281761864
-0.0020666942 -0.014415368 0.0079726391 4282872899
-0.032628968 -0.011085749 0.0058218818 4282217804
-0.030780315 -0.0094853565 0.0040805452 4281697859
-0.028879136 -0.0086282045 0.0030355323 4281632069
-0.026917331 -0.0085138679 0.0026854835 4281174598
-0.025092117 -0.0069145858 0.000948539 4281109064
-0.02313523 -0.0068003535 0.00059951469 4281174344
-0.021178111 -0.0066860244 0.00025051646 4281108808
-0.019220747 -0.006571576 -9.8444521e-05 4281306179
-0.017342359 -0.0057152361 -0.00113892 4281306179
-0.015469119 -0.0048591048 -0.0021784026 4281240644
-0.013601057 -0.0040031299 -0.0032169279 4281175363
-0.011738151 -0.003147386 -0.0042544045 4281175619
-0.0097905397 -0.003033042 -0.0046012606 4281371459
-0.0076575577 -0.0044006184 -0.0035697017 4281174853
-0.004941985 -0.010212541 0.0015920866 4281304903
-0.0021832362 -0.01602187 0.0067463052 4282938689
-0.03274221 -0.012671866 0.0046106987 4282481219
-0.030893363 -0.011067197 0.0028726552 4281960764
-0.028929234 -0.01095286 0.0025220942 4281764669
-0.027030446 -0.010093644 0.0014792215 4281240388
-0.025136791 -0.0092346743 0.00043738075 4281174089
-0.023177326 -0.0091203228 8.7872148e-05 4281369673
-0.021217629 -0.0090058744 -0.00026161224 4281370184
-0.019257724 -0.0088913292 -0.00061105751 4281502273
-0.017376594 -0.008032687 -0.0016503576 4281567554
-0.015582338 -0.0064304769 -0.003378097 4281371714
-0.013714232 -0.0055723935 -0.0044149831 4281306179
-0.011851303 -0.0047145337 -0.0054508131 4281175364
-0.0099038184 -0.004600212 -0.0057976637 4281305668
-0.0076788366 -0.0067153275 -0.0040818993 4281174598
-0.0051522031 -0.011058405 -0.00030785985 4281826888
-0.0025931522 -0.015399471 0.0034604985 4283525953
-0.032798007 -0.015005082 0.0040918011 4284049214
-0.031006336 -0.012648784 0.0016649514 4283594548
-0.029042318 -0.012534484 0.0013143811 4283137333
-0.027208924 -0.010926247 -0.00041749142 4282156604
-0.025317907 -0.01006531 -0.001457205 4281959488
-0.023361243 -0.0099511743 -0.0018062536 4281763394
-0.021257408 -0.01132977 -0.0007768292 4281763138
-0.019218765 -0.011961415 -0.00043799169 4281828674
-0.01741109 -0.010354206 -0.0021649059 4281698113
-0.015532427 -0.0094935074 -0.0032020491 4281241153
-0.013827369 -0.0071413666 -0.0056128241 4281110593
-0.0118775 -0.0070270449 -0.0059602018 4281371714
-0.0098378584 -0.007658124 -0.0056211445 4281370948
-0.0077003911 -0.0090340748 -0.0045971889 4281305414
-0.005172126 -0.013390005 -0.00083352812 4281370184
-0.0028067529 -0.016253881 0.0015546456 4283526209
-0.019408405 -0.012794487 -0.0023326427 4284379949
-0.01752454 -0.011931472 -0.0033691432 4283987248
-0.015808597 -0.0095724091 -0.0057768859 4282484279
-0.013940431 -0.0087100789 -0.0068104789 4281896503
-0.012077451 -0.0078479797 -0.0078430101 4281961784
-0.0097724646 -0.010724358 -0.0054510627 4281960254
-0.0077221841 -0.011356845 -0.005115563 4281893953
-0.0051923022 -0.015725657 -0.0013622288 4281959233
-0.0031174943 -0.016356513 -0.0010309499 4284245563
-0.013969533 -0.011028647 -0.0073238574 4284641068
-0.012017243 -0.010914221 -0.0076717008 4283985463
-0.0098862126 -0.012299314 -0.0066534299 4283593784
-0.0078362003 -0.012933999 -0.0063195787 4283136568
-0.0054967031 -0.015816778 -0.0039403494 4283071033
-0.019376874 -0.032241218 -0.0033367779 4283983423
-0.017618522 -0.029834799 -0.005717162 4284574514
-0.015795767 -0.028192475 -0.0074200071 4284573748
-0.019342072 -0.035373464 -0.0032112971 4283263304
-0.017655455 -0.032194711 -0.0062610954 4282612289
-0.015829854 -0.030547932 -0.0079611167 4282745398
-0.014097616 -0.028136402 -0.010331669 4284119084
-0.012039252 -0.028786071 -0.010011291 4284314158
-0.010151751 -0.02790539 -0.011034905 4284378674
-0.019457057 -0.036978275 -0.004436668 4282674509
-0.017769955 -0.033790939 -0.00747988 4281956685
-0.015864186 -0.032907434 -0.0085053071 4281632068
-0.014046259 -0.03125672 -0.010200538 4281631304
-0.01206819 -0.031140983 -0.010553125 4281696074
-0.01017797 -0.030258082 -0.011575542 4281696074
-0.008202225 -0.030142255 -0.011927541 4282023239
-0.0062263086 -0.030026317 -0.012279492 4282350148
-0.0041541457 -0.030676857 -0.011962961 4282611779
-0.0022739992 -0.029794089 -0.012983225 4282545989
-0.00019614398 -0.030444056 -0.012667529 4283199808
0.0017830729 -0.030327484 -0.013019718 4283984444
-0.019571967 -0.038582802 -0.0056618266 4282674763
-0.017884396 -0.035386868 -0.0086984448 4281957450
-0.016058438 -0.03373155 -0.010391869 4281891914
-0.014243022 -0.032076694 -0.012083307 4281696328
-0.012267768 -0.031961158 -0.012435418 4281761864
-0.010468103 -0.03030698 -0.014123932 4281761608
-0.0085884333 -0.029422447 -0.015142716 4281892424
-0.0066206977 -0.029306993 -0.015493214 4282022984
-0.004652828 -0.029191442 -0.015843671 4282022473
-0.0026847869 -0.029075757 -0.016194046 4282022474
-0.00061529875 -0.029728383 -0.015878551 4282283084
0.0014597178 -0.030380577 -0.015563946 4282544969
0.0035402328 -0.031032383 -0.015250195 4282806089
0.0056262687 -0.031683698 -0.014937378 4283197769
-0.019686855 -0.040187046 -0.0068867765 4282346833
-0.017998777 -0.036982529 -0.009916801 4281695564
-0.016252324 -0.034551039 -0.01227491 4281630284
-0.014439426 -0.032892048 -0.01396263 4281434954
-0.012552038 -0.032005131 -0.014981285 4281304393
-0.010669842 -0.031118408 -0.01599893 4281630284
-0.008792825 -0.030231893 -0.017015576 4281696073
-0.0068279356 -0.030116647 -0.017365597 4281630284
-0.0048628822 -0.03000126 -0.017715547 4281760843
-0.0028976724 -0.029885754 -0.018065441 4281695563
-0.00093230605 -0.029770128 -0.018415272 4281695819
0.0011370257 -0.030424826 -0.018101342 4281956939
0.0032118708 -0.031079084 -0.01778831 4281630283
0.0052922219 -0.031732902 -0.01747616 4281760588
0.0076018497 -0.033926219 -0.015840318 4281825358
0.010271426 -0.038427904 -0.012221936 4281890384
0.012973372 -0.042927608 -0.0086091654 4283067973
-0.019875847 -0.041016676 -0.0087788152 4282084949
-0.018189989 -0.037803717 -0.011801772 4281434444
-0.016445868 -0.035365954 -0.01415446 4281435464
-0.014635473 -0.033702821 -0.015838388 4281238604
-0.012665875 -0.033587635 -0.016189519 4281238603
-0.010696083 -0.033472329 -0.016540591 4281303883
-0.0088163838 -0.032583527 -0.017556049 4281369674
-0.0068489462 -0.03246814 -0.017906528 4281434699
-0.0049769804 -0.031579547 -0.018920433 4281630539
-0.0030119047 -0.031464078 -0.019270323 4281630539
-0.00114768 -0.030575663 -0.020282693 4281695564
0.00091867894 -0.03123273 -0.019969884 4281630540
0.0029905289 -0.031889327 -0.019657996 4281695819
0.0050678849 -0.032545462 -0.019347001 4281891659
0.0072624832 -0.033973336 -0.01837622 4281630539
0.0099255964 -0.038488306 -0.014766738 4282414153
-0.020212464 -0.040288694 -0.011998718 4281756763
-0.018457487 -0.037843972 -0.014348418 4281500234
-0.016639061 -0.036176205 -0.016030528 4281435465
-0.014667079 -0.036061004 -0.016382176 4280976719
-0.012694947 -0.035945714 -0.016733781 4281172813
-0.010722607 -0.035830259 -0.017085314 4281041489
-0.0087501109 -0.035714701 -0.017436787 4281369164
-0.0067774504 -0.035599038 -0.01778822 4281434954
-0.0048046261 -0.035483226 -0.018139586 4281370948
-0.0029297918 -0.034592226 -0.019152246 4281370183
-0.0010601878 -0.03370142 -0.020163883 4281369164
0.00090769678 -0.033585563 -0.020514105 4281238603
0.0029819384 -0.03424415 -0.020204309 4281369419
0.0050616711 -0.034902304 -0.019895416 4281238604
0.0072584897 -0.036334351 -0.018928405 4281630284
0.0098089352 -0.04008799 -0.015987735 4282282319
-0.014780849 -0.037645072 -0.017591633 4281820768
-0.012724258 -0.038307846 -0.017281082 4281102689
-0.010662146 -0.038970113 -0.01697145 4280844118
-0.0086844265 -0.038854271 -0.017323881 4281433933
-0.006799154 -0.037960768 -0.018336918 4281369419
-0.0049191117 -0.037067398 -0.019348968 4281174344
-0.0030442774 -0.036174253 -0.020359963 4281108298
-0.0011746585 -0.035281323 -0.021369945 4281500999
0.00079309195 -0.035165481 -0.021720145 4281369673
0.0028670356 -0.035826236 -0.021411981 4281434444
0.0049464554 -0.036486581 -0.021104719 4281368143
0.0072542205 -0.038699389 -0.019483641 4281499723
0.0096923187 -0.041687384 -0.017208513 4282215509
-0.0050335526 -0.038651273 -0.020558134 4281430873
-0.0032565445 -0.036976621 -0.022225533 4280844118
-0.0012890771 -0.036860913 -0.022575777 4281238603
0.00057532638 -0.035966031 -0.023583073 4281499468
0.0027521476 -0.037408039 -0.02261943 4281237584
0.0046141371 -0.03651306 -0.0236261 4281302608
0.0070271567 -0.039511248 -0.021353312 4281433423
0.026435785 -0.0039393827 0.022634881 4285229863
0.027775757 -0.0002450496 0.018777048 4285754398
0.02992921 -0.0008392036 0.019119347 4285819933
0.032944605 -0.005718939 0.023653248 4285754144
0.02349798 -0.0013889074 0.017555369 4285032493
0.024701338 0.0030329227 0.01300771 4285689374
0.026146889 0.0060193092 0.0098619182 4285689118
0.028130561 0.0061378703 0.0095102731 4285819933
0.030969813 0.0019575432 0.013341213 4285885978
0.033986721 -0.0029371306 0.017863126 4285754908
0.03704137 -0.0078293756 0.022378409 4285427233
0.022325505 0.0027474165 0.010741772 4285361443
0.023642506 0.0064617991 0.0069047213 4285886489
0.025206767 0.0087367147 0.0044652745 4285557793
0.027313907 0.0081354231 0.0048124399 4285623584
0.029996194 0.0046599358 0.0079404376 4285689373
0.032850582 0.00046765804 0.011758665 4285755418
0.03514611 -0.00084923208 0.012793357 4285624604
0.037903953 -0.0043198913 0.015908198 4285559068
0.039922815 -0.00419873 0.015550705 4285559323
0.041474067 -0.001923874 0.013114119 4285558814
0.042850625 0.0010678023 0.0099878889 4285820954
0.045173287 -0.00024694204 0.011018181 4285951514
0.047998603 -0.0037130415 0.014121475 4285951513
0.051850747 -0.011480667 0.021366967 4285885979
0.020219091 0.0010283589 0.0098731536 4284966959
0.021681622 0.0040327758 0.0067376141 4285427489
0.022854336 0.0084786192 0.0022155419 4285952789
0.024542388 0.010038029 0.00047821365 4285952534
0.026638467 0.0094339475 0.00082560629 4285820953
0.029593579 0.0045053065 0.0053347945 4285821208
0.032151591 0.0017410219 0.0077574924 4285755674
0.034435902 0.00041912496 0.0087907929 4285624349
0.036430355 0.00053872168 0.0084375385 4285624348
0.038271826 0.0013786256 0.0073924474 4285689629
0.03979652 0.0036583245 0.0049656387 4285755419
0.041146677 0.0066570342 0.001850808 4285492258
0.04360307 0.0046166331 0.0035730153 4285492258
0.046239417 0.0018578172 0.0059823617 4285754909
0.049729764 -0.0044965148 0.011835484 4285558558
0.01945813 0.0030471161 0.0051793847 4285361699
0.021039054 0.0053357333 0.0027468801 4285624349
0.022335868 0.0090704411 -0.0010698065 4285624094
0.024152748 0.00991036 -0.002109319 4285623583
0.026521992 0.007857427 -0.00037737004 4285623838
0.029191658 0.004359588 0.0027360301 4285623839
0.031598717 0.0023091286 0.0044614375 4285558558
0.033432037 0.0031504929 0.0034192987 4285558813
0.03541021 0.0032690838 0.0030689109 4285624349
0.037235569 0.0041101426 0.0020283908 4285690138
0.038588896 0.007117562 -0.001080364 4285953044
0.04023724 0.0086797178 -0.0028066635 4285755674
0.042679548 0.0066320449 -0.0010870472 4285755418
0.045465313 0.0031419545 0.0020064749 4285689883
0.048943307 -0.0032325238 0.0078466628 4285821209
0.053990908 -0.016096376 0.019864613 4285689884
0.018955782 0.0036358982 0.0018880665 4285427488
0.020528987 0.005930461 -0.00053800642 4285689884
0.022220012 0.0074985847 -0.0022692792 4285755163
0.024446614 0.0061641783 -0.001232814 4285689373
0.026823305 0.004105255 0.00049271435 4285623839
0.029358171 0.0013222173 0.0029059742 4285624094
0.031480737 0.00071553886 0.0032454915 4285558814
0.033019438 0.0030087158 0.00082598813 4285558813
0.034692056 0.0045763552 -0.0009015426 4285558813
0.036353976 0.0061434284 -0.0026270486 4285624350
0.037849762 0.0084343404 -0.0050387103 4285689883
0.039645616 0.0092759728 -0.006072171 4285690138
0.041918468 0.0079452842 -0.0050431639 4285689884
0.045019459 0.0029960424 -0.00058268942 4285690139
0.048988979 -0.0055694133 0.0073021818 4285558558
0.054373942 -0.019919194 0.020661408 4285558303
0.018582776 0.0035097972 -0.00070188381 4285493278
0.020281963 0.0050825402 -0.0024313107 4285821209
0.021970481 0.0066548064 -0.0041588023 4285886743
0.024330344 0.0045882463 -0.0024353787 4286018324
0.026706427 0.0025228113 -0.00071478635 4285821208
0.028956961 0.0011857301 0.00031423755 4285624349
0.031073842 0.00057658553 0.00065303594 4285624604
0.032607507 0.0028759167 -0.0017605424 4285624604
0.034274943 0.0044475049 -0.0034837611 4285624348
0.035779111 0.0067452788 -0.0058919471 4285624093
0.037732895 0.0068626255 -0.0062378459 4285623839
0.039844643 0.0062536672 -0.005897684 4285624094
0.042122409 0.004919 -0.0048729498 4285558558
0.045064211 0.00068093836 -0.00110998 4285493533
0.049532365 -0.010087967 0.0088082571 4285559324
0.055430807 -0.026657552 0.024184769 4285559069
0.016756743 0.00035447627 -0.00017783418 4285492514
0.018082265 0.004122965 -0.0039746091 4285558558
0.019642714 0.0064296648 -0.0063883644 4285689374
0.02158777 0.0065456107 -0.0067333952 4285689119
0.024077874 0.0037424043 -0.0043258443 4285952023
0.026450656 0.001670301 -0.0026097111 4285755418
0.028839666 -0.00040078163 -0.00089633837 4285624349
0.030811939 -0.00028277189 -0.00124586 4285624604
0.032343265 0.0020228624 -0.0036539957 4285624604
0.0337088 0.0050566494 -0.0067449324 4285689884
0.035357635 0.0066315308 -0.0084614158 4285952278
0.037616052 0.0052911937 -0.0074367747 4285952534
0.039885271 0.0039515346 -0.0064139422 4285952789
0.042165276 0.0026126951 -0.0053929631 4285690139
0.044945516 -0.00090999901 -0.0023236964 4285559324
0.049742788 -0.013167448 0.0089355428 4285559069
0.056316882 -0.03269802 0.027002798 4285559069
0.015763361 0.0039010495 -0.0062036384 4285624094
0.017454751 0.0054818168 -0.0079250652 4285820953
0.018874075 0.008526668 -0.011019416 4285623583
0.020938933 0.0079096705 -0.010675101 4285623584
0.02328144 0.0058291256 -0.0089586861 4285623838
0.025778923 0.0030178726 -0.0065591373 4285820953
0.028156549 0.00093964487 -0.0048487894 4285624094
0.030117929 0.0010569841 -0.0051963888 4285558814
0.031785686 0.0026371032 -0.0069130342 4285624348
0.033293191 0.004947871 -0.0093118325 4285755419
0.034936827 0.0065267459 -0.011024047 4285886488
0.037344322 0.0044508874 -0.0093186162 4285820954
0.039610393 0.0031067356 -0.0082985787 4285952533
0.042047549 0.0010328814 -0.006598223 4285624093
0.045152828 -0.0039613992 -0.0021737497 4285558814
0.05028395 -0.017715707 0.010418957 4285493023
0.057032675 -0.038034096 0.029120518 4285493023
0.015147734 0.0052738711 -0.010145944 4285558814
0.016700685 0.0075929537 -0.012548437 4285821464
0.018107064 0.010645591 -0.01563374 4285821719
0.020291422 0.0092913136 -0.014603382 4285886998
0.022758465 0.0064694732 -0.012205197 4285887253
0.02538573 0.0029150769 -0.0091263996 4285624603
0.02747475 0.0022976622 -0.0087878192 4285558813
0.02942523 0.0024143532 -0.0091334907 4285624348
0.03108241 0.0039981157 -0.010844924 4285689884
0.03287825 0.0048480332 -0.011871926 4285820953
0.034516688 0.0064309463 -0.013579901 4285557793
0.03660867 0.0058142543 -0.013241418 4285557794
0.03902097 0.0037322864 -0.011541748 4285623584
0.041769706 0.00018603355 -0.0084837945 4285624094
0.045685165 -0.0084862038 -0.00067006983 4285624093
0.051154874 -0.023745678 0.013248557 4285624349
0.057578653 -0.042659305 0.030542856 4285558559
0.013464097 0.0013901219 -0.0089339996 4285361188
0.01465841 0.0059273615 -0.013389735 4285493024
0.016331341 0.0075156167 -0.015101196 4285493278
0.017863221 0.0098399818 -0.017494852 4285492769
0.020177521 0.0077447072 -0.015783614 4285492769
0.022508025 0.0056504905 -0.014075186 4285492768
0.024854753 0.0035573989 -0.012369581 4285558814
0.026511982 0.0051452518 -0.014077833 4285558814
0.028446186 0.0052609444 -0.014420634 4285558813
0.030380446 0.0053767562 -0.014763366 4285558559
0.032165553 0.0062281638 -0.015786797 4285953043
0.033793412 0.0078147501 -0.017489543 4285886743
0.035874333 0.0071952492 -0.017150776 4285820954
0.038275253 0.0051061139 -0.01545414 4285755673
0.041652188 -0.0013910308 -0.0096869553 4285821208
0.046216235 -0.013028003 0.00082063489 4285689628
0.0523546 -0.0312704 0.017414464 4285689628
0.0133495 -0.00017341971 -0.010127277 4285360678
0.01479432 0.0028985366 -0.013206202 4285426724
0.016472813 0.0044914559 -0.014915343 4285427234
0.018270873 0.0053450167 -0.015940007 4285361443
0.020462397 0.0039824769 -0.014917616 4285361189
0.022664748 0.0026207268 -0.013897111 4285361699
0.024463072 0.0034746379 -0.014921557 4285493024
0.02597411 0.0058046505 -0.017306149 4285559069
0.027756438 0.0066578314 -0.018327581 4285492768
0.029533446 0.0075107962 -0.019347996 4285492768
0.031603217 0.0068882331 -0.019009117 4285558558
0.033223204 0.0084785968 -0.020707075 4285624348
0.035604618 0.0063817799 -0.019012148 4285690139
0.038002223 0.0042859837 -0.017319964 4285625114
0.041694507 -0.0037048012 -0.010212668 4285624604
0.046746034 -0.017586775 0.0022983234 4285624604
0.05305618 -0.036619343 0.01952534 4285558813
0.013356943 -0.002478078 -0.01063807 4285360934
0.014929641 -0.00013860315 -0.013029094 4285492259
0.016868446 -2.3305416e-05 -0.013373234 4285492514
0.018807352 9.2096627e-05 -0.013717317 4285426468
0.020879108 -0.0005332157 -0.013380949 4285360934
0.022820879 -0.00041741878 -0.013725366 4285492514
0.024486464 0.0011794642 -0.01542853 4285558558
0.026000537 0.0035161078 -0.017808629 4285558813
0.027929086 0.0036314502 -0.018150443 4285558558
0.029565282 0.0052268431 -0.01984811 4285427233
0.031488564 0.0053421035 -0.020188808 4285493279
0.033260308 0.0061971247 -0.02120644 4285493279
0.035489522 0.004833445 -0.02019345 4285493534
0.037886508 0.0027311742 -0.018506182 4285493534
0.041736525 -0.0060226023 -0.010741451 4285493534
0.047274571 -0.022162572 0.0037630964 4285558814
0.053756159 -0.04198958 0.021619959 4285558814
0.015313435 -0.0046709776 -0.011498065 4285228843
0.01726285 -0.0045550764 -0.011844109 4285295144
0.019082461 -0.0036959499 -0.012869262 4285295399
0.021161985 -0.0043229237 -0.012536005 4285361189
0.022976402 -0.0034638718 -0.013560046 4285426723
0.024647545 -0.0018624216 -0.015260813 4285558304
0.026308004 -0.00026145577 -0.016959641 4285624094
0.028244477 -0.00014564395 -0.017302867 4285689629
0.03003497 0.00071241707 -0.018322321 4285557793
0.031820133 0.0015702695 -0.019340746 4285492259
0.033599965 0.0024279654 -0.020358181 4285492514
0.035528567 0.0025437474 -0.020699659 4285426978
0.03808441 -0.00030636787 -0.018343396 4285295908
0.04193775 -0.0090858042 -0.010599338 4285295909
0.047964022 -0.027496532 0.0058883578 4285295653
0.053959943 -0.045158088 0.021679407 4285295653
-0.031059347 -0.014979452 0.0011474136 4285361189
-0.029092744 -0.014865041 0.00079635531 4285361443
-0.027256474 -0.013252363 -0.00093270466 4285295908
-0.025226839 -0.013887003 -0.00059418194 4285230628
-0.023403533 -0.012274906 -0.0023207869 4285165348
-0.021297432 -0.013657749 -0.0012951121 4285100834
0.017147791 -0.0061221123 -0.013040009 4285163054
0.019097168 -0.0060061067 -0.013385964 4285229353
0.02117908 -0.0066350922 -0.013054808 4285295399
0.023131322 -0.0065186992 -0.013401107 4285426723
0.024945833 -0.0056574047 -0.014423423 4285492513
0.026614547 -0.0040516779 -0.016120315 4285558303
0.028558947 -0.0039354041 -0.016464949 4285624094
0.030357525 -0.003074728 -0.017484177 4285492259
0.032299347 -0.0029583722 -0.017828174 4285492258
0.034089945 -0.0020978972 -0.018845845 4285426468
0.03587522 -0.0012376532 -0.019862432 4285426468
0.03843835 -0.0040959343 -0.017514165 4285361443
0.042457007 -0.013644345 -0.0091190357 4285361443
0.048327848 -0.031365141 0.0066537522 4285361443
0.053833671 -0.046848558 0.020389793 4285295398
-0.032853223 -0.020435356 0.0037335344 4285032239
-0.031052835 -0.018065676 0.0013150927 4285492514
-0.029081002 -0.017950997 0.00096307509 4285493025
-0.027174056 -0.017085001 -7.6269731e-05 4285493024
-0.02527222 -0.016219191 -0.0011146124 4285493024
-0.023305073 -0.016104519 -0.0014655851 4285361444
-0.021337695 -0.015989721 -0.0018165149 4285230374
-0.019370109 -0.015874803 -0.0021674 4285099304
-0.017559379 -0.014258862 -0.0038881991 4284967724
0.017286565 -0.0091840401 -0.012882924 4285163308
0.019111589 -0.0083202794 -0.013905738 4285294889
0.021063611 -0.0082040131 -0.014252091 4285360934
0.023015711 -0.0080876425 -0.014598371 4285426469
0.024967898 -0.0079711452 -0.014944578 4285426469
0.026920155 -0.0078545213 -0.015290694 4285426468
0.028729443 -0.0069911629 -0.016310232 4285492004
0.03067914 -0.0068744645 -0.016655719 4285426468
0.032480478 -0.0060113594 -0.017673673 4285426469
0.034276485 -0.0051484406 -0.018690577 4285426469
0.036067147 -0.0042857379 -0.01970646 4285426469
0.038634863 -0.0071523115 -0.017365756 4285360934
0.042815831 -0.01747416 -0.0083223488 4285360934
0.048205141 -0.033009887 0.0053989813 4285360934
0.053378329 -0.047047958 0.017761042 4285294889
-0.032966822 -0.022028998 0.0025165696 4285097773
-0.031106465 -0.020406619 0.00078975409 4285493024
-0.029132068 -0.020291828 0.00043725409 4285558303
-0.027092487 -0.020930305 0.00077047385 4285558303
-0.025182568 -0.020061925 -0.00026766397 4285427233
-0.023207486 -0.019946799 -0.00062006712 4285427234
-0.021378219 -0.018325716 -0.0023410097 4285361443
-0.01940807 -0.018210694 -0.0026923791 4285426979
-0.017672859 -0.015837729 -0.0050936658 4285295653
-0.015791409 -0.014970504 -0.0061263461 4285295398
-0.013998888 -0.013351202 -0.0078403726 4285295399
-0.011957593 -0.013988785 -0.007506825 4285295143
-0.0098216385 -0.015377909 -0.0064928029 4285229608
-0.0077665597 -0.016014531 -0.0061615221 4285229608
-0.0056114346 -0.017402321 -0.0051507466 4285098028
0.013505362 -0.012487099 -0.012036351 4285294378
0.015465006 -0.012370743 -0.012384335 4285295143
0.017298009 -0.011504516 -0.013406947 4285295143
0.019125741 -0.010638505 -0.014428539 4285229098
0.020948179 -0.0097726434 -0.015449146 4285229353
0.023034949 -0.0104056 -0.015122101 4285295398
0.025127169 -0.011038065 -0.014795968 4285360678
0.026944485 -0.010172196 -0.01581534 4285360934
0.028756469 -0.0093064979 -0.016833732 4285360678
0.030563142 -0.008441031 -0.017851045 4285360678
0.032512747 -0.0083242208 -0.018196424 4285360678
0.034462392 -0.0082073137 -0.01854174 4285360678
0.036412083 -0.0080902651 -0.018886955 4285360934
0.038674448 -0.0094690993 -0.01789313 4285360934
0.042696685 -0.019073188 -0.0095422743 4285295143
0.047759075 -0.033158988 0.002807457 4285294888
-0.033080332 -0.023622341 0.0012998115 4285163819
-0.031160362 -0.02275154 0.00026129931 4285427233
-0.029183388 -0.022636622 -9.1688707e-05 4285492769
-0.027206197 -0.022521615 -0.00044464692 4285558303
-0.025296256 -0.021651112 -0.0014811363 4285558304
-0.023391493 -0.020780787 -0.0025166906 4285426978
-0.021491848 -0.019910663 -0.0035511889 4285426978
-0.019521825 -0.019795671 -0.003902562 4285426978
