# .PCD v0.7 - Point Cloud Data file format
VERSION 0.7
FIELDS x y z rgba
SIZE 4 4 4 4
TYPE F F F U
COUNT 1 1 1 1
WIDTH 972
HEIGHT 1
VIEWPOINT 0 0 0 1 0 0 0
POINTS 972
DATA ascii
-0.027220465 -0.050626595 -0.01154097 4287315000
-0.025402777 -0.049730007 -0.012644487 4288034609
-0.023285944 -0.050347153 -0.01240663 4287904303
-0.021163683 -0.050963785 -0.01216987 4287904303
-0.018878467 -0.052336302 -0.011265265 4287577649
-0.026918754 -0.054523427 -0.01071127 4286595134
-0.025093026 -0.053624112 -0.011814928 4286856509
0.03129359 0.014924396 0.01277788 4280515168
0.025907233 0.017091114 0.008195797 4280909654
0.028070915 0.016554471 0.0084814429 4281173579
0.032063819 0.010602161 0.014440272 4281369929
0.014193181 0.020913914 0.0027470272 4280384863
0.016742874 0.019011173 0.0044612885 4280583764
0.018879667 0.018470086 0.0047508739 4280911184
0.021021791 0.017929442 0.0050394088 4281173324
0.023389008 0.016709514 0.0060362276 4281108043
0.025989335 0.014810793 0.0077396668 4281239623
0.028380506 0.013592765 0.0087313689 4281304649
0.032604698 0.0069417916 0.015382294 4281565514
0.012553355 0.017829001 0.0034373868 4280909398
0.014890768 0.016602188 0.0044371877 4281041744
0.017238867 0.01537618 0.0054347366 4281173324
0.019169115 0.01551586 0.0050120037 4281043019
0.021316268 0.014973439 0.0052977502 4281173833
0.023688328 0.013749484 0.0062902216 4281435464
0.026293311 0.011844538 0.0079877079 4281370438
0.028914273 0.0099408403 0.0096817575 4281369929
0.033144429 0.0032684058 0.01631492 4281566279
0.0037603639 0.019120041 0.0004090406 4281236818
0.0056664236 0.019257441 -8.797273e-06 4281106769
0.0079739392 0.018023808 0.00099404529 4281041488
0.010292163 0.016791001 0.0019946583 4281108809
0.012621067 0.015559096 0.0029929504 4281044038
0.014960665 0.014328018 0.0039890148 4281174854
0.017310925 0.013097838 0.0049827676 4281173833
0.019243732 0.013237707 0.0045594722 4281239369
0.021176524 0.013377666 0.0041362531 4281174344
0.023767505 0.01146505 0.0058318023 4281108809
0.026374456 0.0095537305 0.0075238757 4281304904
0.029222133 0.0069598034 0.0099176206 4281435208
0.033910416 -0.0011015758 0.017942581 4281435208
0.003608577 0.0035013556 0.01432053 4281887579
0.0038351938 0.0098375231 0.0074966364 4281695308
0.0044041872 0.014793992 0.0021031275 4281631048
0.0059251003 0.016308099 0.00026434287 4281434954
0.0082374718 0.015070386 0.0012628678 4281238858
0.010560527 0.013833597 0.0022590887 4281044294
0.012894284 0.01259762 0.003253065 4281044039
0.015030179 0.012049735 0.0035377853 4281304903
0.017382618 0.010815337 0.0045277718 4281108808
0.01953185 0.010268599 0.0048097037 4281174088
0.02168642 0.0097222999 0.0050905868 4281109064
0.024284706 0.0078037009 0.006779559 4281304649
0.026898984 0.0058863126 0.0084651466 4281173833
0.029753789 0.0032841489 0.010850754 4281173833
0.034902073 -0.0061747469 0.020260472 4281435719
0.0046060123 -0.0022602938 0.017399836 4282937923
0.0042732917 0.0061684586 0.0084603019 4282613819
0.004656516 0.011831321 0.0023679845 4282090813
0.0063806996 0.012659989 0.0012389757 4281697348
0.0085002445 0.01210846 0.0015254263 4281370949
0.010625143 0.0115574 0.0018107649 4281174854
0.012755405 0.011006787 0.0020950474 4281175109
0.015099335 0.0097672977 0.0030835308 4281174853
0.017453939 0.0085286796 0.0040697493 4281174598
0.019819226 0.0072908998 0.005053753 4281305159
0.022195157 0.0060540065 0.0060354359 4281239368
0.02480077 0.0041293353 0.0077179186 4281238858
0.027644048 0.0015174896 0.0100994 4281566024
0.030508641 -0.0010926947 0.012476292 4281761864
0.03611882 -0.011957731 0.023263775 4282219334
0.0042749457 -0.0031974874 0.015505176 4283853118
0.0041338652 0.0045647472 0.0072927456 4282353209
0.0049081147 0.0088600479 0.0026266444 4282155074
0.0064402409 0.01038371 0.00079198182 4281697859
0.0085621439 0.009830147 0.0010762569 4281370693
0.010689415 0.0092770383 0.0013594795 4281174854
0.013232976 0.0073408782 0.0030502155 4281239623
0.015584428 0.0060975179 0.0040338077 4281305414
0.017946538 0.0048550665 0.0050150938 4281435973
0.020319317 0.0036134869 0.0059941113 4281566789
0.023135072 0.00099071488 0.0083749015 4281696838
0.025753334 -0.00093960017 0.010049682 4281762118
0.028609065 -0.0035592802 0.012421865 4282677313
0.031486113 -0.0061773099 0.014789451 4283069503
0.0041864105 0.00226634 0.0068310257 4282614584
0.0049643554 0.0065750405 0.00217399 4282220609
0.006893985 0.0067141093 0.0017509647 4281632068
0.0088236406 0.0068532899 0.0013280157 4281631814
0.011158541 0.0056042001 0.0023117512 4281631558
0.01370943 0.0036619566 0.0039959811 4281632324
0.016068369 0.0024148151 0.0049746055 4281893698
0.018648617 0.00047489256 0.0066525564 4282481729
0.0052146651 0.0035889298 0.002421774 4282023493
0.0069524273 0.0044251531 0.0012947358 4281828928
0.0094839036 0.0024747476 0.0029781405 4281827399
0.012031399 0.00052563474 0.0046580601 4282153798
0.014594931 -0.00142226 0.0063345861 4282415683
0.01696671 -0.0026728548 0.0073071104 4283920183
-0.00039064139 -0.031203974 0.03670495 4283066445
0.00059711933 -0.026854571 0.032021143 4283198533
0.0054642558 0.00059426948 0.0026634019 4283002694
0.0074043125 0.00073409081 0.0022380929 4282155329
0.010142643 -0.001921095 0.0046155974 4283265854
-0.00088809058 -0.031495731 0.03406043 4282543438
0.00027336925 -0.027836036 0.0300912 4282544458
-0.0013847426 -0.031778324 0.031422496 4282673744
-4.9963593e-05 -0.028812762 0.028164636 4282413388
0.0014440678 -0.026553165 0.025613144 4283197259
-0.0020555481 -0.031344768 0.028090075 4282544203
-0.00055050105 -0.029077906 0.025540963 4282544713
0.00075830519 -0.026105355 0.022295449 4282611779
0.0022288337 -0.023840729 0.019754082 4284180794
-0.0027251802 -0.030897658 0.024767444 4282544968
-0.0015826076 -0.027206574 0.020826988 4282221119
-0.00010637939 -0.0249351 0.018289216 4282222139
0.0013539121 -0.022664722 0.01575505 4283070524
-0.0050713792 -0.032005262 0.023295626 4283459909
-0.0032190233 -0.031148609 0.022152621 4284053293
-0.0019037053 -0.028158221 0.01891873 4282745909
-0.00042971224 -0.02588037 0.016386367 4282485044
0.00084574521 -0.022892635 0.013161384 4282418744
0.0020999312 -0.019906316 0.009941157 4283790389
0.023074117 -0.015496161 0.0023997407 4282610248
0.025265532 -0.016061489 0.0026562363 4282153033
0.027462238 -0.016626302 0.0029116049 4281632578
0.030999929 -0.021438885 0.0072904844 4281501509
0.037728887 -0.036158677 0.021277182 4281501509
-0.0024014637 -0.028391618 0.01631809 4282812210
-0.00093236566 -0.026107628 0.013791755 4282615603
0.00052079558 -0.023824621 0.01126897 4282288694
0.0017729402 -0.020829719 0.0080557484 4283006263
0.0030038022 -0.017836232 0.0048472807 4284574259
0.018774357 -0.016698543 0.0013907813 4283067718
0.020957466 -0.017266843 0.0016472451 4282545989
0.022931479 -0.01712383 0.0012150537 4282088518
0.025122568 -0.017691378 0.0014699753 4281827398
0.027318947 -0.018258374 0.0017237887 4281369928
0.031077586 -0.023796637 0.0067773592 4281108808
0.037804998 -0.038562376 0.020729858 4281108808
-0.00289841 -0.02861597 0.013724111 4283857963
-0.0014342219 -0.026325736 0.011203736 4282746928
1.404807e-05 -0.024036583 0.0086869802 4282419763
0.0012614876 -0.021033261 0.0054813698 4282876468
0.0024876446 -0.018031385 0.0022805016 4283202614
0.0097561982 -0.015322473 -0.0015120711 4283394629
0.011914959 -0.015895169 -0.0012522545 4282153034
0.014079083 -0.016467396 -0.00099348091 4281891914
0.016454753 -0.017752688 -4.8112124e-05 4281826633
0.018841095 -0.019037101 0.00089499913 4281763394
0.021026554 -0.019607451 0.0011493526 4281632069
0.023003099 -0.019464243 0.00071661174 4281305414
0.024979623 -0.019320924 0.00028396025 4281566789
0.027395232 -0.020602766 0.0012210067 4281370439
0.031377081 -0.02687088 0.0069454387 4281304903
0.037655845 -0.040257905 0.019495931 4281370949
-0.0021146238 -0.02581707 0.0079304036 4283465519
-0.0003098771 -0.024956916 0.0068029687 4282878254
0.00093551353 -0.021945033 0.0036043581 4282420529
0.0021596402 -0.018934604 0.00041055307 4282290224
0.0033624656 -0.015925545 -0.0027785432 4282875958
0.0051220767 -0.015068199 -0.0038957503 4282612544
0.0074624978 -0.016360905 -0.0029462408 4282154309
0.0098136049 -0.017652672 -0.0019990224 4282088519
0.011774005 -0.0175112 -0.0024286564 4281631049
0.013734424 -0.017369602 -0.0028581992 4281434954
0.016106922 -0.018659543 -0.0019153804 4281697094
0.018490076 -0.019948546 -0.00097484887 4281697348
0.020883901 -0.021236707 -3.6522746e-05 4281762884
0.02307434 -0.021808717 0.00021514483 4281567044
0.025270091 -0.022380251 0.00046572462 4281435973
0.027690526 -0.023666132 0.0013984852 4281370949
0.031675816 -0.029953603 0.0071073472 4281436739
0.037956115 -0.043382075 0.019626334 4281109828
-0.0024355203 -0.026734684 0.0060476065 4284512039
-0.00026969612 -0.027312089 0.006302027 4283204653
0.00079447031 -0.023571659 0.0024200212 4282551343
0.0016448721 -0.019113731 -0.0021446366 4282158644
0.0030328259 -0.016815435 -0.0046381056 4282220353
0.0049823374 -0.016675081 -0.0050656032 4281827654
0.0075174104 -0.018690962 -0.003432408 4281696584
0.009870667 -0.019987006 -0.0024889074 4281565768
0.011833604 -0.01984534 -0.0029190909 4281434698
0.013999719 -0.020421762 -0.0026640855 4281173833
0.016171176 -0.020997662 -0.0024101622 4281631559
0.018556472 -0.022290889 -0.0014733858 4281566789
0.020741273 -0.022865657 -0.0012221728 4281632324
0.023145216 -0.024157289 -0.00028929673 4281567044
0.025343303 -0.024730828 -4.0866435e-05 4281370949
0.027765878 -0.026020918 0.0008881446 4281240388
0.031751972 -0.032328013 0.0065821055 4281567554
0.037806608 -0.045081366 0.018389687 4281436739
0.00083778799 -0.025919754 0.0019235425 4282814248
0.0016918406 -0.021448437 -0.0026321206 4282094128
0.0030829087 -0.019143406 -0.0051213 4282155074
0.0052272603 -0.019724045 -0.0048635192 4281827909
0.0075719636 -0.02102514 -0.0039215609 4281697094
0.0097297207 -0.021604616 -0.003666494 4281370183
0.011692513 -0.021462966 -0.0040966459 4281500999
0.0138583 -0.022041593 -0.0038432144 4281566023
0.016235068 -0.023339909 -0.0029079355 4281566023
0.01883083 -0.025357384 -0.0012925267 4281566279
0.021020617 -0.025933925 -0.0010440908 4281827908
0.023215724 -0.026509952 -0.00079671852 4281828164
0.025416158 -0.027085524 -0.00055038743 4281828929
0.027621884 -0.02766056 -0.00030516833 4281960254
0.03182774 -0.034706485 0.0060538463 4282286653
0.037657104 -0.046780366 0.017153244 4282941239
0.00088074803 -0.028271902 0.0014240406 4283142433
0.0021120608 -0.025234725 -0.0017516986 4282616369
0.0033220947 -0.022198956 -0.0049226806 4281829438
0.0052793249 -0.022058073 -0.0053518899 4281762374
0.0074313749 -0.022640217 -0.0050973408 4281632324
0.0097862557 -0.023944873 -0.0041607767 4281370183
0.011751577 -0.023803052 -0.0045914873 4281369929
0.013919692 -0.024383698 -0.0043402072 4281565513
0.016298603 -0.025686208 -0.0034086667 4281631559
0.018688193 -0.026987899 -0.0024793558 4281566533
0.021088431 -0.028288644 -0.0015523173 4281893443
0.023499336 -0.029588539 -0.00062749162 4282025279
0.025488636 -0.029444274 -0.0010629222 4282876468
0.027915476 -0.030742753 -0.000141453 4283987249
0.03146024 -0.035646547 0.0041669905 4284509744
0.0019713603 -0.026856054 -0.0029321499 4283726894
0.003371276 -0.024537262 -0.0054134801 4281958979
0.005331032 -0.0243962 -0.0058432445 4281631558
0.007680025 -0.025705773 -0.0049087554 4281371203
0.0098424368 -0.026289236 -0.0046580341 4281501508
0.012010209 -0.026872206 -0.0044084098 4281697603
0.01418332 -0.027454671 -0.004159864 4282221628
0.01656705 -0.028761256 -0.0032326356 4282679608
0.018753504 -0.029342514 -0.0029868223 4284446758
0.0032310411 -0.02615172 -0.0065888874 4282154053
0.0051906556 -0.026010666 -0.0070186183 4281762884
0.0075391196 -0.027324643 -0.0060872994 4281698368
0.010095336 -0.029365044 -0.004478395 4281959998
0.012268113 -0.029949877 -0.0042314604 4282418744
0.014648629 -0.031261135 -0.0033069365 4284118064
0.016834741 -0.031844724 -0.0030627921 4284575534
0.0029019639 -0.027035717 -0.0084440969 4284183853
0.004858762 -0.026894879 -0.0088732243 4284053294
0.018425357 -0.050523449 -0.0021730419 4284639538
0.016064715 -0.051585142 -0.0036063995 4283924519
0.019502781 -0.056634787 0.00062149577 4283137589
0.022358986 -0.059455726 0.0028422438 4283332918
0.0052100495 -0.043387059 -0.012403818 4283203123
0.007184485 -0.043244828 -0.012836719 4282221628
0.0097455624 -0.045337263 -0.011268253 4281959234
0.012520876 -0.048173148 -0.0090366323 4281893698
0.016321883 -0.054730091 -0.0034799073 4281762373
0.019967323 -0.060539115 0.0014010593 4282088263
0.00093565881 -0.044547956 -0.013388598 4283462968
0.0030945614 -0.045153949 -0.013153778 4282418743
0.0052588284 -0.045759369 -0.012920069 4281828418
0.0074284617 -0.046364259 -0.012687435 4281761863
0.0096034426 -0.046968672 -0.012455897 4281697094
0.012377828 -0.049813349 -0.010230629 4281697348
0.015976276 -0.055643309 -0.0053525586 4281762374
0.019617362 -0.06147008 -0.0004837513 4282348364
-0.0009945333 -0.047062133 -0.013470361 4282220098
0.001163967 -0.04767042 -0.013237232 4281502019
0.0033278465 -0.048278172 -0.013005165 4281306179
0.0053072572 -0.048135724 -0.013439266 4281566789
0.0072867107 -0.047993165 -0.013873292 4281566789
0.0094613452 -0.048599768 -0.013643304 4281370693
0.01203699 -0.05070411 -0.012087708 4281305923
0.015631083 -0.056551818 -0.0072217947 4281501764
0.019064642 -0.061647553 -0.0030273236 4282415174
-0.0095430091 -0.04699235 -0.014922524 4282808383
-0.0075774044 -0.046851683 -0.015354181 4282154053
-0.0054354146 -0.047463719 -0.01511935 4281892934
-0.0032880269 -0.048075233 -0.014885614 4281763394
-0.00095359236 -0.049438726 -0.013987688 4281436228
0.0008386001 -0.0485445 -0.015086001 4281305668
0.0028124899 -0.048402596 -0.015518991 4281109829
0.0045967698 -0.047508609 -0.016615404 4281370183
0.006760383 -0.048118372 -0.016384704 4281500488
0.0089293439 -0.048727561 -0.016155114 4281370693
0.012091819 -0.053092781 -0.012617918 4281305413
0.015286284 -0.057455581 -0.0090876436 4281762373
0.018512733 -0.061815981 -0.0055642389 4282871113
-0.013778616 -0.048134673 -0.015903851 4283263558
-0.012152292 -0.046483222 -0.017668208 4281826888
-0.010194913 -0.046343286 -0.018098162 4281566024
-0.0078905113 -0.047713686 -0.017197212 4281435464
-0.0057515278 -0.048328105 -0.016963365 4281435463
-0.0036071464 -0.048942018 -0.016730605 4281239623
-0.0012759194 -0.050310109 -0.015835261 4281436484
0.00051363185 -0.049413856 -0.016931402 4281044548
0.0024847053 -0.049272139 -0.01736377 4281044549
0.0042663626 -0.048376236 -0.01845794 4281370184
0.0064269491 -0.048988346 -0.01822825 4281566024
0.008787686 -0.050353643 -0.017338874 4281434954
0.011751417 -0.053978559 -0.01447137 4281631049
0.014941908 -0.058354709 -0.010950043 4282086478
-0.016722456 -0.055337835 -0.011550113 4282938433
-0.015229419 -0.052922074 -0.013983926 4282677313
-0.013917562 -0.049749319 -0.017079761 4281957449
-0.012458965 -0.047335718 -0.019505857 4281369673
-0.01050441 -0.047195975 -0.019935193 4281435209
-0.0082031973 -0.04857095 -0.019036809 4281174089
-0.0058912821 -0.049945008 -0.018140743 4281435463
-0.0035686493 -0.051318157 -0.017246926 4281435973
-0.0015978403 -0.051176738 -0.017679444 4281500998
0.00018908828 -0.050278533 -0.01877333 4281436738
0.002343934 -0.050893489 -0.018544214 4281175108
0.0043148845 -0.050751653 -0.018976456 4281498958
0.0064777955 -0.051365826 -0.018748881 4281824594
0.0086460542 -0.051979411 -0.018522406 4281691484
-0.016702585 -0.057728078 -0.012071862 4282676548
-0.015206486 -0.055305529 -0.014501492 4282350404
-0.013891373 -0.052123833 -0.017591493 4281827398
-0.012429699 -0.049703483 -0.020013353 4281500233
-0.010302197 -0.050323401 -0.019780425 4281434698
-0.0083423853 -0.050183151 -0.020210812 4281369419
-0.0060310028 -0.051561598 -0.019317897 4281369419
-0.0037089102 -0.052939173 -0.018427255 4281566023
-0.0017382577 -0.052797753 -0.018859731 4281956938
0.00041619688 -0.053415094 -0.018632231 4281891914
0.0023896098 -0.05327322 -0.019065114 4281434954
0.0047411919 -0.054648135 -0.01818054 4282345558
-0.015670653 -0.055405345 -0.017010884 4282544204
-0.014195349 -0.05297767 -0.019430896 4281892168
-0.012568347 -0.051313151 -0.021185597 4281304394
-0.010270953 -0.05269726 -0.020293048 4281303883
-0.0084815472 -0.051795054 -0.021384595 4281172303
-0.0063462593 -0.052416313 -0.021154867 4282020688
-0.0042055883 -0.053037014 -0.020926202 4282281299
-0.016134035 -0.05549616 -0.019513654 4281955919
-0.014498908 -0.053826872 -0.021266913 4281695309
-0.01304175 -0.051393803 -0.023677984 4281237839
-0.010750219 -0.052782644 -0.022787461 4281564238
-0.0089661032 -0.05187865 -0.023876222 4282279513
-0.01643474 -0.056344826 -0.02135005 4282019414
-0.014637526 -0.05543812 -0.02244035 4281236054
-0.013012752 -0.053765047 -0.024188029 4281559903
0.029848035 0.045983609 0.035242803 4278603689
0.029509436 0.052455589 0.027394958 4278995879
0.030508518 0.05512657 0.024007402 4278733483
0.016304016 0.04861328 0.030678041 4281487228
0.019736823 0.050165009 0.028344814 4278730169
0.022755057 0.04712411 0.031636488 4279058608
0.025137056 0.045992717 0.032695904 4278996388
0.026635073 0.047404796 0.030786678 4278669479
0.02921138 0.05671721 0.019154854 4278601393
0.031582452 0.055585269 0.020216852 4278470324
0.035860252 0.049376678 0.027185708 4278339254
0.012710083 0.045457941 0.031849653 4282536553
0.012573116 0.051988043 0.023990367 4279979669
0.014692152 0.057373203 0.017214686 4278533819
0.023230053 0.04948825 0.025600351 4279061159
0.024707034 0.050903171 0.02369909 4278538664
0.02572101 0.053592734 0.020321436 4278602923
0.00097245723 0.049581192 0.025352616 4281093508
0.0026889518 0.050361041 0.02418901 4279255724
0.0047932491 0.04985657 0.024515007 4279584163
0.0073013734 0.048068896 0.026327137 4279062178
0.0092198905 0.048207302 0.025906652 4278931873
0.010524727 0.050270058 0.023258828 4278603434
0.01182691 0.058238488 0.013526149 4279585948
0.013492817 0.059015054 0.012373902 4279389598
0.016014384 0.05722867 0.014183331 4278995368
0.018987812 0.054162581 0.017468318 4278601903
0.021767344 0.051738739 0.020008564 4278471089
0.023898413 0.051236734 0.020329092 4278472618
0.025131024 0.053294688 0.017697409 4278668968
0.026118949 0.055991214 0.014332108 4278407083
0.028010583 0.056128263 0.013917953 4278472363
0.030604027 0.054347437 0.015711904 4278471853
0.033923309 0.050650533 0.019708674 4278537898
0.036317386 0.049511615 0.020759132 4278603943
0.039447963 0.046457388 0.024010066 4278931873
-0.0025819652 0.053022128 0.018666439 4279652249
-0.0016481504 0.056381166 0.014533415 4278271934
0.00042110682 0.055871908 0.014865398 4278534839
0.0055709332 0.05163458 0.019236058 4278995878
0.0074680056 0.05177144 0.018820271 4278603943
0.0089563541 0.053195644 0.016922802 4278864808
0.021188557 0.051446032 0.01738549 4278603433
0.023090955 0.051583707 0.016968861 4278603944
0.024767566 0.052363515 0.01581613 4278603944
0.026438791 0.053142991 0.01466462 4278734759
0.028566794 0.052638739 0.014984302 4278668968
0.031167611 0.050851889 0.016771711 4278800039
0.033547945 0.049707588 0.017821804 4278537898
0.034982476 0.051128566 0.015936699 4278668713
0.04026369 0.047561049 0.019494329 4278337468
-0.01404902 0.050645284 0.020014726 4281486974
-0.011636324 0.048837047 0.021837488 4281421183
-0.0093849823 0.047677815 0.022911619 4281093253
-0.0074831173 0.047814559 0.022494435 4278669223
-0.0061295703 0.049893498 0.019845538 4278735014
-0.0051629357 0.053265747 0.015713479 4278341038
-0.0040348023 0.05598915 0.012330048 4278929579
-0.0025463365 0.057417471 0.010435645 4279586459
-0.00048802048 0.056905176 0.010768406 4278996388
0.0021641627 0.054454125 0.013322942 4278602159
0.0046389401 0.052650858 0.015132464 4278667694
0.0067267604 0.052140899 0.015458841 4278734248
0.0080032423 0.054214727 0.012827173 4278603178
0.0092636999 0.056287505 0.010199014 4278734248
0.010927185 0.057068236 0.0090505667 4278602923
0.013009716 0.056558121 0.0093782693 4278668203
0.015527321 0.054758281 0.011178665 4278602669
0.018278467 0.052314822 0.013711847 4278603434
0.020390356 0.051806957 0.014033295 4278603943
0.022061778 0.052588582 0.012883272 4278735268
0.024178946 0.052081216 0.013203647 4278669989
0.026757844 0.050286133 0.014990784 4278538664
0.02935273 0.048492223 0.016774505 4278407593
0.031262878 0.048630696 0.016356356 4278538664
0.032700479 0.050056253 0.014473855 4278406574
0.033649489 0.05276778 0.011130475 4278537134
0.037681431 0.052399818 0.011032064 4278274484
-0.017960522 0.048812583 0.019706331 4282472039
-0.015903663 0.055587254 0.011431105 4278664889
-0.013343725 0.053120282 0.013998963 4278599609
-0.0090591647 0.051440045 0.015406176 4278603433
-0.0075438879 0.052874506 0.013509054 4278537898
-0.0032523274 0.057822559 0.0070914365 4278338998
0.0059867017 0.052523736 0.012107223 4278734249
0.0072556641 0.054603651 0.0094821081 4278800039
0.0089219362 0.055386718 0.0083346516 4278735013
0.0107922 0.055521805 0.0079248622 4278735014
0.013086468 0.054362006 0.0089868382 4278865318
0.015820768 0.051908463 0.011517119 4278668969
0.017924389 0.051397786 0.011838637 4278275758
0.01937329 0.052828226 0.0099567175 4278274739
0.028983595 0.047558792 0.014893085 4278669478
0.030190874 0.049634885 0.012281962 4278669989
0.030909969 0.053001314 0.0082132071 4278340019
0.031840988 0.055720337 0.0048803762 4278338998
0.033474728 0.056501795 0.003740605 4278537899
0.036323335 0.054057166 0.0062463395 4279128734
0.040426858 0.048389345 0.012388807 4279127969
0.046324149 0.038211729 0.023614585 4278603688
-0.021549061 0.045673762 0.020888962 4282209134
-0.020474672 0.049075197 0.016749382 4280112269
-0.019593246 0.053127769 0.01187142 4279193503
-0.018405613 0.055872563 0.008487802 4278338743
-0.016724005 0.05665816 0.0073380582 4278928304
-0.009913113 0.052493103 0.011308897 4278537643
-0.0084082074 0.053931184 0.0094173364 4278537898
-0.0072840899 0.056671772 0.0060479231 4278472618
0.00357344 0.052134324 0.0099130087 4278930343
0.0052478015 0.052920043 0.0087653361 4278472618
0.0065092631 0.055005997 0.0061468147 4278669734
0.0085805766 0.054490529 0.0064736363 4278407083
0.010448098 0.054625414 0.0060644429 4278407083
0.012951041 0.052811332 0.0078580622 4278537898
0.015041053 0.052297428 0.0081808753 4278341039
0.016702095 0.053082552 0.0070363935 4278733994
0.027923312 0.048574969 0.010824494 4279192483
0.029353593 0.050008796 0.0089501329 4278800803
0.03006557 0.053385708 0.0048912056 4278341293
0.042693418 0.045656987 0.012276098 4278275249
0.048131742 0.036741152 0.022014786 4278407084
-0.022810474 0.048697032 0.014542446 4278997664
-0.021917421 0.052763473 0.0096718073 4278603688
-0.020391464 0.054207072 0.0077786334 4278274739
-0.019213799 0.056959867 0.0044038389 4279454624
-0.017199669 0.056437336 0.004740905 4279193248
-0.015005875 0.055260677 0.0058176741 4279257763
-0.012270626 0.052121643 0.0091129392 4278339764
-0.01058593 0.052909814 0.007964287 4278472108
-0.0087242611 0.053043671 0.0075559206 4278472618
-0.0076021254 0.055792861 0.004193522 4278341548
-0.0055634268 0.055272456 0.0045254752 4278407083
-0.0038998052 0.056059353 0.003381623 4278538409
-0.0014698058 0.054232955 0.0051860027 4278603689
0.00078067183 0.053060859 0.0062507018 4278603433
0.0026453622 0.05319529 0.0058419444 4278668968
0.0080333352 0.054251242 0.0038820989 4278406573
0.010522276 0.052429464 0.0056738369 4278538154
0.012392398 0.052564595 0.0052641183 4278538154
0.014048234 0.053351477 0.0041223876 4278865318
0.016904553 0.056226924 0.00038076192 4278995879
0.018761251 0.056361329 -2.5827438e-05 4278996898
0.021517809 0.053892087 0.0024865679 4279192738
0.02429568 0.051424488 0.0049942974 4279126948
0.02686457 0.049608987 0.0067688972 4278472109
0.028517477 0.050396096 0.0056281351 4278735014
0.029457998 0.053133342 0.0023064073 4278603688
0.030615401 0.05521914 -0.00028378144 4278865574
0.032238707 0.056004275 -0.0014179349 4279389854
0.035074938 0.053541236 0.0010773428 4278931108
0.038178779 0.050430432 0.0042930543 4279062433
0.041558225 0.046672456 0.0082274564 4278735013
0.045724668 0.040969882 0.014326595 4278735013
-0.022462383 0.045173835 0.015640382 4279325084
-0.022213642 0.051884316 0.007811252 4278735014
-0.013287745 0.053863373 0.0042974278 4278469303
-0.011436921 0.053996362 0.0038913786 4278930853
-0.0094039813 0.053473201 0.0042228326 4278603434
-0.0077350289 0.054262541 0.0030793622 4278341548
-0.0056966022 0.053739902 0.0034097061 4278669224
-0.0036527514 0.053217683 0.003738964 4278865829
-0.0014107972 0.052040506 0.0048021749 4278800038
0.00064649805 0.051519416 0.0051285289 4278602923
0.0048165806 0.056505617 -0.0012272 4278337213
0.0099698268 0.052192174 0.0030852258 4278471089
0.011623111 0.052981004 0.0019456558 4278538408
0.013056953 0.054423422 7.6854602e-05 4278865318
0.026267627 0.049355339 0.0041802283 4278472619
0.028613685 0.048186637 0.0052213483 4278800549
0.030028511 0.04962818 0.0033570901 4278866339
0.031432573 0.051069047 0.0014951937 4278735013
0.033066679 0.051857188 0.00036034733 4278997408
0.035912745 0.049386106 0.0028468892 4279062943
0.039026223 0.046265069 0.0060522705 4278735013
-0.020831514 0.036357924 0.02265333 4281160064
-0.021856818 0.048370708 0.0089139305 4278800548
-0.021319836 0.053780869 0.0025896709 4278538154
-0.019982994 0.055891152 -3.1169504e-05 4278734248
-0.017977413 0.055363566 0.00030443445 4278602924
-0.015966378 0.05483643 0.00063889287 4278602668
-0.013773393 0.053650912 0.0017092973 4278537643
-0.01210716 0.0544421 0.00056795776 4278800294
-0.0099006556 0.053257715 0.0016354416 4278538154
-0.00786791 0.052732397 0.0019653291 4278603689
-0.0056425445 0.051549468 0.0030288249 4278538409
-0.0037861653 0.051683087 0.0026217289 4278669734
-0.0019297339 0.05181678 0.0022146739 4278538408
-0.00046366081 0.053265497 0.0003417246 4278274994
0.00079390779 0.055370737 -0.0022611599 4278602413
0.0020354725 0.057474926 -0.0048605353 4278472109
0.0098352879 0.050650869 0.0019632541 4278733739
0.011277456 0.052098211 9.5883384e-05 4278669224
0.012495026 0.054200999 -0.002497986 4278930854
0.013913138 0.055646729 -0.0043599922 4278602923
0.015759025 0.055780306 -0.0047642477 4278668714
0.017826797 0.055258423 -0.00444136 4278472109
0.020349059 0.053426277 -0.0026665255 4278472364
0.023341816 0.050285067 0.00055669621 4278996898
0.026131308 0.047800809 0.0030488018 4279128223
0.028709497 0.045972954 0.00481149 4278997408
0.030362574 0.046764564 0.0036740657 4278735268
0.03224818 0.046901472 0.0032614525 4278342314
0.042773191 0.039606519 0.010266796 4278408104
0.047203295 0.033212014 0.017054241 4278407849
-0.020197354 0.039548185 0.015914172 4280438669
-0.020789016 0.049610633 0.0044317171 4278604454
-0.019609295 0.052389819 0.0010761991 4278341548
-0.017595965 0.051860567 0.0014084354 4279062178
-0.015577193 0.05133177 0.001739528 4278734759
-0.014258232 0.053447511 -0.00087232143 4278602668
-0.0061498471 0.051335607 0.00044548512 4278930854
-0.0041092224 0.050808776 0.00077207945 4278407594
-0.0028325506 0.052921832 -0.0018301513 4278407594
0.001502607 0.057276692 -0.0074250605 4278865318
0.0039414577 0.055431448 -0.0056373458 4278669223
0.0066020526 0.0529285 -0.0031240508 4278668713
0.010721158 0.051878579 -0.0024784021 4278734248
0.011933895 0.053987555 -0.005066216 4278668969
0.013779724 0.054121073 -0.0054705068 4278472363
0.015625533 0.054254647 -0.0058747455 4279062178
0.018136472 0.052415088 -0.0041024666 4279062178
0.020887809 0.049919166 -0.0016086996 4279062433
0.023887532 0.046767507 0.0016047619 4279259294
0.026913913 0.043617856 0.0048124436 4279062688
0.034013215 0.040090095 0.0079029612 4278277034
0.035920024 0.040228635 0.0074857753 4278276779
0.038312916 0.039054863 0.0085102804 4278538918
0.04096216 0.037225902 0.010252789 4278801314
0.043378882 0.036053997 0.011272177 4278801569
0.047814969 0.029638033 0.018041853 4278867359
-0.019266997 0.041438907 0.010678221 4279719569
-0.018900465 0.04754784 0.0036452282 4278866594
-0.017386414 0.049008157 0.0017678812 4278473129
-0.01588292 0.050467737 -0.00010705553 4278407338
-0.014742263 0.053253096 -0.0034473296 4278602924
-0.011254523 0.054179527 -0.0049850084 4278600884
-0.0066563375 0.051130734 -0.002131246 4278405553
-0.0048108026 0.051263548 -0.0025359783 4278669224
-0.0035416558 0.053382676 -0.0051316656 4278538408
0.0083172172 0.051534347 -0.0046411231 4278472619
0.010587338 0.05034649 -0.0035936404 4278734758
0.012227599 0.051141039 -0.0047253501 4278800549
0.014511067 0.049954243 -0.0036806464 4278735013
0.016805192 0.048768319 -0.0026382748 4278800804
0.019331507 0.046923265 -0.00087425672 4278931618
0.022098016 0.044419676 0.0016095955 4278604199
0.024885833 0.041917756 0.0040888023 4278276779
0.03006102 0.038236994 0.0075903628 4278342569
0.03243766 0.037057474 0.0086149834 4278276779
0.034824926 0.035878751 0.0096373782 4278473384
0.036982551 0.035359502 0.009937685 4278473638
0.038902543 0.035499088 0.0095176846 4278539173
0.041313566 0.034322351 0.010534998 4278736034
0.043735169 0.033146396 0.011550087 4278801824
0.048174571 0.026708774 0.018302571 4278801824
-0.016922496 0.029892292 0.020565551 4280309128
-0.018025581 0.042018004 0.0069323108 4278736544
-0.01768934 0.048144542 -7.9154968e-05 4278604708
-0.016534753 0.050939582 -0.0034159571 4278472364
-0.015401427 0.05373317 -0.0067480393 4278602668
-0.013932165 0.055194799 -0.0086120786 4279521433
-0.011929683 0.054660607 -0.0082805883 4278997154
-0.0095538981 0.052797135 -0.0064892583 4278930598
-0.0073486492 0.051599577 -0.0054313354 4278799529
-0.0057004914 0.052396268 -0.0065635964 4278668713
-0.0040576234 0.053192642 -0.0076946476 4278603688
-0.0024200492 0.05398871 -0.0088244816 4278407083
-0.00098508596 0.055448387 -0.010680687 4278930853
0.0010391362 0.054916237 -0.010353605 4278996388
0.0034740083 0.053057507 -0.0085748639 4278865318
0.006130226 0.050536692 -0.0060738102 4278996644
0.0085998401 0.048680644 -0.0043026265 4279062433
0.01108549 0.046825785 -0.0025348607 4278997409
0.013160514 0.046297662 -0.0022186395 4278931618
0.01545687 0.045107409 -0.0011800583 4278407339
0.023081886 0.039555892 0.0040870346 4278276779
0.025428852 0.038369641 0.00511471 4278604453
0.027786463 0.037184186 0.0061401501 4278342314
0.030386703 0.035338238 0.0078832097 4278342568
0.032768227 0.034154661 0.0089035258 4278604708
0.035397701 0.032310985 0.010640301 4278735779
0.037323039 0.032450907 0.010219093 4278866849
0.039248288 0.032590911 0.0097979642 4278670499
0.041173439 0.032730967 0.0093769059 4278998429
0.04384261 0.030890416 0.011105254 4278801824
0.048533365 0.023770925 0.018556979 4278932894
-0.0169852 0.03579367 0.010932621 4280635784
-0.017821446 0.04661753 -0.001191048 4279521433
-0.017704599 0.053428356 -0.0089086751 4278538154
-0.0063995235 0.052880175 -0.0098505244 4278800293
-0.0041892678 0.051678687 -0.0087968474 4278669479
-0.0023571588 0.051810656 -0.0091985492 4278669478
-0.00052500889 0.051942702 -0.0096002035 4278735268
0.001506947 0.051408909 -0.009276473 4278931874
0.0041516088 0.048878413 -0.0067795329 4278997153
0.0068176594 0.046349533 -0.004287228 4278997153
0.009297289 0.044487633 -0.0025231857 4278538664
0.01179296 0.042626925 -0.00076255761 4278407849
0.014304651 0.040767446 0.00099461898 4278538918
0.016832342 0.038909238 0.0027482994 4278473384
0.019376053 0.037052222 0.0044985693 4278604453
0.02127233 0.037189551 0.004083354 4278538918
0.023616195 0.035998613 0.0051083565 4278408103
0.025517737 0.036136478 0.0046921056 4278604708
0.028106697 0.034283035 0.0064326897 4278670499
0.030479787 0.033094451 0.0074514709 4278408613
0.032863505 0.031906664 0.0084680188 4278539683
0.035494998 0.030056532 0.010199465 4278539428
0.037902586 0.028870672 0.011210863 4278736034
0.039835759 0.02901127 0.01078802 4278736289
0.042504366 0.027164055 0.01251151 4278867359
0.045684572 0.023993235 0.015661225 4278801824
-0.015109729 0.02618653 0.018564519 4280569993
-0.017102446 0.041739576 0.0013481546 4279783574
-0.017661955 0.051253557 -0.0092747631 4278735524
-0.017242815 0.056743182 -0.015507136 4278800549
-0.015262336 0.056202874 -0.015174156 4278406573
-0.010550883 0.052446634 -0.011602628 4278406573
-0.0083572492 0.051239438 -0.010548775 4278734758
-0.0063417554 0.050701942 -0.010223251 4278997154
-0.0041293204 0.049496252 -0.0091734054 4278931873
-0.0017118976 0.047622878 -0.0074009048 4278800803
0.00052466616 0.046419073 -0.0063562393 4278604199
0.0027719438 0.045216113 -0.0053138696 4278342059
0.0077084899 0.041477203 -0.0017907768 4278604199
0.010200804 0.039609641 -3.4460798e-05 4278276269
0.012709163 0.037743278 0.0017184503 4278407848
0.015233539 0.035878144 0.0034679025 4278735268
0.017558312 0.034681223 0.0044936277 4278735524
0.019675473 0.034151927 0.0047974419 4278735524
0.021577002 0.034289643 0.0043810811 4278736033
0.023478497 0.03442743 0.0039647855 4278473894
0.025832539 0.033232901 0.0049843825 4278605218
0.028197195 0.032039259 0.0060016643 4278736288
0.030804124 0.030180627 0.0077334363 4278539938
0.033192694 0.028988874 0.0087456033 4278605218
0.03630279 0.025801711 0.011902194 4278801569
0.039439511 0.022616569 0.01505303 4278473893
0.042602856 0.019433398 0.018198144 4278538918
0.046527725 0.014257818 0.023478851 4278735524
-0.015195183 0.032132722 0.0089715719 4280635273
-0.016756207 0.045713339 -0.0060039181 4278801569
-0.016845684 0.053237867 -0.014409166 4278669478
-0.015213531 0.054039653 -0.01553322 4278801059
-0.012863845 0.052154481 -0.013751145 4278997408
-0.010131318 0.048927523 -0.01052116 4279194014
-0.0077441148 0.047045209 -0.0087471949 4278735013
-0.0053408109 0.045164078 -0.006976665 4278604199
-0.0033042021 0.044626009 -0.0066574235 4278473384
-0.00087409467 0.042746957 -0.0048926566 4278801059
0.0015720613 0.040869184 -0.0031313952 4278604453
0.0040342882 0.038992595 -0.0013735611 4278604453
0.0063104928 0.037787408 -0.00034076907 4278604453
0.0083926879 0.037252963 -3.118813e-05 4278866339
0.010687616 0.036049284 0.00099761039 4278735269
0.013203314 0.034176871 0.0027439669 4279062943
0.015522279 0.032975078 0.0037676152 4278932129
0.017851926 0.031774104 0.0047890339 4279063199
0.019974142 0.031242972 0.0050900877 4278932383
0.021880919 0.031381078 0.0046725851 4278670498
0.023787664 0.031519264 0.0042551551 4278605218
0.026372647 0.029652366 0.0059866365 4278736543
0.028744852 0.028454863 0.006999027 4278801824
0.031590551 0.025922209 0.009439379 4278539938
0.035159856 0.021387774 0.014018722 4278736543
0.039476816 0.014853269 0.020731848 4278736543
-0.012613136 0.019774601 0.01946447 4280374409
-0.014990207 0.036774583 0.00087981112 4280047244
-0.015573815 0.04634824 -0.0096916491 4279324573
-0.014275882 0.048501898 -0.012269248 4279062433
-0.012091339 0.047285065 -0.011220077 4278866338
-0.0093465224 0.044048056 -0.0080010844 4278604454
-0.0069466308 0.042160057 -0.0062348619 4278342314
-0.0045306459 0.040273249 -0.0044720657 4278277034
-0.0024809688 0.039733917 -0.0041573457 4278604453
-3.81805e-05 0.037849195 -0.0024003107 4278538918
0.0024206601 0.035965748 -0.00064678304 4278669733
0.0048955679 0.034083501 0.0011033323 4278866593
0.0067809112 0.034219511 0.00069011189 4278801059
0.0086662769 0.034355603 0.00027695112 4278931874
0.010966066 0.03314789 0.0013013911 4279062944
0.013486434 0.03126923 0.003041774 4278866594
0.015810272 0.030063378 0.0040611159 4278932129
0.018144766 0.02885841 0.0050781295 4278866594
0.020272035 0.028325466 0.0053764377 4278932383
0.022404619 0.027792981 0.0056736413 4278604708
0.02431928 0.027931752 0.0052544829 4278604963
0.026911613 0.026058786 0.0069794692 4278736289
0.029291347 0.024857454 0.0079869255 4278867359
0.033531643 0.01829531 0.014700234 4278933404
0.039462663 0.0070470273 0.026392456 4278933404
-0.013228372 0.027787559 0.007728314 4280244104
-0.013955008 0.038070641 -0.0035512894 4279784338
-0.012985189 0.041585319 -0.007577138 4278342314
-0.010599468 0.039689556 -0.0058128778 4278604454
-0.0083806142 0.038470872 -0.0047744829 4278342569
-0.006151028 0.037253074 -0.0037384275 4278538918
-0.0039106943 0.036036089 -0.0027046259 4278538918
-0.0020416118 0.036170598 -0.0031145271 4278866594
0.00021484122 0.03495498 -0.0020841826 4278932129
0.0024820268 0.03374017 -0.0010560881 4278932129
0.0051579252 0.031176792 0.0014075153 4278932639
0.0072501991 0.0306386 0.0017115232 4278801314
0.009143481 0.03077526 0.0012966264 4278866849
0.011243781 0.030237859 0.0015989561 4278932129
0.013349431 0.029700914 0.0019001681 4278801059
0.015672786 0.02849065 0.0029163267 4279063199
0.018006798 0.027281264 0.0039301515 4278801059
0.020351471 0.026072737 0.0049417075 4278997919
0.022706816 0.024865024 0.0059510339 4278998429
0.025072794 0.023658197 0.0069580451 4279260824
0.027223717 0.023124989 0.0072497651 4279327378
0.030065045 0.020574477 0.0096778087 4279655563
0.036162388 0.0086117238 0.022068083 4279722628
-0.012503371 0.022825416 0.010202583 4280571014
-0.013039127 0.032463823 -0.00033328496 4279849873
-0.012229878 0.036669135 -0.0050766077 4278932128
-0.01019172 0.036124244 -0.0047629178 4278801059
-0.0079653449 0.034901693 -0.0037294813 4278801059
-0.0059136935 0.034357935 -0.0034186263 4278801314
-0.0038566366 0.033814654 -0.0031088945 4278735779
-0.0019849911 0.033949345 -0.0035193581 4278736034
0.0004671365 0.03205213 -0.0017742701 4278932639
0.0027391687 0.030833313 -0.00075058639 4278932639
0.0052207336 0.028938381 0.0009881705 4278801569
0.0073153805 0.028398214 0.0012899693 4278604708
0.0092112254 0.028535053 0.00087450258 4278801569
0.01131391 0.027995631 0.0011746641 4278866339
0.013421936 0.027456669 0.0014737099 4279063198
0.015747476 0.026242174 0.0024860892 4278801314
0.018083673 0.025028568 0.003496144 4279063708
0.020430544 0.023815788 0.0045039766 4279457173
0.022788059 0.022603896 0.0055094957 4279588754
-0.012124084 0.019203573 0.011217825 4280963713
-0.01247466 0.028192533 0.0014236681 4280112014
-0.011830963 0.033092484 -0.0040327515 4279522199
-0.0097850896 0.032545935 -0.0037224181 4278801059
-0.0079163983 0.032680154 -0.0041324291 4278735779
-0.0056770965 0.031454265 -0.003105117 4279063199
-0.0036149919 0.03090914 -0.0027981456 4278604708
-0.0015474856 0.030364439 -0.0024922621 4278670499
0.000718683 0.029140729 -0.0014706533 4278801314
0.0029955655 0.027917875 -0.00045133568 4279063454
0.0054818019 0.026016697 0.0012814477 4278998173
0.0075814854 0.025474705 0.0015804954 4279063198
0.0096865483 0.02493313 0.0018784665 4278866339
0.011796948 0.024392068 0.0021752864 4278801059
0.013703387 0.024529848 0.0017576292 4278932894
0.016033769 0.023311362 0.0027656071 4279260824
0.018589472 0.02141571 0.0044835545 4279589519
-0.0122611 0.017618559 0.010063674 4281029759
-0.012434904 0.025953084 0.0010097697 4280439689
-0.011610232 0.030185755 -0.0037172046 4279129243
-0.0099187903 0.031002739 -0.004846042 4279063198
-0.0076853856 0.029771948 -0.0038208012 4278932129
-0.0054412149 0.028541969 -0.0027978159 4278932129
-0.0031863153 0.027312892 -0.0017771628 4279128733
-0.0013015307 0.0274485 -0.0021905322 4279128989
0.0009694919 0.026220758 -0.0011732858 4278932383
0.0032512397 0.024993822 -0.00015828572 4279063453
0.0055436939 0.023767792 0.00085438788 4278932638
0.0076457672 0.02322372 0.001151301 4279063963
0.00975319 0.022680167 0.0014470592 4279261589
0.012072396 0.021456324 0.0024540629 4279459468
-0.012398072 0.016033798 0.0089096986 4282143854
-0.012569696 0.024394751 -0.00012493506 4280636294
-0.011743981 0.02864062 -0.004842272 4279325593
-0.0096933506 0.028090013 -0.0045362879 4279194268
-0.0074550845 0.026855124 -0.0035153795 4278866338
-0.0048363023 0.024252124 -0.0010659508 4279193758
-0.0023836419 0.022335023 0.00066404417 4279259549
-0.00029538572 0.021787465 0.00096203014 4279325083
0.0014124736 0.022608239 -0.00016844645 4279391128
0.0035061687 0.022061236 0.00012847409 4279588243
0.0054069981 0.02219826 -0.00028821267 4279655054
0.0079105832 0.020285264 0.0014309436 4279918213
-0.012356386 0.021461666 0.00017290562 4281749878
-0.010994226 0.023659263 -0.0023892187 4279783828
-0.0087511949 0.022420283 -0.0013727676 4279652759
-0.0061333403 0.019808311 0.0010702498 4279325083
-0.003494069 0.017197967 0.003508633 4279653779
-0.00083337352 0.014589261 0.0059423894 4280440453
0.0010885745 0.014727525 0.0055208597 4280571778
-0.0088343322 0.013140112 0.0057598576 4281356160
-0.0060195811 0.0098312497 0.0089057125 4280242318
-0.0031780638 0.0065244064 0.012045763 4280241809
-0.00049428642 0.0039084926 0.014467783 4280767109
0.0022109076 0.0012942068 0.016885184 4281097844
0.013226163 -0.062779725 -0.020210721 4282406248
-0.02695252 -0.016190927 0.021958269 4285163818
-0.025115006 -0.015344981 0.020811185 4285557538
-0.030796818 -0.0094849505 0.012683548 4285558049
-0.02942621 -0.0065180622 0.0094168857 4285820189
-0.027185783 -0.00779346 0.010406666 4285819933
-0.024329867 -0.011894543 0.014226336 4285885724
-0.019903511 -0.023057576 0.025113456 4285492003
-0.034704208 -0.012084607 0.013078034 4285229864
-0.033730276 -0.0069787242 0.0076861419 4285624093
-0.032364532 -0.0040035695 0.0044270232 4285689374
-0.030437365 -0.0038666278 0.0040030759 4285623584
-0.028065123 -0.0058566071 0.0057001878 4285689118
-0.025374778 -0.0092630275 0.008806698 4285689119
-0.021735758 -0.016919281 0.016142517 4285689629
-0.016474854 -0.03165568 0.030518033 4285623838
-0.044867612 -0.012965295 0.012633517 4285360934
-0.04317148 -0.011401985 0.010783814 4285754399
-0.041356333 -0.010551888 0.0096460544 4285819933
-0.039149925 -0.011839096 0.010636255 4285689119
-0.037606634 -0.0095646717 0.0080824532 4285558813
-0.035666779 -0.0094271488 0.0076554678 4285558813
-0.034427367 -0.0057306029 0.0036926325 4285887253
-0.032786094 -0.0041706115 0.0018554423 4285755419
-0.031009831 -0.0033226907 0.00072667003 4285623584
-0.02864626 -0.005319912 0.002420783 4285689374
-0.026266553 -0.007315848 0.0041113812 4285886744
-0.023256894 -0.012153935 0.0086155236 4285689883
-0.019273035 -0.02125312 0.017333444 4285427744
-0.048903011 -0.014850009 0.0123199 4284968234
-0.04768154 -0.010420587 0.0076322854 4285426978
-0.046243906 -0.0074236132 0.0043699797 4285689374
-0.044320919 -0.0072877221 0.0039463807 4285754398
-0.042268448 -0.0078664459 0.0042307246 4285951769
-0.040078513 -0.0091592185 0.0052212533 4285689883
-0.038281552 -0.0083080865 0.0040892418 4285624348
-0.036489747 -0.0074572004 0.0029584467 4285624349
-0.035122924 -0.00446463 -0.00028787926 4285624348
-0.033492029 -0.0029010065 -0.0021195076 4285821208
-0.031726375 -0.0020516962 -0.003244333 4285886743
-0.029374152 -0.0040563084 -0.0015526693 4285886999
-0.027005799 -0.0060596876 0.00013551302 4285755674
-0.024468049 -0.0087747909 0.0025228132 4285493278
-0.02159695 -0.012914021 0.0063096564 4285427999
-0.01726637 -0.023464728 0.016402703 4285362208
-0.05145146 -0.013725001 0.0087400079 4285296419
-0.049986988 -0.010717575 0.0054781549 4285558814
-0.048422508 -0.0084290542 0.0029290728 4285689884
-0.046997555 -0.0054242276 -0.00032393448 4285557793
-0.045214429 -0.0045721866 -0.0014514867 4285557793
-0.043049149 -0.005871255 -0.00045887753 4285689629
-0.040609524 -0.0086029507 0.0019428637 4285886744
-0.038551643 -0.0091833062 0.0022244956 4285624348
-0.036762439 -0.0083304606 0.0010958929 4285624348
-0.035118148 -0.0067616589 -0.00073550269 4285624349
-0.033626758 -0.0044775195 -0.0032678954 4285624349
-0.03186103 -0.0036260411 -0.0043911096 4285624350
-0.029804997 -0.0042060502 -0.0041087046 4285558558
-0.027593069 -0.0055009983 -0.0031257551 4285558558
-0.025676496 -0.005364608 -0.0035472196 4285624349
-0.023448307 -0.0066581704 -0.0025677457 4285558558
-0.020258851 -0.012240011 0.0026086811 4285427489
-0.01622127 -0.021392036 0.011272181 4285295653
-0.012769192 -0.027681079 0.017125722 4286933519
-0.051586971 -0.015324976 0.007574195 4285295653
-0.05047664 -0.010149125 0.0021975338 4285493278
-0.049040623 -0.0071349181 -0.0010514464 4285821464
-0.047625698 -0.0041221492 -0.0042956583 4285821464
-0.04585316 -0.0032686703 -0.0054193102 4285886743
-0.043570116 -0.0052920617 -0.0037228465 4285887509
-0.041007772 -0.0087520815 -0.00062162802 4285821464
-0.03882128 -0.010053847 0.0003631562 4285689883
-0.037171595 -0.0084804185 -0.001466237 4285624604
-0.035392821 -0.0076260678 -0.0025908612 4285624604
-0.033761419 -0.0060537346 -0.0044160783 4285558813
-0.031850733 -0.0059180818 -0.004836496 4285624349
-0.02993992 -0.0057823323 -0.0052568708 4285690138
-0.028028935 -0.005646456 -0.0056771971 4285755674
-0.02627071 -0.0047930367 -0.0067969058 4285886999
-0.024206568 -0.0053743608 -0.0065177064 4285820954
-0.021345861 -0.009540502 -0.0027482584 4285820954
-0.017809521 -0.016571674 0.0038049016 4285623839
-0.014546826 -0.022165578 0.0089522302 4285426468
-0.050492823 -0.012455594 0.0017486196 4285427744
-0.049294986 -0.0079886429 -0.002904322 4285493278
-0.047882102 -0.0049672686 -0.00614159 4285690138
-0.046238206 -0.0033903643 -0.0079667084 4285624348
-0.044089898 -0.0046993904 -0.006977018 4285689629
-0.041667968 -0.0074498616 -0.0045845602 4285624094
-0.039626703 -0.0080358349 -0.0043026004 4285624093
-0.037716635 -0.0079005547 -0.0047231298 4285624349
-0.035667047 -0.0084857903 -0.0044428241 4285624348
-0.033753984 -0.0083500929 -0.0048638508 4285624348
-0.031840764 -0.0082142986 -0.0052848514 4285624348
-0.03022214 -0.0066383295 -0.0071038418 4285755164
-0.028614022 -0.0050630532 -0.0089204041 4285755163
-0.026863731 -0.004208032 -0.010036736 4285754908
-0.024807893 -0.0047921576 -0.0097573707 4285754654
-0.022114493 -0.0082528181 -0.0066924654 4285886744
-0.019233607 -0.012430493 -0.0029372759 4285886488
-0.015830532 -0.018762399 0.0028974265 4285623838
-0.012877446 -0.022934709 0.0066369027 4286015773
-0.050391428 -0.015490402 0.002000507 4285098029
-0.049428359 -0.0095617659 -0.0040505379 4285493534
-0.048014842 -0.0065316521 -0.0072814021 4285559068
-0.04624483 -0.0056740902 -0.0084012169 4285558814
-0.044222884 -0.0062638484 -0.0081168227 4285689629
-0.042195417 -0.0068531521 -0.00783352 4285689883
-0.040296309 -0.0067187883 -0.0082517359 4285820953
-0.038397022 -0.0065843053 -0.0086699128 4285821209
-0.036219209 -0.007895235 -0.0076897275 4285755419
-0.034172416 -0.0084827282 -0.0074104201 4285624348
-0.032409184 -0.0076249577 -0.0085282233 4285624093
-0.030945472 -0.0053229965 -0.011039648 4285689629
-0.029197924 -0.0044661276 -0.012153842 4285886999
-0.027455568 -0.0036095232 -0.013266812 4285623584
-0.025252886 -0.0049180724 -0.012291632 4285557794
-0.022723723 -0.0076686628 -0.009928586 4285623838
-0.020333625 -0.009696383 -0.0082646478 4285755163
-0.017601065 -0.013164964 -0.0052163992 4285754909
-0.014012553 -0.020235915 0.0012925826 4285556773
-0.049320951 -0.012587223 -0.0037931874 4285427743
-0.048147529 -0.0080957524 -0.0084210169 4285559324
-0.046503127 -0.0065101273 -0.010239722 4285624859
-0.044612497 -0.006376598 -0.010656243 4285689884
-0.042852692 -0.005517412 -0.011772048 4285886998
-0.041098043 -0.0046584494 -0.012886684 4285886743
-0.039075859 -0.0052501447 -0.012603734 4285952279
-0.037048206 -0.0058413111 -0.012321962 4285886999
-0.034873381 -0.0071567409 -0.01134434 4285624348
-0.033120736 -0.0062975623 -0.012458187 4285624349
-0.031520262 -0.0047142468 -0.014266616 4285624348
-0.029930308 -0.0031315312 -0.016072692 4285887254
-0.028198555 -0.0022735149 -0.017181702 4285887254
-0.026007041 -0.0035872459 -0.016207371 4285821718
-0.023647077 -0.0056237765 -0.01454182 4285887509
-0.021431323 -0.0069356225 -0.013572611 4285690138
-0.018878836 -0.0096930526 -0.011221157 4285558814
-0.0156423 -0.015341204 -0.0061074514 4285493534
-0.012194701 -0.021709073 -0.00031195208 4285427489
-0.00059317052 -0.028227415 0.0044216588 4285229864
-0.048973866 -0.01707812 -0.0021418985 4285229099
-0.04828015 -0.0096595697 -0.009560436 4285493534
-0.046760976 -0.0073414855 -0.012074828 4285624603
-0.044873141 -0.0072081722 -0.012490757 4285755419
-0.043246783 -0.0056192614 -0.014302129 4285689374
-0.041497372 -0.004758548 -0.015413944 4285557538
-0.039753146 -0.0038981177 -0.016524548 4285755418
