# .PCD v0.7 - Point Cloud Data file format
VERSION 0.7
FIELDS x y z rgba
SIZE 4 4 4 4
TYPE F F F U
COUNT 1 1 1 1
WIDTH 719
HEIGHT 1
VIEWPOINT 0 0 0 1 0 0 0
POINTS 719
DATA ascii
-0.016159926 -0.0078152642 0.018816002 4289085464
-0.014896136 -0.0041875467 0.014782961 4289411608
-0.01671033 -0.017342374 0.025950819 4286530363
-0.015403248 -0.013700716 0.021916188 4288625188
-0.014427148 -0.0086620003 0.016456544 4289344544
-0.015246298 -0.016805187 0.022139721 4287576118
-0.013959583 -0.013153844 0.018117718 4289082149
-0.014493208 -0.022734493 0.025208879 4285940804
-0.013037834 -0.019774832 0.021903533 4287838259
-0.012221787 -0.014001824 0.015755981 4288035883
-0.012573671 -0.024308302 0.023535259 4286202434
-0.011282556 -0.020634539 0.019528463 4287512878
-0.010808367 -0.025173642 0.021153338 4286661433
0.017480254 -0.0085212812 0.026901864 4282021198
0.022829687 -0.020028599 0.038593344 4282151758
0.0036469065 0.0021174252 0.0143473 4284184108
0.0054814219 0.0029480979 0.013186984 4282550834
0.0062167682 0.0079093352 0.0077361949 4282027063
0.0069148242 0.012868069 0.0022936501 4280657204
0.0087015517 0.01369565 0.0011441521 4280132158
0.012386259 0.0076438561 0.0071311928 4280002873
0.018241981 -0.005969353 0.020950064 4280002873
0.024987131 -0.022325084 0.037594937 4279741753
-0.0067093186 0.0088664964 0.0056122318 4283533349
-0.0047303401 0.0090055913 0.0051752925 4282487849
-0.0024083182 0.0077618882 0.006170541 4282160173
-0.00042378902 0.0079015717 0.0057325289 4282092343
0.0010304451 0.010114565 0.0031499043 4281504313
0.002648212 0.011635691 0.0012851246 4281439033
0.0037089959 0.015228257 -0.0027183779 4280852789
0.0047431625 0.018819015 -0.0067159478 4281110593
0.0065006129 0.019646738 -0.0078573786 4281632324
0.0095837303 0.015643261 -0.0040138997 4280915519
0.014626998 0.0047426745 0.0069362968 4280850238
0.021710405 -0.013049252 0.024975497 4280850238
0.02814004 -0.028073005 0.040143475 4281175874
-0.01183581 0.002633743 0.010059755 4283921968
-0.010804977 0.0069401115 0.0053180233 4281962804
-0.010132574 0.012632832 -0.00084915757 4281180973
-0.0090048797 0.0162405 -0.0048598088 4280333099
-0.0070606954 0.016377117 -0.0052890815 4280136493
-0.004431285 0.013739154 -0.0028602928 4279028264
-0.0023022816 0.013183266 -0.0025779158 4281242684
-0.00052106753 0.014014438 -0.0037232861 4281046334
0.00089633837 0.016231578 -0.0062929187 4281112124
0.0021158643 0.01914062 -0.0095710959 4279612979
0.0034987442 0.021355487 -0.012132922 4280263993
0.0056148022 0.020799208 -0.011847304 4280524093
0.0083061084 0.018166315 -0.0094316471 4280394044
0.012367122 0.010689914 -0.0020520911 4280330294
0.018049171 -0.0023180768 0.01098825 4280199989
0.025020367 -0.019469537 0.028258055 4280654908
-0.013552379 0.0079404712 0.0017235503 4281961273
-0.012868073 0.013651572 -0.0044334233 4281113398
-0.011900112 0.017966848 -0.0091515146 4281242428
-0.010466762 0.020191211 -0.01172021 4281372223
-0.008544039 0.020326301 -0.012144757 4280981054
-0.005936835 0.017677929 -0.0097175352 4280916539
-0.0034819543 0.015726857 -0.0080073029 4280721209
-0.0017166846 0.016559094 -0.0091475528 4281046589
4.3328851e-05 0.017391104 -0.010286612 4280980798
0.0016163327 0.018917937 -0.012134962 4280915518
0.0029943064 0.021139123 -0.014690908 4279937593
0.0051047318 0.020580176 -0.014405632 4280133689
0.0074102879 0.01932719 -0.013412708 4280394299
0.010881159 0.013908714 -0.0081727225 4281045569
0.014980044 0.0064107776 -0.00081920624 4280914753
0.021510843 -0.0094110295 0.015005987 4280914753
0.028364822 -0.025917836 0.031510666 4280783938
-0.01431974 0.0090976208 -0.0022951961 4281829184
-0.013965204 0.016223412 -0.0098646116 4280722228
-0.01268645 0.019153524 -0.013143498 4279482419
-0.011097755 0.020685259 -0.014992537 4280133688
-0.0090149194 0.02012147 -0.014703369 4279807798
-0.0065848269 0.018161904 -0.0129926 4279158059
-0.0041386448 0.01620362 -0.01128535 4280851769
-0.0022050776 0.016339757 -0.01171208 4281046333
-0.00027142838 0.016476016 -0.012138747 4281112124
0.0014807321 0.017309729 -0.013274347 4280915518
0.0030433871 0.018840346 -0.015117111 4280915518
0.0051561594 0.018279396 -0.014834013 4281045313
0.0070847385 0.018415704 -0.01525926 4280849475
0.0095900856 0.01646233 -0.013564521 4281045058
0.012501311 0.013117328 -0.010461112 4281437249
0.017810175 0.0014195368 0.0011021644 4281436993
0.025612704 -0.018624209 0.02110409 4281436993
0.031540871 -0.031698391 0.034029111 4281436993
-0.01429864 0.0067664981 -0.0027375221 4281958214
-0.014419857 0.016017865 -0.012428164 4281111104
-0.013308544 0.019657381 -0.01641115 4280588864
-0.011396829 0.019791566 -0.016833363 4280132923
-0.0091489106 0.018524773 -0.015834773 4280524094
-0.0068902262 0.017258886 -0.014838522 4280915518
-0.0047941543 0.016693968 -0.014553705 4281177149
-0.0026926622 0.016129568 -0.014270056 4281176638
-0.00058576465 0.015565664 -0.013987528 4281111358
0.0013451688 0.015701823 -0.014413526 4280981054
0.0029080696 0.017236859 -0.016253127 4280980288
0.0048338063 0.017372854 -0.016677827 4280784703
0.0063808151 0.018907025 -0.018513806 4280915009
0.0084933676 0.018344056 -0.018232126 4278829873
0.010806028 0.017082892 -0.017247038 4279352878
0.015103266 0.0088381171 -0.0092253145 4280199224
0.02226536 -0.0091777518 0.0086287558 4280199224
0.029566178 -0.027183659 0.026452348 4280264248
-0.013334643 0.00021021068 0.0010841228 4281891914
-0.014234245 0.013008289 -0.012143025 4280913733
-0.013441857 0.018065486 -0.017539224 4280195908
-0.011530276 0.018199615 -0.017961441 4280653123
-0.0092828535 0.016928378 -0.016965969 4280980544
-0.0075362585 0.017765656 -0.018097451 4281111358
-0.0056217015 0.017900325 -0.018520078 4281241919
-0.0033553429 0.016630761 -0.01752861 4281045824
-0.00089967996 0.014660038 -0.015832962 4281176385
0.0012096502 0.014094196 -0.015552508 4280980544
0.0027727969 0.015633643 -0.017388945 4280980799
0.0045118593 0.016471092 -0.018518329 4280784959
0.006056454 0.018009458 -0.020350512 4280849984
0.0075904168 0.019547224 -0.022180311 4280719678
0.0095028356 0.019682597 -0.022601843 4281632069
0.012795687 0.014913343 -0.018107014 4279936829
0.018924065 0.0003400743 -0.0037960261 4278959669
0.025974626 -0.017026298 0.013294913 4279089973
0.03254297 -0.032282777 0.028254911 4279089973
-0.012216162 -0.0070825443 0.0055935159 4282869584
-0.01357029 0.0078735501 -0.0097369924 4281760589
-0.013088088 0.01435782 -0.016541908 4280785214
-0.011663679 0.01660797 -0.019089309 4280720189
-0.0097521171 0.016742207 -0.019511441 4280851003
-0.0085218251 0.019695614 -0.022760026 4279548719
-0.0066207312 0.019829314 -0.023179701 4278700843
-0.0043682009 0.018554337 -0.022188423 4278961453
-0.0017482266 0.015871808 -0.019789668 4280850494
0.00035012141 0.015302956 -0.019508416 4280915263
0.0020865202 0.01614226 -0.020635644 4281045824
0.0038176477 0.016981289 -0.021761633 4280980799
0.0055434816 0.017820098 -0.02288642 4278960689
0.0068806969 0.020065136 -0.025413752 4281176129
0.0089793205 0.019496866 -0.025132155 4281502019
0.011674348 0.016820364 -0.022749413 4281436994
0.016387541 0.0071184635 -0.013369652 4281241153
0.022187166 -0.0060905963 -0.00050839037 4280915263
0.029523263 -0.024208672 0.017223567 4280785214
0.035544284 -0.037401788 0.030036226 4280980543
-0.011100609 -0.014410459 0.010077916 4282804048
-0.012589134 0.0013013929 -0.0059316345 4282281043
-0.01257322 0.0099296123 -0.014846994 4281372478
-0.011797022 0.015016623 -0.020216977 4281047353
-0.010220572 0.01656517 -0.022050381 4280916539
-0.0091651641 0.020234086 -0.025996568 4279092014
-0.0072721988 0.020367198 -0.026414458 4280915773
-0.0048526749 0.018380564 -0.024720617 4278961453
-0.0022389255 0.015688762 -0.022327013 4280133688
-0.00014621764 0.015117273 -0.022046093 4280785214
0.0014014058 0.016664475 -0.023872703 4280915773
0.003124591 0.017505161 -0.024995321 4280916029
0.0048424862 0.018345572 -0.026116708 4278960689
0.0063636079 0.01989124 -0.027937232 4279938103
0.0084565878 0.019320302 -0.027655974 4280589374
0.01075175 0.018044785 -0.026676696 4280458813
0.014653532 0.01113075 -0.020110942 4280524603
0.018810846 0.0035158247 -0.012858832 4281110595
0.026099216 -0.014662944 0.0048416369 4281110595
0.033318795 -0.032127447 0.02181486 4281110083
0.037939642 -0.040428139 0.029707618 4281109573
-0.010144603 -0.021063469 0.013830986 4282804559
-0.011451229 -0.0060114563 -0.0014422983 4282541909
-0.012059789 0.0054839402 -0.013164457 4281954643
-0.011930328 0.013425559 -0.021344453 4281240898
-0.010855563 0.017106734 -0.025286935 4280590649
-0.0096373782 0.020076957 -0.028519999 4281111613
-0.007577233 0.019500613 -0.028233763 4281306688
-0.0053363778 0.018215965 -0.027246382 4281046078
-0.0027288236 0.01551488 -0.024857812 4280786234
-0.00082241371 0.015649244 -0.025278445 4280720698
0.00071746111 0.01720028 -0.027100073 4281046843
0.0024326853 0.018042624 -0.028219387 4280916028
0.0045199208 0.017468855 -0.027938645 4280916284
0.0062299147 0.018311054 -0.029056635 4280785978
0.0085165426 0.017030366 -0.028078742 4280655164
0.010813862 0.015750594 -0.027103169 4280849729
0.013919095 0.011643074 -0.02334174 4281241664
0.017460274 0.0061240867 -0.018194476 4281240898
0.023909058 -0.009286508 -0.0033146665 4281175873
0.031304404 -0.027514972 0.014320415 4281175873
0.036528751 -0.037963189 0.02428364 4281175108
0.039706722 -0.041343607 0.027288541 4281435209
-0.010316227 -0.013359517 0.0030221455 4282738258
-0.0115478 0.0010208189 -0.011494298 4282084949
-0.012063581 0.0118348 -0.022471711 4281370184
-0.0116565 0.01837353 -0.029216349 4280459578
-0.010278579 0.020640373 -0.031738803 4279874354
-0.0083992034 0.020772517 -0.032153711 4280265014
-0.005819276 0.018060524 -0.029765598 4280069683
-0.0032179356 0.015350156 -0.027382124 4280069173
-0.0011365488 0.014773458 -0.027101999 4280916284
0.00058401376 0.015618235 -0.028220911 4280981308
0.0024850816 0.015752435 -0.028640211 4281046845
0.0045746565 0.015176661 -0.028361643 4281111359
0.0064784922 0.015311293 -0.028781381 4281176894
0.0085761547 0.01473631 -0.028504435 4281241918
0.011072081 0.012742683 -0.0268365 4281241153
0.013982259 0.0093316138 -0.023781126 4281240388
0.017120905 0.0052133724 -0.020036705 4281045058
0.022949385 -0.0081192702 -0.0072736926 4281045058
0.030121904 -0.025697403 0.0096292421 4281109318
0.035749488 -0.037597045 0.020958044 4281044294
0.039130822 -0.041697599 0.024649423 4281694798
-0.0091841556 -0.020742774 0.0074616447 4283524679
-0.010229226 -0.0070308149 -0.0063259564 4282477394
-0.011375438 0.0066741556 -0.020091126 4282021709
-0.011955108 0.017516833 -0.031030163 4280981309
-0.010579422 0.01979012 -0.033547301 4280589118
-0.0087028444 0.019922048 -0.033961598 4280784703
-0.0061264746 0.017201014 -0.031579208 4281111359
-0.0033510737 0.013768435 -0.028502803 4281176384
-0.001089748 0.012476608 -0.027526245 4281371969
0.00081646442 0.012611069 -0.027946755 4281371714
0.0027227253 0.012745634 -0.028367205 4281240898
0.0048173033 0.01216799 -0.028091369 4281175874
0.0069172643 0.011590853 -0.027816625 4281110083
0.0092161968 0.010302201 -0.026847905 4281045058
0.011722092 0.0083026737 -0.025187001 4281174343
0.014243999 0.0063044354 -0.023529585 4281240389
0.017386708 0.0021732599 -0.019795734 4281304393
0.023012545 -0.010489978 -0.007756412 4281304649
0.029975943 -0.027412407 0.0084145628 4281369419
0.035600167 -0.039349757 0.019716699 4281434443
0.038980216 -0.043463647 0.023398671 4282149719
-0.0090753697 -0.014405593 -0.0018862598 4282607953
-0.010525037 0.00077544898 -0.017026149 4282478414
-0.01141955 0.01308459 -0.02934383 4281502018
-0.010541029 0.017512884 -0.033954915 4280914243
-0.008489836 0.016929299 -0.033671614 4281240644
-0.005909007 0.014199696 -0.031296618 4281306179
-0.0033067614 0.011471733 -0.028926263 4281306178
-0.00086320937 0.0094605312 -0.027257005 4281045824
0.0014136843 0.0081654638 -0.026286986 4280785214
0.0035158806 0.0075860098 -0.026014537 4280784193
0.0056234635 0.0070070922 -0.025743175 4280980034
0.007545691 0.0071430132 -0.026166975 4281109573
0.010048177 0.0051365048 -0.024510249 4281436229
0.012370624 0.0038452744 -0.023549888 4281566788
0.014703762 0.0025548637 -0.022591773 4281435719
0.0176518 -0.00087545812 -0.019560788 4281696583
0.023075365 -0.012864865 -0.0082420204 4281696583
0.029623259 -0.028413787 0.0065095574 4281631049
0.035032064 -0.039676085 0.017095689 4281631049
0.038405485 -0.043803595 0.020769421 4282541909
-0.0085693486 -0.018941 -0.00026733801 4282870859
-0.009840712 -0.0044310987 -0.014678176 4282477394
-0.010552321 0.0071983635 -0.026274301 4281956939
-0.0094876029 0.010922983 -0.030182283 4281501509
-0.0074180737 0.010338418 -0.029904608 4281305924
-0.0049940236 0.0083190054 -0.028236046 4281110339
-0.0025538951 0.0063007846 -0.026570916 4281175363
-0.00027759746 0.0050011575 -0.025604133 4281371714
0.0020094402 0.0037023872 -0.024639588 4281305923
0.0039367564 0.0038384348 -0.025064684 4281370948
0.0058641285 0.0039745867 -0.02548971 4281370949
0.0081726499 0.0026777238 -0.024529688 4281305158
0.010491882 0.0013816878 -0.023571894 4281500999
0.012821797 8.6560845e-05 -0.022616424 4281500999
0.014765318 0.00022435188 -0.023044657 4281631304
0.017714936 -0.0032169074 -0.020022096 4281435208
0.022730049 -0.013812497 -0.010109717 4281435208
0.029064449 -0.028695047 0.0039189868 4281761865
0.034255527 -0.039277904 0.01379279 4281826124
-0.015637014 -0.036469437 0.01547404 4282936139
-0.013876084 -0.034882285 0.013618585 4282872134
-0.008386869 -0.022052102 -5.5536628e-05 4283394118
-0.0094856247 -0.0082182065 -0.013739325 4282477394
-0.0096872672 0.0012857765 -0.023223385 4281630283
-0.008774817 0.0057429373 -0.027822677 4281761608
-0.0070357025 0.0065973252 -0.028939605 4281436229
-0.0049530976 0.0060116351 -0.028666392 4281370949
-0.0023339689 0.0032671839 -0.026312687 4281435973
-5.2839518e-05 0.0019634664 -0.025350142 4281370949
0.0024213716 -5.8695674e-05 -0.02369725 4281370949
0.004356537 7.7873468e-05 -0.024124097 4281435973
0.0062917657 0.00021459162 -0.024550851 4281501764
0.0082270354 0.00035142154 -0.024977542 4281435718
0.010548424 -0.00094886869 -0.024023451 4281566278
0.012880486 -0.0022482425 -0.023071673 4281566278
0.015024886 -0.0028285235 -0.022811323 4281631558
0.017777726 -0.005562447 -0.020486316 4281435209
0.022588838 -0.015473299 -0.011286039 4281434953
0.0285064 -0.028967045 0.001334887 4281761865
0.033480152 -0.038866125 0.010499585 4281826380
0.036834996 -0.043021418 0.014158055 4282085459
-0.016074825 -0.036736809 0.012860607 4282740043
-0.014318977 -0.03514567 0.011009533 4282545479
-0.009295132 -0.011295348 -0.013504941 4282151503
-0.0093229897 -0.0024849027 -0.022275094 4281892424
-0.0084015541 0.0019860417 -0.026866671 4281632068
-0.0066544078 0.0028432012 -0.027983766 4281436228
-0.0047383159 0.0029779598 -0.028406747 4281501764
-0.0021147393 0.00022500753 -0.026060469 4281436484
0.00017118827 -0.0010827482 -0.025102261 4281436228
0.0024678595 -0.0023896843 -0.024146298 4281632069
0.0044055544 -0.0022529215 -0.024573699 4281566789
0.0063433014 -0.0021160543 -0.025001036 4281566533
0.0084712729 -0.0027000457 -0.02473893 4281697349
0.010604613 -0.0032835603 -0.024477933 4281500743
0.012547813 -0.0031459183 -0.024906192 4281500489
0.01449104 -0.0030081794 -0.025334373 4281697603
0.01743849 -0.0064716265 -0.022327458 4281632578
0.02224415 -0.016413689 -0.013148533 4281697859
0.027949151 -0.029229879 -0.0012426339 4281893189
0.03312359 -0.039880045 0.0085864663 4282218314
-0.016659193 -0.036268823 0.0095565356 4282347854
-0.014761109 -0.035399832 0.0084069334 4282217804
-0.013326239 -0.032353558 0.0051705875 4283328328
-0.0094320066 -0.012930855 -0.014663938 4282744379
-0.0091257654 -0.0055436864 -0.022029037 4282088518
-0.0081980415 -0.0010591075 -0.026612356 4281566278
-0.0064455196 -0.00019934773 -0.027729079 4281632069
-0.0043502338 -0.00078862906 -0.027461868 4281501764
-0.0020728894 -0.0021015257 -0.026505083 4281566788
0.00039452687 -0.0041375756 -0.024860412 4281501254
0.0025140047 -0.0047247484 -0.024598323 4281697604
0.0042695664 -0.0038642138 -0.025715236 4281501763
0.0062071644 -0.0037273467 -0.026142532 4281631814
0.0081448145 -0.0035903752 -0.026569761 4281697094
0.010275155 -0.0041762888 -0.026309706 4281697094
0.012215551 -0.0040388629 -0.026737351 4281827910
0.014551932 -0.0053466335 -0.025792893 4281958468
0.017300308 -0.008098498 -0.023479795 4282810678
0.022103189 -0.018071637 -0.014322834 4282875704
0.028010614 -0.031649821 -0.0017609037 4283136059
0.032976098 -0.04161115 0.0073604323 4283459909
-0.019137736 -0.036658004 0.0074094869 4282607443
-0.017095245 -0.036515623 0.0069576725 4281825613
-0.015202433 -0.035644852 0.0058108941 4282412623
-0.013772305 -0.032590076 0.0025819764 4282870859
-0.0094056986 -0.015293345 -0.015130626 4283854904
-0.0090950839 -0.0078838766 -0.0224806 4282415429
-0.0079952292 -0.0041127801 -0.026364148 4281566024
-0.0060661845 -0.0039772466 -0.02679009 4281631814
-0.0039632432 -0.0045681521 -0.026526228 4281501254
-0.0016784109 -0.0058849752 -0.025574276 4281370438
0.00043800473 -0.0064746961 -0.025313215 4281435973
0.0023780093 -0.0063379258 -0.025741238 4281566024
0.0043180734 -0.0062010214 -0.026169175 4281631048
0.0062581934 -0.0060639754 -0.026597029 4281828164
0.0081983618 -0.0059268251 -0.027024813 4281893699
0.010138575 -0.0057895258 -0.027452506 4282546754
0.012078818 -0.0056521147 -0.027880123 4282938944
0.014216881 -0.0062394589 -0.027623208 4283853629
-0.017824475 -0.035291925 0.0029772185 4282019669
-0.015792627 -0.03515017 0.0025278442 4282215509
-0.014217582 -0.032817453 -9.3132257e-08 4282346323
-0.0095426776 -0.016930439 -0.016290758 4284573494
-0.0093959756 -0.0087694824 -0.02431494 4282741318
-0.0081297159 -0.005716674 -0.02750068 4281631304
-0.0060298555 -0.00631015 -0.02723786 4281566024
-0.0039245896 -0.0069031119 -0.026976131 4281435974
-0.0014613196 -0.0089527965 -0.025340308 4281697858
0.00048113987 -0.008815974 -0.02576896 4282026299
0.002423659 -0.00867901 -0.026197527 4283333939
0.0039976798 -0.0070858672 -0.027997648 4284053294
-0.016531125 -0.033909254 -0.0014374182 4282280278
-0.014509939 -0.033768147 -0.0018843599 4282280789
-0.012488611 -0.033626899 -0.0023312457 4283459654
-0.0093655847 -0.011113495 -0.024769217 4283330113
-0.0084322691 -0.0065888911 -0.029324777 4281958213
-0.0063354112 -0.0071847886 -0.029062908 4281892933
-0.0042331405 -0.0077801794 -0.028802145 4282940218
-0.0017732382 -0.0098367259 -0.027170423 4283985974
0.0003451705 -0.010430716 -0.026913024 4284640049
-0.014953829 -0.033979312 -0.0044550262 4282214999
-0.012937985 -0.033838481 -0.00490072 4282478158
-0.010764737 -0.034431845 -0.0046577863 4283329349
-0.015396927 -0.034181386 -0.0070191752 4281954389
-0.013540991 -0.033304155 -0.0081512742 4282150993
-0.011376064 -0.03390035 -0.0079080779 4282739533
-0.015990827 -0.03363508 -0.010263452 4282084439
-0.013988603 -0.033495232 -0.010706149 4282019414
-0.012143154 -0.032616466 -0.011834199 4283460419
-0.014589492 -0.032935917 -0.013939006 4282476884
-0.012281831 -0.034278497 -0.013012109 4282610248
-0.010919698 -0.031175375 -0.016187156 4283656514
-0.015343092 -0.031619668 -0.017845059 4282411094
-0.013046615 -0.032967404 -0.016918967 4282152779
-0.011535361 -0.030599192 -0.019403657 4282547773
-0.015787818 -0.031776562 -0.020375794 4282411348
-0.013809875 -0.031638309 -0.020813061 4281890893
-0.011990841 -0.0307547 -0.02193038 4281631813
-0.011147067 -0.025401101 -0.027123762 4283721538
-0.014103126 -0.032534085 -0.022656919 4281891404
-0.012286719 -0.031648479 -0.023772055 4282024768
-0.010959987 -0.028521359 -0.0269199 4283005753
-0.014084011 -0.03492476 -0.02314226 4282738513
-0.012264919 -0.034036778 -0.02425639 4283065933
-0.00016530603 0.012589514 0.053488478 4285754654
0.0017448403 0.013390012 0.052285574 4285885468
0.0051975735 0.0083059743 0.05777505 4285885724
-0.0060732178 0.0084442943 0.055870146 4285229863
-0.0049529783 0.012531832 0.050943948 4285426978
-0.0033732541 0.01464735 0.048255876 4285624094
-0.0019758567 0.017418273 0.044828258 4285623583
7.6808035e-05 0.01756287 0.0443753 4285557538
0.0031603388 0.01377134 0.048373684 4285820443
0.0076717101 0.0047353357 0.058295436 4285820699
-0.016188625 0.013376065 0.048277259 4285492004
-0.013981555 0.012860633 0.048567981 4285819679
-0.011768963 0.012345612 0.048857577 4285820188
-0.0098620616 0.013149902 0.047658257 4285624093
-0.008118581 0.01461307 0.045716941 4285624349
-0.006546542 0.016734622 0.043035291 4285689884
-0.0046631768 0.017537441 0.04184138 4286018323
-0.0031175576 0.019657295 0.039165683 4285821209
-0.0009120591 0.019142237 0.03945718 4285755164
0.0019853078 0.015994608 0.04270874 4285755164
0.0057808422 0.0095585808 0.049653046 4285821209
-0.021525595 0.0065878332 0.053644329 4285032493
-0.020729374 0.012696125 0.046478942 4285427233
-0.019257288 0.015489317 0.043047279 4285558559
-0.017511565 0.016956765 0.0411084 4285623584
-0.015326109 0.016437504 0.04140228 4285689374
-0.012982421 0.015256949 0.042437814 4285755164
-0.010783292 0.01473885 0.042728744 4285689628
-0.0088948086 0.015544064 0.041535184 4285689373
-0.0070114993 0.016348988 0.04034283 4285624093
-0.0052968003 0.017814718 0.03841114 4285821209
-0.003758695 0.019940604 0.035741977 4285886744
-0.0015615039 0.019422758 0.036033623 4285821464
0.0011554025 0.01692389 0.038540348 4285689883
0.0044160262 0.012445726 0.043256782 4285624349
0.008421164 0.0053297803 0.050915278 4285558814
-0.022227135 0.0075157359 0.049439996 4285098283
-0.021439988 0.013643287 0.042291149 4285493533
-0.01983339 0.015779987 0.039611183 4285690393
-0.018095378 0.017251231 0.037677251 4285754908
-0.015918221 0.016729183 0.037971273 4285755164
-0.013583001 0.015543573 0.039005414 4285952534
-0.011236947 0.014358759 0.040037259 4285820953
-0.0093536936 0.015165783 0.038846441 4285624093
-0.0074756555 0.015972555 0.037656799 4285689884
-0.0056027807 0.016779006 0.036468394 4285624094
-0.0039009936 0.01824826 0.034542874 4285624094
-0.0017040856 0.01772815 0.03483294 4285623838
0.00084073842 0.015883051 0.036596209 4285558303
0.0035755821 0.01337669 0.039092481 4285624349
0.0066850446 0.0095471665 0.043056101 4285624349
0.011439752 -0.0002393499 0.053631149 4285623583
-0.021440577 0.011273444 0.04182642 4285361953
-0.020119574 0.0147506 0.037667662 4285624858
-0.018383946 0.016226053 0.03573747 4285755928
-0.016359434 0.016367979 0.035290219 4285821209
-0.014030028 0.015177496 0.03632237 4285755418
-0.011689786 0.013987847 0.037352182 4285624094
-0.009654101 0.014130808 0.036902644 4285624093
-0.0076182522 0.014273852 0.03645312 4285624349
-0.0055822693 0.014416978 0.036003627 4285558814
-0.0038775466 0.015890844 0.034080677 4285624349
-0.0016782545 0.015368663 0.03436859 4285624094
0.00052649155 0.014846951 0.034655355 4285755163
0.0027367026 0.014325656 0.03494101 4285886743
0.0051287301 0.013140321 0.035959885 4286017303
0.0093220212 0.0053119883 0.044314578 4286017049
-0.021441456 0.008899413 0.041358687 4285361954
-0.020405296 0.013725899 0.035727464 4285427999
-0.018525254 0.014536701 0.034540296 4285558813
-0.016351316 0.014009923 0.034831733 4285558559
-0.01447624 0.014820561 0.033645794 4285623839
-0.012451485 0.014962628 0.03319858 4285755164
-0.010111552 0.013768591 0.034225263 4285689629
-0.0079209693 0.013243295 0.034513272 4285624093
-0.005887758 0.013386197 0.03406436 4285624348
-0.0040199272 0.014196746 0.032880321 4285558558
-0.0019891001 0.014339663 0.032432072 4285755419
4.1827559e-05 0.014482662 0.03198386 4285755164
0.0020728782 0.014625765 0.031535685 4285754909
0.0044564269 0.013435379 0.032553181 4285820189
0.0077450462 0.0089127645 0.03722956 4285951769
0.01324949 -0.003604129 0.050677449 4285951768
-0.020258632 0.010692097 0.03600549 4285361699
-0.018519808 0.012176551 0.034080997 4285559069
-0.016642153 0.012989439 0.032896012 4285624348
-0.014921643 0.01447282 0.030975647 4285821464
-0.013056986 0.015284978 0.029793657 4285886998
-0.010725539 0.014085881 0.030818954 4285887253
-0.0082232542 0.012217455 0.032576725 4285821718
-0.0060301609 0.011690177 0.032862596 4285624349
-0.0046582334 0.014512248 0.029479317 4285624350
-0.0028035268 0.015324131 0.028299838 4285689883
-0.00095403194 0.016135745 0.027121574 4285952533
0.00089023635 0.016947072 0.025944524 4285754909
0.0034332834 0.015082054 0.027693629 4285623584
0.0063497908 0.011880584 0.03090059 4285623838
0.010743815 0.0033319145 0.03994225 4285755674
0.015759371 -0.0072171465 0.051157109 4285558814
-0.019968834 0.0069761351 0.037014142 4285097773
-0.018807601 0.011158787 0.032146432 4285559069
-0.01708167 0.012646839 0.030228019 4285755929
-0.015518039 0.014807172 0.027577028 4285689373
-0.013661314 0.015620939 0.026398376 4285492004
-0.011495478 0.015089341 0.026688494 4285689629
-0.0090045407 0.013213441 0.028443895 4285624348
-0.0068223961 0.012683161 0.028730541 4285624349
-0.0051302165 0.014169313 0.026820004 4285558558
-0.0034485757 0.015654862 0.024911817 4285624349
-0.0017774925 0.017139722 0.023006063 4285952789
5.6181103e-05 0.017952502 0.021832962 4285887253
0.0024120696 0.016751271 0.02285004 4285887253
0.0051357001 0.014208749 0.025322996 4285821464
0.0086053945 0.0089843199 0.030705251 4285558558
0.012485523 0.0024216846 0.037533924 4285558559
-0.019094985 0.010145769 0.030215144 4285361953
-0.017818298 0.013664059 0.026098557 4285755928
-0.01626486 0.015830226 0.023454685 4285755673
-0.014418732 0.016645487 0.022279929 4285689884
-0.012420807 0.016785651 0.021838624 4285755929
-0.0096246377 0.013552912 0.025055468 4285821973
-0.0074508004 0.013019755 0.025342345 4285558813
-0.005436454 0.013161339 0.024897613 4285558813
-0.0037572123 0.01465112 0.022993173 4285558813
-0.0020885281 0.016140196 0.021091163 4285559068
-0.00043041259 0.01762867 0.019191515 4285558814
0.0019196644 0.016422547 0.020206671 4285558814
0.0046370961 0.013870716 0.022674505 4285493278
0.0075569414 0.010647401 0.025864579 4285361953
0.010687187 0.006753169 0.029775143 4285361699
0.016271504 -0.0058840588 0.043113261 4285361954
-0.019381892 0.0091374367 0.028287232 4285295909
-0.018404577 0.014021732 0.022714313 4285559069
-0.017010145 0.016871396 0.019345094 4285689884
-0.01502049 0.017010853 0.018905524 4285756183
-0.012873918 0.016473405 0.019196611 4285690648
-0.010243561 0.01390595 0.021676715 4285558813
-0.0080780201 0.013370015 0.021963753 4285559068
-0.0060717873 0.013510995 0.021520779 4285559069
-0.0040654205 0.013652079 0.021077849 4285559068
-0.0022290312 0.014469326 0.019907277 4285558814
-0.00022510439 0.014610417 0.019465022 4285624604
0.0019543692 0.014075913 0.019749302 4285756438
0.0044955052 0.012190856 0.021484338 4285887764
0.0072335228 0.0096317008 0.023941223 4285821719
0.010543305 0.0050487816 0.028567657 4285624348
0.015937816 -0.0069558099 0.041151688 4285558813
-0.019084718 0.0054138675 0.029288322 4285229609
-0.018989693 0.014393054 0.019339658 4285427998
-0.01760263 0.017251 0.015978508 4285493534
-0.015467174 0.016710442 0.016270343 4285493023
-0.013013065 0.014811873 0.018019196 4285493023
-0.010542806 0.012914516 0.019764528 4285558558
-0.0082183294 0.011697285 0.020778455 4285492513
-0.0062122084 0.011838228 0.020335488 4285623584
-0.0040387027 0.011300795 0.020619258 4285820188
-0.0020296536 0.01144214 0.020175789 4285886233
0.00015208498 0.010905474 0.020457875 4285885979
0.0025145188 0.0096913204 0.0214638 4285885979
0.0050656535 0.0078003109 0.023191765 4285820444
0.0079940669 0.0045554563 0.026363745 4285688863
0.01094925 0.0013125911 0.029529907 4285491238
0.01616233 -0.010054313 0.041361205 4285491238
-0.018831667 0.011367895 0.019620907 4285295909
-0.017438628 0.014235012 0.016264912 4285361699
-0.015144415 0.013010941 0.017282072 4285492514
-0.012839373 0.011787705 0.018296897 4285623838
-0.010364454 0.0098840073 0.020036329 4285820444
-0.0080351233 0.0086626634 0.021045927 4285951258
-0.0058593787 0.0081230327 0.021327548 4286017048
-0.0038452335 0.0082645938 0.020882856 4285951258
-0.001830969 0.008406274 0.020438217 4285951004
0.00052819774 0.0071874037 0.021441504 4285885468
0.0028981529 0.0059693456 0.02244252 4285951003
0.0054566003 0.0040722415 0.024163961 4285951259
0.0082115643 0.0014965609 0.026604138 4285819933
0.011537179 -0.0031162649 0.031204462 4285688608
0.016571887 -0.013840847 0.042285644 4285622564
-0.017124441 0.010526404 0.017272234 4285886998
-0.014976252 0.0099822506 0.017557979 4285885978
-0.012666363 0.0087548643 0.018568523 4286016793
-0.010345656 0.0075283721 0.019576706 4286082584
-0.0078525916 0.0056193769 0.021307323 4286016539
-0.005671829 0.0050778985 0.021586154 4286081818
-0.0034855939 0.0045368895 0.021863841 4286016283
-0.0014634468 0.0046791062 0.021417446 4286016283
0.00090324506 0.0034562722 0.022415861 4286081818
0.003455583 0.0015519783 0.024133712 4286081308
0.0058464818 0.0003310591 0.025126934 4286081308
0.0084283538 -0.0015709475 0.026838407 4286016029
0.011757869 -0.0061989948 0.031426549 4285950239
0.016794784 -0.016958818 0.042481348 4285687588
-0.016509932 0.0054321513 0.019721344 4285820443
-0.01450206 0.0055727512 0.019277655 4285885469
-0.012494031 0.0057134554 0.018833991 4285950493
-0.010327175 0.0051685646 0.019114118 4286016028
-0.0081548356 0.004624106 0.019393139 4286081564
-0.0058130175 0.0033948421 0.020393543 4286147099
-0.0034603849 0.002166383 0.021391675 4286212379
-0.0012663342 0.001623787 0.021666072 4286212378
0.00076114014 0.0017664507 0.021218553 4286212378
0.0031380989 0.00054004788 0.022211485 4286146844
0.0057031997 -0.0013699457 0.023921773 4286212123
0.0082843862 -0.0032786503 0.025628529 4286081053
0.011247076 -0.0065542236 0.028768793 4285949729
0.014977975 -0.012563176 0.034774594 4285687334
-0.016348716 0.0023814067 0.019983083 4285820444
-0.014488801 0.0032106936 0.018814839 4285885468
-0.012322392 0.0026633888 0.019093391 4286081563
-0.010467499 0.0034925193 0.017926399 4286081308
-0.0081343055 0.0022580549 0.018925425 4286212889
-0.0061179772 0.0023996159 0.01848013 4286146843
-0.0037685148 0.00116653 0.019475661 4286146589
-0.0017466135 0.0013086796 0.019029286 4286343194
0.00044724345 0.00076388568 0.019302204 4286277658
0.0028210431 -0.00046717376 0.020292588 4286277403
0.0052056052 -0.0016973764 0.021280676 4286211868
0.0076009445 -0.0029267669 0.022266507 4286080798
0.009459503 -0.0020965114 0.021099404 4285622563
-0.01633849 1.28299e-05 0.01951633 4285951004
-0.014475841 0.00084444135 0.018349115 4286015774
-0.01230707 0.0002951026 0.018625464 4286146843
-0.010449458 0.0011265576 0.017459501 4286146589
-0.0082750693 0.00057781488 0.017734755 4286277149
-0.0065861717 0.0020989254 0.015850607 4286211614
-0.0047414862 0.0029297844 0.014687724 4285950238
-0.0027330406 0.003070958 0.014244299 4285688098
-0.00055284053 0.0025230274 0.014518563 4285688098
0.0016328208 0.0019755512 0.014791753 4285099813
-0.01662885 -0.00097403675 0.017605059 4286081308
-0.014768794 -0.00014038384 0.016439974 4286212379
-0.012603004 -0.00069221109 0.016715381 4286277149
-0.010747999 0.00014128536 0.015551548 4286277404
-0.009058971 0.0016666725 0.01367056 4286212123
-0.0081977919 0.006651476 0.0082027614 4285164073
0.02196225 -0.019729242 -0.015496893 4285164074
0.027865943 -0.033349536 -0.0029647537 4285098539
0.0061219409 -0.0076768771 -0.027739665 4284903718
0.0078723468 -0.0068120807 -0.028852053 4284968744
0.010194298 -0.0081299394 -0.027911039 4285164329
0.012332004 -0.0087196156 -0.027655743 4285295399
0.014672676 -0.010035947 -0.026718635 4285295398
0.017424583 -0.012805179 -0.0244192 4285295143
0.022227224 -0.022839993 -0.015307287 4285295399
0.027721293 -0.035048939 -0.0041683801 4285229608
0.0021061152 -0.0095633566 -0.028026409 4285099048
0.0040458925 -0.0094264746 -0.028454293 4285099048
0.0061724707 -0.010019526 -0.028198427 4285230373
0.008493863 -0.011341944 -0.0272606 4285295654
0.010633867 -0.011933848 -0.027007483 4285295653
0.012779225 -0.012525201 -0.026755489 4285360933
0.014732525 -0.012386754 -0.027185898 4285361189
0.017686278 -0.015893787 -0.02421258 4285295909
0.022085957 -0.024501391 -0.016484039 4285295398
0.02757667 -0.036748007 -0.0053717643 4285229098
-0.0083985701 -0.0089235604 -0.029773116 4285032748
-0.006469965 -0.0087880865 -0.030198988 4285163819
-0.0041947737 -0.010118924 -0.029254738 4285294889
-0.0020847507 -0.010715887 -0.028997157 4285295144
0.00020924211 -0.012045145 -0.028056871 4285229353
0.0021514669 -0.011908233 -0.028485391 4285361189
0.0042776652 -0.012503646 -0.028231155 4285295398
0.006222669 -0.012366295 -0.028660115 4285361189
0.0087354444 -0.014425099 -0.027044434 4285361188
0.010880429 -0.015018813 -0.026794069 4285295398
0.013225358 -0.016343765 -0.025864426 4285295398
0.0151865 -0.016204759 -0.026296563 4285295399
0.017947242 -0.018990949 -0.024012014 4285295143
0.022147279 -0.026893601 -0.016981991 4285360679
0.027021622 -0.036984846 -0.0079308692 4285294889
-0.0098009892 -0.013605863 -0.027742177 4285097519
-0.0083651952 -0.011262342 -0.030224383 4285295143
-0.0062636733 -0.011862323 -0.029966768 4285295144
-0.0039836653 -0.013197266 -0.029026758 4285295143
-0.0018686615 -0.013796046 -0.028771944 4285295399
0.00043013692 -0.015129395 -0.027835958 4285295143
0.0021964796 -0.01425726 -0.028947316 4285295399
0.0045087375 -0.015589431 -0.02801406 4285360934
0.0066453069 -0.016186185 -0.027763624 4285295398
0.0091653578 -0.018251091 -0.026154395 4285360933
0.011126284 -0.018112354 -0.02658667 4285295398
0.013476003 -0.019441351 -0.02566136 4285360934
0.015442319 -0.019301966 -0.026094627 4285295399
0.018407211 -0.022830218 -0.023139862 4285426469
0.022208255 -0.029289946 -0.017482871 4285360934
-0.0083321594 -0.013605237 -0.030678561 4285360934
-0.0062282942 -0.014207304 -0.030423036 4285360678
-0.0037732758 -0.016284108 -0.028804887 4285360678
-0.0016532801 -0.016884759 -0.028552789 4285360678
0.00065033138 -0.01822219 -0.027621027 4285360679
0.0024220385 -0.017347485 -0.028731965 4285360679
0.0047390796 -0.018683702 -0.027803048 4285295143
0.0066944361 -0.018545613 -0.028234281 4285295398
0.0090275779 -0.019880474 -0.027308673 4285295398
0.011179876 -0.02047807 -0.027063143 4285295399
0.013531733 -0.021811292 -0.026141502 4285295143
0.015894283 -0.023143686 -0.025222098 4285229609
0.019065589 -0.027418226 -0.021600893 4285163819
0.02307763 -0.034632683 -0.015284887 4284900914
-0.0082994513 -0.015952304 -0.03113563 4285295143
-0.006193269 -0.016556375 -0.03088228 4285360679
-0.0037362874 -0.018639639 -0.029269386 4285360678
-0.0017893314 -0.018502675 -0.029699158 4285360934
0.00051375851 -0.019844569 -0.02877051 4285361188
0.0024661906 -0.019706935 -0.029201284 4285295399
0.0047853701 -0.021047413 -0.02827606 4285295143
0.0071152709 -0.022387028 -0.027353041 4285229609
0.0094558671 -0.023725718 -0.026432341 4285229098
0.011807162 -0.025063552 -0.025513856 4285163309
0.014363144 -0.027138829 -0.023922058 4285031984
-0.0084342547 -0.017560989 -0.03227558 4285360934
-0.0059887283 -0.0196518 -0.030665092 4285360934
-0.0036996268 -0.020999327 -0.029736763 4285295398
-0.001574982 -0.021604069 -0.029488919 4285361189
0.00073289499 -0.022949979 -0.0285646 4285295398
0.002871003 -0.023553543 -0.028319495 4285295399
0.005380813 -0.025639199 -0.02672272 4285229099
-0.0098474473 -0.02228453 -0.030271953 4285032239
-0.0080680437 -0.021403328 -0.031380232 4285360424
-0.0056152157 -0.023500301 -0.029776154 4285295399
-0.0031463355 -0.02559597 -0.028175497 4285294888
-0.0010113753 -0.026202187 -0.027931554 4285294889
-0.007536076 -0.026005551 -0.029817248 4285228843
-0.0050733127 -0.028108418 -0.02822019 4285426214
-0.0025945045 -0.030209981 -0.026626619 4284900914
