# .PCD v0.7 - Point Cloud Data file format
VERSION 0.7
FIELDS x y z rgba
SIZE 4 4 4 4
TYPE F F F U
COUNT 1 1 1 1
WIDTH 733
HEIGHT 1
VIEWPOINT 0 0 0 1 0 0 0
POINTS 733
DATA ascii
-0.000507202 0.0028684959 0.063520759 4288881718
0.0018448569 0.0016285554 0.064606383 4289274674
-0.0044748522 0.010633565 0.052438524 4288687153
-0.0028065294 0.012806773 0.049897742 4289080873
-0.00076211244 0.012927514 0.049536813 4290257444
0.0019494705 0.0096297488 0.052801851 4289604133
0.004960306 0.004966557 0.057511572 4290323998
0.0077313595 0.0016724691 0.060766231 4289996069
0.01010498 0.00042974949 0.061844934 4289080108
0.012056891 0.0012370571 0.060751867 4289145133
0.013269112 0.0054586828 0.056045804 4289145133
0.014748208 0.0083129779 0.052790139 4288818223
0.016814888 0.0084356815 0.052425783 4290060838
0.020121323 0.0030989125 0.057832543 4290191654
0.024101552 -0.0049643442 0.066115409 4290388004
-0.0058471411 0.015837736 0.043933406 4289015085
-0.0043332465 0.018702101 0.040677797 4289800484
-0.0023185574 0.018821064 0.040322099 4289604389
9.5997006e-05 0.016882401 0.042137064 4288884523
0.002934657 0.01288759 0.046118375 4289538853
0.0053898282 0.010951489 0.047926303 4290651419
0.0075785853 0.010387287 0.048287164 4289669923
0.0093407445 0.011879236 0.046482246 4289473829
0.010945473 0.014055777 0.043958094 4289800738
0.012534101 0.016231444 0.041436836 4290193438
0.014715068 0.015667107 0.041799333 4289604389
0.017520692 0.012364648 0.045039918 4288819243
0.021140784 0.0056416243 0.051872086 4289538854
0.026576923 -0.0086053908 0.066601425 4290258208
-0.0076242648 0.012014654 0.045223642 4286332483
-0.0064661466 0.016954403 0.0398013 4289015339
-0.0048347935 0.019138385 0.03727705 4290257954
-0.0029586777 0.019945104 0.036200378 4290258463
-0.00055547059 0.017999232 0.038012296 4290389279
0.0019997917 0.01536651 0.040542826 4290651163
0.0042997375 0.014110681 0.041627683 4290324254
0.0064693801 0.013543162 0.041990235 4290193949
0.0082128905 0.015038323 0.040191941 4289735458
0.010092262 0.015845686 0.039115116 4289735714
0.011667799 0.01802706 0.036601178 4290650908
0.013683077 0.018146675 0.036245856 4290323999
0.016471624 0.014832389 0.039481029 4290127648
0.020073855 0.0080866069 0.046299573 4290127394
0.025490366 -0.0062071458 0.060997251 4290388769
-0.0083543323 0.013825282 0.040369324 4287051328
-0.0070838369 0.018088713 0.035682533 4289472553
-0.0054628812 0.020278562 0.033165131 4289865253
-0.0033369996 0.019705947 0.033533461 4289407783
-0.00093976036 0.017753199 0.035341397 4289996578
0.0016093738 0.015111465 0.03786625 4290323998
0.0036268719 0.015230775 0.037510198 4290062624
0.0057854764 0.014660373 0.037873045 4290063134
0.0076621287 0.015469674 0.036798246 4289931809
0.00967988 0.01558926 0.036442354 4289931809
0.011250407 0.017776791 0.033934366 4290585884
0.01341198 0.017206941 0.034296907 4290585629
0.01619694 0.013881598 0.037524328 4290323999
0.019794768 0.0071138665 0.044326894 4290258464
0.025045255 -0.0065371543 0.058274981 4290192929
-0.0084727667 0.012192603 0.039134134 4287574844
-0.0073261224 0.017161954 0.033737205 4289603368
-0.0055800937 0.018665403 0.031944752 4289800229
-0.0034544803 0.018090572 0.032311432 4289931553
-0.0010578148 0.016131271 0.034114432 4289800994
0.0013551079 0.014173049 0.035914574 4290128159
0.0033698119 0.014292184 0.03555901 4289604898
0.0053845979 0.014411408 0.03520349 4289670434
0.0075430162 0.013838936 0.035564713 4289866784
0.0094144158 0.014650118 0.034492608 4289997088
0.011280492 0.015461084 0.03342152 4289866274
0.013596129 0.014197897 0.034497213 4289931553
0.016385563 0.01086197 0.037715465 4289408293
0.019830061 0.0047637522 0.04378631 4289604389
0.025079936 -0.0089306682 0.057700995 4289604389
-0.0092003718 0.014036365 0.034304857 4288816949
-0.0078171194 0.017629977 0.030358564 4289341993
-0.0062061958 0.019832186 0.027852941 4290650653
-0.0039616898 0.018559765 0.028937303 4290978329
-0.0015736818 0.01659343 0.030736785 4290913048
0.00083059072 0.014628131 0.032533459 4290847769
0.0029751025 0.01405248 0.032895312 4289801248
0.0051250942 0.013477232 0.033256263 4289735713
0.0069937706 0.014290329 0.03218624 4289801248
0.009003222 0.014409389 0.031831782 4289735459
0.010715175 0.015915874 0.030049168 4289866274
0.013325255 0.013260834 0.032550275 4290585884
0.016111087 0.0099138431 0.035760779 4290782234
0.019708199 0.0031027049 0.042529956 4290651419
0.025273867 -0.012021273 0.057836104 4290192928
-0.0098046623 0.015204728 0.03020943 4288751924
-0.0083071105 0.01811127 0.026990034 4289277734
-0.0065768175 0.019622456 0.025206983 4289604389
-0.0044678859 0.019042209 0.025573261 4289211943
-0.0020885542 0.017068874 0.027369194 4290455324
0.00017190725 0.015793163 0.028447546 4290128413
0.0023053773 0.015214678 0.028809652 4289867040
0.0043037869 0.015332896 0.028457001 4289867040
0.0063022785 0.015451208 0.028104395 4289866784
0.0083008446 0.015569609 0.027751848 4290128159
0.010150865 0.01638392 0.026686922 4290389533
0.012600787 0.014415376 0.028470863 4290520604
0.015528951 0.010361318 0.03238659 4290389533
0.019429671 0.0021372437 0.040562782 4290913304
0.02514841 -0.01372996 0.056543749 4290847259
-0.010650691 0.017789979 0.024696216 4289211433
-0.0090445429 0.02000476 0.02220137 4290257953
-0.0072006024 0.020820212 0.021138586 4289931809
-0.0049731024 0.019538015 0.022219252 4289473829
-0.0027347244 0.018256597 0.023298021 4289931808
-0.00048546866 0.016975868 0.024374984 4290848023
0.0014992766 0.017093174 0.024024658 4290062878
0.0034841113 0.017210577 0.023674387 4289997598
0.0053259544 0.018026374 0.022612423 4290128159
0.0073082559 0.018143799 0.022262733 4290716953
0.0091421418 0.018959355 0.021202266 4289670178
0.01142418 0.017681096 0.022273853 4288688939
0.014486257 0.012915213 0.026892845 4289081384
0.018525328 0.0039664879 0.035761558 4289735458
0.024545284 -0.013346337 0.053124893 4289800739
-0.011252027 0.018998019 0.020630784 4289538600
-0.0096562915 0.021218665 0.018142782 4290191909
-0.0078230686 0.022035573 0.017083585 4290257954
-0.0057362057 0.0214497 0.017450348 4290388769
-0.0033795871 0.019461986 0.019240208 4290650908
-0.0012763627 0.018877201 0.019604255 4289996578
0.00069480762 0.018993687 0.019256312 4289800738
0.0026660636 0.019110266 0.018908426 4289800738
0.0046374016 0.019226935 0.018560588 4290193183
0.0064631961 0.020044077 0.017503142 4290520348
0.0082836784 0.020860948 0.016446754 4290782234
0.010400809 0.020277571 0.016808718 4289996834
0.013291825 0.016195286 0.020710889 4289996834
0.017309858 0.007217139 0.029561546 4290520093
0.023465907 -0.010850698 0.047594283 4290520093
-0.01185206 0.02022367 0.016578749 4289472299
-0.010018915 0.021042675 0.015521113 4288033844
-0.0081910267 0.021861408 0.014464512 4288099379
-0.0062391199 0.02197646 0.014119744 4288949804
-0.004023131 0.020684969 0.01519578 4289996579
-0.0017962866 0.01939426 0.016269933 4289996578
0.00016669184 0.019510236 0.015923418 4289604389
0.0022698194 0.018923495 0.016285896 4290127903
0.0040929057 0.019742493 0.01523057 4289997088
0.0057652295 0.021263767 0.013468262 4290520348
0.0074268356 0.02278455 0.011707881 4290193439
0.0095302276 0.022198182 0.012070589 4289735204
0.012406703 0.018102031 0.015965275 4289866018
0.016565301 0.0083929151 0.02550301 4290454814
0.02254739 -0.0090304315 0.042789273 4290520093
-0.011845488 0.017936427 0.01609312 4287052349
-0.010009598 0.01875769 0.015036698 4286595389
-0.0081789866 0.019578781 0.013981234 4286399038
-0.0062244982 0.019693967 0.013636 4286529853
-0.0041380748 0.019103728 0.013999559 4287053114
-0.0020461716 0.018513951 0.014362186 4288034609
-8.6005777e-05 0.018629748 0.014016155 4288754218
0.0020141564 0.018040646 0.014377467 4289016104
0.0038345903 0.01886164 0.013324268 4289277734
0.0053591318 0.021091811 0.010859367 4289146919
0.0071635433 0.021912035 0.0098091308 4289081384
0.009414643 0.020618964 0.010876074 4288950568
0.012136668 0.017213974 0.014055941 4289146663
0.016134162 0.0081783012 0.022866707 4289146408
0.021948006 -0.0085958987 0.039408833 4289146408
-0.011718284 0.014936835 0.016313381 4289539364
-0.0097533725 0.015052434 0.015966147 4290193949
-0.0079146363 0.015876096 0.014910944 4289997344
-0.0059521906 0.015991729 0.014564279 4290193694
-0.0041213036 0.016815107 0.013510603 4289735969
-0.0018926226 0.015515801 0.014577709 4289604898
7.2810799e-05 0.015631888 0.014230732 4289408803
0.0023178309 0.014333688 0.015295133 4289932319
0.0041463748 0.015157361 0.014242128 4290128413
0.0058244877 0.016687606 0.012485469 4290521369
0.0074918903 0.018217333 0.010730786 4290063134
0.0099011473 0.016213838 0.012496764 4289932319
0.012326621 0.014211353 0.014259994 4289800993
0.016327307 0.0051476881 0.023048423 4289539109
0.021983992 -0.010972336 0.038847838 4289539109
-0.011350159 0.010507841 0.017941929 4289867038
-0.0093746074 0.01062404 0.017592795 4289998108
-0.0075250715 0.011450469 0.016537331 4290390809
-0.0055519715 0.011566717 0.016188774 4290194458
-0.0037102811 0.012392867 0.015134841 4290194714
-0.0016054697 0.011799492 0.015491817 4290391064
0.00050482526 0.011206534 0.015847895 4290325273
0.0026205815 0.010613985 0.016203083 4290456088
0.0045995302 0.010731053 0.015853859 4290325274
0.0064335726 0.011557251 0.014801659 4290586903
0.008262299 0.012383226 0.013750467 4290194458
0.010386411 0.011791561 0.014104478 4290194458
0.012822058 0.0097831823 0.015860897 4289866783
0.01636409 0.0028170943 0.022522587 4289604643
0.022178106 -0.014061034 0.038984384 4289800993
0.028604802 -0.033055611 0.057524111 4289800993
-0.012969323 0.0059450343 0.019908611 4288555829
-0.01134501 0.008199662 0.017440446 4289802269
-0.0092436187 0.0076034591 0.017796066 4290129433
-0.0072626807 0.0077200457 0.017446037 4290194969
-0.0052816309 0.0078367293 0.01709605 4290457109
-0.0035631768 0.0093775578 0.015338533 4290457109
-0.0014532618 0.0087823048 0.015692923 4290260759
0.00079887733 0.0074757338 0.016749278 4290522388
0.0030618571 0.0061699376 0.017803747 4290391319
0.0049093291 0.0069989935 0.016750772 4290129434
0.0068963058 0.0071166232 0.016400199 4290260248
0.0087358393 0.007945396 0.01534877 4290652693
0.010870434 0.0073521808 0.015699252 4290325528
0.013163351 0.0060486719 0.016748831 4290128924
0.016867338 -0.0016493127 0.024092209 4289800993
0.02237162 -0.01715818 0.039114617 4289670435
0.028477315 -0.03479062 0.056211863 4289670435
-0.012849741 0.0029111728 0.020104088 4288032569
-0.01134013 0.0058873743 0.016935915 4290127903
-0.0092363171 0.0052891746 0.017289381 4289932318
-0.0071269944 0.0046913996 0.017641958 4290063899
-0.005140692 0.0048083737 0.017291028 4289999128
-0.0031542741 0.0049254522 0.016940162 4290195478
-0.001435522 0.0064706579 0.015186034 4290195478
0.0005457066 0.0065876395 0.014836241 4290195479
0.0026662834 0.0059910193 0.015187208 4290261014
0.004650373 0.006108366 0.01483706 4289867804
0.0066345297 0.006225802 0.014486969 4290194713
0.008618746 0.0063433573 0.014136955 4290391063
0.01105313 0.0043218434 0.01588342 4290325784
0.01350373 0.0023013428 0.01762715 4289867294
0.017058481 -0.0047072917 0.024253149 4289670178
0.022406403 -0.019551098 0.038541064 4289670178
0.028349858 -0.036525331 0.054899845 4289604899
-0.013083473 0.0020203218 0.018184602 4288885033
-0.011335503 0.0035710558 0.016428251 4289540128
-0.0093522482 0.0036876276 0.016077694 4290456854
-0.0073688664 0.0038043037 0.015727185 4290261014
-0.0053853728 0.0039210916 0.015376739 4290195479
-0.0034017675 0.0040379986 0.015026357 4289999128
-0.0015517883 0.0048711821 0.013976015 4290457364
0.00042930618 0.0049881265 0.013626229 4290456854
0.0025496073 0.0043893084 0.013975557 4290064409
0.0045335703 0.0045066401 0.013625428 4290129944
0.0065176003 0.0046240613 0.013275351 4290194969
0.0086488798 0.0040262118 0.013622988 4290325784
0.011235233 0.0012830421 0.016061265 4290325783
0.013690613 -0.0007436648 0.017799135 4290129433
0.017404292 -0.0084886551 0.025103971 4289867294
0.022756794 -0.023377597 0.039355908 4289735713
0.028543714 -0.039688915 0.054978583 4289604899
-0.013199419 0.00041475892 0.016969815 4287773999
-0.011691485 0.0034081563 0.013815228 4289738009
-0.0098365359 0.0042433813 0.012765357 4289541659
-0.0077358596 0.0036407337 0.013116082 4289869333
-0.0056296848 0.0030384585 0.013465956 4289869333
-0.0035180189 0.0024366528 0.013814896 4289935124
-0.0018015914 0.0039903894 0.0120678 4290523664
0.00031295791 0.003388904 0.012416428 4290327058
0.0021550544 0.0042240247 0.011369253 4290588944
0.0042751469 0.0036230758 0.011717057 4289869079
0.006256368 0.0037403181 0.011367476 4290130198
0.0085316896 0.0024225488 0.012409948 4290261014
0.010817837 0.0011055395 0.013450596 4290391829
0.01357206 -0.0023625568 0.016574625 4290718993
0.017283853 -0.010131456 0.023861405 4289933083
0.02279068 -0.025783017 0.038772985 4289932574
0.028255496 -0.040710606 0.052970115 4289997853
-0.013667103 0.00097393245 0.013656501 4282676804
-0.012046792 0.0032541975 0.011209028 4282418489
-0.0099518932 0.0026489124 0.011559008 4282551089
-0.0079768412 0.0027650669 0.011209948 4282810424
-0.0060016774 0.0028813258 0.01086094 4282940984
-0.0038956814 0.0022770092 0.011209199 4283071798
-0.0019176193 0.0023936406 0.010859838 4283333428
0.0001966469 0.0017899647 0.011206837 4283333939
0.0021775775 0.0019069761 0.010857129 4284445229
0.0041585825 0.0020240918 0.010507492 4284576043
-0.013782468 -0.00062451512 0.012447082 4282154054
-0.012281619 0.0023857281 0.0093070809 4281766708
-0.010189697 0.0017780736 0.0096558928 4281766708
-0.008092273 0.0011708662 0.01000382 4281700408
-0.0061172433 0.0012870952 0.0096548181 4281896504
-0.0041421093 0.0014034361 0.0093058851 4281765689
-0.0020336099 0.00079718977 0.0096520986 4282092089
-5.5585057e-05 0.00091391057 0.0093028154 4282222649
0.0019225217 0.0010307357 0.0089535918 4282157623
0.004042048 0.0004254058 0.0092981476 4282222393
0.006022986 0.00054261833 0.0089485887 4282289713
0.0081507079 -6.1966479e-05 0.0092918146 4282352953
0.01013447 5.5618584e-05 0.0089419279 4282549814
0.01287875 -0.0034346655 0.012050945 4282680373
0.016733486 -0.011973284 0.019994322 4282680373
0.022542605 -0.029163361 0.036216255 4282875448
0.027519945 -0.04201889 0.048273403 4282875449
-0.013897803 -0.0022226945 0.01123786 4281894209
-0.012516093 0.0015219077 0.0074085705 4281832499
-0.010304809 0.00018636137 0.0084516183 4281701939
-0.0083326995 0.00030229241 0.0081030373 4281832754
-0.0063604787 0.00041834265 0.0077545252 4281441073
-0.0045185685 0.0012595281 0.0067121554 4281375284
-0.0022826456 -7.4110925e-05 0.007751124 4281505589
-0.00030744448 4.2431056e-05 0.007402325 4281701939
0.001944799 -0.0012900904 0.0084386151 4281767728
0.0037843697 -0.0004485473 0.0073969569 4281767728
0.0059063546 -0.0010558069 0.0077394694 4281506608
0.007887233 -0.00093851238 0.0073899999 4281701939
0.010017406 -0.001545012 0.0077311974 4281701428
0.012456883 -0.0035986081 0.0094517432 4281962548
0.016613446 -0.013610862 0.0187557 4281962293
0.022418605 -0.030853078 0.034938231 4281831734
0.027232911 -0.043024391 0.046277102 4281831734
-0.013896275 -0.0045485795 0.010723494 4282223413
-0.012511209 -0.00079303235 0.0069019999 4281636659
-0.010419875 -0.0014050826 0.0072475374 4281441073
-0.0083230324 -0.0020166859 0.0075921956 4281441073
-0.0064758137 -0.0011731461 0.0065504741 4281441328
-0.0043733753 -0.0017842129 0.0068943072 4281441328
-0.0023983978 -0.0016678199 0.0065454468 4281767728
-0.0002877079 -0.0022782013 0.0068879798 4281636659
0.0018284656 -0.0028881729 0.0072296858 4281701939
0.0038090758 -0.0027711168 0.0068800878 4281571889
0.0056460463 -0.0019274876 0.0058406312 4281441073
0.0077704974 -0.0025366619 0.0061811116 4281506354
0.0097512938 -0.0024192631 0.0058317352 4281571635
0.012339242 -0.0052054748 0.0082363207 4281766453
0.01649344 -0.015248142 0.01751731 4281766453
0.022294639 -0.032542489 0.033660434 4281765943
0.026786389 -0.043299824 0.043597311 4281830713
0.030058563 -0.048249811 0.048027385 4282477394
-0.014244918 -0.0046879575 0.0081270058 4281764923
-0.012745272 -0.0016519204 0.0050072055 4281832499
-0.010656908 -0.0022663623 0.0053516366 4281767473
-0.0085630417 -0.0028803274 0.0056951344 4281702704
-0.0065910891 -0.0027643368 0.0053466409 4281637423
-0.0046190396 -0.0026482269 0.0049982108 4281572653
-0.0025141053 -0.003261216 0.0053399988 4281441584
-0.00040369853 -0.0038737804 0.0056809131 4281441584
0.0015739985 -0.0037570298 0.0053317249 4281571379
0.0034109391 -0.0029114038 0.0042938925 4281636914
0.0055296384 -0.0035231486 0.0046335869 4281506608
0.0075075515 -0.0034060404 0.0042846352 4281636914
0.0096344538 -0.0040171221 0.0046230964 4281701939
0.012221627 -0.006812036 0.0070211347 4281897268
0.016527779 -0.017613105 0.016965538 4281897779
0.02185669 -0.032775976 0.031011075 4281700663
0.026340524 -0.043566205 0.0409243 4282025533
0.029443681 -0.047804311 0.04465894 4282870859
-0.014942359 -0.0026213601 0.0034632068 4282615603
-0.013455659 0.00042252988 0.00035235472 4282095149
-0.011381026 -0.00019489229 0.00069752894 4282032163
-0.0091763549 -0.0015437156 0.0017317105 4282621724
-0.0069608204 -0.0028917789 0.0027640536 4282684199
-0.0048643425 -0.0035076067 0.0031056125 4282487594
-0.0028950162 -0.0033915713 0.0027577356 4282356268
-0.00079029426 -0.004006654 0.003097957 4282160939
0.0010439008 -0.003159143 0.002062194 4281833519
0.0028727688 -0.0023118109 0.0010273922 4281701938
0.0046963319 -0.0014647171 -6.3274056e-06 4281833008
0.0068067275 -0.00207901 0.00033323653 4282094639
0.009368863 -0.0048842207 0.0027289651 4282159919
0.012255512 -0.0091486201 0.0064913929 4281767728
0.016407669 -0.019251958 0.015725952 4281832499
0.021419417 -0.033000514 0.028368555 4281765943
0.025735795 -0.04309383 0.037574362 4282025534
0.028991986 -0.04807505 0.041983847 4282477394
-0.017133314 -0.0035856962 0.0019217916 4284115004
-0.016219806 0.0031398013 -0.0046326201 4284443953
-0.014640499 0.0054564252 -0.0070428867 4284574769
-0.0057581775 -0.00069368631 -0.0022202898 4284185384
-0.0036726594 -0.0013122186 -0.0018783864 4283925794
-0.00158168 -0.0019302741 -0.0015374068 4282423844
-3.6619604e-05 0.00038509816 -0.0039410358 4282228769
0.0014923699 0.0026995987 -0.0063416939 4281970708
0.0032917373 0.0035474598 -0.0073695332 4282877998
0.0056694634 0.0014639571 -0.0056582885 4283398963
0.0085092001 -0.0028162599 -0.0018977411 4283269678
0.011532594 -0.0078269392 0.0025407746 4282294559
0.015825611 -0.018693589 0.012437355 4282229788
0.02051276 -0.031019606 0.023685023 4281508648
0.025291413 -0.043340042 0.034916602 4281765944
0.0062838383 0.0014214292 0.010852749 4285556774
0.0082676746 0.0015389323 0.01050278 4285818403
0.010550682 0.00021737069 0.01154062 4285949729
-0.01271208 0.0055696145 -0.0073838811 4284902698
-0.010410354 0.0034807697 -0.0056598801 4284968488
-0.0079652965 0.00065911561 -0.0032508513 4284902953
-0.017145578 0.0067345649 -0.010631118 4285493279
-0.015465889 0.0083200708 -0.012345508 4285820954
-0.013553746 0.0084322765 -0.012683641 4285951769
-0.011268761 0.0063359439 -0.010961706 4285951513
-0.0089675449 0.0042407364 -0.0092425887 4285820443
-0.0067796931 0.0028824136 -0.0082119349 4285493023
-0.0047133081 0.0022606254 -0.0078683784 4285427743
-0.0025064535 0.00090365112 -0.0068409098 4285361699
-0.0009771958 0.0032245666 -0.0092367437 4285427489
0.00053598359 0.0055446401 -0.01162966 4285427489
0.0023192316 0.0063936561 -0.012652943 4285754653
0.0045344345 0.0050376579 -0.011626648 4285820189
0.0073542558 0.00074322522 -0.0078725731 4285623583
0.010357555 -0.0042837188 -0.0034422399 4285426978
0.014629219 -0.01518409 0.0064330958 4285361444
0.020077284 -0.031219609 0.021060988 4285427234
0.025166132 -0.045045555 0.033626653 4285164839
-0.019287501 0.0058148205 -0.012149049 4285296164
-0.017837089 0.0088823587 -0.015233573 4285558558
-0.015933257 0.0089939609 -0.015570326 4285689374
-0.014029305 0.0091056749 -0.015907023 4285557794
-0.011877082 0.0077407137 -0.014873583 4285689373
-0.0097139999 0.0063765496 -0.01384202 4285624093
-0.0075400509 0.0050130859 -0.012812251 4285558813
-0.0053552538 0.003650412 -0.011784362 4285493533
-0.0034293011 0.0037639663 -0.012124522 4285493788
-0.0017783195 0.0053527951 -0.013829887 4285624604
-0.00041846931 0.0084159896 -0.01689765 4285624348
0.0016344786 0.0077916682 -0.016553059 4285820188
0.0038384721 0.0064306185 -0.015528096 4285820188
0.0066464394 0.0021225885 -0.011781977 4285886233
0.00933576 -0.001446642 -0.0087217474 4285886234
0.013588741 -0.012380481 0.0011318047 4285558304
0.01948612 -0.030674167 0.017764505 4285558304
0.024722774 -0.045278132 0.030979279 4285361954
0.027155668 -0.046624824 0.031964391 4284901679
-0.019851271 0.0072355047 -0.016058527 4285361698
-0.018295262 0.0095700175 -0.01844972 4285821463
-0.016281094 0.0089402497 -0.018100727 4285689628
-0.014503896 0.0097923242 -0.019120302 4285689374
-0.012360174 0.0084225833 -0.018088745 4285755164
-0.010205615 0.0070535317 -0.017058989 4285952534
-0.0080401897 0.0056852773 -0.016031107 4285689884
-0.0061279014 0.0057978854 -0.016368955 4285624349
-0.0040808506 0.0051707402 -0.016025245 4285624348
-0.0023030788 0.0060234889 -0.017044421 4285755673
-0.00067068264 0.0076156333 -0.018743103 4285755163
0.0012365319 0.0077284053 -0.0190797 4285623329
0.0032892376 0.0071020201 -0.018736651 4285557793
0.0059399083 0.0035195798 -0.015678043 4285689118
0.0089191832 -0.0015390962 -0.011266808 4285689884
0.013317779 -0.013244592 -0.00075874291 4285689884
0.019364538 -0.032331318 0.016511101 4285689884
0.024280069 -0.045501724 0.028338704 4285427743
0.026707113 -0.04685308 0.029321514 4285032749
-0.021754686 0.0048455745 -0.016199065 4284901678
-0.020526771 0.0094171762 -0.020638287 4285361953
-0.018868167 0.011014186 -0.022339024 4285690138
-0.016865034 0.010381605 -0.021989752 4285952788
-0.014977496 0.010492321 -0.022323571 4285886743
-0.012842298 0.0091177002 -0.021293813 4285952533
-0.010822706 0.008486405 -0.020947201 4285755673
-0.0085393526 0.0063707754 -0.019239897 4285624349
-0.0066352747 0.0064828917 -0.019576304 4285624349
-0.0047311038 0.0065951422 -0.019912636 4285558558
-0.0029640831 0.0074494109 -0.020928258 4285755673
-0.0013422631 0.0090452433 -0.02262173 4285952534
0.00055404752 0.0091573671 -0.022956409 4285886489
0.0025956966 0.0085281506 -0.022613093 4285821209
0.0052346811 0.0049342141 -0.019560767 4285821464
0.0085032657 -0.0016225353 -0.013805126 4285820953
0.013353862 -0.015585981 -0.0012927614 4285689629
0.019242989 -0.033988126 0.015257962 4285689629
0.023679292 -0.044975638 0.025029309 4285427489
0.025936367 -0.045591339 0.025335208 4285098284
-0.022085432 0.0048000365 -0.018727021 4284902189
-0.020749222 0.008638747 -0.022473408 4285427743
-0.019208688 0.010985244 -0.024851911 4285558814
-0.017211225 0.01035016 -0.024503307 4285689629
-0.015329186 0.010460544 -0.024836162 4285689628
-0.01307622 0.0083364025 -0.023128677 4285689883
-0.011059605 0.0077027306 -0.022783171 4285624094
-0.0089085363 0.0063249618 -0.021759445 4285624349
-0.0071416534 0.0071811602 -0.022773547 4285624349
-0.0052456968 0.007292904 -0.02310844 4285624348
-0.003486719 0.008148849 -0.024120979 4285624094
-0.0014535561 0.0075167641 -0.023777997 4285689884
0.00044261292 0.0076288506 -0.02411267 4285755419
0.0024839677 0.0069974735 -0.023770958 4285755673
0.0048263855 0.0048795566 -0.022078462 4285690138
0.0082385279 -0.002440311 -0.015661258 4285624603
0.013389662 -0.017931394 -0.0018298328 4285624604
0.019121466 -0.035644628 0.01400505 4285624604
0.023396654 -0.045921847 0.02307792 4285493789
-0.022085462 0.002519913 -0.019205682 4285098284
-0.020971324 0.0078649297 -0.024305053 4285493278
-0.019317757 0.0094702542 -0.025998248 4285558558
-0.017438661 0.0095803328 -0.026330687 4285623838
-0.015317928 0.0081961155 -0.025305204 4285623838
-0.013062872 0.0060655698 -0.023603063 4285624093
-0.011170015 0.0061767921 -0.023937669 4285624094
-0.0090193972 0.0047946721 -0.022917209 4285624348
-0.0072524883 0.0056530014 -0.023929663 4285624348
-0.0053566769 0.0057647303 -0.024264542 4285624349
-0.0037345923 0.0073691383 -0.025951527 4285624093
-0.0018440001 0.0074807778 -0.026285306 4285558559
0.00018893182 0.0068465769 -0.025943831 4285624094
0.0022272952 0.006212838 -0.025603276 4285624094
0.004566405 0.0040883198 -0.023915231 4285558813
0.0078237765 -0.0025079772 -0.018187651 4285559324
0.013119094 -0.018790238 -0.0037163952 4285559324
0.01899997 -0.037300818 0.012752378 4285559324
0.022955937 -0.046118401 0.020457711 4285427998
-0.022195626 0.00098574907 -0.020366596 4285032748
-0.021080542 0.0063459054 -0.025454475 4285493279
-0.019426782 0.0079555288 -0.027144391 4285690138
-0.01766577 0.0088151544 -0.028154615 4286018324
-0.015548151 0.007426396 -0.027131874 4286018323
-0.013296399 0.0052892044 -0.025434209 4285886743
-0.011154391 0.0039021 -0.024415612 4285689628
-0.0091302171 0.0032646731 -0.024074757 4285624348
-0.007363297 0.0041251704 -0.025085542 4285690139
-0.0054676197 0.0042368695 -0.025420405 4285624348
-0.0038453564 0.005845584 -0.027104102 4285689884
-0.002094347 0.0067054778 -0.028111819 4285755163
7.7717006e-05 0.0053208172 -0.027098011 4285755418
0.0022605881 0.0039369538 -0.026086064 4285689883
0.0044542663 0.0025538579 -0.025075931 4285624349
0.0078602694 -0.0048096105 -0.018690974 4285559324
0.013001747 -0.020391919 -0.0049278783 4285559068
0.018878499 -0.038956679 0.011499951 4285559068
0.022674145 -0.047053143 0.018514987 4285493534
-0.022634845 0.0017083511 -0.023559952 4285033005
-0.021414485 0.0063311756 -0.02795784 4285558814
-0.01976594 0.0079448447 -0.029643549 4285755673
-0.018010262 0.0088062435 -0.030651137 4285754909
-0.015778039 0.006661281 -0.028955063 4285820699
-0.013529573 0.0045174137 -0.02726182 4286018069
-0.011390708 0.0031257868 -0.026246019 4285820954
-0.0093695186 0.0024860278 -0.025906302 4285624093
-0.0073428638 0.001846686 -0.025567478 4285624348
-0.0054446384 0.001958549 -0.025902789 4285624348
-0.0039560981 0.0043223202 -0.028256461 4285689884
-0.0023443438 0.0059347823 -0.029934853 4285952534
-0.00031739473 0.0052959323 -0.02959571 4285952533
0.0018596426 0.0039073601 -0.028586026 4286018323
0.0043421611 0.0010196939 -0.0262364 4285820953
0.0078964606 -0.0071152374 -0.019197382 4285624348
0.013189878 -0.023492582 -0.0047991695 4285624348
0.018601643 -0.039862707 0.0095782448 4285558813
0.022076495 -0.04648456 0.015237752 4285493023
-0.023182649 0.0031986237 -0.027419209 4284967468
-0.021860007 0.0070796236 -0.031129908 4285690393
-0.020219352 0.0086971149 -0.032810908 4285624094
-0.018354107 0.0088063329 -0.033140935 4285557794
-0.016248155 0.0074082315 -0.032122824 4285623584
-0.014008362 0.0052573383 -0.030433007 4285754909
-0.011878025 0.0038609281 -0.029419083 4285755673
-0.009736836 0.0024652854 -0.028406978 4285689884
-0.0078469068 0.0025765076 -0.028740929 4285624348
-0.0058231503 0.0019349083 -0.028403129 4285755419
-0.0044760853 0.0050576031 -0.031422079 4285821209
-0.0027331077 0.0059213266 -0.032425053 4285754909
-0.00099545717 0.0067848861 -0.033427052 4285557794
0.0011703707 0.0053913221 -0.032418735 4285755164
0.0037885383 0.0017421767 -0.029404435 4285820953
0.0077824928 -0.0086729452 -0.020375639 4285624349
0.013224825 -0.025849745 -0.0053451294 4285624349
0.018480385 -0.04151576 0.008327933 4285558558
0.021637779 -0.046654165 0.012637995 4285427744
-0.02405734 0.0069760457 -0.033287998 4285098794
-0.022416625 0.0085977018 -0.034965724 4285559323
-0.020786528 0.010218821 -0.036641493 4285887509
-0.018932175 0.010327399 -0.036969591 4285755673
-0.016837444 0.0089243501 -0.035952896 4285821463
-0.014486186 0.006010592 -0.03359418 4285887508
-0.012238834 0.0038537756 -0.031910628 4285690138
-0.01010349 0.0024534464 -0.03090084 4285624349
-0.0082190745 0.0025643483 -0.031233821 4285624349
-0.0064681619 0.0034304485 -0.032236718 4285624348
-0.0051313713 0.0065611526 -0.035247199 4285952789
-0.0036770515 0.0089359507 -0.037584752 4285689629
-0.0016722232 0.0082914606 -0.03724505 4285558048
0.00048238784 0.0068929195 -0.036238097 4285689629
0.0033829138 0.0017237216 -0.031894833 4285689884
0.0075188428 -0.0094762221 -0.022220809 4285690139
0.013259489 -0.028210945 -0.0058941366 4285690139
0.018204069 -0.042414702 0.0064116735 4285624348
0.021199711 -0.046814732 0.010045003 4285098028
-0.024602082 0.0085080042 -0.037115656 4285427743
-0.022860039 0.0093748644 -0.038116068 4285427998
-0.021352459 0.01175819 -0.040458798 4285624604
-0.019508984 0.011866108 -0.040784989 4285690139
-0.017425451 0.010458075 -0.039769642 4285690139
-0.014963035 0.0067771226 -0.036745317 4285624349
-0.012724362 0.0046133175 -0.035065234 4285558558
-0.01072558 0.003965728 -0.03472659 4285624349
-0.0089827962 0.0048333928 -0.035726473 4285558558
-0.0072453208 0.0057008415 -0.036725346 4285624349
-0.0057853684 0.0080823079 -0.039058998 4285690138
-0.0043414794 0.010462947 -0.041389726 4285952788
-0.0024891868 0.010572404 -0.04171668 4285887254
-0.0002043061 0.0084121227 -0.040044136 4285953044
0.0028310902 0.0024706423 -0.035044387 4285755929
0.0071059689 -0.0095185414 -0.02472803 4285624603
0.012684882 -0.027551599 -0.0091063837 4285624603
0.017773159 -0.042553008 0.0038343575 4285558814
0.020762317 -0.046966374 0.0074588321 4285032238
-0.024927419 0.0085359588 -0.039588027 4285361698
-0.023078937 0.0086439401 -0.039915282 4285361953
-0.021459255 0.010273054 -0.041582569 4285558814
-0.01961593 0.010380954 -0.041908741 4285558814
-0.017413016 0.0082083791 -0.040227555 4285493023
-0.015316386 0.0067968592 -0.03921774 4285493023
-0.013083708 0.0046262667 -0.03754165 4285558814
-0.011218492 0.004735902 -0.037871338 4285558813
-0.0094837584 0.0056052357 -0.038868148 4285558813
-0.0078875944 0.0072337687 -0.040530652 4285559068
-0.0063021146 0.0088618398 -0.042191222 4285558304
-0.0048659518 0.011248447 -0.044515543 4285492768
-0.0027392134 0.0098395534 -0.043510467 4285558559
-0.00045764074 0.0076725855 -0.041842349 4285493023
0.0025736541 0.0017136037 -0.036855213 4285493278
0.006693773 -0.0095519423 -0.027228439 4285559069
0.01226335 -0.02763731 -0.011645121 4285559068
0.017342906 -0.042682283 0.0012638103 4285493534
0.020483034 -0.047867008 0.0055419169 4285098283
-0.022851046 0.0048662275 -0.039035439 4285229353
-0.021223139 0.0065001696 -0.040700905 4285360934
-0.019254904 0.005845964 -0.04036051 4285426724
-0.017281193 0.0051922277 -0.040021047 4285427233
-0.015057284 0.0030145273 -0.038348489 4285427233
-0.0131923 0.0031240359 -0.038678229 4285427233
-0.011454958 0.0039955303 -0.039673943 4285492769
-0.0098533258 0.0056285784 -0.041334182 4285492514
-0.0079961494 0.0057379752 -0.041662276 4285624604
-0.0062746964 0.0066088885 -0.042654909 4285492768
-0.0044200681 0.0067183524 -0.042982385 4285492513
-0.0025653802 0.0068279579 -0.043309763 4285558814
-0.00027905032 0.0046548545 -0.041647524 4285559068
0.0021700002 0.0017220154 -0.039325289 4285493533
0.0064314678 -0.010337003 -0.029059829 4285493278
0.011690538 -0.026953511 -0.014838868 4285493278
0.016913328 -0.042802639 -0.0012999196 4285427744
0.020046795 -0.048002817 0.0029676482 4285033003
-0.02416205 -0.0013285056 -0.035831973 4285163054
-0.02240115 -0.00045417249 -0.036830723 4285426469
-0.020645488 0.00041998923 -0.037828453 4285426469
-0.018778261 0.00052926689 -0.038158875 4285492258
-0.016910914 0.00063867122 -0.038489215 4285557793
-0.014799073 -0.00078053772 -0.037488796 4285689628
-0.012926184 -0.00067058951 -0.037819959 4285690139
-0.011180762 0.00020354241 -0.038815431 4285690138
-0.0094406419 0.0010774657 -0.039809886 4285689628
-0.0077058151 0.0019512549 -0.040803343 4285689883
-0.0057050027 0.0012976006 -0.040469769 4285689884
-0.0038370825 0.0014078617 -0.040799577 4285690139
-0.0019690953 0.0015182346 -0.041129317 4285624348
4.2639673e-05 0.00086562335 -0.040797427 4285690139
0.0024989806 -0.0020754188 -0.03848315 4285492513
0.0064676628 -0.012642972 -0.02956651 4285558048
0.011877555 -0.030069634 -0.014721857 4285558048
0.016793311 -0.044438951 -0.00253757 4285557794
-0.023835722 -0.0059058741 -0.034308776 4285163053
-0.022064049 -0.0050287396 -0.035307765 4285360423
-0.020297628 -0.0041518211 -0.036305748 4285426469
-0.018536489 -0.0032750517 -0.037302759 4285492004
-0.016661238 -0.0031651929 -0.037634507 4285492258
-0.014541786 -0.0045883283 -0.036638733 4285492513
-0.012536231 -0.0052442998 -0.036308073 4285558304
-0.010780055 -0.0043673962 -0.03730379 4285558558
-0.0090291724 -0.0034906715 -0.038298484 4285623584
-0.0070179924 -0.0041459501 -0.037968528 4285558048
-0.0051368512 -0.0040350482 -0.038300779 4285558049
-0.003255643 -0.0039240122 -0.038632948 4285558048
-0.0015152283 -0.0030474439 -0.039625429 4285623584
0.00050695613 -0.00370159 -0.039297048 4285492258
0.0028270222 -0.0058855191 -0.03765066 4285492259
0.0068014041 -0.01648289 -0.028758332 4285557794
0.011912353 -0.032429285 -0.015269702 4285557793
0.016673319 -0.046074934 -0.0037749661 4285492003
-0.023944434 -0.0074222833 -0.035456292 4285294634
-0.022061605 -0.0073123425 -0.035789661 4285426214
-0.019951005 -0.0087406263 -0.034795977 4285426214
-0.018179085 -0.0078611225 -0.035793185 4285426214
-0.016293239 -0.0077506527 -0.036126822 4285426468
-0.014407288 -0.0076400712 -0.036460392 4285492258
-0.012396675 -0.0082979128 -0.036132291 4285492258
-0.010507844 -0.008186914 -0.036466181 4285558048
-0.0087488927 -0.0073075742 -0.037460633 4285558049
-0.0068625994 -0.0071965009 -0.037793905 4285558049
-0.0049762279 -0.0070852935 -0.038127087 4285623583
-0.003365811 -0.0054384544 -0.039778616 4285492514
-0.0013439953 -0.0060949177 -0.039451942 4285558304
0.00068325177 -0.0067509189 -0.039126128 4285492258
0.0031541549 -0.0097083449 -0.036827739 4285426723
0.0069854707 -0.019568436 -0.028617039 4285492003
0.012098301 -0.035559915 -0.015163744 4285492003
0.016553357 -0.04771062 -0.0050121313 4285294633
-0.02416141 -0.0081667528 -0.037266389 4285294633
-0.022170436 -0.0088284835 -0.036936939 4285295398
-0.020060275 -0.010261096 -0.035946503 4285426214
-0.018055622 -0.010921851 -0.035619259 4285426214
-0.0160455 -0.011582091 -0.035292901 4285426213
-0.014273375 -0.010700203 -0.036288321 4285492004
-0.012257688 -0.011359885 -0.035962775 4285492004
-0.010490749 -0.010478064 -0.036957093 4285492258
-0.0085993037 -0.01036682 -0.037291363 4285558049
-0.0068402775 -0.0094851628 -0.038284123 4285558049
-0.0050865337 -0.0086037368 -0.03927581 4285492258
-0.0032002479 -0.0084924176 -0.039608888 4285492258
-0.0013139062 -0.0083809868 -0.039941892 4285492258
0.00057249144 -0.0082694143 -0.040274791 4285492514
0.0028966926 -0.010466062 -0.038639084 4285492259
0.0070203133 -0.021892995 -0.029137786 4285426214
0.011981063 -0.037160642 -0.0163745 4285426214
0.016279444 -0.048577003 -0.006903789 4285228844
-0.023837309 -0.012775712 -0.035767108 4285228843
-0.021835875 -0.013438977 -0.035441168 4285295143
-0.019715432 -0.014875323 -0.034455903 4285360934
-0.017816562 -0.014764234 -0.03479195 4285426469
-0.015798677 -0.015426196 -0.034468651 4285426213
-0.014140062 -0.013768665 -0.036122631 4285491749
-0.012119304 -0.01443024 -0.035799667 4285492004
-0.01034699 -0.013545938 -0.036793269 4285558049
-0.0083206929 -0.014206924 -0.036471087 4285426213
-0.0066859052 -0.012550294 -0.038120471 4285426468
-0.0047917739 -0.012438633 -0.038455017 4285492003
-0.0031729899 -0.010782667 -0.040101439 4285492259
-0.0012841113 -0.010671102 -0.040434897 4285492259
0.00060482696 -0.010559373 -0.040768243 4285426723
0.0030768476 -0.013533965 -0.03848337 4285426469
0.0069064312 -0.023450166 -0.030315641 4285360679
0.012014989 -0.039532401 -0.016931435 4285360679
0.016005859 -0.049438737 -0.0087919971 4285163053
-0.007784009 -0.019609161 -0.034348883 4285294634
-0.0061356388 -0.01794745 -0.03599735 4285294633
-0.0043630861 -0.01706063 -0.036989052 4285229608
-0.0025958456 -0.016173936 -0.037979744 4285164074
-0.00069367886 -0.016061582 -0.038315535 4285295144
0.0010656156 -0.015175164 -0.03930461 4285295143
0.0036931969 -0.018931538 -0.036375262 4285425959
0.0075340085 -0.02887506 -0.028231137 4285360423
0.012048613 -0.041908115 -0.017491436 4285294633
-0.0066022389 -0.028917193 -0.028972235 4285490983
-0.0049268529 -0.027249537 -0.030622195 4285885469
-0.0031274296 -0.026358984 -0.031616982 4285490983
-0.0014707148 -0.024692185 -0.033263445 4285687588
0.00045547634 -0.024578415 -0.033603493 4285556518
0.0022389553 -0.023688413 -0.034595162 4285556519
0.0050352253 -0.028230146 -0.031026937 4285491239
