# .PCD v0.7 - Point Cloud Data file format
VERSION 0.7
FIELDS x y z rgba
SIZE 4 4 4 4
TYPE F F F U
COUNT 1 1 1 1
WIDTH 937
HEIGHT 1
VIEWPOINT 0 0 0 1 0 0 0
POINTS 937
DATA ascii
-0.00033688545 -0.014338911 0.034059942 4287707189
0.0015777126 -0.013498828 0.032957666 4290910754
0.0037778467 -0.014082089 0.03326609 4290191399
0.005983457 -0.014664873 0.033573553 4287772214
0.0072899535 -0.010979868 0.029657388 4288689449
-0.0017231479 -0.0096004531 0.026493734 4290262288
-0.00011774525 -0.0073318407 0.023990301 4289800993
0.0020525828 -0.0079191774 0.024302831 4290651419
0.0040804632 -0.0077924505 0.023911702 4289081638
0.006108433 -0.0076656193 0.023520639 4288689703
-0.0028269514 -0.006254673 0.020361884 4289016614
-0.0012399778 -0.0039806291 0.017866841 4288623403
0.00091126561 -0.0045713559 0.018181404 4289212708
0.0030679926 -0.0051616579 0.018495044 4290194714
0.0053805821 -0.0064670891 0.019508237 4289344544
-0.0035098046 -0.005033277 0.016355751 4290391319
-0.0019331947 -0.0027533248 0.013867596 4289866529
0.00049681216 -0.00478331 0.015582683 4290783254
0.0026478618 -0.0053761229 0.015895726 4289671454
0.0048043579 -0.0059685111 0.016207797 4289345308
0.0058957003 -0.0015367791 0.011629745 4288692253
-0.0039125383 -0.0052353814 0.013761556 4289606684
-0.0023409352 -0.0029492006 0.01127925 4288819753
-0.00020638853 -0.0035453737 0.011593746 4289736734
0.0022284538 -0.0055815205 0.013303084 4289736989
0.0043792799 -0.0061764494 0.013614612 4289672474
0.0056188926 -0.0024517477 0.0097440463 4288757278
-0.0040361732 -0.0068741813 0.012569644 4289541148
-0.002464205 -0.0045814216 0.010092154 4289409313
-0.00047452375 -0.0044572651 0.0097082648 4289212708
0.0016625002 -0.0050553679 0.010020729 4289213218
0.0036550425 -0.0049308091 0.0096364599 4289606429
0.0051898435 -0.0026399121 0.0071664732 4289215004
-0.0044378303 -0.0070624426 0.0099854451 4289541404
-0.0027291439 -0.0054884106 0.0082095619 4290848789
-0.00088668987 -0.0046396479 0.0071309637 4290848789
0.001097586 -0.0045157149 0.0067481976 4290652438
0.0033814684 -0.0058405697 0.0077538677 4289803034
0.0049139448 -0.0035432503 0.0052892249 4289411354
-0.0065528937 -0.0088202581 0.0091816727 4289936909
-0.0049776472 -0.0065143034 0.0067132283 4289802268
-0.0031352639 -0.0056635216 0.0056362245 4290063389
-0.0012981445 -0.0048129708 0.004560316 4289539873
0.00068062544 -0.0046894029 0.0041786004 4290914324
0.002659481 -0.0045657158 0.0037969574 4289606174
0.0043338686 -0.0029890016 0.0020312797 4289085464
-0.007083986 -0.0082646906 0.0059129056 4290263308
-0.0053777061 -0.0066822022 0.0041439012 4290259994
-0.0036820509 -0.0051002577 0.0023770202 4289343268
-0.0018529594 -0.0042479858 0.0013042428 4288688938
0.00011762232 -0.0041249469 0.00092409924 4289474338
0.0022377186 -0.0047306493 0.0012350287 4290390808
0.0040590316 -0.003878504 0.00016401149 4289215769
-0.007614024 -0.0076956674 0.0026539899 4290524939
-0.0059156157 -0.0061092749 0.00088970177 4290717973
-0.0043690354 -0.0037919432 -0.0015633274 4289866274
-0.0025506392 -0.0029381588 -0.0026324224 4288820009
-0.0005909279 -0.0028158054 -0.0030104816 4290521113
0.0016673952 -0.0041554049 -0.0020096861 4290063644
0.0036326386 -0.0040324852 -0.0023886394 4289148448
-0.0082787387 -0.0063790604 -0.0012855157 4290064408
-0.0064524785 -0.005522877 -0.0023546312 4289996833
-0.0049135834 -0.0031994358 -0.0048013348 4289146664
-0.0031032152 -0.0023440197 -0.0058672223 4289081383
-0.0011516884 -0.0022221953 -0.0062437151 4290128414
0.0012472048 -0.0042999014 -0.0045568291 4289736224
0.0032069385 -0.0041773245 -0.0049347226 4289475359
-0.0088065639 -0.0057807937 -0.0045232456 4289540894
-0.0069883168 -0.0049229562 -0.0055892039 4289604899
-0.0050344467 -0.0048012361 -0.0059663337 4288885289
-0.0032240525 -0.0039436445 -0.0070306007 4288950824
-0.0012726709 -0.0038218349 -0.0074070673 4288885288
0.00097665191 -0.0051707402 -0.0064111259 4289081638
0.0029335544 -0.005048342 -0.0067884754 4289082658
-0.02250129 -0.0089727566 -0.0023532342 4287644713
-0.020423926 -0.0095911995 -0.002041569 4287906089
-0.018463023 -0.0094698668 -0.0024206694 4288232743
-0.016252704 -0.010826647 -0.0014212634 4288886819
-0.014413491 -0.0099657997 -0.0024900008 4288624678
-0.012579493 -0.0091051534 -0.0035576355 4288886564
-0.010883436 -0.0075060576 -0.005311897 4288558888
-0.0089272559 -0.0073844418 -0.0056896564 4288624169
-0.0071089938 -0.0065244213 -0.0067539997 4288820518
-0.0050145537 -0.0071408376 -0.0064449813 4288754728
-0.0030580536 -0.0070188493 -0.0068225432 4288885799
-0.00080928952 -0.0083723441 -0.005829813 4288754728
0.0014502704 -0.0097249746 -0.004839099 4288688939
0.0034177564 -0.0096019283 -0.0052185031 4288558889
-0.024010062 -0.014408924 0.00030617788 4287773998
-0.022155337 -0.013545357 -0.00076432712 4287970093
-0.020305805 -0.012682058 -0.0018337145 4288231724
-0.018217891 -0.013301887 -0.0015256796 4288297259
-0.016248964 -0.01317998 -0.0019062702 4288493099
-0.014279887 -0.013057925 -0.0022868011 4288558634
-0.01231068 -0.012935765 -0.0026672632 4288624168
-0.010606389 -0.011331849 -0.0044198306 4288493354
-0.0086423121 -0.011209749 -0.0047991229 4288493098
-0.0069538727 -0.0096065328 -0.0065484801 4288427819
-0.0047138296 -0.010965206 -0.0055575175 4288493099
-0.0024629645 -0.012322985 -0.0045685684 4288558378
-0.00020128116 -0.013680063 -0.0035815993 4288427819
0.0019225962 -0.01429648 -0.0032796366 4288688938
0.0037493818 -0.013433151 -0.004343546 4288885544
-0.024016902 -0.016769066 -0.00018138438 4287772979
-0.022275768 -0.015159197 -0.0019383971 4288100399
-0.02030725 -0.015037544 -0.0023190901 4288100399
-0.01821696 -0.015659489 -0.0020131245 4288296493
-0.016121179 -0.016280927 -0.001708176 4288231214
-0.014146887 -0.016158573 -0.0020897239 4288492844
-0.012172483 -0.016036101 -0.0024712086 4288362029
-0.010330301 -0.015170485 -0.0035371101 4288820263
-0.0083583258 -0.015047923 -0.0039179465 4288362284
-0.0065239631 -0.014182515 -0.0049821949 4288493098
-0.0045544542 -0.014059849 -0.0053623607 4288296749
-0.0024417751 -0.014679447 -0.0050600162 4288296493
-0.00017790124 -0.016040705 -0.0040767631 4288165678
0.0020967722 -0.017401181 -0.0030955216 4288492843
0.0037778206 -0.015793495 -0.0048397025 4288689193
-0.024024025 -0.019133329 -0.00067193434 4287838004
-0.022280023 -0.017518945 -0.0024262089 4288165678
-0.020308979 -0.017397173 -0.0028074132 4288231214
-0.018216312 -0.018021122 -0.0025035851 4288492844
-0.016118169 -0.018644616 -0.0022007301 4288296493
-0.014141351 -0.018522128 -0.0025827847 4288296493
-0.012293912 -0.017654136 -0.0036481684 4288558379
-0.010319524 -0.017531559 -0.0040295711 4288492843
-0.0083450377 -0.017408848 -0.004410903 4288558379
-0.0063704178 -0.01728601 -0.0047921678 4288362028
-0.0042554699 -0.017907739 -0.0044920174 4288362028
-0.0021350831 -0.018528998 -0.0041928282 4288427308
-0.00015481561 -0.018405437 -0.0045749051 4288623658
0.0018255264 -0.01828175 -0.0049569039 4288362028
0.0035040788 -0.016669869 -0.0066973707 4288558123
-0.024258003 -0.020004548 -0.0025352836 4288230193
-0.02263242 -0.017637528 -0.0049702683 4288427308
-0.020429619 -0.0190126 -0.0039826175 4288296493
-0.018215954 -0.020386837 -0.0029970128 4288296749
-0.015991464 -0.021760292 -0.0020134263 4288362028
-0.014262751 -0.020142026 -0.003761135 4288427564
-0.01241532 -0.019271865 -0.0048249131 4288427564
-0.010309052 -0.019896701 -0.0045250021 4288492843
-0.0083320253 -0.019773848 -0.0049068257 4288885544
-0.006354887 -0.019650877 -0.0052885963 4288689449
-0.0043776371 -0.019527748 -0.0056702821 4288624168
-0.0024002977 -0.019404508 -0.0060518896 4288624169
-0.00042286143 -0.019281127 -0.0064334301 4288428074
0.001554653 -0.019157618 -0.006814885 4288427818
0.0033814721 -0.018287756 -0.007873944 4288297003
-0.024152242 -0.023123316 -0.0023452677 4288033588
-0.022405177 -0.021500051 -0.004093647 4288557359
-0.02043175 -0.021378167 -0.0044753402 4288492844
-0.018094763 -0.023506887 -0.0028116591 4288296493
-0.015989184 -0.024134375 -0.0025134869 4288362029
-0.014004633 -0.024011441 -0.002897054 4288165678
-0.012407485 -0.021639057 -0.0053212345 4288493354
-0.01043072 -0.021516353 -0.0057031065 4288166443
-0.0087229125 -0.019894667 -0.0074432679 4288690469
-0.0066140592 -0.020521291 -0.0071453117 4288362538
-0.0044997521 -0.021147452 -0.0068483166 4288560164
-0.0025225691 -0.021024235 -0.007229913 4288298279
-0.00054528937 -0.020900875 -0.0076114237 4287970603
0.0012841448 -0.020028792 -0.0086694472 4287578158
0.0031082928 -0.019156933 -0.0097263744 4287643948
-0.023934156 -0.027003534 -0.0014796592 4288033589
-0.022178888 -0.025375381 -0.0032264255 4288033845
-0.020079255 -0.026005678 -0.0029289238 4287903283
-0.017974146 -0.026635461 -0.0026324242 4287772979
-0.015863545 -0.027264789 -0.0023369119 4287577138
-0.013873786 -0.027141534 -0.0027214922 4287381043
-0.012141917 -0.025514252 -0.0044632331 4287185459
0.03160011 0.0088569373 0.029732084 4281501764
0.033629816 0.0089853406 0.02934177 4280004404
0.012278467 0.0010435134 0.037424773 4282217293
0.012566704 0.0088203624 0.02918235 4281892934
0.013446629 0.013813071 0.023803065 4279742773
0.015777193 0.012548856 0.024842685 4280916284
0.018622663 0.0092010424 0.028015992 4280133689
0.021324299 0.0065496191 0.030472824 4280458304
0.023007002 0.0080664381 0.028660441 4281568829
0.024679009 0.0095826536 0.026850237 4281242685
0.026340287 0.011098273 0.025042163 4281112888
0.027083535 0.016083129 0.01968967 4281112888
0.027973354 0.020371888 0.015053315 4280327998
0.030325582 0.019109856 0.016089374 4280783939
0.034394182 0.011607595 0.023493281 4280003383
0.0088671334 0.0048159361 0.030893477 4282478158
0.0086936653 0.014710464 0.020530025 4281045823
0.0095638297 0.019717842 0.015163945 4281242174
0.010883987 0.022630934 0.011939134 4281568574
0.013008639 0.022056933 0.012272524 4280981053
0.015810207 0.018695332 0.015446147 4279743539
0.018297531 0.016729228 0.017195048 4281177913
0.020281292 0.016854234 0.016813209 4281243449
0.022089157 0.017675817 0.015722709 4281307708
0.023713071 0.019193467 0.013925092 4280916283
0.025144968 0.021406736 0.011421887 4280394809
0.026744725 0.022923119 0.0096290354 4280849984
0.029080398 0.021655612 0.01066505 4281176129
0.032373507 0.016910709 0.015229797 4280980289
0.037624478 0.0052134916 0.026843803 4281111869
0.0076276995 0.017276675 0.015077962 4281307198
0.0084828101 0.022298384 0.009726245 4280199479
0.0099497363 0.024519745 0.007220678 4281046334
0.012060687 0.023942683 0.007555075 4281176384
0.014512457 0.021967623 0.0093058869 4280330038
0.017321143 0.018595643 0.012469985 4279938869
0.019464426 0.01802092 0.012798389 4281112379
0.021261599 0.018844016 0.01171157 4281112379
0.022518108 0.021762464 0.0085059982 4280851514
0.024115406 0.023282927 0.0067168511 4279546934
0.025885768 0.02410464 0.0056354273 4279481653
0.028396724 0.022134069 0.0073753428 4280003383
0.031302124 0.018768907 0.010521363 4279939123
0.035769224 0.0098241046 0.019294603 4279613488
-0.041587986 0.011185452 0.024862548 4284704309
0.0075355917 0.0064041466 0.023506036 4282870093
0.0068773776 0.018465407 0.011063643 4281567809
0.0078822821 0.022799958 0.006433852 4280134964
0.0096658766 0.023623887 0.0053509101 4279612468
0.011773847 0.023044426 0.0056842342 4279809075
0.014222302 0.021062572 0.0074307788 4279808563
0.016857125 0.01838062 0.009880852 4280851004
0.018994741 0.017803341 0.010208694 4280916028
0.020610997 0.019329224 0.0084189773 4281111359
0.021860007 0.022255931 0.0052214265 4280915773
0.023630407 0.023079772 0.0041415039 4280915519
0.025395453 0.023903351 0.0030627437 4280589373
0.027900413 0.021925781 0.0047989488 4280785469
0.030421458 0.019949384 0.0065320991 4280980544
0.034492116 0.01237499 0.013881749 4281045824
0.0070682131 0.015446313 0.011307649 4281500999
0.0077607334 0.021202665 0.005272381 4280784450
0.0095443688 0.022028763 0.0041910484 4281045568
0.011487368 0.022150863 0.0038168058 4281046078
0.013932511 0.020162221 0.0055590812 4281046334
0.016393788 0.018174745 0.007298287 4281045824
0.018698486 0.016891606 0.0083300658 4281111103
0.020312266 0.018421717 0.0065440871 4280915774
0.021915339 0.019951206 0.0047602896 4280850494
0.023688477 0.020777378 0.0036815219 4281046078
0.025456239 0.021603361 0.0026038326 4281045824
0.027404789 0.021726646 0.0022291411 4280980799
0.029919844 0.019743238 0.0039585792 4281241153
0.033600096 0.013548471 0.0098899901 4281110593
0.039853286 -0.0017680526 0.024916319 4281110593
0.0071019493 0.013125218 0.010839485 4281761608
0.0076392218 0.019605648 0.0041111037 4280523329
0.0092610717 0.021140084 0.0023264959 4280784958
0.011036746 0.021967966 0.0012483969 4279677749
0.013308689 0.020678215 0.0022830106 4279678514
0.01593117 0.017977916 0.0047223717 4280525369
0.018230021 0.016690068 0.0057519656 4280980799
0.0200139 0.0175189 0.0046726074 4280980799
0.021614499 0.019052617 0.0028925482 4281111104
0.023565605 0.019175857 0.0025172159 4280980798
0.025150109 0.020708822 0.00074037537 4280850238
0.026909869 0.021536544 -0.00033403002 4278374699
0.029230244 0.020250678 0.00069188885 4279287344
0.032709442 0.014739849 0.0059112404 4278960944
0.038559958 0.00078244507 0.019506978 4279874354
0.046091538 -0.018799685 0.038667813 4279874354
0.0074479915 0.009382613 0.011777038 4282285379
0.0076767281 0.017300412 0.0036538579 4280719424
0.0088164732 0.020964473 -0.00023799017 4280719933
0.010258134 0.02321057 -0.0027189963 4279417139
0.012518879 0.021915719 -0.0016855001 4279678003
0.01776227 0.016497605 0.0031805243 4280524858
0.01954082 0.017328277 0.0021038204 4280849984
0.021491777 0.017451398 0.0017284304 4280915263
0.023081854 0.018988982 -4.6294183e-05 4280720189
0.024661213 0.020525966 -0.0018188283 4280785214
0.026044015 0.022769239 -0.0042879172 4280459578
0.02854169 0.020771604 -0.0025649238 4281111613
0.031628989 0.016655646 0.0012479145 4279482164
0.037074834 0.0040659532 0.013420021 4278505513
0.044582721 -0.015579 0.032539636 4278505513
0.006856285 0.0098924562 0.0084887035 4283397943
0.0069198832 0.018544637 -0.00031746924 4281242683
0.0082110949 0.02150847 -0.0034975279 4280655674
0.0099734291 0.022339925 -0.0045698397 4281176128
0.01206417 0.021750659 -0.0042396281 4281176384
0.014499392 0.019741796 -0.002510123 4280785724
0.016950756 0.017734013 -0.00078360923 4280719933
0.018718611 0.018566199 -0.0018566195 4280849728
0.020481113 0.019398164 -0.0029285233 4280980799
0.02187771 0.021648675 -0.0053955149 4280459068
0.023807086 0.021770634 -0.0057666022 4278568753
0.025550827 0.022601746 -0.0068346467 4281046078
0.02823082 0.019888293 -0.0044188704 4281306944
0.031123277 0.016467631 -0.0013111141 4281176384
0.035398394 0.0080891401 0.0066601485 4281111613
0.042290799 -0.0094938055 0.02365412 4281111613
0.0064215884 0.009702675 0.0059113596 4283594549
0.006323047 0.019093893 -0.0035751984 4281373498
0.0074454248 0.022778749 -0.0074473917 4280004404
0.0093610734 0.022899091 -0.007816392 4280459323
0.01161015 0.021594726 -0.0067871939 4280850749
0.013870008 0.02029112 -0.005759934 4280133689
0.016140617 0.018988319 -0.0047347285 4280524859
0.017897774 0.019822031 -0.005804047 4280915263
0.019649584 0.020655513 -0.0068722535 4280916029
0.021035818 0.022911925 -0.0093323654 4280851004
0.023137121 0.022321813 -0.009005392 4279873078
0.024872845 0.023154601 -0.010070263 4279873844
0.027543984 0.020431839 -0.0076593086 4280199479
0.029854884 0.01913235 -0.006641278 4280135474
0.033724688 0.012147836 -7.391721e-05 4280591158
0.040002618 -0.0033598244 0.014804011 4280591158
0.047591902 -0.023122177 0.033816628 4280981818
0.0059875846 0.0095220581 0.0033406001 4284251684
0.0057272501 0.019656643 -0.0068231206 4281111104
0.0066811331 0.024066947 -0.011384226 4280459833
0.0089135878 0.022757042 -0.01035518 4279611958
0.011156842 0.021447875 -0.0093280859 4280068154
0.013580061 0.019425102 -0.0076060798 4279155508
0.015503749 0.01954627 -0.0079763923 4280850238
0.017252889 0.020381667 -0.009042535 4280980033
0.019173937 0.020502888 -0.0094121732 4281045314
0.02073512 0.022051755 -0.011171501 4281045569
0.022650821 0.022172872 -0.011539942 4281045569
0.024566522 0.022294082 -0.011908311 4281176385
0.027234163 0.019562341 -0.0095032118 4281175873
0.029732579 0.017545186 -0.0077950172 4281372479
0.032827146 0.013390332 -0.004012838 4281046079
0.038110271 0.0013973638 0.0073729511 4281045823
0.045471795 -0.017715588 0.025654158 4281176129
0.0059240423 0.016646221 -0.0065740719 4281894464
0.0067231543 0.02178723 -0.011823537 4280848708
0.0086304881 0.021907043 -0.012190945 4281241154
0.011036947 0.019876491 -0.010470646 4281175363
0.013459522 0.017847084 -0.0087534264 4281110595
0.015554808 0.01725173 -0.00842884 4281240899
0.017481066 0.017373174 -0.0087995622 4281110083
0.019584432 0.016778596 -0.0084764101 4281306179
0.021153858 0.018332414 -0.010234093 4281306179
0.023077471 0.018454015 -0.010604065 4281306179
0.025001084 0.018575735 -0.010973953 4281110594
0.027300335 0.017266609 -0.009960236 4281110594
0.029800799 0.015242986 -0.0082572848 4281110594
0.032510508 0.012505397 -0.0058666877 4281241408
0.037004467 0.0033346489 0.0027317051 4281502529
0.043553643 -0.012979425 0.018213594 4281502529
0.050829872 -0.03142941 0.035739392 4281437248
0.00612019 0.013627335 -0.0063312501 4282220099
0.0070865378 0.01806467 -0.010875192 4280849218
0.009001784 0.018184975 -0.011244131 4281045313
0.011249453 0.016867369 -0.010224467 4280980289
0.013676766 0.014831647 -0.0085130092 4280980289
0.015948646 0.013515778 -0.0074978434 4281045824
0.01788282 0.013637714 -0.007870093 4280980544
0.019993935 0.013041399 -0.0075500216 4280915264
0.021751214 0.013881944 -0.0086143501 4281045823
0.023867715 0.013286188 -0.0082951412 4280980543
0.02598957 0.012690909 -0.0079769325 4280849473
0.028304428 0.011378437 -0.0069695348 4280784703
0.030439675 0.010784246 -0.0066537214 4280849473
0.032580275 0.010190457 -0.0063388208 4281046334
0.036291778 0.0038599074 -0.00051609986 4281240388
0.042432088 -0.011071287 0.013554392 4281239623
0.050293513 -0.031729758 0.033103898 4281239623
0.0066316538 0.0091564581 -0.0047061527 4282612798
0.0079309046 0.012164548 -0.0078551499 4281240898
0.0096987709 0.013007216 -0.0089203529 4281241408
0.012125406 0.010964788 -0.0072137387 4281045314
0.014230762 0.010365605 -0.0068944925 4281306434
0.016341519 0.0097668841 -0.0065762 4281176384
0.018283598 0.0098893121 -0.0069499752 4281176129
0.020402443 0.0092913359 -0.0066330628 4281241154
0.022347238 0.0094141662 -0.00700719 4281371714
0.024474151 0.0088169202 -0.0066916654 4281110849
0.026421633 0.0089401454 -0.0070661353 4280979268
0.0285566 0.0083435923 -0.006751948 4280914498
0.030506741 0.0084672347 -0.0071267495 4281110339
0.032456864 0.0085909814 -0.0075014746 4281306434
0.036166698 0.0022406206 -0.0016931202 4281305669
0.042699721 -0.014175184 0.013716811 4281370693
0.049757857 -0.032021046 0.030475067 4281370693
0.0068261959 0.0061161742 -0.0044788951 4282416194
0.0084523223 0.0076858327 -0.0062382771 4281305924
0.010230951 0.0085313767 -0.0073039168 4281305923
0.012501806 0.0072064549 -0.0062952535 4281175364
0.014614902 0.0066055655 -0.0059791328 4281305924
0.016562179 0.006728217 -0.0063539883 4281371203
0.018335588 0.0075738728 -0.0074182963 4281305923
0.02045681 0.0069738477 -0.0071034757 4281305668
0.022583414 0.006374225 -0.0067895735 4281305923
0.024533439 0.0064975247 -0.0071646059 4281110594
0.02666809 0.0058986843 -0.0068521155 4280914243
0.028808098 0.0053003058 -0.0065405639 4280979523
0.030573472 0.0061461627 -0.0076027969 4281240644
0.032718807 0.0055483654 -0.0072920965 4281370949
0.036823049 -0.0022645667 -0.00012836047 4281500999
0.043164711 -0.01800888 0.014557911 4281500999
0.049423613 -0.033024408 0.028537231 4281500999
0.0068624727 0.0037934482 -0.0049488107 4282089028
0.0086517856 0.0046417713 -0.0060150167 4281501254
0.010598797 0.0047640428 -0.0063900901 4281175363
0.012711555 0.0041607842 -0.0060755843 4281240644
0.014829706 0.0035580173 -0.0057620676 4281240644
0.016782202 0.0036809817 -0.0061379382 4281305668
0.018561002 0.004529193 -0.0072016371 4281370948
0.020510864 0.0046522245 -0.0075768298 4281436229
0.022639833 0.0040506124 -0.0072650434 4281305924
0.024592396 0.0041740537 -0.0076405806 4280979779
0.026544962 0.0042976141 -0.0080160266 4280979523
0.028497521 0.0044212863 -0.008391385 4281175363
0.030450065 0.0045450851 -0.0087666484 4281240644
0.032980092 0.0024972409 -0.007088908 4281240134
0.037478071 -0.0067870617 0.0014238898 4281305158
0.043826573 -0.022579111 0.016072946 4281435208
0.0068984441 0.0014666915 -0.0054217372 4282220353
0.008690469 0.0023173094 -0.0064868042 4281371204
0.010640025 0.0024397448 -0.0068623619 4281240644
0.012589626 0.0025622845 -0.0072378619 4281240644
0.014875658 0.0012296811 -0.006238563 4281305668
0.017001577 0.00062533468 -0.0059280861 4281305668
0.018959323 0.00074873865 -0.0063048825 4281305924
0.020740842 0.0015994087 -0.0073673939 4281370948
0.022874864 0.00099594146 -0.0070582125 4281370948
0.024832645 0.0011196956 -0.0074347574 4281240644
0.026790434 0.0012435988 -0.0078111961 4281305924
0.028748211 0.0013676137 -0.0081875529 4281436483
0.030705972 0.0014917329 -0.0085638277 4281501764
0.033433061 -0.0012885258 -0.0062091295 4281566533
0.038131744 -0.011326857 0.0029635634 4281370183
0.044091679 -0.025714986 0.016212044 4281434953
0.0067768022 -0.00013364106 -0.0065854508 4282220098
0.0085688606 0.00071917474 -0.0076488834 4281763649
0.010518264 0.00084156543 -0.0080244448 4281764413
0.012302365 0.0016941726 -0.0090862075 4281633343
0.014585245 0.00035692006 -0.0080895387 4281502274
0.016708165 -0.00024979562 -0.0077801161 4281633089
0.019009868 -0.001585573 -0.0067869332 4281568318
0.020970168 -0.0014618784 -0.0071641337 4281632833
0.023288012 -0.0027964339 -0.0061738212 4281763138
0.025072256 -0.0019431636 -0.0072350446 4282090558
0.026851127 -0.0010900795 -0.0082952045 4282025789
0.028811442 -0.00096590072 -0.0086720418 4282222904
0.030961236 -0.0015701279 -0.0083671156 4282222903
0.033500683 -0.0036304891 -0.0067009609 4282222648
0.038199529 -0.013699427 0.002448881 4282222139
0.04396107 -0.027403392 0.014984829 4282221374
0.006812349 -0.0024663806 -0.0070627276 4282613053
0.008607097 -0.0016112253 -0.0081250649 4282418234
0.010396544 -0.00075627863 -0.0091862883 4282157878
0.012180656 9.8481774e-05 -0.01024645 4282549304
0.014295198 -0.00051112473 -0.0099370908 4282876469
0.016244579 -0.00038836151 -0.010312369 4283007794
0.018713662 -0.0024605766 -0.0086381994 4283007028
0.020847043 -0.0030685812 -0.0083322395 4283201849
0.023342978 -0.0051389113 -0.0066630188 4283265853
0.025311194 -0.0050144866 -0.0070415605 4283920694
0.027279414 -0.0048899353 -0.0074200165 4283986483
0.029060997 -0.0040343925 -0.0084789079 4284313904
0.031215828 -0.0046404377 -0.0081766266 4284641323
0.043435767 -0.027631149 0.012400877 4284574258
0.0068475753 -0.004803203 -0.0075429752 4284247603
0.0088046789 -0.0046804473 -0.0079201031 4284378928
0.010599509 -0.0038229898 -0.0089807454 4284640559
0.012224007 -0.0022313297 -0.010723339 4284641578
0.017083865 -0.01903753 -0.011713851 4284705838
0.019919261 -0.022648461 -0.0087342523 4284640048
0.0029859245 -0.020771995 -0.0109009 4284115513
0.0044985488 -0.018397205 -0.013303041 4283266874
0.0066183731 -0.019024454 -0.013008181 4283267383
0.0085851289 -0.018901132 -0.013387207 4282942003
0.010874271 -0.020277619 -0.012421276 4281960508
0.013174169 -0.021653242 -0.011457358 4281567044
0.015151784 -0.021528855 -0.011838179 4281501254
0.017298631 -0.02215378 -0.011548061 4281762884
0.020310279 -0.026524656 -0.0079070479 4282348618
0.023703221 -0.032391526 -0.0029324898 4282937413
-0.012134999 -0.027893983 -0.0049686842 4283198533
-0.010673944 -0.024754703 -0.0080586411 4282936904
-0.0096368045 -0.019355133 -0.013172388 4282022728
-0.0075419769 -0.019987069 -0.012874946 4281761863
-0.0057208389 -0.019111499 -0.013928466 4281697094
-0.0034782179 -0.020496145 -0.012957484 4281697348
-0.0013697222 -0.021126814 -0.012662459 4281762884
0.00059660897 -0.021004014 -0.013041764 4281632834
0.0025630258 -0.020881109 -0.013421018 4281306434
0.0043765455 -0.02000542 -0.014472544 4281305924
0.0061847791 -0.019129932 -0.015522949 4281567298
0.0083043464 -0.019759268 -0.015229583 4281632578
0.010429308 -0.020388119 -0.014937155 4281436738
0.012887042 -0.022520505 -0.013305027 4281567554
0.014695466 -0.021644488 -0.014355093 4281435973
0.017343726 -0.024526857 -0.012057696 4281501508
0.020528601 -0.029662214 -0.0077579804 4281893189
0.024274182 -0.037048936 -0.0014606733 4282348363
-0.012128387 -0.030277789 -0.0054771043 4282674763
-0.010795493 -0.026373424 -0.0092360862 4282414664
-0.009623304 -0.021714568 -0.013664197 4281696329
-0.0076628476 -0.021592669 -0.014042772 4281500998
-0.0058416948 -0.020714931 -0.015094679 4281175619
-0.0037416294 -0.021348469 -0.014799695 4281371458
-0.00163614 -0.021981508 -0.014505714 4281502019
0.00047478825 -0.022614069 -0.014212694 4281502019
0.0024410449 -0.022491179 -0.014591914 4281306179
0.0042545833 -0.021613315 -0.01564182 4281370949
0.006062828 -0.020735666 -0.016690612 4281370438
0.0081820637 -0.021367185 -0.016398799 4281304903
0.010306709 -0.021998264 -0.01610795 4281305159
0.012436759 -0.022628866 -0.015818033 4281305414
0.014572211 -0.023259051 -0.015529029 4281566024
0.01705078 -0.025396377 -0.013905652 4281632069
0.020746274 -0.032808222 -0.007615068 4281696838
0.023972698 -0.037956104 -0.0033346498 4282478413
-0.012507599 -0.030390091 -0.0080099776 4282871369
-0.011179406 -0.026475094 -0.011759922 4282480199
-0.009743996 -0.023319833 -0.014831822 4281761863
-0.0077836812 -0.023197941 -0.015210368 4281566023
-0.0058232769 -0.023075923 -0.015588842 4281175109
-0.0038627833 -0.022953786 -0.015967242 4281044803
-0.0019021928 -0.022831514 -0.016345572 4281305924
5.8472157e-05 -0.022709094 -0.016723804 4281370949
0.002169162 -0.023343727 -0.016432263 4281174854
0.0042852759 -0.023977913 -0.016141679 4281435464
0.0060962029 -0.023097917 -0.017189376 4281239369
0.0082177967 -0.023731492 -0.016899657 4281108298
0.010184132 -0.023608081 -0.017278511 4281239369
0.012313858 -0.024240889 -0.016990155 4281435464
0.014448989 -0.024873272 -0.016702715 4281435719
0.017095588 -0.027773194 -0.014418002 4281566789
0.020449171 -0.033695124 -0.0094749937 4281761863
-0.012757793 -0.031253971 -0.0098640556 4283000909
-0.011431593 -0.027328216 -0.01360549 4282283848
-0.0098646358 -0.024924807 -0.015999235 4281304138
-0.0079044923 -0.024802946 -0.016377762 4281369673
-0.0058051758 -0.025441006 -0.016086049 4281174088
-0.0039838925 -0.02455882 -0.017134588 4281174854
-0.0020234659 -0.024436548 -0.017512873 4281240133
-6.2957406e-05 -0.024314143 -0.017891087 4281370184
0.0021971948 -0.025710367 -0.016933016 4281305159
0.0041632056 -0.025587387 -0.017312109 4281173323
0.0061292797 -0.025464259 -0.017691117 4281369164
0.0080954097 -0.025340982 -0.018070016 4281238094
0.010222077 -0.025976323 -0.017782822 4281368654
0.012354169 -0.026611194 -0.017496508 4281500489
0.014657486 -0.028003953 -0.016546182 4281826888
0.017140094 -0.030154176 -0.014933307 4282088008
0.020323636 -0.035335384 -0.010667541 4282218059
-0.011552554 -0.028939433 -0.014777485 4281889873
-0.0098517202 -0.02729205 -0.016496819 4281303119
-0.0078890435 -0.027170047 -0.016875841 4281237328
-0.0059262626 -0.027047895 -0.017254785 4281498958
-0.0041049719 -0.026163511 -0.018301688 4281432913
-0.0021446943 -0.026041269 -0.018679962 4281367123
-0.00018434972 -0.025918894 -0.019058153 4281301589
0.0020753108 -0.027319528 -0.018103257 4281955408
0.0040411614 -0.027196549 -0.018482309 4282085459
0.006007079 -0.027073421 -0.018861275 4281758039
0.0079730488 -0.026950173 -0.019240163 4281692503
0.010259729 -0.028348662 -0.018290054 4281823064
0.01255716 -0.029746279 -0.01734193 4281822808
0.014699664 -0.030382521 -0.017059203 4282083419
-0.011673477 -0.030550353 -0.015949264 4281757784
-0.0097056963 -0.030428164 -0.016329367 4282150739
-0.0080099292 -0.028776616 -0.018044386 4282280789
-0.0061860606 -0.027890049 -0.019090284 4282280024
0.023953913 -0.04000137 -0.015014702 4282209133
-0.024185359 -0.036171712 -0.01968326 4282863463
-0.036157355 0.0055553541 0.03587576 4285097774
-0.034736529 0.0098873451 0.031144394 4285623328
-0.032541201 0.0086079538 0.03220515 4285820444
-0.029817514 0.0038243085 0.036877371 4285820188
-0.025454246 0.0019717291 0.038261771 4285426724
-0.023650587 0.0034981817 0.036427602 4285427233
-0.022314273 0.0078254491 0.031713031 4285493024
-0.021009974 0.012150824 0.027004706 4285493023
-0.019498527 0.015074313 0.023741832 4285885978
-0.017397098 0.014497302 0.024078546 4285885979
-0.014790408 0.011121973 0.027288524 4285951513
-0.011518661 0.0042508319 0.034083597 4285885978
-0.03921552 0.010818385 0.027830822 4285295908
-0.037709482 0.014459036 0.023833809 4285493023
-0.036034077 0.016690999 0.021286307 4285689373
-0.034072638 0.016811959 0.0209068 4285623584
-0.031594373 0.013416946 0.024132853 4285886489
-0.0291951 0.01072672 0.026633171 4285820699
-0.027208909 0.010849476 0.026249072 4285493278
-0.025556609 0.01308053 0.023706337 4285559069
-0.023806185 0.014608093 0.021885814 4285558813
-0.022299714 0.017539889 0.018630343 4285689629
-0.020575732 0.019066043 0.016815031 4285623584
-0.018496044 0.018485464 0.017154286 4285557794
-0.016036533 0.015799619 0.019643435 4285623839
-0.013300493 0.011711769 0.023561409 4285623838
-0.0093609244 0.0013120472 0.033916496 4285558558
-0.040260993 0.01624947 0.019429291 4285558813
-0.038590796 0.018487558 0.0168876 4285624348
-0.036740854 0.019313332 0.015790073 4285623583
-0.034695119 0.01872763 0.016133713 4285557794
-0.03233435 0.016026184 0.018634802 4285689118
-0.030057773 0.014031358 0.020412831 4285886999
-0.027981952 0.013447829 0.020750819 4285689884
-0.026234165 0.014979474 0.018933972 4285624349
-0.02461078 0.017215364 0.016401781 4285689884
-0.023003303 0.019450318 0.013872774 4285952788
-0.021054044 0.019571122 0.013496066 4285886744
-0.019104585 0.019692052 0.013119401 4285755419
-0.016656592 0.016996749 0.015604177 4285755674
-0.014186971 0.014302842 0.018084897 4285821208
-0.010396078 0.0045727938 0.027704751 4285689884
-0.04074946 0.017475188 0.015379837 4285558558
-0.03908959 0.019719187 0.012845024 4285755928
-0.0371527 0.019838449 0.012470128 4285886999
-0.035115272 0.019250061 0.012813682 4285821464
-0.032866299 0.01724682 0.014592042 4285887508
-0.030601054 0.01524473 0.016367299 4285755929
-0.028536223 0.014658295 0.01670575 4285558558
-0.026798949 0.016193643 0.014894186 4285624348
-0.025072202 0.017728433 0.013084719 4285624349
-0.023356006 0.019262712 0.011277333 4285689884
-0.021412216 0.019383159 0.010901667 4285821208
-0.019468255 0.019503701 0.010526035 4285755673
-0.017150827 0.017505452 0.012291729 4285755674
-0.014690042 0.014802203 0.014767596 4285558303
-0.010909639 0.0050407797 0.024366574 4285558558
-0.041052327 0.017297797 0.012780152 4285493023
-0.039207868 0.018127389 0.011686865 4285493278
-0.037271068 0.018246628 0.011311969 4285690139
-0.035334073 0.018365957 0.010937097 4285755419
-0.033191219 0.017065756 0.011994837 4285624349
-0.031037435 0.015766285 0.013050577 4285558558
-0.028980941 0.015177108 0.013388982 4285624349
-0.027029738 0.015297689 0.013011644 4285624349
-0.025305472 0.016836725 0.011205861 4285624349
-0.023707986 0.019084137 0.0086885318 4285558559
-0.021769673 0.019204199 0.0083138943 4285623839
-0.019831195 0.019324392 0.0079393089 4285623838
-0.01751975 0.01731921 0.0097011961 4285558558
-0.015065111 0.014606774 0.012171691 4285558558
-0.011422154 0.0055223033 0.021038165 4285559069
-0.0063861459 -0.010637678 0.036997244 4285493279
-0.040894724 0.013566084 0.013770944 4285427744
-0.039326049 0.016535901 0.010528909 4285493534
-0.037389375 0.016655073 0.010154 4285624094
-0.035752445 0.018910952 0.0076334532 4285624094
-0.033515401 0.016893752 0.0094042737 4285624094
-0.031472787 0.016301394 0.0097436253 4285624094
-0.029208556 0.014286056 0.011509329 4285624094
-0.027260162 0.01440642 0.011132501 4285559068
-0.02542498 0.015238307 0.010043062 4285559068
-0.023711041 0.016781107 0.0082426332 4285624348
-0.022126421 0.019034404 0.0057327021 4285624093
-0.020193428 0.019154217 0.0053591505 4285820954
-0.01788795 0.017142028 0.0071173087 4285755419
-0.015439451 0.01442042 0.0095824413 4285624093
-0.012063079 0.0067277104 0.01701008 4285624093
-0.0075703561 -0.0066428185 0.030098392 4285493279
-0.041013382 0.011966094 0.012606775 4285361698
-0.039444171 0.014944665 0.0093711317 4285559323
-0.037604749 0.015778355 0.0082820971 4285755674
-0.036069945 0.018754996 0.0050532594 4286018324
-0.034043871 0.018159293 0.0053940807 4286018324
-0.031696707 0.01542183 0.0078716576 4285886743
-0.029435769 0.013399728 0.0096330307 4285624349
-0.027600728 0.014233604 0.0085451808 4285624604
-0.025997296 0.016494386 0.0060363859 4285624604
-0.024293877 0.018040918 0.0042411909 4285624348
-0.022719592 0.020300135 0.0017381385 4285821463
-0.020676188 0.019706137 0.0020761602 4285952534
-0.01837939 0.017686851 0.0038310383 4285952534
-0.015813097 0.014243171 0.0069997422 4285952279
-0.012831949 0.0086635575 0.012287084 4285689883
-0.0088838488 -0.0019000545 0.022517966 4285624093
-0.0045858175 -0.013883047 0.034147151 4285493024
-0.041223586 0.011083506 0.010729183 4285296164
-0.039845124 0.015504502 0.0060743801 4285624604
-0.038110666 0.017056569 0.0042759534 4285821209
-0.036386736 0.018608153 0.0024796035 4285623583
-0.034263961 0.017293423 0.0035314001 4285886489
-0.032025263 0.015263252 0.0052920729 4285886744
-0.029877998 0.013950206 0.0063392632 4285755419
-0.028050944 0.014785759 0.0052545741 4285624349
-0.026342131 0.016336888 0.0034615137 4285624349
-0.024643861 0.017887421 0.001670599 4285755673
-0.022956163 0.019437432 -0.00011824071 4285689629
-0.021036819 0.019556336 -0.00048919767 4285558048
-0.018869773 0.018245123 0.00055461004 4285623584
-0.016438931 0.015504844 0.0030100569 4285689628
-0.013599098 0.010621719 0.0075803176 4285624348
-0.010062467 0.0021679923 0.015672402 4285558814
-0.0060578659 -0.0084248856 0.025867945 4285493024
-0.041890711 0.013801984 0.0052951928 4285230118
-0.040433303 0.017516039 0.0013645366 4285690393
-0.038712025 0.01907165 -0.0004280936 4285689629
-0.036702789 0.018470362 -8.7399036e-05 4285557794
-0.034585826 0.017150909 0.00096218847 4285623584
-0.032248244 0.014395259 0.0034285039 4285755164
-0.030319169 0.01451423 0.0030552633 4285755418
-0.028500117 0.015351452 0.001973737 4285624349
-0.026799135 0.016906455 0.00018543378 4285558558
-0.025224276 0.019178629 -0.0023080204 4285821719
-0.023428828 0.020014688 -0.0033847596 4285886999
-0.021517657 0.020133056 -0.0037541641 4285755419
-0.019235507 0.018099651 -0.0020062961 4285689373
-0.016937122 0.016067326 -0.00026144646 4285755674
-0.014235578 0.011885226 0.0035944674 4285755673
-0.010711797 0.0034044012 0.011669429 4285624093
-0.0071235448 -0.0050722659 0.019731978 4285360423
-0.042190589 0.013661213 0.0027220901 4285098283
-0.040925801 0.018828548 -0.0026192628 4285625368
-0.039118394 0.019666702 -0.0036973022 4285887509
-0.037117466 0.019062687 -0.0033566523 4285821463
-0.034906976 0.017017417 -0.0016003959 4285887508
-0.032784909 0.015693955 -0.00055501796 4285821718
-0.030759297 0.015091747 -0.00021893159 4285624348
-0.02894824 0.01593063 -0.0012973007 4285624349
-0.027029641 0.016049124 -0.0016683899 4285624348
-0.025457092 0.018327706 -0.0041565225 4285558813
-0.023546197 0.018445939 -0.0045259567 4285756183
-0.021755926 0.019283965 -0.0056000613 4285821463
-0.019600525 0.017963223 -0.0045605628 4285756183
-0.017434239 0.016643301 -0.0035231356 4285690393
-0.014870673 0.013166644 -0.00037836097 4285624604
-0.011622712 0.0060967356 0.0062742475 4285558813
-0.0077843219 -0.003845118 0.015724922 4285492514
0.0058655515 0.0079155192 0.0021723472 4286016029
-0.042580925 0.014253214 -0.0005532261 4284966704
-0.041229315 0.018711857 -0.0051735397 4285493533
-0.039523706 0.020275235 -0.0069567095 4285558559
-0.037431933 0.018945254 -0.0059088618 4285493024
-0.035329245 0.017616093 -0.0048630908 4285558559
-0.033215664 0.01628764 -0.0038193278 4285493023
-0.031198375 0.015682705 -0.0034832787 4285493023
-0.029285446 0.015800722 -0.0038533658 4285558814
-0.027484879 0.016641207 -0.0049280254 4285558814
-0.025689535 0.017481528 -0.0060016448 4285493023
-0.023781441 0.01759956 -0.0063705631 4285493023
-0.021752603 0.01699578 -0.0060363403 4285492769
-0.019594975 0.015670814 -0.0050005997 4285492769
-0.017426483 0.014346629 -0.0039668791 4285492769
-0.015118472 0.01230181 -0.0022336394 4285558558
-0.011874989 0.0052097142 0.0044035073 4285558814
-0.0083097294 -0.0033210292 0.012431329 4285426979
-0.0053634495 -0.0082432702 0.016946947 4285425448
-0.041344829 0.017152816 -0.0063079465 4285427744
-0.039446339 0.017269425 -0.0066756234 4285558814
-0.037349664 0.015935384 -0.0056320578 4285493279
-0.035242066 0.014602073 -0.0045904797 4285493278
-0.033227935 0.013994604 -0.004255563 4285559069
-0.031101234 0.012662701 -0.0032175854 4285624860
-0.02918306 0.012781024 -0.0035887025 4285493023
-0.027377106 0.013623998 -0.0046627969 4285493023
-0.025576361 0.014466755 -0.0057358118 4285558814
-0.023545273 0.013860866 -0.0054037785 4285558813
-0.021508694 0.013255402 -0.0050727446 4285558558
-0.019466601 0.012650393 -0.0047426969 4285624348
-0.017293207 0.011322059 -0.0037131654 4285624349
-0.015237413 0.010718115 -0.0033856006 4285623838
-0.01225803 0.0050507709 0.0018367767 4285623839
-0.0088341087 -0.002783455 0.0091475453 4285557539
-0.041179806 0.013410352 -0.0053270143 4285427743
-0.039177246 0.012799636 -0.0049916785 4285558558
-0.037169144 0.012189373 -0.0046574017 4285558049
-0.035155483 0.011579581 -0.0043241112 4285492258
-0.033032097 0.010242954 -0.0032888586 4285558303
-0.031004667 0.0096341595 -0.0029580453 4285624094
-0.029190816 0.010479733 -0.0040321695 4285624349
-0.027382158 0.011325046 -0.0051051779 4285690394
-0.025463775 0.01144354 -0.0054762056 4285624348
-0.023427635 0.010835744 -0.0051468099 4285624348
-0.021265708 0.0095020905 -0.0041185012 4285624349
-0.019092917 0.0081692487 -0.0030922564 4285624348
-0.01716052 0.0082890466 -0.003465672 4285492513
-0.015099674 0.0076831654 -0.0031406926 4285558049
-0.012247384 0.0027241707 0.0013700332 4285623584
-0.0090900846 -0.0036832616 0.0072681587 4285688864
-0.0058844164 -0.010087572 0.013157019 4286211614
-0.041015707 0.0096549243 -0.0043554557 4285427233
-0.038909405 0.0083125532 -0.003320395 4285492768
-0.036890864 0.0077006891 -0.002989742 4285624094
-0.034866795 0.0070893019 -0.0026601236 4285623839
-0.03283716 0.0064783692 -0.0023315065 4285624094
-0.030802011 0.0058678612 -0.0020038895 4285624094
-0.028870687 0.0059869364 -0.0023775976 4285689628
-0.027163342 0.0075640306 -0.0041508796 4285624348
-0.025237054 0.007682994 -0.0045234608 4285689884
-0.023075745 0.0063448325 -0.0034984285 4285624349
-0.021023661 0.0057358667 -0.0031736465 4285558303
-0.018966079 0.0051273927 -0.0028498871 4285558303
-0.017153934 0.0059756115 -0.0039215581 4285492768
-0.015090711 0.0053677037 -0.0035987282 4285623584
-0.012367845 0.0011212602 0.00020411797 4285492513
-0.0093456879 -0.0045783818 0.0053921733 4285492004
-0.040759362 0.0051542893 -0.0026914533 4285427489
-0.038738631 0.004540287 -0.0023629833 4285492768
-0.036712363 0.0039267093 -0.0020355321 4285557793
-0.034984104 0.0055090263 -0.0038099336 4285492513
-0.032850906 0.004164204 -0.0027831374 4285492513
-0.030813351 0.0035515949 -0.0024575889 4285492513
-0.028879479 0.0036707968 -0.0028318083 4285492768
-0.027169272 0.0052524507 -0.0046024555 4285558304
-0.025125846 0.0046405643 -0.0042778486 4285558304
-0.022959642 0.0032982752 -0.0032569924 4285558304
-0.0209025 0.0026874393 -0.0029348964 4285492514
-0.018962488 0.002807565 -0.003309899 4285492514
-0.017147623 0.0036581084 -0.0043804804 4285492514
-0.015082031 0.0030481443 -0.0040597497 4285361443
-0.012488276 -0.00048135966 -0.00096159615 4285492514
-0.0096009038 -0.0054687783 0.003519617 4285425959
-0.040690258 0.0021054298 -0.0024405513 4285493023
-0.038855806 0.002958186 -0.0035141809 4285558814
-0.036731467 0.0016081557 -0.0024890769 4285492768
-0.034899309 0.0024610385 -0.0035621347 4285558049
-0.032761209 0.0011120662 -0.0025395434 4285492514
-0.030824967 0.0012312755 -0.0029143151 4285492514
-0.028779507 0.00061708689 -0.002591921 4285492768
-0.026951991 0.0014700517 -0.0036637317 4285492768
-0.025015235 0.0015896186 -0.0040383609 4285492769
-0.02272705 -0.00048975646 -0.0023262091 4285492768
-0.020781942 -0.00036945194 -0.0027022995 4285492514
-0.018836699 -0.00024904311 -0.0030783396 4285492514
-0.017141595 0.0013365373 -0.0048423745 4285492513
-0.01507362 0.00072450191 -0.0045237504 4285492259
-0.012739159 -0.0013514906 -0.0028200839 4285492259
-0.040528893 -0.001688689 -0.0014971793 4285426468
-0.038781881 -9.6745789e-05 -0.0032688901 4285492514
-0.036750831 -0.00071444362 -0.0029456485 4285492513
-0.034815103 -0.00059550256 -0.0033205058 4285492514
-0.032568552 -0.0026845708 -0.0016056094 4285492769
-0.030624427 -0.0025649071 -0.0019819383 4285493024
-0.028680116 -0.0024451092 -0.0023582093 4285492513
-0.026847221 -0.0015896633 -0.003429465 4285492513
-0.024905242 -0.0014697984 -0.0038051289 4285558049
-0.02272924 -0.0028202906 -0.0027927365 4285557793
-0.020661995 -0.0034348965 -0.0024758633 4285623328
-0.018833824 -0.0025792941 -0.003545871 4285689118
-0.01676093 -0.0031933486 -0.0032299291 4285558558
-0.01493784 -0.0023378357 -0.0042987894 4285558049
-0.012728982 -0.0036856756 -0.0032923613 4285623074
-0.040275782 -0.0062345937 0.00013387017 4285295144
-0.03832718 -0.0061150789 -0.00024365075 4285427234
-0.036280349 -0.0067340508 7.4867159e-05 4285493025
-0.03422799 -0.0073525384 0.00039240718 4285427234
-0.031963326 -0.0094471201 0.002098931 4285361444
-0.030000567 -0.0093263313 0.0017189849 4285361444
-0.028146371 -0.0084675178 0.00064514764 4285361188
-0.026408799 -0.0068711117 -0.0011210609 4285426723
-0.024567679 -0.0060128868 -0.0021922104 4285623329
-0.022498198 -0.0066296756 -0.0018774997 4285623074
-0.020542666 -0.00650879 -0.0022556465 4285557283
-0.018464856 -0.0071248412 -0.0019423775 4285492004
-0.016506352 -0.0070035309 -0.0023209285 4285557539
-0.014675193 -0.0061453506 -0.0033897199 4285687844
0.0143409 -0.0028429404 -0.010416118 4284903208
0.016292814 -0.0027200207 -0.010791885 4284968234
0.018763928 -0.0047986731 -0.0091229919 4285033514
0.020723933 -0.0046750009 -0.0095001366 4285229608
0.023397639 -0.0074854791 -0.0071551781 4285360933
0.025187291 -0.0066274926 -0.008214185 4285295653
0.027339142 -0.0072361529 -0.0079131331 4285296163
0.028936956 -0.005645223 -0.0096498784 4285361698
0.031280614 -0.0069863647 -0.0086707342 4285427234
0.03344316 -0.0075940266 -0.0083714332 4285361444
0.037750609 -0.016259223 -0.00062161684 4285361189
0.043108337 -0.028582133 0.010500453 4285163564
0.0068825111 -0.0071441233 -0.0080262069 4285295654
0.0088421479 -0.0070211962 -0.0084038209 4285360933
0.011126172 -0.0083717331 -0.0074173305 4285361189
0.012761571 -0.0067749992 -0.0091588255 4285295653
0.014888883 -0.0073881894 -0.0088551957 4285295908
0.016681157 -0.0065282956 -0.0099134836 4285361444
0.01898678 -0.0078769997 -0.0089308005 4285426978
0.020951997 -0.0077529922 -0.0093089361 4285361189
0.023273729 -0.0091003701 -0.0083292034 4285426979
0.025063403 -0.0082402006 -0.0093865823 4285361443
0.027398553 -0.0095865354 -0.0084092049 4285361444
0.029185526 -0.0087262467 -0.0094659198 4285295908
0.031534065 -0.010071479 -0.0084909229 4285361443
0.033701643 -0.010680966 -0.0081942594 4285426979
0.037817933 -0.018637456 -0.0011404157 4285361189
0.042781267 -0.029528417 0.0086034425 4285163819
0.0070737824 -0.01022847 -0.0078309355 4285360933
0.0090386309 -0.01010523 -0.0082095629 4285426723
0.011165529 -0.010720827 -0.0079077063 4285426723
0.012968481 -0.0098583773 -0.0089665717 4285361444
0.015100826 -0.010473385 -0.0086655868 4285426979
0.016898487 -0.009611018 -0.0097232452 4285492768
0.019036256 -0.010225452 -0.0094231246 4285492513
0.021004003 -0.010101281 -0.0098017557 4285426978
0.022971764 -0.0099770054 -0.010180301 4285426978
0.024939533 -0.0098525807 -0.010558753 4285426979
0.027274199 -0.011203326 -0.009584534 4285361443
0.029247325 -0.011078335 -0.0099638356 4285361443
0.031409241 -0.011690482 -0.0096677979 4285361443
0.03376798 -0.013039283 -0.0086979745 4285427234
0.038079113 -0.021756731 -0.00098792464 4285426979
0.0426514 -0.031206749 0.0073835626 4285098029
0.0069514811 -0.01183822 -0.0090015149 4285492003
0.0089161731 -0.011715002 -0.0093801199 4285426468
0.011042751 -0.012332834 -0.009079854 4285492259
0.013174735 -0.012950175 -0.0087805195 4285492513
0.015144933 -0.012826242 -0.0091599068 4285492768
0.017115165 -0.012702174 -0.0095392084 4285558304
0.019085422 -0.012577973 -0.0099184131 4285558304
0.021055698 -0.012453668 -0.01029754 4285427233
0.02302599 -0.012329213 -0.010676562 4285427233
0.025176886 -0.012944676 -0.010380286 4285427233
0.027149867 -0.012819812 -0.010759647 4285361444
0.029494748 -0.014174096 -0.0097905947 4285361444
0.031661704 -0.014788121 -0.009497161 4285361443
0.034407955 -0.017619617 -0.0071852347 4285361189
0.038145624 -0.024145313 -0.0015142336 4285295144
0.0068292022 -0.013447694 -0.010171889 4285426469
0.0087937452 -0.013324484 -0.010550468 4285492513
0.010758348 -0.013201147 -0.010928961 4285492514
0.012722988 -0.013077699 -0.011307376 4285492513
0.014687669 -0.012954108 -0.011685706 4285492513
0.01699179 -0.014316104 -0.010712641 4285493025
0.019134287 -0.014934652 -0.010416648 4285427233
0.020932015 -0.014067613 -0.011470909 4285427233
0.023079906 -0.014685564 -0.011175769 4285427233
0.025233157 -0.015303001 -0.010881594 4285427233
0.027574867 -0.016661987 -0.0099152876 4285426978
0.02992731 -0.01802022 -0.008950918 4285361699
0.031913519 -0.017894275 -0.0093326373 4285295909
0.034473144 -0.019992664 -0.007699661 4285360934
0.038017984 -0.025796644 -0.0027145259 4285163564
0.0068630986 -0.015802719 -0.010665382 4285294634
0.0088301636 -0.015679367 -0.011044464 4285295909
0.011120286 -0.017047025 -0.010072193 4285361954
0.012928631 -0.016177647 -0.011127259 4285230118
0.014731664 -0.015308522 -0.012181169 4285295653
0.017037988 -0.016674787 -0.011211733 4285164583
0.01952726 -0.018785097 -0.0095707877 4285099304
0.02168284 -0.019404843 -0.0092788963 4285099049
0.023843814 -0.020024143 -0.0089878812 4285229354
0.026010141 -0.020642959 -0.0086978711 4285229099
0.028547712 -0.022749729 -0.0070657842 4285032748
0.0067407154 -0.017413743 -0.011836901 4285032494
0.0088662803 -0.01803834 -0.01154143 4285033769
0.010997262 -0.018662483 -0.011246849 4285034023
0.012969639 -0.018538557 -0.011626769 4285099814
0.014942054 -0.018414482 -0.012006581 4284968489
