# .PCD v0.7 - Point Cloud Data file format
VERSION 0.7
FIELDS x y z rgba
SIZE 4 4 4 4
TYPE F F F U
COUNT 1 1 1 1
WIDTH 676
HEIGHT 1
VIEWPOINT 0 0 0 1 0 0 0
POINTS 676
DATA ascii
0.034786075 -0.012576737 0.042783052 4286920004
0.009889394 -0.00032360852 0.030440122 4288425014
0.012617081 -0.0029918179 0.032837149 4291368989
0.01536623 -0.0056584403 0.035229675 4289930533
0.017786548 -0.00692036 0.03620242 4289603624
0.019506417 -0.0053759962 0.034344725 4288622383
0.021576613 -0.0052345917 0.033902355 4289080364
0.023280578 -0.0036910847 0.032048237 4289670689
0.024788085 -0.0014473274 0.029491089 4289277733
0.026656594 -0.00060584396 0.02834703 4290324254
0.029284434 -0.0025664046 0.030020975 4290389534
0.032703683 -0.0073268786 0.034506172 4290454049
0.036356859 -0.012784757 0.039686531 4290191398
0.0048463121 0.0012177974 0.026565921 4289277479
0.0065526068 0.0027650669 0.024713922 4289146663
0.0080813691 0.005016081 0.022156466 4290258464
0.010611881 0.0030412674 0.02384574 4289669669
0.012986213 0.001771681 0.024825007 4290127904
0.01554627 -0.00020089 0.026508123 4289735459
0.017589554 -6.1444938e-05 0.026071418 4289473574
0.019452605 0.0007815063 0.02492987 4289473318
0.021127397 0.002327472 0.023085151 4289538853
0.022791572 0.0038727894 0.021242827 4290258463
0.024821717 0.0040118024 0.02080927 4289473574
0.027615815 0.001340203 0.023186326 4289146664
0.030624963 -0.0020322949 0.026260957 4289603878
0.034446143 -0.0082120746 0.032135963 4289210923
0.038514405 -0.015090577 0.038701694 4288491059
0.0037404075 0.0037671849 0.02112399 4289474849
0.0052668042 0.0060245395 0.018571775 4289800993
0.0069440491 0.0075743496 0.016729288 4289211943
0.009288419 0.0062981695 0.017711639 4289016104
0.011987761 0.0036104247 0.020101894 4289343270
0.014359012 0.0023362562 0.021078706 4289866529
0.016386129 0.0024745837 0.020645443 4289539620
0.018053077 0.0040243268 0.018805541 4289539620
0.019892193 0.004867956 0.017670795 4289866528
0.021540549 0.0064166337 0.015835021 4290847768
0.023742661 0.005849421 0.016106572 4290062623
0.02614093 0.0045778304 0.017078064 4289211943
0.02913033 0.0011929348 0.020148873 4290258463
0.032734886 -0.0043036193 0.025313828 4290388769
0.037376247 -0.013318844 0.033966519 4289864999
0.04148262 -0.020216674 0.040508114 4289602859
0.0032816641 0.0035070628 0.018524181 4289934359
0.0049670339 0.0050617158 0.016683072 4290325273
0.0064752474 0.0073245466 0.01413966 4290193438
0.0086445361 0.0067520514 0.014416009 4289931808
0.011335 0.0040549412 0.016801693 4290520604
0.013697736 0.0027757585 0.017777089 4290520604
0.015716702 0.0029135197 0.017345566 4289604899
0.017195921 0.0051749498 0.014808759 4289735714
0.019024394 0.0060200691 0.013677895 4289735969
0.020662304 0.007572405 0.011847623 4290062879
0.022853397 0.0070022419 0.012119856 4290520604
0.025240477 0.0057254732 0.013090521 4290258463
0.028218139 0.0023287386 0.016155776 4290454814
0.03181041 -0.0031863227 0.021310471 4289931044
0.036239944 -0.011524595 0.029247284 4289210924
0.040733572 -0.019858316 0.037170444 4289211689
0.0026626401 0.0039674342 0.015226733 4289935379
0.0043402165 0.0055259913 0.013390463 4289801248
0.0060072243 0.0070839077 0.011556581 4289277734
0.0081708431 0.006508857 0.011832491 4289408549
0.010855108 0.0038024262 0.014213078 4289997344
0.013211992 0.0025184602 0.015186463 4289539108
0.01522547 0.002655834 0.014756098 4289670178
0.016699769 0.0049235076 0.012225214 4289539364
0.018705357 0.0050605685 0.011796709 4289539618
0.020525903 0.005907461 0.010669228 4289800993
0.022528917 0.0060445964 0.010241441 4289604643
0.024722394 0.0054725036 0.010511648 4289342759
0.027693657 0.0020642877 0.013570208 4289473574
0.031278979 -0.0034689009 0.018713515 4289473574
0.035502374 -0.011125393 0.025936384 4289539108
0.039784536 -0.018777691 0.033146817 4288883759
0.043310314 -0.023592211 0.037564542 4288294454
0.0025273748 0.002300784 0.014046788 4290002954
0.0043687299 0.0031503364 0.01291576 4290063134
0.0058723986 0.005426079 0.010382954 4289539618
0.0080356933 0.0048487782 0.01065731 4289473574
0.01037598 0.0035590976 0.011630967 4289538853
0.012901243 0.0015576631 0.013302129 4289408038
0.014911912 0.0016948432 0.012872368 4289277479
0.016383938 0.003968969 0.010346796 4289735714
0.018386714 0.0041058287 0.009918876 4289408549
0.020204622 0.0049547851 0.0087935254 4289670178
0.022204816 0.0050917119 0.0083663352 4289473828
0.02458556 0.0038056225 0.0093319491 4289800739
0.027362846 0.0010976642 0.011686917 4289866019
0.030748291 -0.0037422553 0.016123012 4289539109
0.034765929 -0.010712534 0.022635154 4289211433
0.039037928 -0.018389858 0.02983008 4288752944
0.042757854 -0.023931056 0.034932006 4289210413
0.0037434325 0.0036330074 0.0096361563 4289932319
0.0054055415 0.0051993877 0.0078097396 4289801504
0.0075631738 0.0046194792 0.0080836881 4290913304
0.0098976083 0.0033250153 0.0090553239 4290847259
0.012242813 0.0020313635 0.010024786 4290716444
0.014245324 0.0021679774 0.0095967576 4289669668
0.0160685 0.0030192211 0.0084716864 4289800738
0.018068459 0.003155902 0.008044377 4289539108
0.019883744 0.0040068328 0.0069212299 4289866274
0.021881122 0.0041435659 0.0064946413 4289604389
0.023688475 0.0049941912 0.0053733625 4290650908
0.02645421 0.002276592 0.0077243447 4290650908
0.029632142 -0.0018662065 0.011458125 4290585373
0.034030616 -0.01028607 0.019343607 4290716188
0.038091689 -0.017275296 0.02583047 4289866019
0.042002745 -0.023547888 0.03161411 4289014318
0.0031192638 0.0041292757 0.0063661747 4289802268
0.0047735795 0.0056995228 0.0045446306 4289998110
0.0069228858 0.0051168501 0.0048187524 4290062623
0.0092488192 0.0038173422 0.0057890229 4289604389
0.011585489 0.0025187135 0.0067570265 4290585629
0.013579845 0.0026547611 0.0063307378 4289931554
0.015574262 0.0027909204 0.0059045143 4290062369
0.017568737 0.002927199 0.005478356 4289735204
0.019194175 0.0044963211 0.0036636051 4289996834
0.020996172 0.0053487048 0.0025449451 4290323999
0.022982765 0.005484812 0.0021207444 4289277223
0.025354505 0.0041894019 0.0030819364 4288688684
0.02851784 3.2350421e-05 0.0068091676 4289473829
0.032504834 -0.0069841444 0.013295662 4289735204
0.037146933 -0.016142659 0.021843649 4289212198
0.04124875 -0.023151033 0.028305825 4289277989
0.0023332201 0.0053592101 0.0024084933 4290326804
0.0038113967 0.0076529831 -0.00010436401 4290194204
0.0061153769 0.0063474923 0.00086724758 4289474084
0.0082590953 0.0057623088 0.0011410099 4288884778
0.010755606 0.0037389994 0.002803877 4289538853
0.012739137 0.0038743019 0.0023798868 4290323999
0.014722731 0.0040096939 0.0019559562 4289735204
0.016706381 0.0041452497 0.0015321281 4289866019
0.018690076 0.0042809099 0.0011083595 4289473318
0.020486787 0.0051350892 -7.5250864e-06 4290847259
0.022088476 0.006707266 -0.0018138625 4289473573
0.02425665 0.0061246827 -0.0015445724 4289081128
0.027405398 0.001953423 0.0021761376 4289408294
0.031377062 -0.0050861984 0.0086498111 4289800738
0.035802901 -0.013557002 0.016490921 4289800229
0.040292822 -0.022023238 0.024318419 4288557869
0.043612473 -0.026182301 0.028003063 4287510329
-9.5319003e-05 0.0050289407 0.00027664751 4290462209
0.0017114878 0.0058849156 -0.0008405894 4289672218
0.0030165538 0.0089068934 -0.0040422343 4290587158
0.0051411837 0.0083180815 -0.0037660897 4289932064
0.007442072 0.0070080161 -0.0027969144 4289408549
0.010274228 0.0035342723 0.00025050901 4290454814
0.012252271 0.00366918 -0.00017231703 4289931298
0.014230382 0.0038042217 -0.00059506297 4289669668
0.016027018 0.0046603829 -0.0017095618 4289866018
0.018002566 0.0047954842 -0.0021315813 4289735204
0.019791294 0.0056513175 -0.0032441542 4289866019
0.021385195 0.0072273165 -0.0050455816 4289408038
0.023737215 0.0059217811 -0.0040866546 4289408038
0.02648966 0.0031769127 -0.0017520618 4289669923
0.030053612 -0.0024458617 0.0033315383 4289277224
0.034260884 -0.010224655 0.010469452 4288949549
0.039135508 -0.020157859 0.019656584 4288752944
0.043057177 -0.026489131 0.02539463 4286659903
0.0010908656 0.006424278 -0.0040800758 4290391829
0.0025538206 0.00873027 -0.006580092 4290128159
0.0046727955 0.0081388205 -0.0063043106 4289343013
0.0069678351 0.0068239942 -0.0053371377 4289343013
0.0094469488 0.0047862306 -0.0036802366 4289800739
0.011590168 0.0041968375 -0.0034094118 4289604389
0.013560113 0.0043313056 -0.0038304236 4290062114
0.015348792 0.0051891059 -0.0049415566 4289669925
0.017316177 0.0053236261 -0.0053618513 4289408038
0.0192836 0.0054582953 -0.0057820529 4289473318
0.021061726 0.0063157231 -0.0068906657 4288950313
0.023602568 0.0042830855 -0.0052463636 4288884523
0.026159456 0.00225164 -0.0036053564 4289146409
0.02932442 -0.0019448772 9.2661008e-05 4289211434
0.033321504 -0.0090267137 0.0065288413 4288883758
0.038182743 -0.018991694 0.015696339 4288163893
0.042297296 -0.026065245 0.022107691 4287771448
0.00063384324 0.0062505305 -0.006617263 4289214239
0.0025872663 0.00638327 -0.0070351865 4289277478
0.0047085769 0.005789794 -0.0067615621 4289212454
0.0068353042 0.0051968396 -0.0064889938 4289277478
0.0091405958 0.003878355 -0.0055271201 4289408038
0.011280805 0.0032865405 -0.005257275 4289211944
0.013426419 0.0026952326 -0.0049884841 4289342503
0.015215129 0.0035552084 -0.0060980283 4289277224
0.016998548 0.0044149607 -0.0072063431 4288950313
0.018963158 0.0045494214 -0.0076259524 4288884523
0.020927794 0.0046840087 -0.0080454797 4288950314
0.023659766 0.0019200295 -0.0057195015 4288819499
0.026024135 0.00060659647 -0.0047695227 4288949803
0.028793529 -0.0021546036 -0.0024513025 4288556849
0.032783292 -0.0092590004 0.0039703567 4288491313
0.037433974 -0.018531442 0.012432992 4288098869
0.041538522 -0.025627673 0.018830348 4287771449
0.0008267276 0.0031704009 -0.0063837115 4288691744
0.0029502884 0.0025747344 -0.006112285 4288492588
0.0049116611 0.0027081221 -0.0065318272 4288558378
0.0070434101 0.0021132454 -0.0062619001 4288885289
0.0091805533 0.0015188754 -0.0059931073 4289408549
0.011323106 0.00092502683 -0.0057253651 4289146663
0.01329276 0.0010594577 -0.0061463192 4288753708
0.015262462 0.00119403 -0.0065671988 4288819244
0.017232221 0.0013287067 -0.0069880038 4289081129
0.019388322 0.00073626637 -0.0067227967 4288754219
0.021360822 0.00087140501 -0.0071439892 4288688683
0.023524996 0.00027976185 -0.0068803318 4288753708
0.026083156 -0.0017648339 -0.0052492414 4288819244
0.028854335 -0.0045347288 -0.002937844 4288622639
0.032844797 -0.011661112 0.0034675989 4288360499
0.037293289 -0.020236053 0.011226792 4287771448
0.04098586 -0.025902472 0.01624459 4286920768
0.0011810511 -0.00064943731 -0.0054666921 4288560674
0.0031475201 -0.0005158633 -0.0058874339 4288886309
0.0051140711 -0.00038214028 -0.0063080993 4288558378
0.007080704 -0.00024829805 -0.0067286938 4288819753
0.0093929693 -0.0015750825 -0.0057747904 4289016104
0.011365078 -0.0014406219 -0.0061963759 4288754474
0.013515364 -0.00203605 -0.0059318151 4288884779
0.015671056 -0.0026309937 -0.0056682583 4288623149
0.018015575 -0.0039550811 -0.0047208834 4288819243
0.019812442 -0.0030898899 -0.0058287811 4288688683
0.021792794 -0.0029542297 -0.0062516611 4288492589
0.023581717 -0.002089344 -0.0073576802 4288950569
0.026141845 -0.0041403621 -0.0057318714 4288492333
0.028914806 -0.0069189519 -0.0034272764 4288622638
0.033105437 -0.014795922 0.0036434885 4288295219
0.037152629 -0.021940306 0.010020845 4287771448
0.0015343241 -0.0044822246 -0.0045589078 4288297259
0.0033440515 -0.003614977 -0.0056686867 4288689194
0.0053157881 -0.0034809262 -0.0060904715 4288492843
0.0072876066 -0.0033467263 -0.0065121744 4288492843
0.0096047036 -0.0046776384 -0.0055624787 4289016359
0.01175727 -0.0052752495 -0.0053001139 4288754473
0.013737291 -0.0051401109 -0.0057233032 4288623404
0.015897974 -0.0057369024 -0.005462477 4288492334
0.018064044 -0.0063332096 -0.005202705 4288492334
0.020235501 -0.00692904 -0.0049439501 4288688939
0.022035085 -0.0060613081 -0.0060507748 4288492589
0.024020657 -0.0059251487 -0.0064746719 4288754219
0.026200201 -0.0065200627 -0.006217381 4288885033
0.029171567 -0.010038286 -0.0032390747 4288295729
0.032966781 -0.016477697 0.0024534147 4288229683
0.037011996 -0.023644254 0.0088151172 4288426034
0.0015630685 -0.0068569481 -0.0050329771 4288428329
0.0033754855 -0.0059872568 -0.0061417725 4288296493
0.0053497404 -0.005853042 -0.0065640975 4288362028
0.0069845691 -0.004248701 -0.0083556334 4288558124
0.0092984773 -0.0055842251 -0.0074085342 4288885544
0.011448052 -0.0061842799 -0.0071470831 4288362029
0.013780758 -0.0075182468 -0.0062038098 4288427308
0.015943781 -0.0081170797 -0.0059450883 4288558124
0.017929088 -0.0079813451 -0.0063692275 4288558124
0.019914437 -0.0078454688 -0.0067932699 4288361773
0.022088259 -0.0084432364 -0.0065365527 4288950569
0.024458533 -0.009773992 -0.0056008231 4288361774
0.026645739 -0.010370515 -0.0053467955 4288492334
0.029427608 -0.013166144 -0.0030569714 4288491824
0.033027261 -0.018892124 0.0019419435 4288294963
0.036669597 -0.024614997 0.0069318004 4288359988
-0.00086448342 -0.0071561933 -0.0071425308 4288889623
0.0011067763 -0.0070224404 -0.0075644087 4288296748
0.0030781254 -0.0068885386 -0.0079862047 4288230958
0.0050495639 -0.0067545176 -0.0084079374 4288362029
0.007021077 -0.0066203624 -0.0088295918 4288558123
0.0091648996 -0.0072230846 -0.0085686576 4288754728
0.011489049 -0.008562237 -0.0076268222 4288493354
0.013823904 -0.009900488 -0.0066872369 4288362029
0.016169507 -0.01123789 -0.0057497863 4288230958
0.018159997 -0.011101812 -0.0061750393 4288296239
0.020521682 -0.012437828 -0.0052408893 4288426288
0.022705831 -0.013037026 -0.0049880017 4288361008
0.025086269 -0.014371544 -0.0040576253 4287903284
0.027283808 -0.014969587 -0.0038074274 4288034098
0.030075466 -0.017773315 -0.0015260931 4287968054
0.033286326 -0.022045866 0.0021043774 4287705913
0.036730796 -0.027051121 0.0064043924 4288163129
0.00097402185 -0.0086587369 -0.0087228734 4288035884
0.0027811639 -0.0077850595 -0.0098272953 4288035118
0.0047497787 -0.0076512396 -0.010248424 4287970094
0.0067184679 -0.0075172856 -0.010669487 4288165679
0.0088592879 -0.0081224591 -0.010409528 4288166188
0.011180252 -0.009466216 -0.0094702188 4287708974
0.013866726 -0.012286872 -0.0071735289 4287512624
0.016574588 -0.015105903 -0.0048813503 4287708209
0.019121125 -0.017184868 -0.0032722633 4287249464
0.0214983 -0.018524237 -0.0023446362 4287903284
0.023698129 -0.019124612 -0.0020966735 4286921789
0.025712579 -0.018986508 -0.0025267582 4286398528
0.027920445 -0.019586027 -0.0022803489 4286071619
-0.03150028 0.0047610775 0.022276647 4284704819
0.017338391 -0.020468749 -0.0026667323 4283066698
-0.019531824 -0.010276519 -0.0095613245 4283461949
-0.017983854 -0.0079066753 -0.012037095 4283070269
-0.016032644 -0.0077753067 -0.012455428 4281829949
-0.01422368 -0.0068980977 -0.013557823 4281763393
-0.012564935 -0.0052756667 -0.015342472 4281829694
-0.010769017 -0.0043991283 -0.016441839 4282025789
-0.0085272454 -0.0057581961 -0.015492907 4281961019
-0.0062746778 -0.007116437 -0.014546139 4281960509
-0.0043227449 -0.0069842637 -0.014964079 4281699133
-0.0020539872 -0.0083411336 -0.014020646 4281633088
6.4507127e-05 -0.0089527369 -0.013759511 4281697603
0.0018610321 -0.0080754235 -0.014858468 4281696838
0.0038186647 -0.0079423338 -0.01527725 4281696838
0.0056073517 -0.0070652962 -0.016374344 4281304903
0.0079058632 -0.0084194988 -0.015436811 4281173579
0.010563847 -0.011259869 -0.01314698 4281304393
0.014128394 -0.017815202 -0.0074782623 4281826633
0.017381612 -0.022880897 -0.0031719208 4282608973
-0.019393869 -0.013399668 -0.009344602 4282872133
-0.018250756 -0.0087780729 -0.013867846 4282350913
-0.016441882 -0.0078988522 -0.014968669 4281502019
-0.014353827 -0.0085155889 -0.014703261 4281240389
-0.012550019 -0.0076364577 -0.015802817 4281371458
-0.010751411 -0.0067575723 -0.016901167 4281632833
-0.0088078529 -0.0066262335 -0.017317509 4281436739
-0.0064056069 -0.0087362379 -0.015693044 4281632578
-0.0044538304 -0.0086040944 -0.01611097 4281632834
-0.0023437589 -0.0092186183 -0.015849741 4281698368
-0.00054996461 -0.0083394051 -0.016946597 4281698113
0.0014021024 -0.0082068592 -0.017364303 4281632068
0.0033542439 -0.0080741793 -0.01778193 4281567044
0.0053064749 -0.0079413801 -0.018199483 4281305669
0.0074302815 -0.0085543096 -0.017940713 4281304649
0.010430422 -0.012895301 -0.014304636 4281173833
0.013993189 -0.019470572 -0.008649989 4281630794
0.017244976 -0.024551779 -0.0043545887 4282739533
-0.019524604 -0.015030064 -0.010499293 4282806599
-0.018380575 -0.010395229 -0.015013119 4281762118
-0.016432323 -0.010264069 -0.015430821 4281435463
-0.014625952 -0.009382695 -0.016529435 4281370694
-0.01253543 -0.010001376 -0.016266076 4281109064
-0.010881469 -0.0083703697 -0.018043203 4281108808
-0.0089380592 -0.0082390606 -0.018459531 4281239623
-0.0065364987 -0.010355711 -0.016839741 4281370694
-0.0044295341 -0.01097279 -0.016579548 4281370438
-0.0021591261 -0.012338333 -0.015642887 4281240133
-0.00068131834 -0.0099589527 -0.018093212 4281240389
0.0012705922 -0.0098264366 -0.018510891 4281044294
0.0032225847 -0.0096937567 -0.018928485 4281239879
0.0053433254 -0.010309234 -0.018670758 4281109064
0.0076408014 -0.011672325 -0.017739443 4281239369
0.010471031 -0.015278324 -0.014787974 4281303883
0.013858005 -0.02112563 -0.0098214997 4281564494
0.016929027 -0.025474727 -0.0062100142 4283000398
-0.019789129 -0.015907347 -0.012334881 4282805324
-0.01837384 -0.012764782 -0.015477622 4281630793
-0.016701415 -0.011128455 -0.017255826 4281304649
-0.014755853 -0.010997385 -0.01767288 4281370184
-0.012954637 -0.010114044 -0.018768685 4281174088
-0.011011481 -0.0099828839 -0.019185046 4281174089
-0.008768566 -0.011355087 -0.018246001 4281239368
-0.0065148622 -0.012726493 -0.017309131 4281239369
-0.0045607239 -0.012594208 -0.017727567 4281239368
-0.0024486594 -0.013213001 -0.017469978 4281239369
-0.00065214187 -0.012329243 -0.018564237 4281174088
0.0013022758 -0.012196541 -0.018982446 4281174344
0.0030909553 -0.011313036 -0.020074831 4281304649
0.0053798519 -0.012681231 -0.019144962 4281370183
0.0076794848 -0.014048614 -0.018217271 4281304393
0.010337487 -0.016915366 -0.015946766 4281303884
0.013369884 -0.021280468 -0.012336696 4281694798
-0.020186931 -0.016024783 -0.014846681 4282674254
-0.018503763 -0.01438354 -0.016624039 4281695308
-0.016692132 -0.013497517 -0.017720701 4281500234
-0.015027352 -0.011857256 -0.019493936 4281369928
-0.013228789 -0.010971904 -0.020587573 4281303883
-0.011141472 -0.0115951 -0.020326676 4281303883
-0.0090487041 -0.012217775 -0.020066837 4281369164
-0.006798178 -0.013593793 -0.019132501 4281368908
-0.004691869 -0.01421532 -0.018875381 4281107533
-0.0024224967 -0.015589766 -0.017944941 4280910928
-0.00062329695 -0.014703609 -0.01903815 4280845648
0.001333639 -0.014570758 -0.019456914 4280976718
0.0029593632 -0.012932017 -0.021220962 4281041489
0.0052477382 -0.014304653 -0.020294206 4281107023
0.0075468533 -0.015676476 -0.019369612 4281302864
0.010030337 -0.01779972 -0.017776279 4281367123
0.012882505 -0.021426097 -0.01484546 4281822808
-0.020450503 -0.016890414 -0.016674025 4282541654
-0.018633641 -0.016001999 -0.017770251 4281824338
-0.01682198 -0.015113793 -0.01886533 4281565514
-0.014874049 -0.014982574 -0.019282913 4281434445
-0.013070136 -0.014094681 -0.020376103 4281237584
-0.010977805 -0.01471971 -0.020117866 4281236819
-0.0091789775 -0.013831913 -0.021209789 4281432659
-0.0072332434 -0.013700336 -0.021626523 4281301844
-0.0052874051 -0.01356864 -0.022043208 4281432149
-0.0031840056 -0.014192432 -0.021786982 4281234524
-0.00091504306 -0.015571222 -0.020859523 4281561179
0.00087627769 -0.014683276 -0.021949364 4281560924
0.0026623309 -0.013795532 -0.023038028 4281756509
0.0047793984 -0.014417931 -0.022784313 4281952349
0.007243447 -0.016549245 -0.021191748 4282017374
-0.021500878 -0.020305648 -0.023950035 4282536809
-0.028404966 0.0032667741 0.029229421 4284967214
-0.027361214 0.009061195 0.023056865 4285492514
-0.025738761 0.011316769 0.020478129 4285754908
-0.02337072 0.0093292817 0.022200894 4285885724
-0.020727329 0.0059292838 0.025351837 4285885724
-0.017792597 0.001117833 0.029927544 4285623584
-0.015899584 0.0019609258 0.028778195 4285427489
-0.013874158 0.00209748 0.028344087 4285427744
-0.012409538 0.0050586611 0.025056049 4285427744
-0.010966107 0.008018516 0.021772634 4285558303
-0.0095438585 0.010977082 0.018493854 4285951768
-0.0075498372 0.011111945 0.018066779 4285951513
-0.0052538216 0.0098361224 0.019062135 4286017303
-0.0024862178 0.0064454451 0.02218717 4285623074
0.00015194342 0.003761746 0.02459649 4285557283
-0.029726386 0.0086865202 0.020875935 4285296163
-0.028343841 0.012368031 0.016869456 4285624094
-0.026615605 0.013919599 0.015014738 4285558048
-0.024517663 0.013342813 0.015306681 4285492513
-0.022026017 0.010639288 0.01774016 4285755419
-0.019644916 0.0086462051 0.01945547 4285624349
-0.017651811 0.0087804273 0.019028179 4285559069
-0.015658535 0.0089147985 0.018600944 4285493788
-0.013945222 0.010465935 0.016749926 4285558813
-0.012385167 0.012724683 0.014189858 4285689884
-0.01084096 0.014982469 0.011633281 4285623584
-0.0087203421 0.014408059 0.011920981 4285557793
-0.0062927678 0.012418851 0.013626877 4285688864
-0.0033888072 0.0083085299 0.017456539 4285754653
-0.00092092901 0.0063222572 0.01915396 4285557284
0.0015630983 0.004337199 0.020848013 4286278423
-0.030451469 0.010590926 0.016128682 4285361953
-0.02896028 0.013570771 0.012847252 4285755674
-0.027242474 0.015126035 0.010997977 4285623838
-0.025028951 0.013834774 0.012003884 4285623838
-0.02267538 0.011833116 0.013720125 4285755418
-0.020305611 0.0098325983 0.015433006 4285755928
-0.01845786 0.01067698 0.014296535 4285624349
-0.016615272 0.011521146 0.013161257 4285624349
-0.014917746 0.013075657 0.01131678 4285690138
-0.013088167 0.01391916 0.010184444 4285952789
-0.011554249 0.01618284 0.0076348707 4285820953
-0.009148825 0.014185384 0.0093405917 4285755164
-0.0067272522 0.01218912 0.011042923 4286017813
-0.0039830804 0.0087747276 0.014156822 4285886488
-0.0015238896 0.00678128 0.015851226 4285689119
-0.031174704 0.012517832 0.011397347 4285493023
-0.029454187 0.014077552 0.0095506124 4285690138
-0.027620457 0.01492276 0.0084184296 4285886999
-0.025412761 0.01362671 0.0094223022 4285821209
-0.02306518 0.011617951 0.011135019 4285821464
-0.02083312 0.010323741 0.012133814 4285624349
-0.019127674 0.011882924 0.010290734 4285624348
-0.017295711 0.012728542 0.0091593191 4285624349
-0.015468925 0.013573915 0.0080290884 4285624093
-0.013647325 0.014419094 0.0069000013 4285689884
-0.011830911 0.01526399 0.0057721585 4285755164
-0.0095765367 0.01397188 0.0067666881 4285755164
-0.0071609914 0.011968613 0.0084654167 4285689374
-0.0045762435 0.0092546195 0.010866717 4285689374
-0.0021257252 0.0072539002 0.012558177 4285624094
-0.031423345 0.011601485 0.0095289946 4285558814
-0.029584408 0.01244913 0.0083972216 4285558814
-0.027874149 0.01401259 0.0065559894 4285689628
-0.025669605 0.012711868 0.0075572953 4285624093
-0.023454197 0.011411957 0.0085563958 4285623838
-0.021096438 0.0093973726 0.010262109 4285624093
-0.019393452 0.010960773 0.0084227398 4285624349
-0.01756411 0.011808403 0.007293487 4285624348
-0.015600406 0.011940777 0.0068725944 4285624349
-0.013636559 0.012073286 0.0064517595 4285624093
-0.011962295 0.013635218 0.0046188273 4285623838
-0.0098559558 0.013053149 0.004904706 4285623583
-0.0075939521 0.01175724 0.0058944412 4285623839
-0.0050153844 0.0090339929 0.008290628 4285624349
-0.0027264431 0.0077401698 0.0092747137 4285623839
-0.031435534 0.0092524886 0.0090844817 4285493279
-0.029955916 0.012257949 0.0058247838 4285559069
-0.028127424 0.013107195 0.004696859 4285689629
-0.026052043 0.012519896 0.004987156 4285689629
-0.023713782 0.010497257 0.0066921301 4285755164
-0.021359339 0.0084757656 0.0083937496 4285624093
-0.019524783 0.0093258023 0.007264873 4285624093
-0.017558716 0.009458214 0.0068433844 4285689883
-0.015592478 0.009590745 0.0064219367 4285624348
-0.013626099 0.0097233951 0.0060005374 4285689883
-0.011948951 0.011289917 0.0041701905 4285755673
-0.010282315 0.012855805 0.0023422241 4286018324
-0.0083261803 0.012988091 0.0019232631 4285886743
-0.0057591572 0.010255218 0.0043154582 4285820699
-0.0030152947 0.0068077594 0.007405322 4285558303
-0.00024463236 0.0033622384 0.010489538 4285491239
-0.031683698 0.0083411857 0.0072196834 4285427489
-0.030085668 0.010634549 0.0046749339 4285559069
-0.028503448 0.012927011 0.0021336246 4285886743
-0.026433706 0.012337133 0.0024234541 4285952533
-0.024101444 0.010307394 0.0041249115 4286018323
-0.021621838 0.0075588822 0.0065287407 4285887254
-0.019789889 0.0084109306 0.0054020155 4285689884
-0.017826624 0.0085431263 0.0049811099 4285558813
-0.01586321 0.0086754337 0.0045602433 4285624348
-0.014041469 0.0095271766 0.0034359042 4285755419
-0.012658432 0.012535885 0.00020403974 4285886998
-0.011002265 0.014105454 -0.001618484 4285952279
-0.0089070909 0.013518289 -0.0013333745 4285820699
-0.0063489266 0.010775946 0.0010542534 4285820954
-0.0034589358 0.0065984875 0.0048386268 4285623838
-0.0006946288 0.0031414628 0.0079161935 4285491493
-0.03204909 0.0081576258 0.0046511944 4285361443
-0.030576311 0.011180215 0.0014057979 4285559069
-0.028878711 0.012755983 -0.00042312965 4285755164
-0.026940249 0.012886047 -0.00083905458 4285623329
-0.024488337 0.010126755 0.0015641395 4285755163
-0.022276893 0.0088133439 0.002554439 4285755419
-0.020321921 0.0089448541 0.0021352153 4285689883
-0.018503107 0.0097983181 0.0010129809 4285558813
-0.016550489 0.0099298656 0.00059440732 4285624604
-0.014739387 0.010783069 -0.00052605569 4285755674
-0.013222113 0.01307857 -0.0030479617 4285623584
-0.011573732 0.014652051 -0.0048656538 4285557539
-0.0096365511 0.014783025 -0.0052805766 4285689118
-0.0067852437 0.010589525 -0.0014976412 4285689374
-0.0040567964 0.0071189329 0.0015794113 4285820698
-0.0013015494 0.0036502779 0.00465082 4285623073
-0.032296233 0.0072579682 0.002794696 4285295909
-0.030945703 0.011014327 -0.0011487566 4285756184
-0.0292532 0.012594171 -0.0029734336 4285689374
-0.027445689 0.013448596 -0.0040919781 4285623584
-0.025258906 0.012129039 -0.0030997396 4285689373
-0.022930458 0.010085881 -0.0014070719 4285820953
-0.020986304 0.010216616 -0.0018240083 4285624604
-0.019178115 0.01107154 -0.002942374 4285558813
-0.017375104 0.011926234 -0.0040595476 4285558814
-0.01571878 0.013504401 -0.0058759153 4285756183
-0.014217123 0.015805438 -0.0083896657 4285821463
-0.012290873 0.01593554 -0.0088023441 4285689373
-0.0099160746 0.013896309 -0.0071191043 4285755163
-0.007220801 0.01041232 -0.0040430855 4285952023
-0.0048083737 0.0083758235 -0.002367679 4285689118
-0.0022223368 0.0056179315 1.2628734e-06 4285557538
-0.032894887 0.0085456222 -0.0011702552 4285229864
-0.031554259 0.012312308 -0.0051035639 4285559323
-0.029872186 0.013895832 -0.0069228113 4285887509
-0.027950004 0.014024749 -0.0073352829 4285887253
-0.0257717 0.012700148 -0.006344419 4285887508
-0.023582555 0.011376418 -0.0053558424 4285755928
-0.021649197 0.011506423 -0.0057704691 4285558813
-0.019987606 0.013089076 -0.0075848736 4285558813
-0.018059261 0.013218962 -0.0079982653 4285558813
-0.016554683 0.015526727 -0.010507955 4285493278
-0.014634058 0.0156563 -0.01091954 4285690138
-0.012713298 0.015786014 -0.011331062 4285755673
-0.010344476 0.013739713 -0.0096513256 4285755674
-0.0078075603 0.01096943 -0.0072784759 4285755673
-0.0055584684 0.0096507668 -0.0063020028 4285624349
-0.0031412691 0.0076080859 -0.0046323724 4285557029
-0.033374943 0.0091215819 -0.0044200923 4285098028
-0.032041557 0.012898773 -0.0083438326 4285427998
-0.030367255 0.014486104 -0.010158176 4285559069
-0.028328069 0.013885275 -0.0098682828 4285558304
-0.026155584 0.01255589 -0.0088794436 4285558303
-0.023841813 0.010498449 -0.0071933214 4285558558
-0.022044376 0.01135689 -0.0083062872 4285558814
-0.020252101 0.012215123 -0.0094180536 4285558814
-0.018326558 0.012344778 -0.0098308735 4285559069
-0.01654201 0.013202742 -0.010940863 4285559069
-0.014762647 0.01406043 -0.012049623 4285558814
-0.012695558 0.013462342 -0.011765074 4285558814
-0.010623001 0.012864709 -0.011481568 4285426978
-0.0082414076 0.010812789 -0.0098093711 4285558558
-0.0063070729 0.010943756 -0.010223549 4285558813
-0.0039012395 0.0088936612 -0.0085563324 4285425704
-0.032408111 0.012766995 -0.010874251 4285427744
-0.030494347 0.012895204 -0.011285024 4285493023
-0.028330535 0.011560693 -0.010297639 4285558304
-0.026155859 0.01022698 -0.0093124527 4285558303
-0.024100646 0.0096251965 -0.0090274792 4285558558
-0.022305839 0.010485657 -0.010138283 4285558559
-0.020380579 0.01061517 -0.010551125 4285558559
-0.018316902 0.010014296 -0.010267723 4285558558
-0.016388692 0.010144249 -0.010681029 4285624348
-0.014316723 0.009544149 -0.010399234 4285558304
-0.012239285 0.0089445561 -0.010118524 4285558049
-0.010305338 0.0090752393 -0.010532811 4285624094
-0.0083712637 0.0092060417 -0.010947045 4285558303
-0.006591361 0.01006642 -0.012053978 4285623839
-0.0040319152 0.0072802156 -0.0096986704 4285490983
-0.032176703 0.0089744702 -0.00990499 4285492768
-0.030255094 0.0091031566 -0.01031748 4285689629
-0.028083757 0.0077646822 -0.0093348976 4285689884
-0.026156448 0.007893987 -0.0097484346 4285624093
-0.024098888 0.0072901547 -0.0094655734 4285624094
-0.022168592 0.0074198693 -0.0098796003 4285689629
-0.02010271 0.0068168044 -0.0095983725 4285623838
-0.018031351 0.0062142238 -0.0093182363 4285558304
-0.015954494 0.0056120902 -0.0090391394 4285624349
-0.014015622 0.0057428479 -0.0094546732 4285624348
-0.011784405 0.0044093579 -0.0084843002 4285623839
-0.0099886917 0.0052727461 -0.0095932074 4285623583
-0.0080467574 0.0054040551 -0.01000914 4285558049
-0.0062588081 0.0062671602 -0.011116207 4285623839
-0.0038490109 0.004204154 -0.0094595244 4285490729
-0.033759005 0.0043034479 -0.0078330338 4285163054
-0.031946301 0.0051688999 -0.0089449063 4285492513
-0.029894903 0.0045620874 -0.0086625963 4285558304
-0.027837984 0.0039557442 -0.0083813937 4285558559
-0.025902815 0.0040855482 -0.0087966425 4285689630
-0.023967505 0.0042154863 -0.0092118336 4285623838
-0.022032008 0.0043455437 -0.0096269865 4285492513
-0.020096384 0.0044757128 -0.01004209 4285558304
-0.018022656 0.0038710311 -0.0097640296 4285558304
-0.016084053 0.0040016472 -0.010179593 4285558304
-0.01385881 0.0026631951 -0.0092112692 4285492769
-0.011622757 0.0013256073 -0.0082451599 4285558304
-0.009524487 0.00072304904 -0.0079720253 4285558304
-0.0075720251 0.00085505843 -0.008390219 4285623838
-0.0057733878 0.0017211065 -0.0094980253 4285623583
-0.0035101771 0.00038578361 -0.0085373493 4285557283
-0.033654079 0.0012207404 -0.0075781057 4284901679
-0.031836011 0.0020887852 -0.0086895796 4285295398
-0.029779568 0.0014800504 -0.008409922 4285426723
-0.027593225 0.00013375282 -0.0074370624 4285492514
-0.025777273 0.0010019466 -0.0085478025 4285492513
-0.023707017 0.00039450824 -0.0082709109 4285492513
-0.021896094 0.0012625903 -0.009380403 4285558049
-0.020090334 0.0021304414 -0.010488701 4285558048
-0.018152021 0.002260901 -0.010904298 4285558304
-0.016213551 0.0023914874 -0.011319851 4285558304
-0.014131889 0.0017853975 -0.011044982 4285492768
-0.01204475 0.0011797845 -0.010771212 4285558049
-0.009952154 0.00057466328 -0.010498523 4285558304
-0.0077030137 -0.00076626241 -0.009538223 4285689119
-0.0055968389 -0.0013702363 -0.0092682699 4285623583
-0.0031723902 -0.0034455508 -0.0076243514 4285557029
-0.033782296 -0.00038883835 -0.0087182773 4284901423
-0.031964175 0.00048140436 -0.0098281605 4285295653
-0.029786482 -0.00087005645 -0.0088567184 4285361188
-0.027597964 -0.0022206157 -0.0078875506 4285492259
-0.025779314 -0.0013500601 -0.0089972662 4285492513
-0.02383627 -0.0012196451 -0.0094141467 4285558048
-0.022025302 -0.00034938008 -0.010522059 4285558048
-0.020219512 0.00052065402 -0.011628774 4285492513
-0.018143766 -8.8281929e-05 -0.011354419 4285558049
-0.016202785 4.2453408e-05 -0.011770525 4285492513
-0.014118776 -0.00056570768 -0.011497785 4285492513
-0.012320422 0.00030430406 -0.012602561 4285558048
-0.010230817 -0.00030323863 -0.012330835 4285558048
-0.0079848394 -0.0016487613 -0.011373137 4285623583
-0.0055745356 -0.0037317723 -0.0097311055 4285492258
-0.0031481087 -0.0058135837 -0.0080924453 4285425959
-0.033678316 -0.0034841597 -0.0084723765 4285097519
-0.031973571 -0.0018686056 -0.01027416 4285426213
-0.030036494 -0.0017389655 -0.010690031 4285361443
-0.027727067 -0.0038366318 -0.0090321815 4285426979
-0.025908381 -0.0029639006 -0.010140321 4285426978
-0.023836091 -0.0035756379 -0.0098671084 4285426979
-0.022022411 -0.002703011 -0.010974002 4285558304
-0.020079203 -0.0025723726 -0.011390771 4285623583
-0.018135838 -0.0024416149 -0.01180748 4285558304
-0.016052283 -0.0030521303 -0.011536346 4285426723
-0.014391407 -0.0014384687 -0.01332795 4285426723
-0.012595691 -0.00056644529 -0.014430563 4285426979
-0.010657132 -0.00043553859 -0.014845894 4285361699
-0.0082662888 -0.0025265664 -0.01320465 4285361443
-0.0060127154 -0.0038759261 -0.012251672 4285426724
-0.003436245 -0.0067050681 -0.0099321734 4285229353
-0.031627588 -0.0064578503 -0.0086507387 4285294633
-0.029679999 -0.0063275173 -0.00906887 4285295909
-0.027484477 -0.0076865107 -0.0081076268 4285296419
-0.025657743 -0.0068110377 -0.0092158876 4285492259
-0.023577772 -0.0074244961 -0.008945955 4285360933
-0.021756068 -0.0065491199 -0.010052964 4285426978
-0.019804999 -0.0064179748 -0.010471422 4285558303
-0.017853782 -0.0062866956 -0.010889829 4285492769
-0.01590243 -0.0061552972 -0.011308183 4285426469
-0.014093481 -0.0052802861 -0.012412165 4285295143
-0.012580149 -0.0029190108 -0.014885058 4285099303
-0.010639064 -0.0027879179 -0.015300934 4285165094
-0.0083967857 -0.0041425377 -0.014348888 4285165348
-0.0061437115 -0.0054963231 -0.013399006 4285099303
