# .PCD v0.7 - Point Cloud Data file format
VERSION 0.7
FIELDS x y z rgba
SIZE 4 4 4 4
TYPE F F F U
COUNT 1 1 1 1
WIDTH 321
HEIGHT 1
VIEWPOINT 0 0 0 1 0 0 0
POINTS 321
DATA ascii
0.002723366 0.002510339 0.024592016 4281043529
0.0045277625 0.0040783882 0.022799598 4280197183
0.0073623434 -0.00086866319 0.02734944 4280458303
0.010589615 -0.0079843998 0.034004204 4281305669
0.013628669 -0.013649821 0.039242022 4282607953
0.00014473498 0.0036211684 0.020962391 4281632578
0.0016134158 0.0073722824 0.017062351 4279742009
0.0035066456 0.0082170814 0.015981026 4280523329
0.0060875639 0.0047053546 0.019118119 4279416119
0.0092862919 -0.0024341643 0.025762158 4280589884
0.012538798 -0.0095703602 0.032396153 4281827144
-0.0048388019 -0.0071526468 0.02936841 4282607953
-0.003297627 -0.0033866018 0.025462473 4281240134
-0.0018876866 0.0011069253 0.020858269 4281045314
-0.00061700493 0.0063273758 0.015557397 4280330038
0.00083621591 0.010088585 0.011668291 4281241409
0.0027133748 0.010934621 0.010591585 4281306434
0.005161956 0.0081391037 0.01302252 4281176638
0.0081041679 0.0024325773 0.018252689 4281047353
0.011330824 -0.0047272295 0.02487546 4281307453
0.014241144 -0.009700343 0.029388828 4281371203
0.017063122 -0.013943434 0.033195853 4282674254
-0.0099024475 -0.0025003403 0.022601189 4282541654
-0.0082619265 0.00054506958 0.019405827 4281694543
-0.0061472654 -6.7815185e-05 0.0197284 4281175874
-0.0043323264 0.0015135258 0.017943233 4281110593
-0.0025279149 0.0030944198 0.016160104 4280850238
-0.0011625811 0.0075985864 0.011574056 4280198459
0.00039036572 0.010639377 0.0083955973 4279808054
0.0024844706 0.010025859 0.0087224655 4280263993
0.0048144236 0.0079517737 0.010447878 4280003638
0.0076320395 0.0029574633 0.014967263 4280851514
0.010125726 0.00015606731 0.017383393 4281176893
0.012887444 -0.0041040182 0.02119205 4281241665
0.015681498 -0.0083620101 0.024994684 4281371203
-0.013806939 -0.0066128969 0.02428315 4282607443
-0.012591287 0.00011336803 0.017574888 4281696328
-0.011142984 0.0046350956 0.012982357 4280002108
-0.0092453957 0.0054859966 0.011904482 4279414333
-0.0047545061 0.0020528808 0.014656719 4281046079
-0.0027494058 0.0021710098 0.014278661 4280916028
-0.0012789741 0.0059550852 0.010402251 4280916284
0.00027447194 0.0090047121 0.0072301254 4280981053
0.0022559389 0.0091217756 0.0068567544 4281111358
0.0046976209 0.0063081905 0.009276107 4281046589
0.0073962733 0.0020309389 0.013086777 4281176639
0.0092846304 0.0028823465 0.012011398 4281046334
0.011413876 0.0022691339 0.012330364 4281437248
0.014051586 -0.0012718737 0.015432956 4281567043
0.017358355 -0.0084706843 0.022008797 4281631813
0.020194463 -0.012739167 0.025794039 4282608463
-0.016384967 -0.0047270581 0.019959399 4282345304
-0.015069485 0.0012830794 0.013964947 4281500998
-0.013705932 0.0065545291 0.0086797066 4281047098
-0.012006067 0.0088791996 0.0062041581 4281372479
-0.010033809 0.0089950264 0.0058320239 4279286834
-0.0076662973 0.0061675906 0.0082583725 4280654398
-0.0052771568 0.0033414885 0.010680769 4280850748
-0.0031787679 0.0027233958 0.011003383 4280851004
-0.0013953075 0.0043119192 0.0092306687 4280981309
0.00015860796 0.0073703527 0.0060648583 4281177149
0.0023642853 0.0060172379 0.0070857108 4281176638
0.0045808405 0.0046649203 0.008104559 4281177149
0.0070433542 0.0018438473 0.01051363 4280981564
0.008445479 0.0056354702 0.0066585429 4281046078
0.010189638 0.0072223842 0.00489375 4279808819
0.012425531 0.0058716387 0.0059093498 4280655164
0.015826635 -0.0020852834 0.013169503 4279284794
0.019155923 -0.0093046278 0.019725086 4279675964
-0.018521436 -0.0065121278 0.019152017 4281888343
-0.017354064 0.00099452585 0.011764944 4281305669
-0.015800551 0.0048046783 0.0078883246 4280720443
-0.014273658 0.0086133927 0.0040168054 4281307454
-0.012400344 0.0094671249 0.0029466078 4281502529
-0.010340326 0.0088442266 0.0032745339 4281241409
-0.0080775321 0.0067456141 0.0049976036 4280589884
-0.0056972131 0.0039101765 0.0074152267 4280981309
-0.0035031959 0.002551645 0.0084347604 4280980798
-0.0015116036 0.0026690364 0.0080592921 4281111870
0.00026147813 0.0042614117 0.0062918654 4280851259
0.0023600459 0.0036414638 0.0066130189 4280981309
0.0043494329 0.0037590861 0.0062382286 4281112379
0.0064563379 0.0031398684 0.0065579852 4281047354
0.0078483894 0.0069418773 0.0027128048 4280981053
0.0094592422 0.0092691928 0.00025972724 4281436739
0.011555836 0.008649677 0.00058172643 4281110083
0.014682755 0.002140075 0.0064426428 4280327999
0.018119633 -0.0058388561 0.013678471 4280523585
0.021081772 -0.010870114 0.018137371 4281044804
0.023673102 -0.01369147 0.020516401 4281890383
-0.019050084 -0.0044726431 0.014465945 4281691993
-0.017809622 0.0023142546 0.0077961525 4281239113
-0.016178451 0.0053938627 0.0046279691 4280915518
-0.01447811 0.0077316463 0.0021618046 4279611959
-0.012607433 0.0085873976 0.0010936968 4280198459
-0.010646179 0.0087025315 0.00072360784 4279937848
-0.0083893463 0.0065969974 0.0024429336 4280458814
-0.006116271 0.0044924617 0.0041593043 4280980289
-0.0041383877 0.0046089068 0.0037863217 4280980289
-0.0019473508 0.0032458901 0.0048032692 4280915518
3.6224723e-05 0.003362909 0.0044293916 4281046589
0.0021318048 0.0027405322 0.0047495356 4281046588
0.0037747473 0.0050759539 0.0022949465 4281112379
0.0056361929 0.005932197 0.001229323 4280721209
0.0072525963 0.0082662925 -0.0012200885 4280720189
0.0090982169 0.0091218203 -0.0022825673 4281045824
0.01118914 0.0084998086 -0.0019611532 4281371714
0.013925284 0.0041855872 0.0018138657 4280914243
0.016954977 -0.0016033947 0.006963714 4280328253
0.019894402 -0.006651476 0.011415677 4280914498
0.022735465 -0.010959074 0.015171232 4281240133
-0.01924821 -0.0053844526 0.012587553 4282019413
-0.017924264 0.0006788522 0.0066298498 4281369929
-0.016292602 0.0037672892 0.0034679873 4280980034
-0.014772452 0.0075976104 -0.00038627535 4280848964
-0.012814187 0.0077124238 -0.00075589865 4281045058
-0.010760099 0.0070847124 -0.00043004053 4281045314
-0.0084055737 0.0042299777 0.0019794735 4280915264
-0.0064333752 0.0043459609 0.0016074735 4280915264
-0.0045646504 0.0052042603 0.00054159714 4280915264
-0.0025947914 0.0053203404 0.00017020805 4280654653
-0.00040672719 0.0039527938 0.0011846158 4280785468
0.0016805306 0.0033277497 0.0015046666 4281242684
0.0033157468 0.0056693256 -0.00094365375 4281242684
0.0050520971 0.00726863 -0.0026975165 4280982074
0.0066580996 0.009608686 -0.0051401779 4279743028
0.0086154342 0.0097247362 -0.0055086985 4280263484
0.010823123 0.0083590597 -0.004497461 4280524093
0.01329723 0.005512692 -0.0021095318 4280328764
0.016184304 0.00044600666 0.0023409007 4280719679
0.018842731 -0.0031374991 0.0054076975 4281110593
0.021799769 -0.0081997961 0.0098452065 4281239878
0.024932962 -0.01399979 0.014962981 4281173578
-0.019281827 -0.0077828094 0.012105191 4282282063
-0.017869338 -0.0024472103 0.0068554757 4281827909
-0.01631926 0.0013956949 0.0030035367 4280914243
-0.014795795 0.0052371472 -0.00084330188 4281043784
-0.013020568 0.0068421662 -0.0026020894 4280652613
-0.010873981 0.0054671764 -0.0015834873 4281045058
-0.0086183622 0.0033483207 0.00012639491 4280785214
-0.0068506226 0.0049531683 -0.0016306941 4280915518
-0.0032406151 0.007417202 -0.0044468977 4279678003
-0.0010664016 0.0060444102 -0.0034331011 4278961453
0.001230225 0.0039285421 -0.0017305245 4279678768
0.0030861944 0.0047886968 -0.0027920199 4280916283
0.0047031045 0.007135883 -0.00523201 4281045823
0.0064236745 0.0087387711 -0.006979607 4280980289
0.0083781779 0.0088546276 -0.0073476061 4280979779
0.010582708 0.0074843913 -0.0063390471 4281110083
0.012925729 0.0053719506 -0.0046446365 4281175619
0.015415251 0.0025178045 -0.0022659421 4281241153
0.017926339 -0.00033492595 0.00010879245 4281240643
0.021001689 -0.0061561614 0.005224539 4281043529
0.024258401 -0.012717023 0.011018021 4281368654
-0.019315697 -0.010185346 0.011619916 4282544204
-0.017899565 -0.0048340932 0.0063807024 4281762628
-0.016346194 -0.00098000467 0.0025361506 4281370438
-0.014819406 0.0028726161 -0.0013033119 4281370694
-0.013041317 0.0044821799 -0.0030594398 4281240643
-0.011083134 0.0045970529 -0.0034290035 4281111358
-0.0090267807 0.0039651245 -0.0031067361 4280916539
-0.0072669238 0.0055739433 -0.0048591946 4280786743
-0.0055175796 0.0071822181 -0.0066095181 4280850493
-0.0036727786 0.0080435351 -0.0076675788 4281046333
-0.0015070662 0.0066658854 -0.0066554323 4280589884
0.00089230388 0.0037967488 -0.0042668101 4280524858
0.0028569773 0.0039128214 -0.0046370034 4280916029
0.0047050491 0.0047748238 -0.0056953211 4280915008
0.0064284503 0.0063823164 -0.007440303 4280979778
0.0082633868 0.0072437674 -0.008495979 4280587333
0.010592252 0.0051237494 -0.0068038185 4280782919
0.012937311 0.003004849 -0.0051146601 4281109574
0.015298583 0.00088701397 -0.0034284152 4281305923
0.017543212 -0.00048485398 -0.0024303319 4280783428
0.020476263 -0.0055794418 0.0019891732 4281043019
0.023585152 -0.011416167 0.0070858691 4281629518
-0.019758657 -0.0088416636 0.0076656919 4282085459
-0.018014535 -0.0064752102 0.0052102972 4281694543
-0.016286261 -0.0041095763 0.0027579805 4281630029
-0.014663681 -0.00099524856 -0.00038288627 4281565003
-0.013062336 0.0021179989 -0.0035197071 4281435463
-0.011291929 0.0037315935 -0.0052711111 4281566534
-0.0095320493 0.0053446442 -0.0070204069 4281110338
-0.00778272 0.0069572181 -0.0087676756 4280394044
-0.0060439408 0.0085692406 -0.010512836 4280719933
-0.0041039735 0.0086835027 -0.010878626 4281175874
-0.0019467548 0.0073009282 -0.0098681077 4280980289
0.00044379383 0.0044224411 -0.0074842614 4280263483
0.0026281327 0.0030416772 -0.006478623 4280915263
0.0047067031 0.0024096966 -0.0061616194 4281045058
0.0065522417 0.0032738447 -0.0072177839 4280914499
0.0086364597 0.0026424602 -0.0069016521 4281109829
0.010850772 0.001263991 -0.00590136 4281239879
0.013075948 -0.00011375546 -0.0049029822 4281174854
0.015441954 -0.0022378862 -0.0032224965 4281696328
0.017558802 -0.0028668791 -0.0029120978 4281631049
0.020357903 -0.0072298571 0.00081278244 4281565769
0.023327321 -0.012337506 0.0052142683 4282543439
-0.02003713 -0.008984521 0.0051074978 4282083419
-0.018129453 -0.0081160292 0.0040401015 4281693779
-0.016313888 -0.0064957887 0.0022831652 4281694035
-0.014598496 -0.0041242465 -0.00016185408 4281563729
-0.012991294 -0.0010018647 -0.0032933699 4281498703
-0.011405364 0.0021193624 -0.0064207958 4281304393
-0.0098406747 0.0052394792 -0.0095441192 4281436483
-0.0081968829 0.007607244 -0.011975247 4280784448
-0.0063629299 0.0084721893 -0.013028152 4280394044
-0.0043227598 0.0078352764 -0.012705859 4280458813
-0.0021686703 0.006448105 -0.011697967 4280524093
0.00021843612 0.0035606027 -0.0093198903 4280915264
0.0022858679 0.0029256493 -0.0090024779 4281176128
0.0044752285 0.0015408695 -0.0080009336 4281305668
0.0063180774 0.0024071038 -0.009055038 4280979268
0.0086429045 0.00027349591 -0.0073718475 4280587589
0.010983914 -0.0018590391 -0.0056916336 4280913223
0.013213985 -0.0032408535 -0.0046974244 4281369674
0.015584726 -0.0053713471 -0.0030226014 4281630284
0.017706614 -0.006002225 -0.0027148253 4281761099
0.020509969 -0.010378152 0.00099962391 4281826123
0.023207724 -0.014003068 0.0040271077 4282673743
-0.020559303 -0.0068548694 0.00048569078 4281690719
-0.018580839 -0.0067392811 0.00011194358 4281496663
-0.016602196 -0.0066235811 -0.00026175519 4281693779
-0.014623359 -0.0065077543 -0.00063541299 4281563729
-0.013105184 -0.0026225895 -0.0044491449 4281563473
-0.011518762 0.00050744414 -0.0075702639 4281367633
-0.010051109 0.004389897 -0.011374276 4281173833
-0.0083094761 0.0060107335 -0.013113659 4281306179
-0.0065783858 0.0076311305 -0.014851 4281306433
-0.004541181 0.0069917664 -0.014529727 4281305923
-0.0023902282 0.0056000054 -0.013524462 4281306433
-0.00011748075 0.0034562275 -0.011836641 4281436739
0.0020578653 0.0020661205 -0.010835815 4281370949
0.0042440817 0.00067682564 -0.0098369168 4281239878
0.006441161 -0.00071179122 -0.0088399621 4281500999
0.0087707117 -0.0028517246 -0.0071624899 4281239369
0.010867827 -0.0034866482 -0.0068519199 4281238604
0.012970433 -0.0041211247 -0.0065423003 4281695053
0.01520817 -0.0055067539 -0.0055526546 4281955153
0.017589118 -0.0076431483 -0.0038844957 4282020433
0.020391371 -0.01203233 -0.00017945655 4282412114
-0.016889855 -0.0067422986 -0.0028001382 4281759059
-0.014916502 -0.0066267997 -0.0031727678 4281563219
-0.013219006 -0.0042430162 -0.0056047193 4281628499
-0.011537425 -0.0018600672 -0.0080335969 4281367633
-0.0099690855 0.0012777671 -0.011144754 4281237583
-0.0082219169 0.002903372 -0.01288202 4281238858
-0.0063825846 0.0037730038 -0.013932754 4280783684
-0.0045484453 0.0046424493 -0.014982421 4280717384
-0.0025033504 0.0040015131 -0.0146642 4281239879
-0.00023122132 0.0018510669 -0.012981095 4281174343
0.0020571053 -0.00029821694 -0.011300978 4281305158
0.0042455494 -0.001691848 -0.010305674 4281435209
0.0064448267 -0.0030846968 -0.0093123922 4281565003
0.008654967 -0.0044768006 -0.0083210105 4281630540
0.010751776 -0.0051139593 -0.0080120061 4281695054
0.012854062 -0.005750671 -0.0077039315 4282020688
0.015091337 -0.0071407408 -0.0067174225 4282215508
0.017471645 -0.0092837662 -0.0050539542 4282477139
-0.017263345 -0.0060932711 -0.0060179322 4281691994
-0.015208982 -0.0067366809 -0.005703663 4281300823
-0.013332814 -0.0058631673 -0.0067600883 4281694034
-0.011461817 -0.0049898252 -0.0078154523 4281563729
-0.0097904354 -0.0026007593 -0.010237501 4281630028
-0.0080350637 -0.00097034127 -0.011973076 4281369164
-0.0063928142 0.0014172494 -0.014389464 4281239369
-0.0045559928 0.002289027 -0.015438055 4281369928
-0.0025085136 0.001646027 -0.015121889 4281174343
-0.00023432821 -0.00051089376 -0.013443978 4281239369
0.0020560697 -0.002666682 -0.01176908 4281434699
0.0042467341 -0.0040646046 -0.010777427 4281369164
0.0065668747 -0.0062184408 -0.0091079082 4281629519
0.0086605698 -0.006858103 -0.0088000093 4281825104
0.010635749 -0.0067409799 -0.0091718677 4282216784
0.012737721 -0.0073798969 -0.0088653434 4282151504
-0.013538279 -0.0067225546 -0.0085985493 4281562198
-0.011575557 -0.0066075027 -0.0089690331 4281432403
-0.0097097382 -0.0057321787 -0.010021741 4281629008
-0.0080485865 -0.0033370107 -0.012436976 4281498958
-0.0063009113 -0.0017025471 -0.01416782 4281434443
-0.004458718 -0.00082821399 -0.01521586 4281499723
-0.0025139675 -0.00071361661 -0.015582529 4281433933
-0.00023770332 -0.0028770193 -0.013909829 4281434189
0.0020547733 -0.0050393119 -0.012240084 4281433678
0.0043634325 -0.0072005093 -0.010573355 4281433423
0.0065698251 -0.0086017996 -0.0095877964 4281432913
0.0085447356 -0.0084848031 -0.0099596921 4281629008
0.010519758 -0.0083676726 -0.010331513 4281954899
0.012621418 -0.0090088248 -0.010026546 4281691739
-0.013926491 -0.0060518682 -0.011797143 4281887579
-0.01187773 -0.0066998005 -0.011484863 4281431894
-0.0099203438 -0.0065849721 -0.01185427 4281367123
-0.0081619546 -0.0049455836 -0.013584015 4281498193
-0.0065163746 -0.0025446564 -0.015991438 4281630283
-0.0045719147 -0.002430208 -0.016358137 4281761099
-0.002519682 -0.0030774102 -0.016046062 4281499468
-0.00035165995 -0.0044856817 -0.015056794 4281433678
0.0018272176 -0.0058931708 -0.014069469 4281498449
0.0041325986 -0.0080612153 -0.012406887 4281499469
0.0063358545 -0.0094670653 -0.011423947 4281890639
0.0083079189 -0.00935027 -0.011795325 4281759059
-0.010227337 -0.0066685528 -0.014362549 4281562198
-0.0083747208 -0.0057895109 -0.015409497 4281694544
-0.0065272897 -0.0049106479 -0.016455378 4281696074
-0.0045802742 -0.0047960654 -0.016822565 4281892169
-0.0026331246 -0.0046813488 -0.0171897 4281564748
-0.00057571381 -0.005330272 -0.016880155 4281498449
0.0016000271 -0.0067423731 -0.015895462 4281367379
0.0039021075 -0.0089171827 -0.01423707 4281300058
-0.010630287 -0.0059762225 -0.017541949 4282083418
-0.0086864084 -0.0058620572 -0.017908722 4281759058
-0.0067423731 -0.0057477728 -0.01827544 4281826634
-0.0046935678 -0.0063997209 -0.017966034 4281956938
-0.0027465671 -0.0062850118 -0.018333139 4281498449
-0.00068944693 -0.0069361702 -0.018025147 4281432403
0.0012605116 -0.0068210661 -0.018392647 4281888854
-0.007058911 -0.0058116019 -0.020767108 4281627988
-0.0049112886 -0.0072345063 -0.019783782 4281432404
-0.0071715191 -0.0074080527 -0.021905469 4281886814
0.024707343 -0.01624313 -0.013064438 4282732904
-0.031002946 -0.013586611 -0.023413034 4282929254
