# .PCD v0.7 - Point Cloud Data file format
VERSION 0.7
FIELDS x y z rgba
SIZE 4 4 4 4
TYPE F F F U
COUNT 1 1 1 1
WIDTH 450
HEIGHT 1
VIEWPOINT 0 0 0 1 0 0 0
POINTS 450
DATA ascii
0.0038375556 -0.0018829256 0.034270376 4287312193
0.0053631514 0.00042946637 0.031688355 4288490293
0.0075636618 -0.00012898445 0.031891957 4290452519
0.01064619 -0.0042730644 0.035568267 4290844964
0.014116596 -0.0098486021 0.040625237 4290452263
0.0016733482 0.0050670654 0.024705151 4288621363
0.0031676143 0.007383585 0.022135602 4289733673
0.0053359643 0.0068203807 0.022345321 4289733929
0.0082102045 0.0033799559 0.025326656 4289603114
0.011288837 -0.00077746063 0.028994119 4290060839
0.014399402 -0.0049322397 0.032653935 4289079598
0.016992733 -0.0069280043 0.034232296 4289145134
0.019416362 -0.0082037598 0.035116203 4289145389
0.020908892 -0.0058866292 0.032547712 4288098358
0.02257663 -0.0042887479 0.030672433 4287182909
-0.00065016001 0.0039687902 0.023292737 4287051839
0.00051584467 0.0077366456 0.019339578 4289407019
0.0018250793 0.010780498 0.016085774 4289211943
0.003802292 0.01093547 0.015606182 4288688684
0.0063043386 0.0089256614 0.017201429 4289146664
0.0093550943 0.0047529042 0.020865833 4289604388
0.012257569 0.0013040006 0.023832215 4289866018
0.014820956 -0.00070063025 0.025412852 4289604389
0.016843863 -0.00054151565 0.024922611 4289669668
0.018302403 0.0017794669 0.022367267 4289408039
0.020126753 0.0026585832 0.021191323 4289669414
0.02291318 -6.3434243e-05 0.023452247 4290322979
0.026113164 -0.0042236447 0.027081097 4290192164
0.029146262 -0.0076614469 0.030016439 4290062114
0.03200455 -0.010377459 0.032260291 4290060839
0.035088185 -0.013811007 0.035183594 4288163129
0.038405109 -0.017961457 0.038784437 4287378238
-0.0017901286 0.006655395 0.017934605 4288687153
-0.00047238171 0.0097084939 0.014685262 4289538089
0.00082430616 0.012760095 0.011441069 4290389534
0.0027881227 0.01291398 0.010964705 4289931808
0.0054508597 0.010172635 0.013248457 4290193438
0.0084896162 0.0059858412 0.016905844 4290651418
0.010840319 0.0046953559 0.017800653 4289735458
0.013201755 0.0034057796 0.018692989 4289800993
0.015018001 0.0042862371 0.017520437 4289342759
0.016641103 0.0058891326 0.015662465 4289735204
0.018634908 0.006046176 0.015179433 4289604133
0.021208562 0.004036203 0.016753038 4289211433
0.023994118 0.001305446 0.01900772 4288818733
0.026800953 -0.0014234632 0.021257298 4290061093
0.030433923 -0.0070376173 0.026236231 4289081385
0.033905528 -0.011926785 0.030522002 4288623148
0.037827335 -0.018255487 0.036163487 4288098613
-0.0029275715 0.0093686879 0.012595849 4289342503
-0.0011254176 0.010249354 0.011427775 4289669669
0.00033318996 0.012582652 0.0088815894 4290324509
0.0024634004 0.012009852 0.0090955831 4289800994
0.0051225387 0.0092594773 0.011373628 4289866273
0.0083344132 0.0043333694 0.015709929 4289735458
0.010324985 0.0044896826 0.015227322 4289800483
0.012315676 0.004646115 0.014744772 4289408038
0.013566103 0.0077034757 0.011518862 4289538853
0.015546408 0.0078593269 0.011039006 4290585629
0.017146021 0.0094648451 0.00919009 4290454814
0.019700348 0.007446833 0.010763403 4289081128
0.022466362 0.0047057867 0.013016239 4289146664
0.025650363 0.00051821768 0.01662926 4289342758
0.029670253 -0.0065624788 0.022962661 4289603878
0.033743255 -0.013638899 0.029283354 4288883759
0.038075637 -0.021434486 0.036271952 4287771959
-0.0048877373 0.0068511665 0.012580605 4287117373
-0.0034077466 0.0091923922 0.010034012 4289473829
-0.0017771572 0.010803707 0.008180039 4289604389
0.0001809448 0.01095698 0.0077049416 4289408549
0.0026540756 0.0089250505 0.0092923418 4289343013
0.005143255 0.0068944842 0.010875922 4289539364
0.007648468 0.004865326 0.012455666 4289538853
0.0094513483 0.0057487711 0.011289466 4289735204
0.011431303 0.0059043393 0.010809505 4289473574
0.012856696 0.0082422644 0.0082768127 4289408038
0.014453836 0.0098518282 0.0064316839 4289669668
0.015850276 0.012187712 0.0039061876 4289996833
0.018387921 0.010161757 0.0054786354 4289735203
0.021332547 0.0066840723 0.0084106587 4289931554
0.02509632 0.00030317158 0.014060546 4289669923
0.02951026 -0.0082522482 0.021740144 4289276969
0.033987906 -0.016802594 0.029404445 4288491313
0.038323145 -0.024621964 0.036374286 4287575608
-0.0055230409 0.0074093044 0.0093308389 4288558889
-0.004050523 0.0097565353 0.0067909341 4289539364
-0.0019292235 0.0091783926 0.0070036054 4290651164
2.8736889e-05 0.0093316361 0.0065285228 4290455324
0.0025011227 0.0072930753 0.0081111621 4290193438
0.0048154481 0.0059863329 0.0090047102 4289408549
0.0071405172 0.0046805143 0.0098957997 4289408293
0.0087587945 0.0062958002 0.0080485232 4289015849
0.010548621 0.0071804971 0.0068872049 4289473574
0.011779219 0.01025375 0.0036792196 4289473574
0.013550702 0.011137262 0.0025225282 4289604389
0.015316982 0.012020484 0.0013671862 4289408295
0.017848555 0.009987548 0.0029361323 4289277224
0.020786703 0.0064983815 0.0058615506 4289408549
0.024741087 -0.0006313026 0.012177881 4289539873
0.029350303 -0.0099417046 0.020517847 4289474594
0.033825304 -0.018518433 0.0281631 4288622383
-0.0061570555 0.0079810023 0.0060907975 4289410079
-0.0045287162 0.0096006542 0.0042438563 4290587158
-0.0025789961 0.0097531378 0.0037706848 4290455324
-0.0002919808 0.0084396452 0.0046673939 4290389534
0.0020057634 0.0071271062 0.0055615902 4290847258
0.0041403882 0.0065481216 0.0057696793 4289539363
0.0061039142 0.0067021251 0.005293496 4289408548
0.008067552 0.0068562552 0.0048173703 4289343013
0.010031309 0.0070105195 0.004341308 4289670434
0.011441756 0.0093603432 0.0018220805 4289604643
0.013397764 0.0095142275 0.0013480671 4289408038
0.01554364 0.0089368671 0.0015539043 4289277224
0.018272184 0.0061665028 0.0037959963 4289343013
0.021022014 0.0033979565 0.0060330294 4289408549
0.024979472 -0.0037533268 0.012332179 4289147429
0.029390778 -0.012361407 0.019973049 4289147938
0.033865757 -0.02096431 0.027598547 4289211689
-0.0072710365 0.010773748 0.00080473162 4290064408
-0.005658336 0.012396574 -0.0010351846 4289605664
-0.0035589337 0.011812337 -0.00082051102 4288950568
-0.0011173338 0.0097581074 0.00075962581 4289408549
0.0015112944 0.0069702119 0.0030186512 4289866529
0.0036402717 0.0063886121 0.0032264106 4290193438
0.005774647 0.0058075637 0.003432937 4289539620
0.0077354982 0.0059614778 0.0029574856 4289997599
0.0096964538 0.0061155036 0.0024820939 4289539620
0.01110474 0.008471638 -3.1668693e-05 4290062623
0.013244871 0.007891506 0.0001738295 4290847769
0.015579954 0.0065783486 0.0010562912 4290912794
0.018502392 0.0030659735 0.0039689951 4290978584
0.021256536 0.00028906763 0.0061983727 4289669668
0.025217079 -0.0068838522 0.012480395 4289278243
0.029631019 -0.015517905 0.020100871 4289409824
0.033703014 -0.022681728 0.026356058 4289145899
-0.0095173493 0.0097517818 -0.00057364628 4289540894
-0.0079018697 0.011379018 -0.0024110172 4290456343
-0.0064596981 0.013743445 -0.0049288361 4290259228
-0.0045367405 0.013893791 -0.0053955424 4289146919
-0.0021091551 0.011831887 -0.003816945 4289146919
0.00067607313 0.0082969069 -0.00087995455 4290520603
0.0029675625 0.0069752038 9.3095005e-06 4290258973
0.004741434 0.007864967 -0.0011434667 4289605154
0.006867636 0.0072811469 -0.0009364821 4289605154
0.0089992732 0.0066979229 -0.00073074922 4289604899
0.010768186 0.0075876191 -0.0018820167 4289801248
0.012531895 0.0084770769 -0.0030319691 4289604899
0.014669124 0.0078945979 -0.0028272942 4289343014
0.017963778 0.0028992891 0.0014319383 4290389534
0.021490287 -0.0028283447 0.0063576102 4289735459
0.02565119 -0.010757975 0.013297105 4288949803
0.030070446 -0.019417822 0.020896645 4288556849
0.033540331 -0.024398804 0.025113823 4287444284
-0.010453947 0.01184772 -0.0051502134 4289213473
-0.0085314214 0.011997774 -0.0056170109 4289671198
-0.0069340542 0.013628051 -0.0074466253 4289343269
-0.0050165281 0.013777941 -0.0079120314 4289016104
-0.002595 0.011709012 -0.0063369009 4289277734
1.3157725e-05 0.0089020729 -0.0040860954 4289604643
0.0021228865 0.0083145276 -0.0038769394 4289670434
0.0040621161 0.0084665716 -0.0043472722 4289670433
0.0060014874 0.0086187646 -0.0048175417 4289932064
0.0083033592 0.0072939023 -0.0039338656 4290128158
0.0095128305 0.01040034 -0.0071105207 4290128159
0.011260711 0.011290692 -0.008254949 4288688683
0.013570827 0.009966813 -0.0073730163 4288688683
0.016658843 0.0056927651 -0.0037960187 4289473829
0.020556532 -0.0015288442 0.0024682684 4289604388
0.025295705 -0.011695564 0.011412175 4288753454
0.02990941 -0.021119177 0.019665735 4288294964
-0.010759801 0.010995261 -0.0069860849 4287838513
-0.0088400692 0.01114507 -0.0074522267 4288100144
-0.0069201738 0.011295021 -0.0079183057 4288557869
-0.0050001442 0.011445105 -0.0083843321 4288623148
-0.0029122233 0.010853454 -0.0081717558 4288688684
-0.00081886351 0.010262325 -0.0079603568 4289342759
0.0014529601 0.0089303553 -0.0070729628 4289342759
0.0032084137 0.0098229721 -0.0082179718 4289669668
0.0053153634 0.0092332959 -0.0080096573 4289734948
0.0072467476 0.0093849525 -0.0084779151 4289473574
0.0082600154 0.013239726 -0.012319657 4290258718
0.0099920556 0.01413098 -0.013458642 4289473573
0.012474652 0.012061268 -0.011902578 4288819499
0.015931204 0.0062930658 -0.00698632 4289931553
0.020012967 -0.0016909838 -6.3807704e-05 4289211433
0.02474378 -0.011888899 0.0088591482 4288623404
0.029548869 -0.022080854 0.01776422 4288491313
-0.010751314 0.0086577684 -0.0074594952 4287053368
-0.0088290721 0.0088077709 -0.0079262443 4287445813
-0.006744422 0.0082134008 -0.007714659 4287314744
-0.004654333 0.0076196268 -0.0075043365 4287184184
-0.0027263463 0.0077704266 -0.0079722218 4287641909
-0.00096843392 0.0086651593 -0.0091163777 4288165169
0.00095715001 0.0088159889 -0.0095835105 4288034353
0.0028828643 0.00896696 -0.010050576 4288099888
0.0046305358 0.0098612979 -0.011192027 4288753964
0.0065538213 0.010012306 -0.011658333 4289080874
0.0079269037 0.012391821 -0.014143903 4289277224
0.0098424405 0.012542456 -0.014608148 4288492333
0.01232427 0.010466143 -0.013056822 4288884778
0.015587632 0.0054224953 -0.0088244379 4289277224
0.019664299 -0.0025859028 -0.0019187937 4289211179
0.024389401 -0.012814835 0.006982578 4289146664
0.028590772 -0.020813182 0.013858268 4287510329
-0.010429688 0.0048220456 -0.0065799244 4286856253
-0.008340247 0.0042257905 -0.0063712783 4286987324
-0.0062453449 0.0036300719 -0.0061638653 4286921788
-0.0043097064 0.0037813336 -0.0066337064 4286725949
-0.0025412664 0.0046789348 -0.0077788793 4286922043
-0.00077799708 0.0055762678 -0.0089227036 4287314488
0.0011527464 0.0057274997 -0.0093910918 4287641654
0.0027330481 0.0073700547 -0.011206333 4287968819
0.0044807792 0.0082665682 -0.012346163 4288034098
0.0062233433 0.0091627389 -0.013484605 4287641398
0.0079607032 0.010058627 -0.014621697 4287575863
0.0098787434 0.010209471 -0.01508655 4287379768
0.012173925 0.0088713095 -0.014210854 4287641399
0.015626863 0.0030679181 -0.0093199648 4287968054
0.019897588 -0.0057086349 -0.0017634081 4287902519
0.024624929 -0.01596792 0.0071144644 4287640634
-0.010265768 0.0017227381 -0.0063860831 4286136644
-0.0081713721 0.0011246204 -0.0061802533 4286986814
-0.0060715303 0.00052709132 -0.0059757014 4286856253
-0.0042952225 0.0014273673 -0.0071212319 4286790974
-0.0023569465 0.0015789419 -0.0075916355 4286790973
-0.00041853637 0.0017306358 -0.0080619901 4287445048
0.0015200078 0.0018824488 -0.0085322894 4287314234
0.0031085052 0.0035300553 -0.010346279 4287445048
0.004508812 0.0059245005 -0.012828823 4287314234
0.0064344443 0.0060756877 -0.013295706 4287118139
0.0085432157 0.0054798201 -0.013092592 4287052603
0.010657363 0.0048844814 -0.012890704 4287052860
0.012776908 0.0042897165 -0.012690019 4286856509
0.015665721 0.00070925057 -0.0098184533 4287052348
0.01993645 -0.0080934837 -0.0022815811 4287052093
0.024663378 -0.018383309 0.0065734331 4287117119
-0.0083212554 -0.00048249215 -0.0073436578 4286463809
-0.0062217638 -0.0010822415 -0.0071406746 4286856509
-0.0044454038 -0.00017981231 -0.0082846023 4286594623
-0.0025072619 -2.8267503e-05 -0.0087549835 4287052604
-0.00039943308 -0.00062700361 -0.0085537517 4287248698
0.001886066 -0.0019754022 -0.007682831 4287052348
0.0036576465 -0.0010728464 -0.0088252323 4287052348
0.0050690025 0.0013290346 -0.011305586 4286856253
0.0068249293 0.0022306144 -0.012444004 4287183163
0.0087584592 0.0023825169 -0.012912724 4287379514
0.010877565 0.0017853901 -0.012713667 4287117884
0.013002045 0.0011887699 -0.012515787 4287052348
0.015894976 -0.0024022758 -0.0096534202 4286921278
0.020168357 -0.011230908 -0.0021369178 4286855488
0.024701454 -0.020802751 0.0060294736 4286986049
-0.0087886527 -0.00058241189 -0.0098519931 4286202434
-0.006533362 -0.0019380599 -0.0089773396 4286529343
-0.0045955256 -0.0017866865 -0.0094477581 4286725694
-0.0026575327 -0.0016351789 -0.0099181244 4286921789
-0.00038067251 -0.0029887185 -0.009048474 4287117883
0.0020789281 -0.0050937682 -0.0075119743 4287314234
0.003855858 -0.0041886419 -0.0086540552 4286921789
0.0054502934 -0.0025317445 -0.010462848 4286986814
0.0072142147 -0.0016273931 -0.011601583 4286790463
0.0091555454 -0.0014748797 -0.012072199 4286790974
0.011096966 -0.0013222322 -0.012542748 4286659648
0.01303849 -0.0011694655 -0.01301323 4286855998
0.016123429 -0.0055222213 -0.0094945738 4286855743
0.020013057 -0.012875333 -0.0033267569 4286659139
-0.0070057437 -0.0020337254 -0.011480966 4286399293
-0.0047455952 -0.0033932552 -0.010610704 4286921789
-0.0026412383 -0.0039967671 -0.010412009 4286987068
-0.00053145736 -0.0045997351 -0.010214546 4286921789
0.0019273683 -0.0067113936 -0.0086827883 4286856253
0.0038788244 -0.006558463 -0.0091561386 4286660159
0.0058303848 -0.0064053982 -0.0096294256 4286790463
0.0072427839 -0.0039902702 -0.012100142 4286659904
0.009186618 -0.003837578 -0.012571377 4286790719
0.010945495 -0.0029311851 -0.01370705 4286398274
0.013074555 -0.0035317689 -0.013513614 4286463554
0.015970394 -0.007144399 -0.010668357 4286594114
0.019857794 -0.014519483 -0.0045163874 4286463044
0.0019474663 -0.0090854764 -0.0091872113 4286595899
0.0042499155 -0.010445528 -0.0083301719 4286529853
0.0060323775 -0.0095354915 -0.0094702225 4286660159
0.0078096427 -0.0086257458 -0.010608924 4286725694
0.0093995221 -0.0069603249 -0.012409856 4286398274
0.011163738 -0.0060513169 -0.013545253 4286463554
0.0083748922 -0.013278499 -0.0091302153 4286006339
0.010157604 -0.012366034 -0.010268519 4286071364
-0.013081841 -0.01233349 0.032799527 4282608463
-0.011932403 -0.0077931285 0.028145218 4282282829
-0.010062337 -0.0069056675 0.026961772 4281892679
-0.006819576 -0.012587532 0.032007411 4282675019
-0.015123181 -0.0044992194 0.022575168 4281566534
-0.012171365 0.00093853474 0.016765291 4280460089
-0.0092705712 -0.0032994747 0.020425828 4280590393
-0.0069599748 -0.0046072975 0.021319693 4282220098
-0.017420985 -0.005581826 0.021166781 4281372224
-0.016724937 0.0011877716 0.014464568 4281046334
-0.015339434 0.0042802319 0.011224337 4281177149
-0.013374813 0.0044331923 0.010747032 4281567809
-0.010799289 0.0016491115 0.013024937 4281503803
-0.0086683854 0.0010690764 0.013233285 4281504569
-0.018710054 -0.0013428703 0.014446991 4281045059
-0.017455347 0.0024963766 0.010520773 4280396339
-0.016079769 0.0055967867 0.0072894972 4280981819
-0.013976038 0.0050122067 0.0075026117 4281113144
-0.011866845 0.0044281706 0.0077144913 4280136238
-0.0097521618 0.0038446113 0.0079251546 4282678333
-0.019712441 0.0014524981 0.0091292411 4281045313
-0.018328413 0.0045621693 0.0059023835 4280851258
-0.016671434 0.0061921328 0.0040544793 4280982073
-0.014575966 0.0056046546 0.004267985 4279355684
-0.012627311 0.0057564378 0.0037946124 4280656183
-0.01083342 0.0066468418 0.0026362799 4283983933
-0.021130316 -0.0040375292 0.011863219 4281304648
-0.020287886 0.002049461 0.0058905501 4281045569
-0.018622868 0.0036842301 0.0040439069 4281437759
-0.016821489 0.0045770556 0.002885133 4281437504
-0.014726378 0.0039873421 0.0030970704 4281438014
-0.013081998 0.0056208894 0.0012556557 4281633853
-0.021836668 -0.0026998967 0.0079339817 4281110084
-0.020579517 0.0011720657 0.0040316358 4281176893
-0.018916868 0.0028110296 0.0021887887 4281438013
-0.016824916 0.002218768 0.0023997556 4281112634
-0.014727511 0.0016270727 0.0026094355 4281308219
-0.01323206 0.0040082559 8.8153407e-05 4281569339
-0.023543507 -0.0067214817 0.0092853568 4282084439
-0.022679761 -0.00059811771 0.0033336179 4281046334
-0.021152809 0.001791589 0.0008092504 4279483949
-0.019210406 0.0019424781 0.00033708848 4279355174
-0.016975068 0.00060211122 0.0012292443 4279355429
-0.014729001 -0.00073729455 0.0021188213 4281439799
-0.013230428 0.0016506463 -0.00039831549 4281895738
-0.024643935 -0.0031165034 0.0033189328 4281175108
-0.023382537 0.00077744573 -0.00056816451 4280981564
-0.021583967 0.0016762614 -0.0017215088 4281177403
-0.019790486 0.0025748461 -0.0028735697 4281633854
-0.017563649 0.0012294054 -0.0019826628 4281243703
-0.015326068 -0.00011502206 -0.0010943236 4281570613
-0.013532057 0.00078388304 -0.0022462271 4282092343
-0.025606073 -0.00023142248 -0.0019434849 4281308983
-0.023945637 0.0014201701 -0.0037761708 4280331824
-0.022295564 0.0030710325 -0.0056061936 4281112123
-0.020369299 0.0032206327 -0.0060744626 4281437758
-0.018442854 0.0033703446 -0.0065426906 4280982583
-0.01607044 0.0012705922 -0.0049760086 4280788784
-0.013984457 0.00067147613 -0.0047683869 4283917889
-0.027160764 -0.0050015152 8.6135231e-05 4281954133
-0.026295386 0.0011741221 -0.0058267829 4281439033
-0.024645261 0.0028292462 -0.0076537021 4280851513
-0.022865042 0.0037309676 -0.0087993219 4280785468
-0.021089964 0.0046323836 -0.0099436305 4280916538
-0.019028485 0.0040289909 -0.009731926 4280656949
-0.016813152 0.0026740208 -0.0088447183 4281569594
-0.027839333 -0.0035948455 -0.0037995549 4282152014
-0.026713096 0.0010869503 -0.008340504 4281632069
-0.02506797 0.0027459785 -0.010162897 4281500743
-0.023292996 0.0036494434 -0.011305641 4281566023
-0.021380223 0.0037979633 -0.011770647 4281108808
-0.019467272 0.0039466023 -0.012235623 4281045313
-0.01725778 0.002586849 -0.01135033 4281242429
-0.028119855 -0.0044433698 -0.0056401761 4282282063
-0.026860431 -0.00050617754 -0.0094941678 4281827144
-0.02521503 0.0011572093 -0.01131336 4281695053
-0.023299918 0.0013057962 -0.011779033 4281565003
-0.021241941 0.00069761276 -0.011569865 4281500233
-0.019323841 0.00084663928 -0.0120361 4281501253
-0.01740557 0.000995785 -0.012502298 4281828419
-0.028004177 -0.0075669289 -0.0054499595 4281954389
-0.026738569 -0.003618367 -0.0092972638 4281956939
-0.025087625 -0.0019501671 -0.011114587 4281760588
-0.023307197 -0.0010419562 -0.012255401 4281760588
-0.021104425 -0.0024112612 -0.011375186 4281760078
-0.019326314 -0.0015029311 -0.012515293 4282152013
-0.017405532 -0.0013536066 -0.012982105 4282412623
-0.011486515 -0.0016629472 -0.013712228 4282935629
-0.00956247 -0.0015129074 -0.014179491 4282934863
-0.028152697 -0.0091747865 -0.0066143437 4281953878
-0.02661749 -0.0067390352 -0.0091065662 4282087754
-0.024823964 -0.0058277398 -0.010249012 4282022219
-0.023035549 -0.0049167573 -0.011390151 4282021963
-0.021109968 -0.0047673136 -0.011858326 4282152524
-0.019329138 -0.0038566738 -0.012997431 4282151760
-0.017405853 -0.0037071705 -0.013464869 4282804048
-0.011635043 -0.0032578707 -0.014866878 4282542419
-0.0098693222 -0.0023478121 -0.016001947 4282281298
-0.0079479143 -0.0021978617 -0.01646848 4282673743
-0.0056994557 -0.0035670251 -0.01560193 4282805323
-0.0031080842 -0.0064540505 -0.013406222 4282869838
-0.028301172 -0.010782376 -0.0077785267 4281889874
-0.026497178 -0.0098682195 -0.0089219753 4281827143
-0.024835102 -0.0081904531 -0.010735475 4281761098
-0.023043968 -0.0072770789 -0.01187563 4281956683
-0.021257952 -0.0063640103 -0.013014467 4282087498
-0.019477062 -0.0054511949 -0.014151962 4282151504
-0.017406538 -0.0060647503 -0.013950617 4282543183
-0.013554476 -0.0057649985 -0.014886593 4283000398
-0.011783533 -0.0048525184 -0.016021326 4282411859
-0.009859778 -0.004702501 -0.01648853 4282150738
-0.0080964938 -0.0037903413 -0.017621275 4282412369
-0.0060118437 -0.0044021234 -0.017422784 4282477904
-0.0037558824 -0.0057749152 -0.016561307 4282412368
-0.00064645708 -0.010953747 -0.012384174 4282477649
0.0023289472 -0.015368327 -0.0088789817 4282739279
0.0049885437 -0.018258333 -0.0067060874 4283066444
-0.028580904 -0.011623204 -0.0096135382 4281759824
-0.02677948 -0.010707058 -0.010754785 4281435463
-0.02498319 -0.0097912401 -0.01189466 4281435719
-0.023052745 -0.0096415132 -0.012364099 4281369419
-0.02112215 -0.0094917119 -0.012833515 4281499979
-0.019335888 -0.0085763261 -0.013970681 4281564239
-0.017554767 -0.0076612234 -0.015106523 4282673743
-0.011776872 -0.0072114542 -0.016510315 4282346834
-0.0098506138 -0.0070612878 -0.016978148 4282151248
-0.0080846176 -0.0061467737 -0.018109869 4282347344
-0.0061607361 -0.0059965327 -0.018576939 4282347088
-0.0039053261 -0.0073737428 -0.017718615 4282412368
-0.00062914938 -0.013331503 -0.012890527 4282412369
0.002005551 -0.016232312 -0.010718243 4282804559
-0.028991289 -0.011690661 -0.012114646 4281366614
-0.027061351 -0.011541232 -0.012584144 4280912203
-0.025131218 -0.011391699 -0.013053628 4281173323
-0.023200922 -0.011242017 -0.013523048 4281238603
-0.021270461 -0.011092216 -0.013992423 4281434443
-0.019628465 -0.0094070509 -0.015794219 4281107278
-0.017702945 -0.0092573985 -0.016262216 4281173068
-0.015926905 -0.0083404332 -0.017395126 4281760334
-0.014155984 -0.0074236691 -0.018526712 4282021454
-0.012080401 -0.0080409124 -0.018329596 4281890639
-0.010156937 -0.0078909621 -0.018796749 4281825614
-0.0082333237 -0.0077408701 -0.019263849 4281955663
-0.0064724311 -0.0068244264 -0.020392656 4282151248
-0.0040547252 -0.0089722648 -0.018875703 4282346833
-0.0011166185 -0.013416022 -0.015381219 4282346833
0.0013410188 -0.015560478 -0.013873762 4282673233
-0.019776471 -0.011002928 -0.016949741 4281038174
-0.017997868 -0.010083705 -0.018081719 4281039194
-0.016074978 -0.0099341497 -0.018549005 4281367633
-0.014304012 -0.0090152174 -0.01967898 4281564749
-0.012074061 -0.010403663 -0.018821349 4281368143
-0.010462791 -0.0087159052 -0.020612001 4281302608
-0.0082219839 -0.010103256 -0.019756837 4281564494
-0.0064583868 -0.0091844648 -0.020884618 4281629263
-0.0042041019 -0.010570489 -0.020032583 4281237073
-0.0014353022 -0.014259458 -0.017206436 4281367889
-0.012686096 -0.0096857399 -0.021958046 4281561944
-0.010768212 -0.009536244 -0.02242386 4281171030
-0.0085306093 -0.010928214 -0.021571195 4281041234
-0.0067695975 -0.010007396 -0.02269675 4281106259
-0.004683584 -0.010627709 -0.022505084 4281171029
-0.0019212589 -0.014328063 -0.019685546 4281824338
-0.040976763 -0.017356932 -0.02563253 4282798438
