# .PCD v0.7 - Point Cloud Data file format
VERSION 0.7
FIELDS x y z rgba
SIZE 4 4 4 4
TYPE F F F U
COUNT 1 1 1 1
WIDTH 968
HEIGHT 1
VIEWPOINT 0 0 0 1 0 0 0
POINTS 968
DATA ascii
0.0066405758 0.0036896244 -0.00060941838 4287379769
0.008766681 0.0031297356 -0.00036865659 4287380024
0.010087732 0.0053984001 -0.002909502 4287314488
0.011803415 0.0062523559 -0.004057562 4287772469
0.013721753 0.0063994229 -0.0045104269 4287837748
0.015640125 0.0065465793 -0.0049632415 4287706933
0.017345268 0.0074000955 -0.0061086062 4287772468
0.019261032 0.0075472817 -0.0065606311 4287772979
0.02095826 0.0084003508 -0.0077039301 4287969583
0.023092594 0.0078419745 -0.0074644592 4287707953
0.025008377 0.0079894885 -0.0079162437 4287642929
0.027830249 0.0053163916 -0.0056100488 4287904304
0.033423528 -0.0058146641 0.0049573965 4287773233
-0.0032842681 -0.021847501 0.024278302 4289344798
-0.001630947 -0.020272568 0.022404429 4289867804
0.00073647499 -0.021541692 0.02332731 4290848533
0.0025632009 -0.020677969 0.022153977 4289474338
0.0025200285 -0.012710087 0.01400898 4289473828
0.0024185106 -0.0047464892 0.0058778264 4289276969
0.0051514059 -0.00018980354 0.00078383647 4286267714
0.0070853345 -4.1998923e-05 0.00032694079 4287117884
0.0088195875 0.00081535429 -0.00082403049 4287379769
0.010346156 0.0023816526 -0.0026672501 4287706933
0.011862166 0.0039472133 -0.004507849 4287641653
0.013783026 0.0040944591 -0.0049613249 4288034099
0.015914291 0.0035331994 -0.0047230944 4287837748
0.017837867 0.0036808848 -0.0051770415 4288099633
0.019330092 0.0052450672 -0.0070116948 4288099889
0.021030031 0.006100595 -0.0081540402 4287969329
0.022945687 0.0062479898 -0.0086058807 4287773234
0.02508501 0.0056878626 -0.00836909 4287969585
0.02836122 0.0015913621 -0.0046940502 4288034353
0.034188043 -0.01028163 0.0065334756 4288034353
-0.0057921261 -0.022245824 0.022157528 4289214239
-0.0041386783 -0.020666562 0.02028675 4289802014
-0.002495721 -0.019088052 0.018418569 4289670688
-0.00013945997 -0.020362437 0.019340806 4290456089
0.001676701 -0.019497342 0.018171586 4290390553
0.0019975156 -0.01293128 0.011437956 4290521368
0.0022706091 -0.0063687414 0.0047156848 4287707699
0.0086725578 -0.00079151243 -0.0019749906 4287183418
0.010401607 6.7777932e-05 -0.0031230692 4287641654
0.011920542 0.001637958 -0.0049610976 4287838004
0.013636403 0.002496399 -0.0061058644 4288099634
0.015767336 0.001932919 -0.0058691856 4288099633
0.017690778 0.0020805821 -0.0063231047 4288164913
0.019614242 0.0022283569 -0.0067769513 4288099889
0.021101441 0.0037966669 -0.008607069 4287707188
0.023019616 0.003944248 -0.0090595055 4287707699
0.02493779 0.0040919408 -0.0095118601 4287969328
0.028664868 -0.0014370009 -0.0044736806 4288165168
0.034493394 -0.013347171 0.0067257248 4288165168
-0.0066345334 -0.021050476 0.018173166 4289868059
-0.0049914382 -0.019467644 0.016308073 4289997598
-0.0031807423 -0.018601023 0.015141603 4289539618
-0.00083298236 -0.019880481 0.016062621 4289474338
0.0011586845 -0.019728877 0.01559164 4289016614
0.0014758594 -0.013143353 0.0088735353 4289147684
0.0017453209 -0.0065613464 0.0021667928 4287446579
0.0081268772 -0.00097032636 -0.0045077335 4286987069
0.010052688 -0.00082293898 -0.0049625561 4287641653
0.011569235 0.00075143576 -0.0067967614 4287903794
0.013697132 0.0001854226 -0.0065610791 4288230704
0.015620414 0.0003329441 -0.0070150578 4288099634
0.017756347 -0.00023222715 -0.0067811003 4288164913
0.019467052 0.00062835962 -0.0079227639 4287903283
0.02095452 0.0022010654 -0.0097496901 4288099889
0.022872556 0.002348654 -0.010202082 4287903538
0.025013845 0.0017843321 -0.0099690594 4287969585
0.02919364 -0.0051857531 -0.0035746749 4287903283
0.035026528 -0.017132886 0.0075959936 4288034098
0.042799503 -0.034764126 0.024213202 4288034098
-0.0073026791 -0.020555221 0.014897358 4289932573
-0.005667299 -0.018968664 0.013037372 4289866784
-0.0038644932 -0.018100463 0.011874378 4290717208
-0.0015252493 -0.019384935 0.0127941 4290455579
0.00064151734 -0.019951224 0.013018195 4289867804
0.00095504522 -0.013346247 0.0063156113 4289345309
0.011218365 -0.00013036281 -0.008629051 4287054898
0.013343271 -0.00069881231 -0.0083942963 4287380789
0.015263755 -0.00055150688 -0.008847612 4287445559
0.017396688 -0.001119107 -0.0086145839 4287642673
0.019319881 -0.00097134709 -0.0090683652 4287707954
0.021025352 -0.00010886043 -0.010207078 4288034864
0.022945911 3.8914382e-05 -0.01066007 4287904049
0.025089517 -0.0005274117 -0.010429223 4287772979
0.02926979 -0.0075194016 -0.0040512495 4287838004
0.035330087 -0.020217694 0.007774448 4287838004
0.042641088 -0.036476552 0.022987135 4287838004
-0.0079695769 -0.02004645 0.011631299 4289540128
-0.0063419081 -0.018456072 0.0097763389 4290848023
-0.0047247075 -0.016866416 0.0079239905 4290848279
-0.0023966245 -0.018156141 0.0088430792 4290651929
-0.00024081767 -0.018725462 0.0090681296 4290914578
0.00024943426 -0.012820758 0.0030733161 4289345818
0.020443201 -0.00027235597 -0.012717753 4287315763
0.022578511 -0.00084165484 -0.012486606 4288035118
0.025164805 -0.0028432608 -0.010892318 4287642929
0.029120058 -0.0091409162 -0.0052123014 4287642164
0.03540469 -0.022595011 0.007265877 4287642164
0.042713508 -0.038904481 0.022441596 4287642164
-0.010096181 -0.021841623 0.010920506 4289540384
-0.0086352378 -0.01952409 0.0083748996 4290521114
-0.0070152581 -0.017929919 0.0065250136 4289343268
-0.0054057613 -0.016336478 0.0046777427 4289016359
-0.0034464896 -0.016187482 0.0042143054 4288754728
-0.0011214986 -0.017481737 0.0051309317 4289605919
-0.0002694875 -0.01300317 0.00053006038 4289020438
-0.010922406 -0.020586781 0.0069756098 4289670688
-0.0094716251 -0.018263467 0.004437279 4290455323
-0.0080366433 -0.015941218 0.0019027852 4290128414
-0.0066174641 -0.013620101 -0.00062784553 4288754473
-0.004494302 -0.014196441 -0.00039844215 4289081893
-0.0021831319 -0.015496157 0.00051818043 4290718484
-0.00060227513 -0.013900168 -0.0013188105 4288626974
-0.026650332 -0.024139963 0.010224063 4288036393
-0.02483283 -0.023263089 0.0090632103 4288430879
-0.011746991 -0.019313984 0.0030435752 4289343523
-0.010306366 -0.016984858 0.00051253475 4289932064
-0.00923042 -0.013203405 -0.0033921227 4289604644
-0.0076496154 -0.011603422 -0.0052261315 4289146919
-0.0055400692 -0.012183003 -0.0049951486 4289931808
-0.0026954859 -0.0156665 -0.0020179562 4289474849
-0.00093463063 -0.01479242 -0.0031642988 4288037923
-0.026501991 -0.027239099 0.010437358 4287837748
-0.024679109 -0.026359655 0.0092768315 4287838259
-0.022861369 -0.025480486 0.0081176143 4287773234
-0.020893104 -0.0253319 0.0076512396 4287904304
-0.018924668 -0.025183193 0.0071849059 4287708210
-0.017117068 -0.02430445 0.0060283449 4287381299
-0.015641883 -0.021966502 0.0034937356 4287707954
-0.014182486 -0.019629635 0.00096294656 4287773234
-0.012400992 -0.018752508 -0.00018717535 4288034608
-0.010796271 -0.017146572 -0.0020237658 4288949549
-0.0095505379 -0.014083438 -0.0052321032 4289734439
-0.0081490278 -0.011750497 -0.007748846 4288426289
-0.0058655739 -0.013061248 -0.006832229 4288818734
-0.003207013 -0.015827678 -0.0045476053 4289081383
-0.026649415 -0.028880492 0.0092608538 4287445048
-0.024826467 -0.027998872 0.008101929 4287772468
-0.022855863 -0.02785027 0.0076348856 4287576883
-0.020885065 -0.027701519 0.0071678944 4287773489
-0.01875601 -0.028284974 0.0073902775 4287642418
-0.016943038 -0.027403645 0.006234061 4287119158
-0.015462093 -0.025058709 0.0037029609 4287053113
-0.013996918 -0.022714891 0.0011757165 4286856508
-0.012210064 -0.0218352 2.5937334e-05 4286856253
-0.0029896647 -0.018901855 -0.0043359138 4286660158
-0.026502132 -0.031992301 0.0094651189 4287445049
-0.024823807 -0.03037294 0.0076168515 4287641654
-0.02300328 -0.029489227 0.0064601898 4287576628
-0.020877384 -0.030075245 0.0066815969 4287707443
-0.018746004 -0.030660786 0.0069018323 4287772979
-0.017251477 -0.028308384 0.0043722987 4287314999
-0.015446275 -0.027425364 0.0032196082 4287052858
-0.013812106 -0.025808632 0.0013823304 4286660158
-0.011851359 -0.025660075 0.00091813877 4286332739
-0.026649833 -0.033637509 0.0082858615 4287510328
-0.024971247 -0.032013766 0.0064407811 4287445304
-0.022998258 -0.031865023 0.0059731379 4287641653
-0.021025114 -0.031716138 0.0055055581 4287642164
-0.01905179 -0.031567134 0.0050380193 4287707189
-0.017238706 -0.030681446 0.0038850028 4287641653
-0.015430786 -0.029796056 0.0027332809 4286987323
-0.01346235 -0.02964706 0.0022671688 4286660158
-0.011662137 -0.028762005 0.001117453 4286398018
-0.026356727 -0.037501626 0.0091681313 4287510329
-0.02466993 -0.035872944 0.0073243864 4287575864
-0.022841342 -0.034984283 0.0061690416 4287445048
-0.021017902 -0.034095906 0.0050149839 4287510584
-0.019199602 -0.033207729 0.0038622227 4287576118
-0.017226286 -0.033058614 0.0033947621 4288034098
-0.015415668 -0.03217084 0.0022440199 4287183928
-0.013610214 -0.031283341 0.0010945927 4286922043
-0.011978067 -0.029657915 -0.0007356368 4286594623
-0.010356404 -0.028033219 -0.002563253 4286463808
-0.022533149 -0.038853578 0.0070430394 4286529343
-0.020547017 -0.038703747 0.0065723527 4287314234
-0.019032709 -0.036330372 0.0040526874 4287314233
-0.017054237 -0.036180884 0.0035839938 4287838004
-0.015563518 -0.033808999 0.0010700542 4287380023
-0.013758011 -0.03291931 -7.7772886e-05 4287445814
-0.012293559 -0.030549176 -0.0025853124 4287183673
-0.010503709 -0.029660426 -0.0037292466 4286856509
-0.0085458159 -0.029511906 -0.0041926336 4286332738
-0.016563371 -0.040797941 0.005128732 4286202689
-0.015386462 -0.036932774 0.0012566894 4286988088
-0.014070842 -0.033812217 -0.0019294564 4287119414
-0.012440871 -0.032178231 -0.0037526898 4287119414
-0.010650955 -0.03128732 -0.0048950221 4287053623
-0.0088662468 -0.030396663 -0.0060360329 4286856253
-0.0070867389 -0.029506296 -0.0071757277 4286660158
-0.0049557276 -0.030099683 -0.0069612944 4286071873
-0.0030003153 -0.029950969 -0.0074238079 4286202688
0.015721917 0.037193608 0.022905692 4279155253
0.010283656 0.039927408 0.01757177 4282023748
0.010542847 0.045375783 0.011305507 4280980033
0.011387512 0.048833415 0.0072279926 4281176384
0.013689537 0.0476529 0.0082358681 4281175618
0.017719451 0.041176341 0.015040994 4280394808
0.0224545 0.032718305 0.024006531 4280265779
0.0080239438 0.038851503 0.016154621 4282413644
0.0080994219 0.044984087 0.0091707651 4280916284
0.0087464675 0.049118288 0.0043739919 4279353389
0.0099890381 0.051255859 0.0017587245 4280980798
0.012062825 0.050734196 0.0020432249 4280981054
0.015214186 0.046891376 0.0059433524 4280395319
0.018397512 0.043051049 0.009836046 4280200498
0.021173222 0.040541153 0.012276962 4281242428
0.023970243 0.038032938 0.014712963 4281111613
0.026113298 0.03751694 0.014981452 4281177913
0.027122924 0.040318001 0.011647556 4281308729
0.028111257 0.043117493 0.0083187353 4279808818
0.030243626 0.042600952 0.008589875 4280330038
0.034974288 0.034795277 0.01676169 4280133689
0.0060696192 0.04326731 0.0084898639 4282088518
0.0067336895 0.047415935 0.0036988165 4280980799
0.0075721703 0.050895013 -0.0003609471 4279548974
0.0092197992 0.05170431 -0.0015222449 4279679024
0.011285301 0.051179796 -0.0012374315 4279874354
0.014427386 0.047323011 0.0026551168 4279549485
0.017384501 0.044135131 0.0058189947 4280785978
0.019489983 0.043613922 0.0060945451 4281046843
0.0216008 0.043093201 0.0063688979 4281046333
0.023492061 0.043238692 0.0059227925 4281046588
0.024473149 0.046046369 0.002602173 4280133943
0.02566316 0.048187129 4.6808273e-06 4281371713
0.02753577 0.048331428 -0.00043684617 4281762629
0.031056996 0.043821454 0.0041389912 4281436739
0.036282711 0.034661498 0.013719082 4281111358
0.0047211908 0.045713931 0.0030238237 4281305414
0.0055738352 0.049205013 -0.0010311734 4280719678
0.0063999444 0.052694134 -0.0050798506 4281242430
0.0086605363 0.051497083 -0.0040720403 4281177149
0.011143178 0.04963202 -0.0023459215 4280916284
0.014497977 0.045093164 0.0022573005 4281047099
0.017023232 0.043231525 0.0039734785 4280915518
0.018687043 0.044044569 0.0028102305 4280784958
0.02034555 0.044857301 0.0016483013 4280849983
0.021998737 0.045669705 0.0004876852 4280915774
0.023191923 0.047817282 -0.0021057483 4278894899
0.02436915 0.049963668 -0.0046953186 4279481653
0.026461018 0.049439617 -0.0044178907 4279873078
0.029734766 0.045580428 -0.00056578591 4280002874
0.034468263 0.037722219 0.0075661633 4279807288
0.0040941387 0.039306831 0.0074056219 4282086988
0.0035757832 0.047515355 -0.0017012302 4281046079
0.0048224553 0.049672872 -0.0043028761 4280720189
0.0060532093 0.051829286 -0.0069007492 4280524859
0.0085191503 0.049956203 -0.0051756222 4280785213
0.011423435 0.046742074 -0.002015762 4281111104
0.014568184 0.0428591 0.0018564668 4280980289
0.016878895 0.041661777 0.0028493088 4280980544
0.018323664 0.043147601 0.00097033568 4280654143
0.019535977 0.045303091 -0.001622824 4280915009
0.021181293 0.046117082 -0.0027799513 4280849474
0.022367027 0.04827065 -0.0053666737 4280719423
0.023996361 0.04908362 -0.0065199528 4280719168
0.02608528 0.04855711 -0.0062434124 4280458558
0.029355042 0.044684414 -0.0024001803 4280719934
0.034796629 0.03479201 0.0078522284 4280981054
0.0027640834 0.041779518 0.001953641 4281238858
0.0032337829 0.046642315 -0.0035296064 4280719933
0.0042752996 0.049480304 -0.0068454035 4278961199
0.0057069063 0.050969101 -0.0087183146 4278569773
0.011069987 0.045863718 -0.0038447361 4280719169
0.014424384 0.041294035 0.00073562376 4280849475
0.016518302 0.040765252 0.0010089334 4280913478
0.017960716 0.04225529 -0.00086622126 4280588098
0.018949274 0.045089796 -0.0041690934 4280914243
0.020140834 0.047250383 -0.0067523811 4280979779
0.021770291 0.048065446 -0.0079040658 4281045058
0.023853593 0.047536261 -0.0076279445 4281110338
0.0264067 0.045664012 -0.0059277359 4281175618
0.029680451 0.041778419 -0.002095256 4281176128
0.036074452 0.029167753 0.010977615 4281046079
0.0016339794 0.043602407 -0.0027599465 4280849219
0.002892226 0.045773953 -0.0053546373 4280915263
0.0039317906 0.048620574 -0.0086634494 4281567300
0.0055664852 0.04943756 -0.0098152366 4281110848
0.0080283433 0.047550991 -0.0080990074 4280393789
0.010716967 0.04499007 -0.0056704106 4280719424
0.0134269 0.042430878 -0.0032467712 4280849729
0.015509874 0.041899044 -0.002972519 4280914753
0.017160699 0.042717695 -0.0041277967 4280849218
0.018141992 0.045560442 -0.0074224174 4280849473
0.019326095 0.047727011 -0.0099989977 4280067389
0.021401122 0.047194913 -0.0097226184 4278438193
0.023940234 0.045314908 -0.0080240741 4278437683
0.026727311 0.04276228 -0.0056182388 4280328253
0.030709164 0.036842462 0.00033475086 4281306688
0.00065470114 0.031580444 0.0077915918 4281560414
-0.00017157197 0.041232303 -0.0027121957 4281499469
0.00030866265 0.046126597 -0.0081751226 4280263229
0.001951322 0.046946216 -0.0093272869 4280329528
0.0031835437 0.049122442 -0.011910874 4281372223
0.0048103668 0.049941018 -0.013059173 4280850238
0.0072635412 0.048047133 -0.011345764 4279937848
0.0099432729 0.045476712 -0.0089216158 4280328764
0.012217853 0.044263311 -0.0079301288 4280914753
0.014287222 0.043728225 -0.0076543083 4280915009
0.015924849 0.044548072 -0.0088048344 4280719423
0.01711476 0.046721645 -0.011377992 4280849473
0.018288733 0.04889404 -0.013947275 4279155764
0.020579332 0.047682293 -0.012959256 4280067898
0.023338925 0.04511863 -0.010553492 4278373934
0.031501345 0.032560568 0.0020402484 4280849984
-0.0014797784 0.043769039 -0.0081230598 4280978758
-0.00062004104 0.04731546 -0.012139013 4280392768
0.0010120831 0.048136462 -0.013287066 4280262719
0.0024365671 0.049637802 -0.015148567 4280133434
0.0044655874 0.049097072 -0.014865117 4279676219
0.0067076758 0.047876593 -0.013869371 4280198204
0.009381175 0.045296896 -0.01145029 4280784704
0.011436909 0.044758484 -0.011172947 4280915008
0.013282314 0.044900186 -0.011608431 4280980799
0.014909402 0.045721415 -0.012754837 4280720189
0.016531182 0.046542324 -0.013899928 4280133689
0.017923998 0.04804194 -0.015753433 4281176384
0.019985113 0.047504373 -0.015477037 4281502018
0.022738468 0.044931423 -0.013076345 4281306944
0.026671246 0.038968146 -0.0071412688 4281110848
0.032526195 0.027582996 0.0044404604 4281176129
-0.0013581328 0.034570113 -0.00091576949 4282083674
-0.0014260635 0.041548163 -0.0085091908 4281371203
-0.00056276098 0.04510583 -0.012517828 4280914754
0.001072105 0.045929272 -0.013664946 4281241919
0.0027017295 0.04675236 -0.014810715 4281305668
0.0047357604 0.046209801 -0.014530092 4281175363
0.0067751706 0.045667708 -0.014250623 4281045059
0.0090300813 0.044443894 -0.013261113 4280849474
0.010657221 0.04526715 -0.014406029 4280915009
0.012279067 0.046090078 -0.015549639 4280849983
0.013677474 0.047594387 -0.017401367 4280915518
0.015286058 0.04841648 -0.01854171 4279873078
0.016889328 0.04923825 -0.019680737 4280003893
0.019165609 0.048016615 -0.018695869 4280395319
0.02191006 0.045434188 -0.016299609 4280199989
0.026295766 0.038089119 -0.0089643588 4280200243
0.033549003 0.022583526 0.0068250019 4280135218
-0.00079070404 0.037266023 -0.006757916 4281370694
0.00028079376 0.040150061 -0.010048281 4281175109
0.0021283776 0.040291384 -0.010484686 4281500998
0.003774032 0.041117929 -0.011632664 4281697604
0.0056190714 0.041259248 -0.012068324 4281174853
0.0074641556 0.041400649 -0.012503939 4281305413
0.0090993345 0.042226635 -0.013649181 4281305668
0.010516614 0.043736547 -0.015502203 4281370948
0.012138553 0.044561692 -0.016644191 4280587333
0.013537262 0.046070416 -0.018492728 4280980034
0.015145943 0.046894718 -0.019631458 4281241663
0.016526064 0.048402142 -0.021475438 4281307964
0.018799165 0.047175862 -0.02049309 4281047354
0.021311473 0.045267418 -0.018807821 4281112379
0.026151944 0.036531888 -0.010079377 4281047353
0.034569785 0.017562162 0.0091938674 4281047353
0.0002306737 0.031590611 -0.003595395 4281761354
0.0017117336 0.033109311 -0.0054606535 4281173833
0.0035804659 0.033252228 -0.0059020678 4281305158
0.0052474961 0.034082565 -0.0070534097 4281305668
0.0069092549 0.034912582 -0.0082034487 4281240133
0.0083586611 0.036429174 -0.010060918 4281436483
0.0097974576 0.037945092 -0.011915862 4281175363
0.011225671 0.039460249 -0.013768187 4280784194
0.012858335 0.040288445 -0.014911125 4280719424
0.014267981 0.041802369 -0.016758928 4281045569
0.015667006 0.043315567 -0.018604159 4281176128
0.017055392 0.044828068 -0.020446861 4281436738
0.019110255 0.044283427 -0.020173891 4281437503
0.021627154 0.042368744 -0.018494608 4281176893
0.026932225 0.032234695 -0.0083817597 4281307963
0.00066886842 0.027959295 -0.0025826544 4282023239
0.0025507063 0.028103124 -0.0030272305 4281369673
0.0044326186 0.028247051 -0.0034717601 4281370438
0.0061130226 0.029080585 -0.0046246462 4281370693
0.0073797107 0.031292427 -0.0071917875 4281370693
0.0090442561 0.032124992 -0.0083408253 4281240644
0.010493994 0.033646092 -0.010195043 4281501763
0.011933133 0.035166483 -0.012046685 4281370949
0.01379139 0.035309173 -0.0124852 4281240644
0.015432134 0.036140278 -0.013628347 4281306433
0.016847406 0.037659112 -0.015474148 4281438014
0.018474892 0.038489353 -0.016613975 4281046589
0.020322554 0.038631607 -0.017049711 4281242429
0.022626512 0.037399009 -0.0160811 4281241409
0.028172521 0.026545458 -0.0052935854 4281306433
0.0011059009 0.02431491 -0.001579199 4282022984
0.0027995408 0.025151461 -0.0027337242 4281696839
0.0046866573 0.025295783 -0.003179485 4281500743
0.0061710849 0.026823685 -0.005038891 4281435719
0.0078489706 0.027659312 -0.0061894841 4281435718
0.0093149133 0.029185962 -0.0080443276 4281370693
0.011188935 0.029329646 -0.0084867245 4281370948
0.012638986 0.03085532 -0.010337712 4281632324
0.014293104 0.03168951 -0.01148241 4281436738
0.016159236 0.031832889 -0.011922723 4281436739
0.017805412 0.032666668 -0.013065398 4281371968
0.019446276 0.033500139 -0.014206743 4281306689
0.021532405 0.032953516 -0.01394441 4281372224
0.023851793 0.031717714 -0.0129827 4281306433
0.029640973 0.020140477 -0.0015243553 4281436228
0.001155369 0.022046678 -0.0019993484 4281826379
0.0028517544 0.022885621 -0.0031528994 4281566024
0.0045428947 0.02372425 -0.0043051466 4281435719
0.0060276091 0.025256574 -0.0061613517 4281370694
0.0079094023 0.025400661 -0.0066057248 4281370694
0.0095847659 0.026238374 -0.0077540297 4281371203
0.011463992 0.026382476 -0.0081976438 4281240644
0.012919661 0.027912922 -0.010046654 4281436738
0.014579177 0.028749716 -0.011190998 4281436738
0.016450513 0.028893497 -0.011632537 4281436738
0.018321864 0.029037379 -0.012074003 4281371714
0.020193215 0.029181357 -0.0125154 4281371714
0.022289652 0.02863333 -0.012257129 4281502019
0.024846897 0.026702017 -0.010602098 4281501764
0.030415369 0.015779886 0.00012786873 4281762883
0.0013974719 0.01907748 -0.0017169006 4281956174
0.0029035993 0.020615622 -0.0035750568 4281760844
0.004399173 0.022152998 -0.0054306109 4281761098
0.0058841705 0.023689725 -0.0072836271 4281434954
0.0079694763 0.023137808 -0.0070249084 4281239113
0.0098538585 0.023282185 -0.0074698254 4281369928
0.011738282 0.023426674 -0.0079146745 4281370693
0.013199538 0.024961971 -0.0097617945 4281567299
0.014864456 0.025801387 -0.010905772 4281436738
0.016524076 0.026640486 -0.012048433 4281502274
0.018617526 0.026089832 -0.011791237 4281567299
0.020494081 0.026234224 -0.01223385 4281501763
0.022595514 0.025684386 -0.01197839 4281435973
0.025157351 0.023746803 -0.010329291 4281500489
0.030957948 0.012095738 0.001070844 4281565769
0.0016387925 0.016099751 -0.0014406424 4282674764
0.0033459738 0.016943879 -0.0025935043 4282283595
0.0048498064 0.018486284 -0.0044477396 4281957448
0.0065438226 0.019329652 -0.0055973828 4281891913
0.0082325898 0.020172693 -0.0067456597 4281499978
0.010328237 0.019619502 -0.0064909915 4281434954
0.012011774 0.02046233 -0.0076378919 4281500998
0.013478644 0.022002414 -0.0094830291 4281370694
0.015148945 0.022844478 -0.010626689 4281502273
0.017247388 0.022291873 -0.010372334 4281567554
0.018912409 0.023133732 -0.011514602 4281501508
0.020794153 0.02327852 -0.011958439 4281436228
0.022451218 0.024119932 -0.013098636 4281500743
0.025466993 0.020783044 -0.010062668 4281500234
0.031499308 0.0083986558 0.0020044893 4281434953
0.012701564 0.016089447 -0.0059700022 4283002694
0.013968144 0.01833456 -0.0085124644 4282677059
0.01564651 0.019179396 -0.0096563585 4282220098
0.017752582 0.018625215 -0.0094054854 4282089538
0.01942567 0.019469857 -0.010547972 4281893444
0.02087163 0.021013133 -0.012384607 4281762119
0.022755906 0.021158211 -0.01282897 4281696074
0.025775854 0.017810673 -0.0098021431 4281630284
0.032269262 0.0039902106 0.0036224555 4281630540
0.018472897 0.014243983 -0.0077527454 4282871623
0.019937735 0.015792985 -0.0095906509 4282742083
0.021613562 0.016640142 -0.010732078 4282284105
0.023284061 0.017487034 -0.011872211 4282022474
0.026310835 0.01412905 -0.0088551445 4282022728
0.032808013 0.00026492029 0.0045359749 4282022728
0.0020125061 -0.0022968873 -0.0049815681 4283067463
0.0039353296 -0.0021500885 -0.0054359511 4283067719
0.0056617446 -0.0012868866 -0.0065802811 4283199299
0.00050896034 -0.0062000602 -0.0036017522 4283001163
0.0014846735 -0.002458401 -0.0075066043 4282413899
0.0034020506 -0.0023120195 -0.0079597058 4282087243
0.0051232055 -0.0014469996 -0.0091012185 4282088009
0.0068391189 -0.00058234483 -0.010241377 4282478924
0.0089529678 -0.0011540577 -0.010005814 4282543693
0.010867923 -0.001007393 -0.010457995 4283525954
0.00017451867 -0.0070842952 -0.0054407381 4283000653
0.0011484474 -0.0033318102 -0.0093370294 4282217804
0.0032564625 -0.0039065778 -0.009101945 4281891659
0.0049776845 -0.0030393824 -0.010241854 4281956683
0.0064949207 -0.0014520362 -0.012066628 4281890894
0.0084043778 -0.0013059303 -0.01251761 4281695054
0.010517932 -0.0018797591 -0.012283522 4281825358
0.01284356 -0.0031729639 -0.011366225 4281956429
0.014761109 -0.0030258819 -0.011818855 4282021963
0.016466662 -0.0021591857 -0.012954541 4282152013
0.018166933 -0.0012928322 -0.014088861 4282020943
0.019861907 -0.0004267469 -0.015221836 4282478413
0.021991547 -0.00099865347 -0.014991036 4282936139
-0.00015946105 -0.0079638585 -0.0072763069 4282870349
0.0010032356 -0.0049238503 -0.010477505 4282478413
0.0029176846 -0.0047776997 -0.010929917 4282021198
0.0050280914 -0.0053543672 -0.010696943 4282086478
0.0065482333 -0.0037623867 -0.012519202 4282151503
0.0084602125 -0.0036160871 -0.012970773 4281890639
0.010372229 -0.0034696683 -0.013422274 4281891148
0.012490794 -0.0040451884 -0.013190917 4281826378
0.014196392 -0.0031764582 -0.014325033 4281565258
0.0158967 -0.0023080334 -0.015457825 4281695819
0.017806195 -0.0021613315 -0.015908375 4281630794
0.019498575 -0.0012932718 -0.017039116 4281760588
0.021625217 -0.0018675923 -0.016809233 4281957194
0.023757167 -0.0024413839 -0.016580511 4282022473
0.02792028 -0.0095004663 -0.010247368 4282283848
0.034641758 -0.024480239 0.003528852 4282283848
0.04262678 -0.04305239 0.020664588 4282283848
7.0150942e-05 -0.01101581 -0.0070516989 4282739024
0.0012388229 -0.0079665855 -0.01024779 4282608719
0.0031584427 -0.0078200549 -0.010701434 4282477648
0.00488244 -0.0069483221 -0.011838715 4282281809
0.0067995302 -0.0068017468 -0.012291585 4282085713
0.0085156672 -0.0059303567 -0.01342689 4281890128
0.010430202 -0.0057837367 -0.013878974 4281760078
0.012344778 -0.0056370124 -0.014331001 4281630029
0.014050435 -0.0047660992 -0.015463506 4281565258
0.015750811 -0.0038954541 -0.016594667 4281500234
0.01766016 -0.003748782 -0.0170452 4281435208
0.019569524 -0.0036019757 -0.017495628 4281435208
0.021698471 -0.004178308 -0.017267916 4281566024
0.023610502 -0.0040310696 -0.017718814 4281761353
0.027546547 -0.010389395 -0.012078254 4281827144
0.034488484 -0.026138358 0.0023416337 4281762119
0.042468041 -0.044767953 0.019436289 4281762119
0.00011147186 -0.013348356 -0.0075172484 4282608464
0.001473628 -0.011017822 -0.010024238 4282542673
0.00320559 -0.010143399 -0.01116186 4282477394
0.005323261 -0.010723867 -0.010933917 4282412624
0.0070500374 -0.0098496228 -0.012070142 4282085968
0.0089723505 -0.0097025335 -0.012524158 4282021199
0.010691259 -0.0088286623 -0.013658356 4281760334
0.012404907 -0.0079550594 -0.014791209 4281630284
0.014113266 -0.0070816949 -0.015922772 4281630539
0.015604943 -0.0054825917 -0.017731311 4281500489
0.017728213 -0.0060617849 -0.017504066 4281435463
0.019856811 -0.0066404641 -0.01727799 4281435974
0.021771349 -0.0064931437 -0.01772956 4281435208
0.023907933 -0.0070710033 -0.017505148 4281697349
0.028071992 -0.014173843 -0.011204794 4281827909
0.034335233 -0.027796194 0.0011546258 4281827908
0.0017076917 -0.014077581 -0.009806741 4282804558
0.0032523759 -0.012470849 -0.011625223 4282413134
0.0051770806 -0.012323849 -0.012080004 4282021453
0.007101845 -0.0121767 -0.012534697 4281890384
0.0090266652 -0.012029432 -0.012989318 4281759313
0.010748293 -0.011153162 -0.014122527 4281499213
0.01246465 -0.01027716 -0.015254393 4281238603
0.014175728 -0.0094014555 -0.016384933 4281761354
0.015881523 -0.008525975 -0.017514173 4281631049
0.018009763 -0.0091070309 -0.017289681 4281435463
0.020143323 -0.0096875057 -0.017066404 4281566534
0.021843858 -0.0088121295 -0.018194096 4281631558
0.023982733 -0.0093919411 -0.017971879 4281566024
0.028596228 -0.017971195 -0.010340638 4281631048
0.035090562 -0.032361962 0.0026599746 4281565769
0.0071532875 -0.014507882 -0.013002206 4283984444
0.0090806149 -0.014360435 -0.013457427 4283136568
0.010601915 -0.012750663 -0.015266722 4282678079
0.012524016 -0.01260338 -0.015720533 4281893698
0.014237814 -0.011725254 -0.016850073 4281828674
0.016157325 -0.011577927 -0.017303091 4281827143
0.018076863 -0.011430457 -0.017756013 4281630283
0.020212725 -0.012012959 -0.017534915 4281761865
0.022134941 -0.011865042 -0.017988287 4281827909
0.0245004 -0.013176352 -0.017096188 4281762628
0.029119279 -0.021781512 -0.0094857039 4281696838
0.035390399 -0.035486497 0.0028099995 4281630794
0.0072043762 -0.016843222 -0.013472617 4284638774
0.0091342069 -0.016695581 -0.013928428 4284704563
0.010658406 -0.01508116 -0.015735198 4284704563
0.012583017 -0.014933683 -0.016189596 4284312884
0.014507663 -0.014786072 -0.016643915 4283855158
0.016432341 -0.014638342 -0.017098147 4282416959
0.018143587 -0.013757996 -0.018225286 4282089283
0.020065639 -0.013610214 -0.018678721 4281958469
0.02220647 -0.014194407 -0.018460322 4282089539
0.024795461 -0.016241841 -0.016900815 4281959234
0.029641133 -0.025604747 -0.0086400108 4282024514
0.020134494 -0.01594165 -0.019151509 4284704308
0.022496197 -0.017262183 -0.018265095 4284638773
0.025089726 -0.019315802 -0.016711578 4284639794
0.029490169 -0.027239226 -0.0098103406 4284314158
0.035308141 -0.039560065 0.0010869298 4283789879
-0.014383249 -0.034700364 -0.0037778094 4283001419
-0.012923192 -0.032317512 -0.0062745344 4283133254
-0.010968361 -0.032169349 -0.0067372862 4283330624
-0.014695209 -0.035583846 -0.0056227483 4282413899
-0.013404697 -0.032447584 -0.0087898709 4282544969
-0.011455312 -0.032299869 -0.0092513543 4282610504
-0.0095058233 -0.032152005 -0.0097127575 4282609483
-0.0075562075 -0.032004006 -0.010174105 4283001674
0.0002431646 -0.031410746 -0.012018802 4284573238
-0.015006721 -0.036462598 -0.0074642953 4281826378
-0.01371821 -0.033317752 -0.010624463 4281826124
-0.011941426 -0.032421306 -0.01175884 4281891148
-0.0098249391 -0.03302262 -0.01154604 4282021198
-0.0077030435 -0.03362342 -0.011334443 4281955663
-0.0059312358 -0.032726981 -0.012467371 4282282319
-0.0038038418 -0.03332711 -0.012256881 4282608464
0.0018572658 -0.032134064 -0.014309144 4283132998
0.0038045794 -0.031985499 -0.014769392 4283330114
0.0057519674 -0.031836815 -0.015229573 4283462203
0.0075030997 -0.030941054 -0.016356936 4284116278
0.0090499893 -0.029298775 -0.018149668 4284574259
-0.015978828 -0.043498643 -0.0034487564 4282347343
-0.014989208 -0.03883978 -0.007956041 4281695053
-0.013697408 -0.035685949 -0.011110483 4281695054
-0.011748321 -0.035538264 -0.011571908 4281564239
-0.0099713802 -0.034639485 -0.012704602 4281825359
-0.0080247223 -0.034491755 -0.013165282 4281955409
-0.0062555224 -0.033593342 -0.014295971 4282347344
-0.0041311383 -0.034195863 -0.014086397 4282608208
0.0054108351 -0.03270451 -0.017054224 4282936393
0.0073554739 -0.032555878 -0.017513642 4282479433
0.0094989315 -0.033156089 -0.017307928 4282675273
0.012252018 -0.036001988 -0.01510998 4283461184
0.015230443 -0.03959468 -0.01225316 4284576043
0.029698171 -0.040775031 -0.013530293 4284704309
-0.01644969 -0.043631352 -0.0059691584 4282281809
-0.015300244 -0.039713494 -0.0097939987 4281760333
-0.013676949 -0.038058251 -0.01159939 4281630795
-0.011894763 -0.037156992 -0.012731859 4281564748
-0.0099457279 -0.037009202 -0.013193181 4281498449
-0.0081712753 -0.036108322 -0.01432359 4281759568
-0.0064020231 -0.035207711 -0.015452666 4282150994
-0.0042779893 -0.03581249 -0.015244653 4282412114
-0.0023312122 -0.035664372 -0.015705073 4282804049
-0.00038434565 -0.03551612 -0.016165422 4282804304
0.0011866763 -0.033863805 -0.017957686 4282934864
0.0031283796 -0.033715695 -0.018416626 4282673998
0.0048768744 -0.032815851 -0.019540275 4282543694
0.0072078928 -0.034170404 -0.018670132 4282543693
0.0093509853 -0.034772821 -0.018465953 4282347853
0.01250555 -0.039129429 -0.014948549 4282347598
0.015895873 -0.044234246 -0.010776299 4283003459
-0.016919702 -0.043755002 -0.0084830066 4282346834
-0.015774719 -0.039826557 -0.012298668 4281890129
-0.013989948 -0.038923047 -0.013430214 4281826123
-0.012041174 -0.038775422 -0.013891591 4281826123
-0.010092288 -0.038627647 -0.014352886 4281693523
-0.0081432909 -0.038479768 -0.014814129 4281824849
-0.0061941966 -0.038331725 -0.015275294 4282020178
-0.0042450055 -0.038183577 -0.015736392 4282281298
-0.0022957325 -0.038035251 -0.0161974 4282607953
-0.00053147972 -0.037132449 -0.017323399 4282738768
0.0027909279 -0.034573667 -0.020235213 4282608719
0.0049229488 -0.035179451 -0.02003021 4282477903
0.0070603415 -0.035784617 -0.019826395 4282347088
0.0095998161 -0.037895985 -0.018299883 4282020433
0.012758318 -0.042265408 -0.014793159 4282086223
0.015948687 -0.046632275 -0.011293872 4282282573
-0.01041045 -0.039488249 -0.016179001 4282149209
-0.0084642619 -0.039340563 -0.016639581 4282345558
-0.0063410252 -0.039949916 -0.016434727 4281888853
-0.0043919906 -0.039801739 -0.016895773 4282280789
-0.0024428666 -0.039653473 -0.017356763 4282411859
-0.00067857653 -0.038748495 -0.018481152 4282477649
0.00089294463 -0.037087426 -0.020267049 4282412879
0.002834335 -0.036939345 -0.020725919 4282412113
0.0047757924 -0.036791109 -0.021184696 4282281554
0.00691282 -0.03739851 -0.020982435 4282216019
0.0094515346 -0.039516516 -0.019460628 4282150229
0.01220702 -0.042388439 -0.017282804 4282149973
-0.0029540733 -0.039753467 -0.019840965 4282541909
-0.0010103285 -0.039605461 -0.020300584 4282542418
0.00074613094 -0.038698778 -0.021421408 4282150738
0.0026873648 -0.038550712 -0.021880245 4282085459
0.0048213229 -0.039160669 -0.021678979 4282280534
0.0067653283 -0.039012119 -0.02213827 4282476629
0.0093032829 -0.041136727 -0.020621149 4282280278
0.011857189 -0.043259941 -0.019107735 4282149463
-0.03003031 -0.0018207282 0.043158095 4285295653
-0.028747484 0.0017670542 0.039048899 4285886233
-0.026466325 0.00054307282 0.040030662 4285951514
-0.023429163 -0.0041145682 0.044638623 4285885724
-0.032596417 -0.0015711561 0.040255975 4285031984
-0.031448483 0.0027176738 0.035427395 4285558303
-0.029758081 0.0042460859 0.033508014 4285689373
-0.027785718 0.0043951124 0.033040766 4285557794
-0.025068969 0.0010985658 0.036194336 4285754654
-0.022325478 -0.0021958649 0.039341643 4285754654
-0.020325966 -0.0020445287 0.038868159 4285558303
-0.01832626 -0.0018930733 0.038394701 4285493024
-0.016166933 -0.0024298579 0.038642902 4285361444
-0.013839975 -0.0036542863 0.039610926 4285229863
-0.01199656 -0.0028139949 0.038415283 4285163308
-0.0089862943 -0.0067880824 0.04225922 4285425703
-0.033850104 0.0023038536 0.033263888 4285427234
-0.03244096 0.0052204132 0.029898748 4285821464
-0.030766189 0.006751962 0.027986351 4285820954
-0.028663896 0.0062081814 0.028246056 4285755163
-0.026258796 0.0042821914 0.029949706 4285886743
-0.023534983 0.00097524375 0.033093479 4285886998
-0.021708131 0.0018160567 0.031903084 4285624348
-0.019729786 0.0019658506 0.031434655 4285624348
-0.017910533 0.0028063208 0.030246157 4285689883
-0.015934497 0.0029561222 0.02977841 4285689373
-0.014287435 0.0044862852 0.027873103 4285886743
-0.011981927 0.0032560304 0.028843001 4285885724
-0.0086463466 -0.0021117777 0.034115721 4285885978
-0.0052681081 -0.0074762404 0.039378427 4285754908
-0.0011464171 -0.015594676 0.047496211 4285427233
-0.036239788 0.0019000918 0.031104442 4285098538
-0.034824878 0.004825756 0.027744371 4285493279
-0.033290513 0.0070557743 0.025112219 4285624349
-0.031628713 0.0085907057 0.023206137 4285821209
-0.029539995 0.0080436543 0.023467399 4285886999
-0.027000435 0.0054164231 0.025890399 4285755674
-0.024288356 0.0020975396 0.02902874 4285624094
-0.022318289 0.0022465736 0.02856217 4285624093
-0.02050443 0.0030886605 0.027376536 4285624093
-0.01885476 0.0046232492 0.025473677 4285755164
-0.016730413 0.0040794387 0.025726903 4285820699
-0.015093684 0.0056131929 0.023827288 4285623328
-0.013133392 0.0057619512 0.023363382 4285557538
-0.010324512 0.0024510622 0.026479293 4285557794
-0.0073165856 -0.0015494376 0.030304287 4285820953
-0.0030516796 -0.010388277 0.039124705 4285624348
-0.037196875 0.0044412836 0.025593992 4285361953
-0.035659567 0.0066779405 0.022965986 4285559069
-0.033997707 0.0082171671 0.021063004 4285623838
-0.031917453 0.0076671615 0.021324545 4285623839
-0.029831693 0.0071176067 0.021584891 4285623838
-0.027443945 0.0051770881 0.023282748 4285558558
-0.024889179 0.0025422573 0.025695648 4285624349
-0.023080736 0.0033860058 0.024512831 4285624348
-0.021277405 0.0042294562 0.023331288 4285624349
-0.019638076 0.0057676286 0.021434125 4285624349
-0.017524652 0.0052207261 0.021688331 4285886998
-0.015569933 0.0053689405 0.02122565 4285886743
-0.013448227 0.0048228949 0.021477986 4285886999
-0.010812614 0.0021948516 0.023872245 4286083604
-0.0078113414 -0.0018193871 0.027688976 4285755418
-0.0032048859 -0.012074932 0.037916265 4285623838
-0.037881948 0.0056113005 0.021544706 4285559323
-0.036354773 0.0078537464 0.018923964 4285886744
-0.034283005 0.0073007718 0.019185789 4285952279
-0.031777516 0.0046531186 0.02160361 4285886998
-0.029541381 0.0034035742 0.022579502 4285624348
-0.02729442 0.0021548867 0.023552936 4285624349
-0.02503664 0.00090716034 0.024523839 4285624604
-0.023381457 0.0024506599 0.022626061 4285559068
-0.021736719 0.0039935037 0.020730767 4285624349
-0.020261072 0.0062327832 0.018122781 4285558558
-0.018155932 0.0056830719 0.018377256 4285624094
-0.01588136 0.0044370815 0.019344524 4285689374
-0.013429381 0.0024954006 0.021022774 4285624094
-0.010792039 -0.00014133751 0.023410063 4285558558
-0.0074455366 -0.0055610538 0.028641008 4285624094
-0.0024850592 -0.017241165 0.040265679 4285558559
-0.038430773 0.0060980469 0.018227678 4285755418
-0.036636613 0.0069444999 0.017051056 4285820698
-0.034288079 0.0049874634 0.018748131 4285886743
-0.031780846 0.0023311228 0.021158975 4286018324
-0.029252194 -0.00032351911 0.023564812 4285689883
-0.027589135 0.0012247264 0.021668259 4285624348
-0.025635518 0.001372315 0.021205433 4285558813
-0.023988016 0.0029196367 0.019312661 4285624348
-0.022350945 0.0044662133 0.017422486 4285689629
-0.020882785 0.0067115128 0.014821086 4285689628
-0.018624827 0.0054597557 0.015788943 4285689373
-0.016028546 0.0028108954 0.018179256 4285624094
-0.013410863 0.00016375631 0.020564575 4285558559
-0.010771785 -0.0024816692 0.022944905 4285559069
-0.0069091469 -0.010014057 0.030294243 4285493533
-0.0010696203 -0.025221981 0.045439217 4285427743
-0.040374555 0.003639251 0.018250026 4285624093
-0.038843974 0.0058949962 0.015638102 4285623838
-0.037055038 0.0067431852 0.0144643 4285492003
-0.034712493 0.0047790483 0.016157929 4285557794
-0.032211483 0.0021133944 0.018563677 4285689118
-0.02997902 0.0008547157 0.019533858 4285821209
-0.028031021 0.001001738 0.019072264 4285558558
-0.026082836 0.0011488721 0.018610701 4285624349
-0.024440363 0.0027001128 0.0167224 4285690139
-0.022808328 0.0042507127 0.014836606 4285886999
-0.021186739 0.0058005825 0.012953404 4285886998
-0.019092865 0.005245544 0.013207216 4285952534
-0.016502805 0.0025873929 0.015592452 4285887253
-0.013891358 -6.9029629e-05 0.017972693 4285624349
-0.01108963 -0.0034245402 0.02105755 4285558813
-0.0068889186 -0.012382731 0.029808093 4285493534
-0.042581238 0.0025881305 0.016835753 4284966703
-0.041045099 0.0048507378 0.014227297 4285558558
-0.039256305 0.0057009906 0.013055064 4285821463
-0.037335753 0.0058455393 0.012599681 4285821208
-0.035415009 0.0059901997 0.012144316 4285821209
-0.033067659 0.0040198714 0.01383194 4286018579
-0.0307042 0.002050899 0.015515771 4285821209
-0.028619498 0.0014924705 0.015769746 4285624349
-0.026679382 0.0016389564 0.015310068 4285624348
-0.025197335 0.0038981885 0.01271503 4285689883
-0.02342023 0.0047483146 0.011546131 4285820953
-0.021490209 0.0048943162 0.011089053 4285689374
-0.019238599 0.0036332384 0.012051839 4285689373
-0.016976215 0.0023730621 0.013012134 4285755674
-0.014537022 0.00041054934 0.014678646 4285755419
-0.011238351 -0.0050657168 0.019881591 4285558814
-0.0063550174 -0.016863964 0.031441156 4285427488
-0.043111324 0.0031035915 0.013534497 4285164584
-0.041451335 0.0046641156 0.011647966 4285493278
-0.039801724 0.006223999 0.0097639151 4285624094
-0.037616014 0.0049526021 0.010738421 4285689629
-0.035837308 0.0058044344 0.0095703267 4285689883
-0.033637911 0.0045342967 0.010541681 4285624349
-0.031572282 0.0039721057 0.010798458 4285624349
-0.029206693 0.0019967109 0.01247697 4285558813
-0.027424544 0.0028491765 0.011308331 4285624349
-0.025800101 0.0044078305 0.0094307512 4285887254
-0.024030879 0.0052595139 0.0082653221 4285689884
-0.022108957 0.0054048821 0.00781014 4285623584
-0.019865826 0.0041387305 0.008771643 4285558049
-0.017611921 0.0028734431 0.0097307097 4285755418
-0.015015587 0.0001982525 0.012101434 4285821208
-0.011387005 -0.0067065805 0.018705845 4285624094
-0.0061649308 -0.019952491 0.031650107 4285493024
-0.0011894107 -0.031780988 0.043160167 4285427234
-0.043254718 0.0015012398 0.012385827 4285295908
-0.041594453 0.00306613 0.010502458 4285493279
-0.039677009 0.0032102689 0.01004767 4285624604
-0.037759341 0.0033545271 0.0095929168 4285558814
-0.035980552 0.0042085201 0.0084264036 4285493023
-0.034065157 0.0043527782 0.0079723038 4285558814
-0.032005161 0.0037879273 0.008228749 4285559068
-0.029939681 0.0032235831 0.0084839668 4285558814
-0.02801837 0.0033685714 0.0080286823 4285558814
-0.026401609 0.0049309507 0.006156195 4285624348
-0.024640277 0.0057842433 0.0049942005 4285821973
-0.022726424 0.0059289858 0.0045409147 4285821208
-0.020491779 0.004657723 0.0055011865 4285887254
-0.018083408 0.0026795939 0.0071650483 4285953043
-0.014996439 -0.0021278262 0.011647191 4285624093
-0.01103076 -0.010469504 0.019644883 4285558303
-0.0059756115 -0.023049578 0.031852905 4285426214
-0.002560623 -0.028551981 0.037002336 4286735894
-0.043013215 -0.0022388026 0.013375487 4285295399
-0.041475631 4.3541193e-05 0.010781277 4285558558
-0.039419413 -0.0005242005 0.011036687 4285624093
-0.037357688 -0.0010915026 0.011290882 4285492513
-0.035568222 -0.00023449957 0.010123398 4285426469
-0.033783853 0.00062216818 0.0089572389 4285427233
-0.032148786 0.0021899864 0.0070834272 4285427234
-0.030083627 0.0016233847 0.0073370561 4285493533
-0.028461426 0.003190428 0.0054664444 4285559069
-0.026849695 0.0047568306 0.0035983473 4285426978
-0.0250936 0.0056118593 0.0024392493 4285427233
-0.023342639 0.0064665973 0.0012814403 4285492768
-0.021276601 0.0059005544 0.001535235 4285493023
-0.018716782 0.0032048598 0.0039014295 4285624349
-0.014977634 -0.0044580176 0.011189982 4285558813
-0.010675669 -0.014245331 0.020574596 4285558304
-0.0062992312 -0.024026893 0.029941656 4285556264
-0.042516656 -0.0074215159 0.015778083 4285360678
-0.041096084 -0.00441695 0.012474984 4285492513
-0.038896188 -0.0057006106 0.013436146 4285558049
-0.03709358 -0.004840605 0.012267116 4285558304
-0.035296075 -0.0039808899 0.011099365 4285492514
-0.033645011 -0.002407603 0.0092249326 4285492258
-0.031716384 -0.0022623166 0.0087677259 4285492513
-0.029934213 -0.0014034286 0.0076037832 4285624604
-0.02830644 0.00016840547 0.00573509 4285690394
-0.026689112 0.0017395541 0.0038689543 4285558558
-0.024927653 0.002597183 0.0027101357 4285492768
-0.023328558 0.0041671544 0.00084846839 4285493023
-0.02126018 0.0035990551 0.0011000559 4285493024
-0.018698648 0.00089468807 0.0034592971 4285427743
-0.014628705 -0.0082164928 0.012134474 4285427744
-0.01048959 -0.017322317 0.020793367 4285360933
-0.0067929141 -0.024287812 0.027332745 4286277149
-0.042405643 -0.010474816 0.016036373 4285294378
-0.040587485 -0.0096116737 0.014865119 4285360934
-0.038774401 -0.0087488219 0.013695139 4285426468
-0.036830582 -0.0086027309 0.013234075 4285426724
-0.035163529 -0.007023938 0.011358965 4285492258
-0.033224612 -0.0068780184 0.010899212 4285426979
-0.031429283 -0.0060161054 0.0097337384 4285558049
-0.029639065 -0.005154483 0.0085695442 4285558304
-0.028003074 -0.0035776794 0.0067021381 4285558303
-0.026529282 -0.0012862533 0.0041333623 4285558304
-0.024762414 -0.0004260987 0.0029749237 4285492259
-0.023000687 0.00043379515 0.0018177927 4285492514
-0.020764962 -0.00085059553 0.0027679075 4285360933
-0.018193737 -0.003563039 0.0051183235 4285295144
-0.014445957 -0.011273608 0.012368906 4285229608
-0.042295352 -0.013536692 0.016288575 4285294634
-0.040341474 -0.013390072 0.015824962 4285295143
-0.038387373 -0.013243325 0.015361372 4285426468
-0.036839992 -0.010940425 0.012779564 4285426723
-0.035031721 -0.010075584 0.011612471 4285492514
-0.033087604 -0.0099292919 0.011151474 4285492513
-0.031143308 -0.0097828954 0.010690492 4285558303
-0.029491313 -0.0082005858 0.008822415 4285492513
-0.027849749 -0.0066190138 0.00695692 4285492768
-0.026067056 -0.005755581 0.0057962742 4285558304
-0.024289496 -0.0048924387 0.0046369173 4285492513
-0.022360228 -0.0047466531 0.0041798912 4285492258
-0.020271286 -0.0053176284 0.0044233073 4285360934
-0.017690361 -0.0080381259 0.006764885 4285295144
-0.014263939 -0.014339305 0.012597259 4285229098
-0.042185776 -0.016607091 0.016534586 4285294889
-0.040226705 -0.016460113 0.016069714 4285360934
-0.038267441 -0.016313024 0.015604865 4285426724
-0.036714278 -0.014003173 0.013026606 4285426468
-0.035038725 -0.012415044 0.011155937 4285492514
-0.033092089 -0.012268595 0.010694321 4285558048
-0.03114526 -0.012122042 0.010232717 4285558304
-0.029198237 -0.01197537 0.0097711533 4285558304
-0.027697146 -0.0096688792 0.0072055776 4285492768
-0.025909081 -0.0088028908 0.0060452539 4285492513
-0.02412615 -0.0079371855 0.0048862286 4285426724
-0.021878377 -0.009229593 0.0058268625 4285426468
-0.019938454 -0.0090829208 0.0053673685 4285360934
-0.017350502 -0.011811696 0.0077007394 4285426469
-0.014247298 -0.016694821 0.012121867 4285360168
-0.037750438 -0.021561123 0.017952874 4285163053
-0.036183536 -0.01924371 0.015376214 4285492004
-0.03463237 -0.016927332 0.012803305 4285361188
-0.032956339 -0.015334748 0.010935888 4285361188
-0.031004332 -0.01518783 0.010473043 4285492768
-0.029197998 -0.014318459 0.0093098003 4285558558
-0.027396776 -0.013449408 0.0081478953 4285493023
-0.025600672 -0.012580656 0.0069872849 4285492513
-0.023809716 -0.011712171 0.0058279634 4285426468
-0.021867439 -0.011565454 0.0053678229 4285360934
-0.02008412 -0.010697298 0.004210433 4285360678
-0.017658867 -0.012713842 0.0058408733 4285426214
-0.0148887 -0.016170852 0.0088595618 4285425704
-0.011924755 -0.020346448 0.012567401 4286867474
-0.033676744 -0.024357408 0.01724099 4285098538
-0.032259926 -0.021309026 0.013971556 4285164073
-0.030721143 -0.018986814 0.011406619 4285360933
-0.029052421 -0.017390229 0.0095443185 4285492514
-0.027245827 -0.016518615 0.0083827488 4285492513
-0.025444366 -0.015647225 0.0072224364 4285492258
-0.023648031 -0.014776178 0.0060634501 4285426468
-0.021700576 -0.014629096 0.0056020636 4285360678
-0.020070806 -0.013034903 0.0037494004 4285360678
-0.017643638 -0.015057877 0.0053744353 4285426214
-0.015036169 -0.017802656 0.007690195 4285360168
-0.012240455 -0.021268606 0.010694742 4287850244
-0.02137839 -0.018427216 0.0065249335 4285294378
-0.019740395 -0.016828008 0.0046735108 4285163309
-0.017628737 -0.017406061 0.004905086 4285294888
-0.015347607 -0.018708847 0.005828226 4285359914
0.0053227954 -0.019330293 -0.0134895 4285033004
0.0070577562 -0.018446684 -0.014621168 4285032749
0.0091874152 -0.019034788 -0.014402408 4285098029
0.01051189 -0.016680263 -0.016880535 4285032494
0.012846947 -0.018003449 -0.015988279 4284966958
0.014568795 -0.017120294 -0.017116517 4284901678
0.016495977 -0.01697237 -0.017571338 4284901678
0.0055650957 -0.022412308 -0.013291021 4285164073
0.0071082935 -0.020787962 -0.015095908 4285164074
0.0090404786 -0.02064015 -0.015552286 4285097773
0.010770291 -0.019754514 -0.016680934 4285032493
0.012904994 -0.02034416 -0.016464803 4284966958
0.014837306 -0.020195983 -0.016920939 4284966958
0.016559254 -0.019310556 -0.018047441 4285098283
0.018488958 -0.019162312 -0.018502768 4285098283
0.020418681 -0.019013949 -0.01895801 4285098284
0.022566769 -0.019601941 -0.018744569 4285164583
0.02516219 -0.021661989 -0.017196387 4285229864
0.029562894 -0.029609479 -0.010313113 4285163819
0.0040557161 -0.026391901 -0.011966282 4285032238
0.0056123659 -0.02476225 -0.013771252 4285163819
0.0069615431 -0.022393018 -0.016245607 4285163563
0.0090931579 -0.022985347 -0.016030565 4285098029
0.011027895 -0.022837237 -0.016487461 4285032493
0.012962669 -0.022688985 -0.016944271 4285032494
0.014897488 -0.022540592 -0.01740098 4285098029
0.016832326 -0.022392094 -0.017857626 4285098029
0.018767193 -0.02224347 -0.018314179 4285163818
0.020702071 -0.022094697 -0.018770628 4285229608
0.022636957 -0.021945812 -0.019226998 4285360933
