# .PCD v0.7 - Point Cloud Data file format
VERSION 0.7
FIELDS x y z rgba
SIZE 4 4 4 4
TYPE F F F U
COUNT 1 1 1 1
WIDTH 929
HEIGHT 1
VIEWPOINT 0 0 0 1 0 0 0
POINTS 929
DATA ascii
0.007850565 -0.013873033 0.032558091 4288951079
0.010074928 -0.014426045 0.032814495 4289603878
0.012637664 -0.016374156 0.034495741 4290846239
0.014540028 -0.015530594 0.033323914 4290845728
0.013860274 -0.0042259097 0.021476105 4286267714
0.0045382679 -0.010831334 0.026808109 4288821794
0.0064189732 -0.0099874511 0.025642425 4289212708
0.0086216927 -0.010544233 0.025901999 4289800994
0.010829866 -0.011100508 0.026160445 4290061859
0.012198798 -0.0081571117 0.022863593 4289931554
0.012002062 0.0010816976 0.013179373 4290390298
0.003447175 -0.0083162412 0.02133476 4288821284
0.0053119399 -0.0074713007 0.020174209 4289998109
0.0074983463 -0.0080314353 0.02043578 4289474084
0.0093580298 -0.0071866289 0.019276518 4288689194
0.010031234 -0.0014276281 0.013153639 4289408804
0.0098048039 0.0078378171 0.0034969077 4288232999
0.00034909695 -0.0059152171 0.016326427 4289149214
0.002516266 -0.0064792112 0.01659051 4289278753
0.0045283251 -0.0063378438 0.016143966 4290782489
0.0068669841 -0.0076056495 0.017115198 4290913304
0.0082210228 -0.0046457872 0.013834439 4289931808
0.0082053356 0.0039469227 0.0048969612 4290654223
-0.00025614724 -0.0054673627 0.01301489 4289410078
0.0017449893 -0.005326882 0.012570672 4290128923
0.0039066449 -0.0058933571 0.012834392 4289735714
0.0060737506 -0.006459333 0.013096977 4289931808
0.0072520301 -0.0027846694 0.009118177 4288819243
0.0067199729 0.0079532191 -0.0019158628 4291506179
-0.00070535392 -0.0057154745 0.010420445 4289737244
0.00097524747 -0.0041564927 0.0085636079 4290128923
0.0034463294 -0.0061445609 0.010240797 4289277734
0.0056077801 -0.0067131519 0.010503016 4289277734
0.0066160001 -0.0023189038 0.005828131 4289473828
-0.002991803 -0.0068060607 0.0089809224 4289149724
-0.0011537559 -0.0059544742 0.0078325197 4289737244
0.00052176788 -0.0043914467 0.0059800223 4290782999
0.0026667826 -0.0049635321 0.0062441751 4290716953
0.0048172511 -0.0055351257 0.0065072067 4290716953
0.0059811287 -0.0018394738 0.0025476851 4289277734
-0.0037377998 -0.0056090876 0.0049867779 4289214494
-0.0017558634 -0.0054701418 0.0045466907 4289541149
-8.8114291e-05 -0.0039032772 0.0026991218 4289736224
0.0022084266 -0.0051918775 0.0036666766 4289409059
0.0041907579 -0.0050525814 0.0032267384 4290193948
0.0058428906 -0.0034864694 0.0013828836 4289606174
-0.004330609 -0.0051105618 0.0017088428 4289606683
-0.0022024848 -0.0056885332 0.001973331 4291045649
-0.00038285926 -0.0048337504 0.00083228946 4289016359
0.0015912242 -0.0046951473 0.00039410032 4288558123
0.0035654269 -0.0045564324 -4.404597e-05 4289278243
0.0052097924 -0.0029864311 -0.0018830132 4290391319
-0.0068878047 -0.0047360361 -0.0011229571 4289279518
-0.004922267 -0.0045984089 -0.0015595257 4289606429
-0.0029565804 -0.0044606477 -0.0019960366 4290456343
-0.0013043396 -0.0028860718 -0.0038337447 4289866274
0.00097518042 -0.0041847602 -0.0028689019 4289539619
0.0029412545 -0.0040466264 -0.0033052415 4290258718
0.0050722174 -0.00462614 -0.0030426681 4289997854
-0.0073215328 -0.0049308166 -0.0036826078 4288623913
-0.0053614639 -0.0047935918 -0.0041179731 4289212199
-0.0035551973 -0.0039354414 -0.0052529797 4289866018
-0.0017541014 -0.003077589 -0.0063867029 4288885034
0.0003603138 -0.003660731 -0.0061222538 4288819498
0.0024801828 -0.004243426 -0.0058588944 4289866529
0.0046054907 -0.0048255697 -0.0055966936 4289801759
-0.0071607791 -0.0080097616 -0.0034387093 4288492588
-0.0053466 -0.0071490407 -0.0045739152 4288623148
-0.0036913715 -0.0055655539 -0.0064060055 4288754219
-0.0020466633 -0.0039827526 -0.0082356464 4289015849
6.4756721e-05 -0.0045683235 -0.0079721529 4288950058
0.0025051348 -0.0065982342 -0.0063171312 4289343268
0.0046327747 -0.0071824491 -0.0060570762 4289409059
-0.0070006959 -0.011097252 -0.0032008719 4288364323
-0.0050302558 -0.010959342 -0.0036385749 4287904048
-0.0032132305 -0.010096118 -0.0047727264 4287838513
-0.0015576296 -0.0085081458 -0.0066015683 4287838259
0.00024633482 -0.0076456144 -0.0077326652 4287904049
0.0023682006 -0.0082325637 -0.0074730329 4288034864
0.0044955201 -0.0088190138 -0.0072145276 4288231469
0.0066282637 -0.0094049424 -0.0069571193 4288036649
-0.0066932403 -0.014921121 -0.0022729207 4288102439
-0.0047149472 -0.014782682 -0.002712382 4288034608
-0.0028898902 -0.013916709 -0.0038467254 4287838259
-0.0012260899 -0.012323737 -0.0056742318 4287838004
0.00058590248 -0.011458449 -0.0068055093 4287838259
0.0025540628 -0.011320233 -0.0072423648 4287903538
0.0046863705 -0.011908546 -0.0069865864 4287969328
0.0068241321 -0.012496397 -0.0067318771 4288100909
0.0086285621 -0.011631124 -0.0078611746 4287839023
0.010427777 -0.010766134 -0.0089891739 4287642929
0.012396436 -0.010627285 -0.0094257034 4287643694
-0.006830465 -0.01656799 -0.0034379009 4288298279
-0.0047017895 -0.017159373 -0.0031833686 4288230959
-0.0027208328 -0.017020643 -0.0036233496 4287838258
-0.00089560077 -0.016152352 -0.0047560483 4287838004
0.00076589361 -0.014555082 -0.006579712 4287707189
0.0027392246 -0.014416516 -0.0070177298 4288034353
0.0048765428 -0.015006706 -0.0067646727 4287838259
0.0070192851 -0.015596375 -0.0065127295 4288034353
0.0089982636 -0.015457064 -0.0069517475 4287904049
0.010977346 -0.015317619 -0.0073906947 4287838513
0.012782019 -0.014449924 -0.0085182097 4287380024
0.014758606 -0.014310405 -0.0089564119 4287249209
0.016735267 -0.014170766 -0.009394547 4287380534
0.019259498 -0.016213678 -0.0077719297 4287380788
0.021984924 -0.018982641 -0.0054665189 4287708464
0.024731725 -0.021750025 -0.00316572 4287904813
-0.0068199672 -0.018946737 -0.0039096661 4288101674
-0.0048392974 -0.018808164 -0.0043496788 4288362029
-0.002705466 -0.019401327 -0.0040977765 4288034609
-0.00087754428 -0.018530622 -0.0052295309 4288099633
0.00094517693 -0.017660223 -0.00636 4287969074
0.0027626939 -0.01679004 -0.0074892156 4287969074
0.0049023293 -0.017382264 -0.0072382893 4287772723
0.0070473999 -0.017974012 -0.0069885049 4287969074
0.0091979094 -0.018565267 -0.0067397635 4287969073
0.011010502 -0.017694905 -0.0078675766 4287576374
0.012817863 -0.016824834 -0.0089940932 4287510838
0.014796961 -0.016685158 -0.009432869 4287642164
0.016955789 -0.017275289 -0.0091856588 4287707954
0.019849248 -0.020784035 -0.006198274 4287773489
0.023139372 -0.025749952 -0.001847228 4287577138
0.026654482 -0.031442493 0.0031797774 4287315509
-0.0051269196 -0.019722402 -0.0062065944 4287773744
-0.0029960871 -0.020317949 -0.0059556924 4288035118
-0.001170788 -0.0194453 -0.0070852283 4288034098
0.0008074604 -0.019306548 -0.0075244512 4288100399
0.002785828 -0.019167677 -0.0079636183 4288100398
0.0049278066 -0.01976195 -0.0077148303 4288296493
0.0070752017 -0.020355776 -0.007467119 4288230958
0.0090592168 -0.020216137 -0.0079072639 4287969074
0.011043329 -0.020076349 -0.0083473306 4287772979
0.012853384 -0.019203857 -0.0094728898 4287576628
0.015011799 -0.019796401 -0.0092272591 4287707443
0.016816683 -0.018924013 -0.010351485 4287838513
0.019709054 -0.022443853 -0.0073719006 4287903794
0.023182496 -0.0281571 -0.0023486409 4287772468
0.027260961 -0.036062025 0.0047129467 4287511094
-0.0014636181 -0.020355225 -0.0089375731 4287642673
0.0008277595 -0.021688454 -0.0080011934 4287707953
0.0026480071 -0.020813718 -0.0091278311 4287707953
0.0047896355 -0.021410249 -0.0088805947 4288297003
0.0067707449 -0.021270931 -0.0093201865 4288296749
0.0087519437 -0.021131493 -0.0097597074 4287969074
0.010733239 -0.020991921 -0.010199161 4287838259
0.012888573 -0.021587029 -0.0099545512 4287838004
0.014872693 -0.021447018 -0.010394456 4287772979
0.016856886 -0.021306857 -0.010834282 4287707699
0.019568894 -0.024103366 -0.0085453149 4287772979
0.023040686 -0.029834367 -0.0035345573 4287707189
0.026742406 -0.03629601 0.0021478496 4286987578
0.0091188289 -0.024991609 -0.0088744666 4287184184
0.011107963 -0.024851494 -0.0093156639 4287445558
0.013444692 -0.026185215 -0.0083920266 4287576373
0.015086476 -0.024570867 -0.010197839 4287707188
0.01707584 -0.024430364 -0.010638816 4287707189
0.019428771 -0.025762551 -0.0097184908 4287641653
0.022898901 -0.031511284 -0.0047202352 4287641909
0.026411705 -0.037256867 0.00026866421 4286791740
0.013999373 -0.030800834 -0.0068417694 4286268224
0.015828252 -0.029920347 -0.0079665612 4286791229
0.017651875 -0.029040098 -0.0090900939 4287118393
0.019833375 -0.029637344 -0.0088542718 4287445303
0.023125622 -0.03466481 -0.0045487341 4287314744
0.026455186 -0.039689451 -0.00025141984 4286071874
0.02078101 -0.035747632 -0.0059667826 4286267968
0.023535643 -0.038567461 -0.003706418 4286464064
-0.024948936 0.017137572 0.031195112 4281435719
-0.023586746 0.020680364 0.027069788 4280393279
-0.021353904 0.019457243 0.028102558 4280458558
-0.01845606 0.014832906 0.032810204 4279612469
-0.01498678 0.0074904338 0.040448919 4279808563
-0.027676206 0.018754013 0.026780635 4281044294
-0.026313428 0.022307757 0.022663143 4280850238
-0.024726462 0.02449375 0.020021658 4281436484
-0.022515375 0.023264613 0.02105606 4281567044
-0.020162802 0.021353722 0.022821907 4280915263
-0.017394129 0.017396666 0.026784096 4280589884
-0.014865201 0.014806524 0.029273767 4281242938
-0.012176137 0.011535868 0.032490849 4281046588
-0.010166686 0.011676617 0.03204456 4280849984
-0.0087328814 0.014544226 0.028674714 4281241408
-0.0073202215 0.017410479 0.025309589 4279546933
-0.0041372329 0.01209946 0.030705832 4280262973
0.00045618415 0.00066126138 0.042654835 4280001344
-0.029437397 0.014908716 0.028258167 4281368400
-0.028531935 0.02121732 0.021205157 4280848199
-0.026939403 0.023410209 0.018567193 4279545404
-0.025487747 0.026287295 0.015199319 4279611959
-0.023290474 0.025052752 0.01623347 4279807288
-0.021082316 0.023819026 0.017265316 4280265779
-0.018330853 0.01984749 0.021221563 4280459578
-0.016090315 0.018616192 0.022246335 4281110848
-0.013977367 0.018070072 0.022538219 4280916284
-0.012282234 0.019576773 0.020639159 4280719423
-0.010885108 0.022450622 0.017283894 4280654144
-0.0092162602 0.023955639 0.015390787 4281306179
-0.0065141581 0.020675164 0.018597137 4280915008
-0.0031781644 0.014663197 0.024707817 4280003893
0.00082371384 0.0059220046 0.033715732 4280851259
0.0059947781 -0.007595107 0.047792882 4281306943
-0.030627269 0.019444175 0.02048301 4281175618
-0.029385377 0.023707625 0.015648693 4280914753
-0.0276861 0.025218341 0.013751511 4280915009
-0.026122179 0.027415905 0.011124771 4280849983
-0.023808423 0.025488827 0.012889482 4280849984
-0.021478485 0.023563001 0.014650609 4280654144
-0.01873355 0.019577645 0.018598631 4280915519
-0.016770016 0.019714922 0.018162351 4280980544
-0.014668029 0.019165784 0.018455021 4281045568
-0.013124209 0.021362465 0.015833128 4279741243
-0.011739787 0.024244267 0.012487072 4280198203
-0.0099377446 0.025066778 0.011327278 4281240899
-0.0075451918 0.023145914 0.013074994 4280914753
-0.0049848966 0.020540699 0.015545163 4280589628
-0.0013233796 0.013139315 0.02308834 4280654909
0.0044368468 -0.003165625 0.040040903 4280654909
-0.031463448 0.02194925 0.01493261 4280915263
-0.029878233 0.024154682 0.012305874 4280329528
-0.02806459 0.024979409 0.011144452 4280459834
-0.026256043 0.025803845 0.0099842958 4281045569
-0.024070356 0.024559524 0.011014547 4280980033
-0.021743741 0.022626802 0.012771543 4280915519
-0.019268196 0.020006135 0.015253585 4280981053
-0.017448168 0.020831715 0.014091123 4281046078
-0.015495192 0.020968292 0.013657223 4280849984
-0.013823528 0.022482116 0.011769775 4280784448
-0.012305725 0.024683613 0.0091585815 4279937083
-0.010365535 0.024819572 0.0087277256 4279872569
-0.0081277154 0.023579642 0.0097468682 4279546168
-0.0054248981 0.020277128 0.012936924 4280589373
-0.0014627427 0.011475585 0.021911636 4281045058
0.0049198009 -0.0076325163 0.041719362 4281045058
-0.033427063 0.019498736 0.01494785 4281500744
-0.03218073 0.023788791 0.010131832 4279873079
-0.030489143 0.025307629 0.0082426779 4279416119
-0.028320361 0.02405753 0.0092732497 4279025203
-0.026140694 0.02280825 0.010301527 4280459324
-0.023822945 0.020868126 0.012055542 4280915264
-0.021618884 0.019620702 0.013078518 4281046079
-0.019669089 0.019756846 0.012645163 4280981564
-0.017989542 0.021275423 0.010759037 4281046589
-0.016320456 0.022793304 0.008875329 4281176639
-0.01466183 0.024310596 0.0069939829 4281306944
-0.012727287 0.024446022 0.0065642744 4281111104
-0.01050077 0.023200735 0.0075826645 4281240899
-0.0081149004 0.021266118 0.0093220957 4281045569
-0.005259227 0.017262556 0.013226554 4280849474
-0.00098653138 0.0070527568 0.023624107 4280849474
0.0055578835 -0.012806557 0.044107072 4280849474
-0.03517371 0.015653767 0.016421646 4282022984
-0.034243871 0.022043265 0.0094210431 4281306179
-0.032663327 0.024261434 0.0068048798 4280849984
-0.03074133 0.024395157 0.006377358 4281371203
-0.02869739 0.023834672 0.0066776089 4280849984
-0.026150387 0.020498171 0.0098854266 4280915008
-0.024084728 0.019939385 0.010180976 4280915264
-0.021883827 0.018687323 0.011201348 4280980289
-0.020201553 0.020210337 0.0093177855 4280981563
-0.018529724 0.021732699 0.007436607 4281111613
-0.017143782 0.02464084 0.004109364 4279092014
-0.01507714 0.024082571 0.0044050254 4279287344
-0.012861956 0.022831958 0.0054225512 4278700333
-0.010344546 0.020196933 0.0078826696 4281111104
-0.0079540126 0.018255942 0.0096162371 4281176893
-0.0047921948 0.012854867 0.014952589 4281046334
-5.0682575e-05 0.00053621083 0.027486224 4280914754
-0.036306474 0.020298224 0.0087104626 4281567298
-0.034944829 0.023917656 0.0046412423 4280590394
-0.033028509 0.024050843 0.0042148791 4280915264
-0.031111952 0.024184134 0.0037885308 4281306179
-0.028952096 0.022924434 0.0048146136 4280589118
-0.026532974 0.020272974 0.0072895102 4280002874
-0.024599809 0.020407673 0.0068596527 4281045569
-0.022407364 0.019150533 0.0078786947 4281111869
-0.020600636 0.019981604 0.006723877 4280785468
-0.018933903 0.021508031 0.0048469864 4280981308
-0.017552648 0.024424646 0.0015272088 4279287599
-0.015631806 0.024558958 0.0011004284 4280786234
-0.013139408 0.021913212 0.0035595559 4278766634
-0.01048002 0.018574193 0.0067348294 4280654908
-0.0076456331 0.014542475 0.010624547 4281046589
-0.0043266006 0.0084296688 0.01666623 4280979523
0.00057561696 -0.0046225861 0.029888287 4281174599
-0.037612226 0.013655916 0.013093248 4282282064
-0.036771607 0.020785976 0.0053897761 4280980034
-0.035077032 0.022317998 0.0035093613 4280328253
-0.033276837 0.023150247 0.0023571886 4280263484
-0.031363066 0.023283299 0.0019314252 4280133179
-0.029327687 0.022717729 0.0022302978 4280002619
-0.027162779 0.02145401 0.0032520629 4280719678
-0.025240365 0.021587934 0.002824571 4281046079
-0.023059066 0.020325582 0.0038427822 4281046589
-0.021262918 0.021158084 0.0026918985 4280655164
-0.019202579 0.020594701 0.0029855482 4280655419
-0.017960694 0.024217594 -0.0010484196 4281176129
-0.016185302 0.025048926 -0.0021944903 4281762628
-0.013844412 0.023090985 -0.00045981072 4281111104
-0.010906082 0.018345907 0.0041486137 4280458813
-0.0076342933 0.012209773 0.010186173 4280785214
-0.0037117638 0.0032902956 0.019085601 4281176384
0.0013534278 -0.010499805 0.032992356 4281176384
0.0052775219 -0.018711708 0.041140027 4281240898
-0.03806993 0.014135696 0.0097646341 4281630028
-0.036793474 0.018480502 0.0049803592 4280979780
-0.034982782 0.019315556 0.0038273595 4280784449
-0.033293057 0.020851709 0.0019512884 4281306179
-0.031495225 0.021686032 0.00080127455 4281305923
-0.029460166 0.021118175 0.0010985602 4281045313
-0.027419556 0.020550799 0.0013946891 4280980289
-0.025499906 0.020684484 0.00096778013 4281046589
-0.023709226 0.021518689 -0.00018037297 4281046334
-0.021923658 0.022352617 -0.0013273191 4280981309
-0.020008754 0.022486255 -0.001752967 4279808054
-0.018642236 0.025419444 -0.0050566141 4280393789
-0.016597811 0.024852876 -0.0047609396 4280654398
-0.014262926 0.022887811 -0.0030297413 4279937593
-0.011041056 0.016728178 0.0030042902 4279089973
-0.0074754618 0.0091738105 0.010461982 4280916029
-0.0033996776 -0.00047314167 0.020056337 4281242684
0.0012102798 -0.01221098 0.031782039 4281307708
-0.037880357 0.010404356 0.010792352 4281433168
-0.036594953 0.014763013 0.0060156658 4280912968
-0.034663219 0.014897048 0.0055857152 4280913478
-0.03307822 0.017141849 0.0029877797 4280849474
-0.031272341 0.017978907 0.0018375628 4280848963
-0.029350568 0.018112518 0.0014100168 4281110338
-0.027428586 0.018246226 0.00098249502 4281305923
-0.025632706 0.019082911 -0.0001653377 4281306433
-0.023841944 0.019919287 -0.0013119206 4281175874
-0.022187952 0.02145784 -0.003176406 4280980034
-0.020141523 0.020888984 -0.00288295 4280849474
-0.018637437 0.02312893 -0.0054623932 4280457793
-0.01673026 0.023262199 -0.005886199 4280132414
-0.014538329 0.021992121 -0.0048764572 4280197438
-0.011175964 0.015110753 0.001860179 4280719423
-0.007612545 0.0075319111 0.0093005896 4281046589
-0.0032389127 -0.0035485104 0.020302922 4281634619
0.00060834736 -0.011818923 0.028428786 4282809914
-0.037799325 0.0073663145 0.011087902 4281498194
-0.036287282 0.010326296 0.0077640526 4281108044
-0.034457821 0.01116696 0.0066100284 4280978248
-0.032633465 0.012007385 0.0054572113 4280979269
-0.030932341 0.013553172 0.0035850555 4280913988
-0.029000048 0.013687469 0.0031551383 4280848963
-0.027190987 0.014527112 0.0020059384 4280654144
-0.025387038 0.01536648 0.00085793622 4280589118
-0.02371702 0.016910426 -0.0010069888 4280654144
-0.021926004 0.017749131 -0.002152022 4280914753
-0.020140123 0.018587522 -0.0032957997 4280979779
-0.018496145 0.020129945 -0.0051547196 4280717893
-0.016583774 0.020263527 -0.0055797137 4281174853
-0.014244925 0.018285461 -0.0038591735 4281110594
-0.011166062 0.012789875 0.0014308393 4280849728
-0.0074546896 0.0044831485 0.0095673911 4281046079
-0.0036792159 -0.0038189515 0.01768975 4281895483
-0.00045069307 -0.0093037486 0.02294673 4283334448
-0.036200944 0.0072888136 0.0080586374 4281043019
-0.034253467 0.0074238554 0.0076251104 4281370184
-0.032421056 0.0082670301 0.0064720362 4281174598
-0.030593749 0.0091099069 0.0053202063 4281175109
-0.028771523 0.0099525303 0.0041695908 4281240133
-0.026831146 0.010087445 0.0037379116 4281044804
-0.02501649 0.010929726 0.0025891066 4281110084
-0.023335565 0.012478866 0.00072492473 4280914243
-0.021402571 0.012613557 0.00029510073 4280848964
-0.01973724 0.014161751 -0.0015654396 4280849218
-0.017945755 0.015002809 -0.002708802 4280848963
-0.016159441 0.015843615 -0.0038509443 4281110083
-0.013810616 0.0138596 -0.0021374654 4281175364
-0.010867294 0.009052895 0.0024245977 4281370183
-0.0072975345 0.0014258474 0.0098280758 4281958979
-0.00396882 -0.0047858283 0.015794933 4283265088
-0.036115285 0.0042427853 0.0083470792 4281173324
-0.034050141 0.003667742 0.008630909 4281370184
-0.032209676 0.0045136064 0.0074776709 4281109064
-0.030492086 0.0060692355 0.0056082755 4281174854
-0.028544042 0.0062045529 0.0051748008 4281174854
-0.026718896 0.0070496872 0.0040251389 4281239623
-0.024898861 0.0078945085 0.0028767213 4281240644
-0.023212355 0.0094483793 0.0010145344 4281044804
-0.021405239 0.010292493 -0.00013086386 4281175364
-0.019870732 0.012554236 -0.0027027074 4281045059
-0.017806385 0.011980012 -0.0024180654 4280718403
-0.015875611 0.012114823 -0.0028471891 4280718403
-0.013377737 0.0094162524 -0.00042813644 4280783684
-0.010569576 0.0053029433 0.0034091026 4281239879
-0.0069939904 -0.0023480654 0.010793574 4281892933
-0.0042579882 -0.0057479516 0.013903469 4283853884
-0.037560124 -0.0017993823 0.011938021 4282672723
-0.036030266 0.0011881292 0.008629486 4281173324
-0.034072373 0.0013237894 0.0081935748 4281369928
-0.032229189 0.0021720603 0.0070412681 4280978248
-0.030391086 0.0030200258 0.0058902092 4281239368
-0.028437842 0.0031556636 0.0054555461 4281435974
-0.026607301 0.0040032789 0.0043063052 4281370694
-0.0246563 0.0041389614 0.0038722828 4281305924
-0.023089815 0.0064093247 0.0012979992 4281240644
-0.021277305 0.0072560012 0.00015299022 4281175363
-0.01960348 0.0088135526 -0.0017030351 4281045058
-0.017667685 0.0089485794 -0.0021333769 4281110339
-0.015592825 0.0083729476 -0.001852639 4281045058
-0.013229381 0.0063766316 -0.00015213527 4280979013
-0.010272909 0.0015399009 0.0043844059 4280978504
-0.0069852509 -0.0047145411 0.010331247 4282154054
-0.0042476431 -0.0081253722 0.013432723 4284508723
-0.037802 -0.0027261674 0.010059446 4282937923
-0.036164742 -0.00044503808 0.0074737594 4282155584
-0.034206975 -0.00030940771 0.0070378557 4281959489
-0.032363724 0.00054102391 0.0058871135 4281501254
-0.030525561 0.0013911575 0.004737623 4281304649
-0.028572444 0.0015267506 0.0043029636 4281239879
-0.02661911 0.001662448 0.0038683191 4281371459
-0.024665575 0.0017982647 0.0034337081 4281371459
-0.022839885 0.0026479363 0.0022872873 4281305924
-0.021019328 0.0034973323 0.0011420678 4281110339
-0.019470651 0.0057732463 -0.0014232937 4281044803
-0.017665703 0.006621778 -0.0025648884 4281175619
-0.015727181 0.0067570508 -0.0029957872 4281110339
-0.013364416 0.0047540516 -0.0012999754 4281109574
-0.010553408 0.00061435997 0.0025172904 4281174599
-0.0074168928 -0.0049478486 0.0077428967 4282219333
-0.036408413 -0.001360625 0.0056037717 4283790899
-0.034453418 -0.0012252256 0.0051684529 4283267384
-0.032383624 -0.0018066466 0.0054464266 4281959233
-0.03054275 -0.00095410645 0.0042978749 4281763394
-0.028587092 -0.00081838667 0.0038626119 4281763393
-0.026631225 -0.00068253279 0.0034273937 4281633599
-0.024675142 -0.00054658204 0.002992183 4281371203
-0.022718865 -0.00041049719 0.0025570206 4281305414
-0.020892922 0.0004414469 0.0014121886 4281044804
-0.019205313 0.0020087287 -0.0004405044 4281175363
-0.017392319 0.0028600395 -0.0015823357 4281632834
-0.015584458 0.0037110448 -0.0027229171 4281698369
-0.013217043 0.0017016679 -0.0010329541 4281567554
-0.010545786 -0.0017361194 0.0020669475 4281827909
-0.007847745 -0.0051719546 0.0051609725 4282807619
-0.024685007 -0.0028955936 0.002547767 4283597099
-0.022853877 -0.0020411685 0.0014032647 4282745909
-0.020897541 -0.0019050166 0.00096812844 4281961273
-0.019074026 -0.0010509491 -0.00017449446 4281829184
-0.01725563 -0.00019714236 -0.0013158899 4281960254
-0.015442397 0.0006564185 -0.0024560709 4281894209
-0.013211343 -0.00064200163 -0.001477791 4281763139
-0.010969449 -0.0019395798 -0.00050177984 4282024514
-0.0084241293 -0.0046699941 0.0018809885 4283069249
-0.02103262 -0.0035354346 -0.00018541887 4284576298
-0.019209053 -0.0026791841 -0.0013264678 4283791153
-0.017526101 -0.0011033714 -0.0031716563 4282744888
-0.015439171 -0.0016870946 -0.0029001199 4282483259
-0.013346758 -0.0022703409 -0.002629742 4282286143
-0.011105377 -0.0035723895 -0.0016568545 4282547774
-0.0088531934 -0.004873544 -0.0006863419 4283466028
-0.024157148 -0.025516778 0.0023702532 4283525444
-0.022795904 -0.021698922 -0.0015539806 4282876469
-0.021332186 -0.018618487 -0.0047766715 4283464499
-0.019363414 -0.018481568 -0.0052146409 4284641323
-0.013735112 -0.016600139 -0.0079146996 4284443444
-0.022806015 -0.024084985 -0.0020253714 4281697094
-0.021467727 -0.02025754 -0.0059364066 4281631558
-0.019499097 -0.02012068 -0.0063743778 4281893189
-0.017798308 -0.018508561 -0.0081979316 4281893443
-0.015834663 -0.018371798 -0.0086346194 4282024769
-0.01401018 -0.017497711 -0.0097628813 4282155584
-0.01176488 -0.018834896 -0.0088167973 4282612544
-0.0096534379 -0.019434378 -0.008563472 4282938944
-0.0076838396 -0.019296743 -0.0090011396 4283984953
-0.02455413 -0.028093837 -0.00067090616 4282935119
-0.023319822 -0.023513727 -0.0052718539 4281892680
-0.021603215 -0.02189631 -0.0070959441 4281631049
-0.019765902 -0.021019511 -0.0082257334 4281761863
-0.01779988 -0.020882711 -0.0086630397 4281696838
-0.016106691 -0.01926662 -0.01048162 4281501763
-0.014145691 -0.019129954 -0.010917652 4281762374
-0.012326326 -0.018253922 -0.0120431 4281696584
-0.010223191 -0.018856212 -0.011789549 4281761863
-0.008114595 -0.019458003 -0.011537131 4282350404
-0.0060005374 -0.020059295 -0.011285834 4282742593
-0.0038810149 -0.020660073 -0.011035662 4283004223
-0.023455497 -0.02515658 -0.0064343289 4281564493
-0.02173866 -0.023534775 -0.008255275 4281303884
-0.020032283 -0.021913595 -0.010073746 4281435463
-0.018069062 -0.021777034 -0.01051046 4281369928
-0.016105693 -0.021640316 -0.010947099 4281305414
-0.014281135 -0.020761877 -0.012072207 4281500999
-0.012320105 -0.0206251 -0.012508165 4281631558
-0.010503221 -0.019746959 -0.013631387 4281631558
-0.0082506649 -0.021092236 -0.012693193 4281631814
-0.0062865503 -0.020954885 -0.013129577 4281500998
-0.0041700266 -0.021558084 -0.012880353 4281436228
-0.0022029914 -0.0214203 -0.013317218 4281827399
7.937476e-05 -0.022763044 -0.01238524 4281826888
0.0023724921 -0.024104863 -0.011455612 4281826633
0.0051651523 -0.027665675 -0.0084786993 4282937924
0.0074877702 -0.029005215 -0.0075553861 4283329858
-0.025195803 -0.029170901 -0.0050859209 4282934864
-0.02346563 -0.027543895 -0.0069067124 4281368908
-0.021745902 -0.025917545 -0.0087250471 4281369929
-0.019905839 -0.025036126 -0.0098522995 4281304393
-0.01793744 -0.024899207 -0.010290159 4281369929
-0.016105022 -0.024018154 -0.011415508 4281304904
-0.014138971 -0.02388116 -0.011852683 4281369928
-0.012314219 -0.023000397 -0.012976144 4281435208
-0.010350529 -0.022863336 -0.013412623 4281435208
-0.0082399286 -0.023469418 -0.013163881 4281435463
-0.0062732957 -0.023331903 -0.01360083 4281631558
-0.0044586249 -0.022451371 -0.014721712 4281697094
-0.0024943985 -0.022313781 -0.015157947 4281566279
-0.00037263706 -0.022918589 -0.014911322 4281631304
0.0020747222 -0.025007613 -0.013301367 4281631559
0.0050263703 -0.029321864 -0.0096500535 4282414918
0.0076792687 -0.032149807 -0.0073678102 4282936904
-0.023601379 -0.029188357 -0.0080703385 4281040213
-0.021753464 -0.028304383 -0.0091977846 4281368144
-0.019910689 -0.027420655 -0.010324009 4281303884
-0.018206354 -0.025790714 -0.012135595 4281107533
-0.016104665 -0.026400104 -0.011886837 4281173069
-0.014274713 -0.025516912 -0.013009951 4281238348
-0.012308646 -0.025379814 -0.013447048 4281238604
-0.010342438 -0.025242597 -0.013884099 4281370439
-0.0082295127 -0.025850736 -0.013637496 4281239369
-0.0064096116 -0.024967752 -0.014758015 4281369673
-0.0045949034 -0.024085015 -0.01587729 4281304393
-0.0027853884 -0.023202524 -0.016995328 4281500489
-0.00082385913 -0.023065023 -0.017430892 4281696073
0.0016174614 -0.025161035 -0.015824469 4281696329
0.0048876256 -0.030977756 -0.01082121 4282348364
-0.020176772 -0.028311588 -0.012169877 4281692248
-0.018208656 -0.028174713 -0.012607701 4281039448
-0.016240384 -0.028037727 -0.013045482 4281237075
-0.014410388 -0.027152352 -0.014167009 4281237584
-0.01244447 -0.027015291 -0.01460409 4281303118
-0.01019093 -0.028373897 -0.013675833 4281500490
-0.0082194172 -0.028236195 -0.014113979 4281238858
-0.0063968264 -0.027350813 -0.015233548 4281303884
-0.0045794211 -0.026465699 -0.016351828 4281303628
-0.0027672164 -0.025580831 -0.017468868 4281304138
-0.00080316886 -0.025443152 -0.017904995 4281630539
0.0016401075 -0.027545691 -0.016303787 4281761354
0.0044242032 -0.031140149 -0.013349095 4282478414
-0.010614354 -0.028513275 -0.016197918 4281429089
-0.0086483024 -0.028375946 -0.016634842 4280711009
-0.006830994 -0.027488783 -0.017751602 4281040469
-0.0050188787 -0.026601858 -0.018867111 4281171794
-0.0030577667 -0.026464529 -0.019302683 4281106769
-0.0009396635 -0.027076229 -0.019060099 4281564239
0.001502905 -0.029185414 -0.017463556 4281237839
0.004285913 -0.032790959 -0.014516673 4282476884
-0.0027318522 -0.030349761 -0.018424667 4281561434
-0.00076279044 -0.030211762 -0.018861931 4280974934
0.0015250631 -0.03157606 -0.017947182 4281040213
-0.014506962 -0.034727745 -0.028547727 4282668134
0.022660997 0.012478717 0.017320551 4285492259
0.024847817 0.0119351 0.017594144 4285754398
0.028571231 0.0059120879 0.0235909 4285754399
0.019056488 0.016173452 0.010859333 4285558813
0.020475406 0.018376194 0.0082759932 4285624093
0.022444014 0.018515684 0.0078399479 4285623583
0.025559954 0.014532015 0.011687744 4285820699
0.028901843 0.0098636597 0.016241923 4285820699
0.032281116 0.0051980987 0.020787854 4285558304
0.035100132 0.0025952384 0.023189045 4285427490
0.038142398 -0.00069246441 0.026297167 4285361444
0.039574966 0.0015119165 0.023711376 4285230374
0.040991534 0.003715314 0.021129161 4285097774
0.043021757 0.0038600191 0.020680085 4285294378
0.047177523 -0.0028521195 0.027323507 4285360169
0.017121207 0.013695538 0.010846823 4284967468
0.018185113 0.017285571 0.0068374872 4285886998
0.019408111 0.020183988 0.0035476722 4285623838
0.021174908 0.021012146 0.0024016351 4285623329
0.02389155 0.018392839 0.0048187897 4285623583
0.027016958 0.01439666 0.0086548664 4285689883
0.029585343 0.012470022 0.01035032 4285624349
0.032169767 0.01054468 0.012042269 4285558814
0.03416514 0.010686576 0.011600666 4285493534
0.03575182 0.012205541 0.0097402632 4285493023
0.036913782 0.015100464 0.0064645782 4285820444
0.039522287 0.013177201 0.0081515312 4285885469
0.04320861 0.0078156292 0.013373338 4285885213
0.047582719 0.0003939718 0.020707086 4285885468
0.052886289 -0.0097734854 0.030853875 4285557284
0.015900895 0.016200185 0.0054011457 4285493278
0.016949613 0.019800223 0.0014031958 4285624858
0.018528242 0.021322291 -0.00045272894 4285887508
0.020660769 0.020768203 -0.00017201714 4285887509
0.023562025 0.017447956 0.0029508695 4285821719
0.026490007 0.014129706 0.0060679093 4285690138
0.028660033 0.013578549 0.0063405931 4285624348
0.030636579 0.013718992 0.0059030727 4285624349
0.03200864 0.015932277 0.0033402368 4285755673
0.033364713 0.018144518 0.0007810127 4285820698
0.034911651 0.019665182 -0.0010672864 4285623584
0.037495453 0.017733544 0.00062030554 4285557794
0.041156124 0.012352452 0.0058348626 4285689374
0.044859476 0.0069744885 0.011040121 4285624093
0.050128054 -0.003228642 0.021170437 4285623838
0.013800073 0.014425278 0.004679203 4284901423
0.014862854 0.018037215 0.00068610348 4285558814
0.016446996 0.019563988 -0.0011679009 4285559069
0.018020544 0.021090116 -0.0030194744 4285623838
0.020335399 0.019839346 -0.0020292997 4285623839
0.02304228 0.017201647 0.0003770981 4285558559
0.025770541 0.014565572 0.0027788356 4285558558
0.027736258 0.014705136 0.0023436397 4285624349
0.029702011 0.01484482 0.0019085072 4285624349
0.031063842 0.017064005 -0.00064722635 4285624093
0.032409683 0.019282155 -0.0031993426 4285952533
0.033946201 0.020806484 -0.0050421115 4285820699
0.036518645 0.018867403 -0.0033568479 4285754909
0.039743036 0.014852494 0.00043849833 4285689629
0.043643385 0.0087634176 0.0063386708 4285755418
0.049112961 -0.0021659955 0.017151739 4285624603
0.056427784 -0.018623583 0.033568144 4285624603
0.004041411 -0.015559696 0.034903303 4284902444
0.012422223 0.017668754 -0.0014520045 4285558558
0.013826739 0.019896727 -0.0040129814 4285820699
0.015397798 0.021426979 -0.005860867 4285821464
0.017883886 0.019474179 -0.0041620322 4285755418
0.020386022 0.017522648 -0.0024667196 4285624093
0.023285147 0.014180124 0.00064049102 4285558558
0.025438491 0.013623253 0.00091354921 4285558813
0.02740141 0.013762608 0.00047896616 4285559069
0.028768986 0.015988722 -0.0020732787 4285624349
0.029919457 0.018909141 -0.0053272191 4285558559
0.031252407 0.021132987 -0.007871652 4285755419
0.033395227 0.0205759 -0.0075958669 4285820954
0.035961621 0.018629797 -0.0059141591 4285755673
0.039179426 0.014601111 -0.0021269862 4285755929
0.043501526 0.0071028695 0.0051649734 4285690138
0.049402196 -0.0052505359 0.017356511 4285558814
0.056937434 -0.022455081 0.034435198 4285558814
0.011387561 0.011714734 0.0020912178 4285294889
0.0117548 0.018146552 -0.0047247577 4285689884
0.013331357 0.019681491 -0.0065707248 4285820698
0.015261866 0.019818023 -0.0069985222 4285886999
0.017747261 0.01785852 -0.0053043794 4286018579
0.020436306 0.015201807 -0.0029070731 4285755673
0.022956487 0.013244979 -0.0012204871 4285558813
0.025106829 0.012685716 -0.00094842352 4285559069
0.026871357 0.013522819 -0.0020873081 4285624603
0.028234037 0.015755206 -0.0046336334 4285624349
0.029580742 0.017986506 -0.0071763117 4285624093
0.031115068 0.019519463 -0.0090122595 4285623838
0.033257566 0.018960126 -0.0087380279 4285623839
0.035823271 0.017007351 -0.0070609972 4285623839
0.038828187 0.013662182 -0.003984632 4285624094
0.043573953 0.0047460347 0.00469229 4285558814
0.050124563 -0.0097365007 0.018955626 4285558813
0.010205492 0.014291763 -0.0033120494 4285492258
0.011088543 0.018637925 -0.0079878382 4285820954
0.013016183 0.018774129 -0.0084150918 4285557794
0.014943894 0.018910453 -0.0088422783 4285492258
0.017425913 0.016944118 -0.0071522836 4285689373
0.019736599 0.015679717 -0.0061708447 4285689883
0.022248071 0.013715692 -0.0044872146 4285624348
0.024390113 0.013153575 -0.0042148847 4285558813
0.026342105 0.013292164 -0.0046470482 4285624348
0.027699877 0.01553081 -0.0071874615 4285624348
0.029242441 0.017068617 -0.0090220515 4285886744
0.031181179 0.017206579 -0.0094510503 4285952534
0.033326015 0.01664526 -0.0091789812 4285952533
0.035684936 0.015385203 -0.0082076248 4285755419
0.039323024 0.0099317878 -0.003039632 4285558814
0.044502355 -0.00041034818 0.0070135668 4285427998
0.051712416 -0.017034538 0.023336884 4285427998
0.0081257671 0.012535259 -0.0040263198 4285360424
0.009025719 0.016895749 -0.0086962674 4285558558
0.010776583 0.017735511 -0.0098294802 4286018578
0.012522183 0.018575072 -0.010961479 4285689883
0.014626339 0.018007614 -0.0106827 4285624349
0.016920436 0.016737558 -0.0097009335 4285755673
0.019225266 0.015468352 -0.0087214764 4285690138
0.021540828 0.014199987 -0.0077442694 4285624349
0.023867097 0.012932532 -0.0067693945 4285558813
0.025423169 0.014475495 -0.0086039025 4285624348
0.026968604 0.016017839 -0.01043603 4285689884
0.028904526 0.016155496 -0.010864487 4285755164
0.031043701 0.015591413 -0.010592815 4285689374
0.033394106 0.014326215 -0.0096228831 4285820954
0.03575518 0.013061896 -0.0086552277 4285755673
0.039605513 0.0068896562 -0.0028021187 4285624603
0.045642778 -0.006289728 0.010017052 4285558813
0.053297255 -0.024367847 0.027693279 4285493278
0.0069632828 0.015154026 -0.0094044637 4285360933
0.0081956461 0.018114462 -0.012651565 4285624349
0.010112271 0.01824975 -0.013076469 4285756184
0.012028981 0.018385142 -0.013501333 4285821463
0.01394577 0.018520668 -0.013926113 4285821464
0.016231362 0.017245576 -0.012945706 4285821719
0.018340662 0.0166765 -0.012669517 4285624349
0.020645037 0.015402958 -0.011693105 4285624349
0.02257539 0.01553987 -0.012120577 4285624349
0.024310745 0.016381517 -0.013248179 4285690139
0.026040804 0.017222881 -0.014374534 4285689628
0.027965926 0.017359771 -0.014800599 4285623583
0.030297134 0.016088687 -0.013829723 4285557794
0.032844741 0.014114596 -0.012163235 4285623839
0.035825085 0.010734431 -0.009105701 4285689883
0.040520392 0.0017284751 -0.00048058107 4285755419
0.047208335 -0.013601966 0.01439403 4285755419
0.054446332 -0.030330129 0.030633792 4285623838
0.0068282299 0.013548546 -0.01053982 4285360933
0.0080612078 0.016517833 -0.01378062 4285493279
0.0099776983 0.016653098 -0.014205514 4285493279
0.011536561 0.018204451 -0.016034735 4285493279
0.01362941 0.017631754 -0.015756695 4285493279
0.015727647 0.017059609 -0.015479799 4285558814
0.01801813 0.015780538 -0.014503626 4285559068
0.02012983 0.015209518 -0.014229514 4285559324
0.022054709 0.015346043 -0.014655774 4285624859
0.02339508 0.017603196 -0.017177917 4285558813
0.025114533 0.018446028 -0.018300306 4285887508
0.026628479 0.019995078 -0.020118939 4285821464
0.029146042 0.018012106 -0.01845072 4285755929
0.031885121 0.015324339 -0.016089687 4285755928
0.035686444 0.0091087371 -0.010254838 4285886744
0.041222528 -0.0027488619 0.0011302866 4285689628
0.048557378 -0.020243987 0.018051639 4285558303
0.05494462 -0.034202836 0.031473931 4285558304
-0.0049843825 -0.0069456547 0.0094234422 4285099814
0.0070345588 0.010521889 -0.010270199 4285491494
0.0084468238 0.012789816 -0.012804048 4285492258
0.010195166 0.01363603 -0.013931936 4285426469
0.01193827 0.014481947 -0.01505853 4285360679
0.013676129 0.01532761 -0.016183879 4285493279
0.015592717 0.015463203 -0.016608557 4285493279
0.0173227 0.016308516 -0.017732009 4285493533
0.019426059 0.015734732 -0.017457709 4285493789
0.021342814 0.01587069 -0.017882172 4285493533
0.022870269 0.017424881 -0.019700738 4285559069
0.024387117 0.018978387 -0.02151683 4285558813
0.026093312 0.019822583 -0.022634597 4285624348
0.028604828 0.017832607 -0.020969925 4285624348
0.031337682 0.015135549 -0.01861397 4285624348
0.035547826 0.0074833632 -0.011403747 4285624349
0.041923184 -0.007243678 0.002728872 4285558558
0.049903776 -0.02691672 0.021687459 4285558558
0.0075811557 0.0060606748 -0.0086049885 4285360678
0.0088313483 0.0090488046 -0.011836728 4285360679
0.010587748 0.0098977387 -0.012964763 4285294889
0.012338907 0.010746419 -0.014091542 4285360424
0.014084805 0.011594832 -0.01521708 4285229354
0.015641622 0.01315508 -0.017039249 4285229354
0.021591112 0.012851611 -0.017618485 4285097519
0.022929687 0.015121832 -0.020130513 4285097774
0.024449423 0.016679995 -0.021944074 4285361698
0.025958538 0.018237486 -0.023755142 4285361443
0.028266877 0.016951546 -0.022788873 4285493279
0.03120131 0.013534896 -0.019745437 4285427743
0.035824835 0.0044376254 -0.011167366 4285427489
0.04283281 -0.012466088 0.0050070733 4285427489
0.050181881 -0.030070536 0.021844704 4285427489
-0.036433507 -0.0037104785 0.0051629022 4285558304
-0.034475978 -0.0035749525 0.0047269911 4285558304
-0.032289457 -0.0048774928 0.005714424 4285426978
-0.030443195 -0.0040224716 0.0045662932 4285361189
-0.028482322 -0.0038864017 0.0041298643 4285099813
0.0076154135 0.0037276149 -0.009049885 4285360678
0.0092148073 0.0052947477 -0.010878582 4285360423
0.010979254 0.0061464459 -0.012006789 4285294889
0.01273844 0.0069979355 -0.013133787 4285229353
0.014492385 0.0078491122 -0.014259501 4285229098
0.01624107 0.0087000504 -0.015383962 4285229098
0.01798448 0.0095507056 -0.016507182 4285163053
0.019911569 0.0096872598 -0.016934026 4285163054
0.021838702 0.0098239332 -0.017360799 4285229354
0.023765881 0.009960711 -0.017787505 4285360679
0.025102235 0.012237564 -0.020294171 4285492514
0.026821867 0.013087116 -0.021411698 4285492513
0.028536182 0.013936415 -0.022527959 4285558814
0.031679809 0.0097963065 -0.018801957 4285427233
0.036516339 -4.1775405e-05 -0.0095550269 4285361443
0.043530285 -0.016998008 0.0065794364 4285361444
0.050246298 -0.032520674 0.021306086 4285295653
0.054061048 -0.038067155 0.026357856 4285164073
-0.03613228 -0.0082294866 0.0068528876 4285623839
-0.034275752 -0.0073717684 0.0057039112 4285624093
-0.032195944 -0.007956937 0.0059763417 4285558049
-0.030344296 -0.0070993602 0.0048286021 4285492258
-0.028258715 -0.0076839179 0.0050998926 4285230118
-0.026534151 -0.0061057284 0.0032450631 4285164839
-0.024695184 -0.005248718 0.0021003708 4285099814
-0.022861335 -0.0043919683 0.00095688738 4285034534
0.007649336 0.001390405 -0.009497717 4285425703
0.0094243996 0.0022449195 -0.010626763 4285426469
0.011194225 0.0030992031 -0.011754554 4285295143
0.012958799 0.0039532185 -0.012881104 4285229354
0.014718115 0.0048069656 -0.014006415 4285229099
0.016288739 0.0063769817 -0.015825223 4285163309
0.018220957 0.0065137744 -0.0162533 4285163054
0.020153236 0.0066506788 -0.016681306 4285163309
0.022085559 0.0067877173 -0.017109234 4285228843
0.024212021 0.0062091574 -0.016844727 4285360424
0.026147094 0.0063466132 -0.017273098 4285294888
0.02768334 0.0079148561 -0.019083731 4285360168
0.02920894 0.0094824433 -0.020891935 4285360169
0.032157194 0.0060447305 -0.017867658 4285361444
0.036998928 -0.0038238913 -0.0086444467 4285361444
0.04401619 -0.020832807 0.0074506365 4285361189
0.05052311 -0.035689317 0.021452781 4285361189
0.053479835 -0.038396396 0.023740251 4285098028
-0.036049809 -0.011318192 0.0071111284 4285492768
-0.034187917 -0.01045794 0.0059625357 4285492768
-0.032331113 -0.0095978975 0.0048151091 4285558049
-0.030362736 -0.0094614774 0.0043768808 4285492514
-0.028274801 -0.010048166 0.0046460554 4285426723
-0.026547346 -0.0084653422 0.0027937442 4285426979
-0.024830315 -0.006883204 0.00094386004 4285426978
-0.022996414 -0.0060242712 -0.00019804202 4285426978
-0.021167647 -0.0051655471 -0.0013387725 4285360933
-0.019211378 -0.005029358 -0.0017738529 4285295144
-0.017525535 -0.0034489408 -0.0036164783 4285164073
-0.015574228 -0.0033129007 -0.0040503107 4285164329
-0.013622757 -0.003176704 -0.0044840835 4285099303
-0.011384543 -0.004483372 -0.0035137795 4285032493
0.0078528635 -0.0016705915 -0.0092523228 4285360169
0.0098058879 -0.0015329346 -0.0096854512 4285492259
0.011583745 -0.00067590922 -0.01081343 4285426724
0.013356354 0.000180915 -0.011940207 4285229098
0.014943134 0.001756303 -0.013759425 4285163309
0.01670257 0.0026123971 -0.014883059 4285163053
0.018270809 0.004186742 -0.016698048 4285163309
0.020394202 0.0036054999 -0.016434599 4285228844
0.022331715 0.0037428811 -0.016863689 4285294379
0.024463177 0.0031624809 -0.016601898 4285294633
0.026206855 0.0040180385 -0.017721612 4285294888
0.028144475 0.0041557848 -0.01815046 4285360679
0.029678296 0.0057284236 -0.019957297 4285360679
0.032633469 0.0022801757 -0.016942607 4285295398
0.037273169 -0.0069019794 -0.0084309299 4285295398
0.044291064 -0.023963757 0.0076253787 4285295398
0.050586637 -0.038149938 0.020906821 4285295398
0.05289942 -0.03871645 0.02112921 4284966704
-0.036185045 -0.012963183 0.0059469789 4285492259
-0.034211922 -0.012826689 0.0055075064 4285426723
-0.032466237 -0.011238545 0.0036540926 4285492259
-0.030264985 -0.012553334 0.0046286508 4285492259
-0.028410349 -0.011691108 0.0034834817 4285492259
-0.026439022 -0.011554331 0.003044717 4285492514
-0.02484091 -0.0092423707 0.00049216114 4285426979
-0.022877168 -0.009105891 5.5240467e-05 4285426724
-0.021172818 -0.0075200349 -0.0017884579 4285361188
-0.019081559 -0.0081081465 -0.0015213154 4285295399
-0.017390158 -0.0065229312 -0.0033620298 4285360934
-0.015433658 -0.0063865259 -0.0037970189 4285295399
-0.013476994 -0.0062500015 -0.0042319652 4285295654
-0.011233967 -0.0075608194 -0.0032659322 4285294633
0.0098414831 -0.0038804412 -0.010141257 4285426468
0.011797126 -0.0037424862 -0.010574885 4285426469
0.013575107 -0.0028831363 -0.011701204 4285228589
0.015167434 -0.0013029054 -0.013518482 4285163053
0.016749181 0.00027664006 -0.015333293 4285294378
0.018506061 0.0011348724 -0.016454661 4285228588
0.020446043 0.0012723058 -0.016884396 4285294123
0.022577133 0.00068955123 -0.01662422 4285294124
0.024519868 0.00082741678 -0.017054383 4285294633
0.026266266 0.001685366 -0.018173091 4285294633
0.028206404 0.0018233135 -0.018602489 4285360679
0.029944848 0.002680935 -0.019719265 4285360934
0.032495491 0.00066076964 -0.018087326 4285360933
0.036925547 -0.0078310147 -0.010282263 4285360934
0.044145793 -0.025665268 0.0064227022 4285360934
-0.036211882 -0.01533623 0.0054895729 4285360424
-0.03434721 -0.014471442 0.0043435395 4285360933
-0.032487627 -0.013606913 0.0031986982 4285295143
-0.030516844 -0.013470396 0.0027598888 4285426469
-0.028664824 -0.012606144 0.001616843 4285426469
-0.026574638 -0.01319702 0.001882337 4285492514
-0.024851818 -0.011605665 3.7528574e-05 4285492259
-0.022885535 -0.011469051 -0.00039997697 4285492258
-0.021048676 -0.010605469 -0.0015392993 4285426978
-0.018952426 -0.011195466 -0.0012748949 4285295398
-0.016985584 -0.01105848 -0.0017122868 4285361188
-0.015156183 -0.010195084 -0.0028496999 4285360934
-0.013331916 -0.0093319193 -0.0039858799 4285360934
-0.01136991 -0.0091949403 -0.004421955 4285557028
0.017526958 -0.0049557388 -0.013026355 4285294124
0.02125036 -0.0039559901 -0.014581723 4285294124
0.023012705 -0.0030949637 -0.015702546 4285425448
0.024769757 -0.0022341311 -0.016822131 4285360423
0.026325323 -0.00065141916 -0.018627487 4285229353
0.02826798 -0.0005133152 -0.019057451 4285295143
0.030009139 0.00034672022 -0.020173211 4285360934
0.032765932 -0.0024015754 -0.0178612 4285361189
0.037405759 -0.011641011 -0.0093913898 4285360934
0.044210069 -0.028087661 0.0059043691 4285360934
-0.034150001 -0.018307015 0.0052930638 4285164073
-0.032282401 -0.017439701 0.0041479915 4285164073
-0.030187618 -0.018032715 0.0044106767 4285360934
-0.02844369 -0.016435742 0.0025641993 4285360933
-0.026467297 -0.016298667 0.0021242611 4285426979
-0.024738919 -0.014702588 0.00028144941 4285492769
-0.022894222 -0.013836339 -0.00085813738 4285426978
-0.021184091 -0.012241319 -0.0026967339 4285426978
-0.018956047 -0.013562441 -0.0017342083 4285361189
-0.016986694 -0.013425305 -0.0021721739 4285426724
-0.015154567 -0.012559548 -0.0033086017 4285295398
-0.01332761 -0.011694029 -0.0044438019 4285361189
-0.01136307 -0.011556879 -0.0048804451 4285425448
0.024400573 -0.010516286 -0.011356667 4285294123
0.025985647 -0.0089272112 -0.013165429 4285294379
0.027364084 -0.0066143125 -0.015657276 4285229354
0.029123908 -0.0057508945 -0.016775656 4285295143
0.030878425 -0.004887715 -0.017892767 4285360934
0.033647645 -0.0076439232 -0.015589938 4285098794
0.03829819 -0.016911253 -0.0071434211 4285163563
0.044483326 -0.031237632 0.0060657486 4285163563
-0.031851616 -0.022750333 0.0064926147 4284967213
-0.030091699 -0.021148033 0.004645735 4285098793
-0.026360627 -0.019408911 0.0023601502 4285032239
-0.024626698 -0.017808035 0.00051926263 4285164074
-0.023029801 -0.015476301 -0.0020185243 4285361443
-0.021319423 -0.01387687 -0.0038539674 4285427233
-0.019223798 -0.014471367 -0.0035926737 4285427233
-0.017122675 -0.015065365 -0.0033325236 4285360934
-0.015290502 -0.014197417 -0.0044673681 4285360934
-0.013603378 -0.012599163 -0.0062973127 4285360934
-0.011641648 -0.012462251 -0.0067333654 4285359658
-0.022912506 -0.018583342 -0.0017831884 4284901679
-0.021454711 -0.015512116 -0.0050109886 4285099049
-0.019359399 -0.016108871 -0.0047512576 4285229863
-0.017258596 -0.016705111 -0.0044926554 4285163818
-0.015426386 -0.015834972 -0.0056259129 4285229354
-0.013599325 -0.01496508 -0.0067579467 4285294889
-0.011350345 -0.016293161 -0.0058062188 4285294888
-0.017528664 -0.017609201 -0.0063469652 4284968234
-0.015699062 -0.016737051 -0.0074780453 4284967468
