# .PCD v0.7 - Point Cloud Data file format
VERSION 0.7
FIELDS x y z rgba
SIZE 4 4 4 4
TYPE F F F U
COUNT 1 1 1 1
WIDTH 964
HEIGHT 1
VIEWPOINT 0 0 0 1 0 0 0
POINTS 964
DATA ascii
0.024482686 0.02238271 0.022905715 4289866273
0.026646769 0.021825995 0.023227468 4290062368
0.028816231 0.021269765 0.023548175 4290651419
0.032285403 0.015915386 0.028870404 4290585629
0.037860923 0.0030252188 0.042039379 4290520093
0.000690341 0.018518344 0.027171608 4286660159
0.001646176 0.023477569 0.021732941 4289211434
0.0027144924 0.027744468 0.01702179 4289408038
0.0045135058 0.028560363 0.015914224 4289735204
0.0066177137 0.027996767 0.016245559 4289866020
0.0090432055 0.026054714 0.01801258 4290455069
0.011163697 0.025492322 0.01834086 4289931809
0.013289616 0.02493041 0.018668085 4289932063
0.015586924 0.02368002 0.019711055 4289997855
0.017895039 0.022430371 0.02075199 4289670433
0.020385239 0.020492978 0.022506498 4290063134
0.022369578 0.020621955 0.022112403 4289932320
0.02435397 0.020751018 0.02171836 4289932320
0.025620937 0.023632418 0.018468026 4290193438
0.027412597 0.024448901 0.017362643 4290258718
0.030122571 0.021826524 0.019823626 4290192928
0.03472811 0.012330227 0.029405471 4289866018
0.0018138587 0.020474892 0.021993089 4287445558
0.0027387366 0.025447551 0.016572118 4289734949
0.0046928599 0.025573794 0.016183447 4290192929
0.0066470988 0.025700141 0.015794829 4290258208
0.0087591521 0.025134925 0.016123012 4290258718
0.010395404 0.02664461 0.014301538 4289997088
0.012184113 0.027462389 0.013197925 4290782744
0.014630653 0.025515389 0.01495605 4290782744
0.017430283 0.022187565 0.018140309 4290651673
0.019743349 0.020933941 0.019177046 4289866784
0.021545704 0.02175298 0.018071007 4289539619
0.022989716 0.0239527 0.015540019 4289605154
0.024238478 0.026841704 0.012299787 4290847769
0.025829576 0.028349217 0.010487851 4290323998
0.028517269 0.025716644 0.01294665 4289342759
0.032349862 0.018947039 0.019666754 4289342759
0.036805827 0.01011236 0.028507311 4289146409
0.0025682524 0.014685467 0.025116127 4286725438
0.0032112673 0.021063324 0.018269703 4288165168
0.0048715845 0.022578683 0.016446441 4290127393
0.006676171 0.023399379 0.015341084 4290193184
0.0084754899 0.024219822 0.014236849 4289866273
0.0099490322 0.026427433 0.011704464 4290521114
0.011732429 0.027247053 0.010603543 4290913558
0.014172982 0.025293019 0.012357965 4290520603
0.016461387 0.024033349 0.013396204 4291044373
0.018931556 0.022081446 0.015144896 4290258973
0.020549577 0.02359483 0.013330616 4289800994
0.022333257 0.024414938 0.01222999 4290128414
0.023216527 0.02869717 0.0075760279 4290389789
0.025157839 0.028823614 0.0071906783 4290782234
0.027652312 0.026873786 0.0089349132 4290389279
0.031098176 0.02146538 0.014222462 4290258463
0.034397222 0.016751591 0.018792849 4290454814
0.038888335 0.0078907683 0.027605254 4289996579
0.0033206493 0.008869864 0.028220098 4286594879
0.0036824681 0.016661726 0.019954637 4287183928
0.0048976317 0.020271365 0.015988626 4289408038
0.0062408 0.023183163 0.012742087 4289931553
0.0077200234 0.025397614 0.010213409 4290128159
0.0093433261 0.026915189 0.0084010288 4289801248
0.011281483 0.02704075 0.0080157947 4289604899
0.013385162 0.026470866 0.0083425604 4289670178
0.015662376 0.02520607 0.0093797352 4290455324
0.017608777 0.025332447 0.0089930762 4289866529
0.019555226 0.025458939 0.0086064916 4290128159
0.021149397 0.026975211 0.0068003386 4290062624
0.02273288 0.028490882 0.0049963798 4290258974
0.024668708 0.028616976 0.0046121236 4290062624
0.027525581 0.025271516 0.0077690519 4289931554
0.030783048 0.020539615 0.012336113 4289996835
0.033888489 0.016504243 0.016188644 4290192929
0.037410609 0.011083439 0.021448147 4289473318
0.043314777 -0.0026579872 0.035172384 4289473318
0.0030572414 -0.001996167 0.036709417 4286005828
0.0040710308 0.0030281022 0.031305026 4286529343
0.0041523352 0.012242772 0.021626927 4286987834
0.0046196394 0.019357242 0.014101714 4287511603
0.005651623 0.023674529 0.0094371922 4289147174
0.0068087503 0.027291562 0.0054910481 4290586393
0.0088985823 0.026718382 0.0058187731 4290848534
0.010668684 0.027541496 0.0047237463 4289605154
0.013259824 0.0248756 0.0071815848 4289539364
0.015200686 0.025001515 0.0067959521 4289866274
0.017312229 0.024430137 0.0071196593 4290716699
0.019082569 0.025253657 0.0060248766 4289997088
0.021023571 0.025379866 0.0056394264 4289997088
0.022964619 0.025506202 0.0052540619 4289866273
0.025449742 0.02354249 0.0069902353 4289670179
0.028319025 0.020186875 0.010136517 4289735203
0.031215135 0.016833119 0.013277553 4289538854
0.033948675 0.014177389 0.015707787 4289146408
0.037471943 0.008739166 0.02095392 4288950313
0.043375179 -0.0050461963 0.034645636 4289146664
0.0043804124 -0.00073631853 0.032233518 4286464064
0.0047698803 0.0071054846 0.023998532 4286660668
0.0049488097 0.015644461 0.015063901 4287249974
0.0055266321 0.022077419 0.0082747545 4288427308
0.0063704066 0.027106386 0.0029159747 4289735969
0.0079753883 0.028631568 0.0011137277 4290521114
0.0098945461 0.028755873 0.00073225424 4290259228
0.01230906 0.026780374 0.0024770796 4290520604
0.014739718 0.024806049 0.0042187851 4290651163
0.016845599 0.024232104 0.0045419689 4290127904
0.018783763 0.02435803 0.0041570086 4290062624
0.020721972 0.024484072 0.0037721228 4289800994
0.023195688 0.022512987 0.0055055339 4289473828
0.025866698 0.019844096 0.007941395 4289212199
0.028926905 0.015779212 0.01178314 4289015593
0.031646192 0.013113722 0.014209528 4289015849
0.034576178 0.0097512826 0.017335776 4288754218
0.037724853 0.0056925267 0.021160152 4288427053
0.043629814 -0.0081365108 0.034818731 4288361008
0.005088076 0.0033528879 0.024933603 4286791993
0.0052769892 0.011918753 0.016016658 4287119414
0.005710084 0.019074861 0.008531088 4287969583
0.0062465444 0.025524959 0.0017649718 4289801249
0.0078517422 0.027054504 -3.4060329e-05 4290062879
0.0097707845 0.027178798 -0.00041551515 4289539618
0.012184657 0.025196679 0.0013245177 4289800994
0.014614671 0.023215722 0.0030614305 4289866273
0.017060816 0.021235954 0.0047951657 4289931810
0.019177176 0.020660587 0.0051146988 4289343269
0.021650221 0.018682737 0.0068432968 4289016103
0.024139384 0.016706023 0.0085687544 4288689194
0.026825666 0.014029369 0.010995043 4288623403
0.029533394 0.011354253 0.013417095 4288558124
0.032076236 0.0093813539 0.01513214 4288492588
0.034824207 0.0067090392 0.017546427 4288361774
0.037977066 0.0026374012 0.021360144 4288427054
0.043689363 -0.010535114 0.034284357 4288295473
0.0055539571 -0.0011180565 0.02656804 4286792759
0.0059068762 0.006769672 0.018376403 4287184949
0.0060469024 0.015358783 0.0094888415 4288165934
0.0067495406 0.02112427 0.0034427308 4289278244
0.0080469213 0.024068296 0.00023159198 4289473829
0.010133259 0.023488369 0.00055513903 4289670179
0.012554526 0.021500159 0.0022887923 4289604644
0.014824502 0.020217318 0.0033142734 4289147174
0.017105259 0.018935282 0.0043376926 4289146919
0.019396789 0.017654005 0.0053590909 4288688938
0.022050016 0.01496622 0.007785229 4288754474
0.024546567 0.012983456 0.0095042642 4288492588
0.027059235 0.01100181 0.011220232 4288361773
0.029588012 0.009021312 0.012933072 4288362029
0.031946681 0.0077449679 0.013941493 4288362029
0.034693826 0.0050638393 0.016349386 4288296494
0.038228616 -0.00042625517 0.021553989 4288230704
0.043942817 -0.013640285 0.034446716 4288033843
0.0060815588 0.0037211627 0.018600494 4287250994
0.0065365955 0.010922477 0.011143269 4288559144
0.0075642616 0.015292101 0.0065189209 4289212964
0.0088782869 0.018245947 0.0033110064 4288951078
0.010818519 0.018371571 0.0029253121 4288885544
0.013252538 0.016377605 0.0046515111 4288688938
0.015368193 0.0157976 0.004967751 4288492844
0.017489262 0.015218027 0.0052829776 4288362028
0.01961574 0.014638938 0.0055972245 4288819753
0.022448793 0.011236817 0.0087177083 4288623403
0.024774771 0.0099536031 0.0097291488 4288689194
0.027111489 0.008671239 0.010738483 4288427308
0.029458957 0.0073896274 0.011745809 4288558379
0.031817149 0.00610888 0.01275105 4288492844
0.034563467 0.0034189224 0.015152562 4288362028
0.038288102 -0.0027936026 0.02104298 4287904049
0.044001527 -0.016049303 0.033904765 4287707189
0.0062556043 0.00066410005 0.018818427 4287578669
0.0067175925 0.0078877509 0.011376182 4289671964
0.0079078712 0.011561669 0.0074642729 4289998619
0.0092305057 0.01452478 0.0042612273 4288754984
0.011340361 0.013941988 0.0045768227 4288558124
0.013620045 0.012650885 0.0055937264 4288492588
0.015743442 0.012069173 0.0059067775 4288688938
0.017702486 0.012196317 0.0055175703 4288623403
0.019834034 0.011615306 0.0058292076 4288820009
0.022321209 0.0096186846 0.0075402074 4288950824
0.024646707 0.0083310455 0.008548459 4289016359
0.027163416 0.0063365549 0.010253748 4288427564
0.029146764 0.0064658299 0.0098601263 4288296493
0.031501804 0.0051804334 0.010862755 4288231214
0.03405609 0.003188692 0.012560882 4288362029
0.037964858 -0.0037510246 0.019134983 4288100399
0.044059906 -0.018462397 0.033359844 4287904048
0.0070514455 0.0041328967 0.012305696 4289868824
0.0082505047 0.0078182817 0.0084002595 4290326294
0.0097405836 0.010079436 0.0059037898 4289539618
0.011699315 0.010206245 0.0055144075 4288492844
0.013658114 0.010333143 0.0051250774 4288558123
0.015783884 0.009749338 0.0054360554 4288558379
0.017915066 0.009166047 0.0057459977 4288558379
0.020223923 0.0078727752 0.0067540761 4288688938
0.022368599 0.0072905272 0.0070615485 4288950824
0.024341043 0.0074188709 0.0066699181 4288427564
0.026493814 0.0068373978 0.0069758948 4288100653
0.028834946 0.0055466741 0.0079778899 4287773489
0.031001154 0.0049663037 0.0082813688 4287774763
0.0069242977 0.0025066957 0.011122052 4290197264
0.0081240833 0.0062030479 0.0072246324 4290457363
0.0096145533 0.008470796 0.0047329981 4290063134
0.01173453 0.0078841895 0.0050433185 4288623403
0.013695873 0.0080112666 0.0046534836 4288492844
0.015990742 0.0067124665 0.0056608897 4288492844
0.017957561 0.0068401098 0.0052701253 4288688938
0.020268623 0.0055425465 0.0062745307 4288950824
0.0222409 0.005670771 0.0058828611 4288885543
0.024213202 0.0057990924 0.0054912511 4288558634
0.026185535 0.0059275329 0.0050997268 4287708974
-0.0054449961 -0.0086185336 0.021137338 4286726203
-0.0038451999 -0.0063380748 0.018628176 4287382319
0.0081535541 0.0038722679 0.0067483597 4290065684
0.0099641234 0.0047152787 0.0056582075 4289343269
0.011769425 0.0055580959 0.0045692045 4288688938
0.013733312 0.0056853145 0.0041788537 4288231214
0.015697263 0.0058126599 0.0037885774 4288427564
0.017830506 0.0052250922 0.0040948223 4288558889
0.019797243 0.0053528249 0.0037041549 4288493863
0.021764018 0.0054806843 0.0033135656 4288297258
-0.0049314424 -0.0029482692 0.012521684 4289345308
-0.0029471368 -0.0028207526 0.012126505 4288365089
0.0095209554 0.0045364499 0.0030890685 4288559144
0.011481956 0.0046633482 0.0026991926 4288428583
0.01344303 0.004790388 0.0023094025 4288036138
-0.0056049936 -0.0016918182 0.0085367635 4289999639
-0.0033526719 -0.0030076429 0.0095419679 4289280029
-0.0036182217 -0.0039089993 0.0076615978 4289214494
-0.001500167 -0.0045052692 0.0079650953 4288691743
-0.0040224567 -0.0040799379 0.0050887316 4289607704
-0.0020518303 -0.0039532483 0.0046963245 4289410843
6.3348562e-05 -0.0045517981 0.0049988255 4288823069
-0.0044259802 -0.0042417645 0.0025224295 4289280028
-0.0026024356 -0.0033876896 0.0014373232 4289082659
-0.00063986331 -0.0032614022 0.0010466017 4289279519
-0.0046900138 -0.0051245987 0.00065552071 4291243784
-0.0028691143 -0.0042685568 -0.00042745098 4290063643
-0.00076526403 -0.0048722327 -0.00012597814 4289933593
0.0014908276 -0.0062050298 0.000865601 4288952863
-0.0050922409 -0.0052704141 -0.0018991418 4289738009
-0.0031354278 -0.0051446557 -0.0022888388 4290390554
-0.0013224185 -0.0042868257 -0.0033685304 4291176975
0.00077854842 -0.0048927814 -0.0030680485 4289345054
0.002884984 -0.0054983124 -0.0027685203 4288168228
-0.005632136 -0.0046726763 -0.0051366612 4289082659
-0.0034013391 -0.0060161203 -0.0041467883 4289670433
-0.0014472157 -0.0058904365 -0.0045358669 4289801758
0.00050699711 -0.0057646185 -0.0049248785 4289867549
0.0023122095 -0.004904896 -0.0060012192 4288757023
-0.0065856837 -0.0018513426 -0.010428179 4289409569
-0.0043714195 -0.0032002106 -0.009438267 4289016104
-0.0021463372 -0.0045482963 -0.0084504317 4290586393
8.9567155e-05 -0.0058955923 -0.0074646212 4290455833
0.0020383857 -0.0057700351 -0.0078524873 4289606683
-0.0086409375 -0.0035607293 -0.011197414 4290330119
-0.0069848858 -0.0019588992 -0.01295501 4289017124
-0.0049172044 -0.002573818 -0.012653001 4289081638
-0.0024137869 -0.0054039583 -0.010296196 4289735969
-0.00018104166 -0.0067558512 -0.009313032 4289801503
0.0020624883 -0.0081068799 -0.0083319582 4289997854
0.0041653775 -0.0087190866 -0.0080366246 4289213983
-0.0084933862 -0.0066282898 -0.010980852 4290198538
-0.0068317838 -0.0050218031 -0.012736263 4289475614
-0.0048996098 -0.0048976913 -0.013121096 4289082149
-0.0023943596 -0.0077364147 -0.010771226 4289081638
-0.0001594387 -0.0090925545 -0.009791784 4289343780
0.0022348911 -0.011188217 -0.0081318319 4289081638
0.0043428242 -0.011802316 -0.0078390846 4288494118
-0.0082114115 -0.010447837 -0.010086773 4289150999
-0.0064038597 -0.0095796883 -0.011157479 4288623658
-0.0043207407 -0.010198072 -0.010861795 4288754728
-0.0019460097 -0.012301803 -0.0092030326 4288493099
0.0001533702 -0.012918845 -0.0089104427 4288624169
0.0024066493 -0.014278054 -0.007937816 4288820263
0.0045196116 -0.014893979 -0.0076477537 4287905324
-0.01014787 -0.012913741 -0.01017809 4288954394
-0.0080653206 -0.013534546 -0.0098841572 4288493609
-0.0061148219 -0.013409406 -0.01027275 4288361773
-0.0038837716 -0.014774755 -0.0092992978 4288296238
-0.0014989823 -0.016884446 -0.0076473961 4288362028
0.00061077997 -0.017503016 -0.007358511 4288427819
0.0025777481 -0.017376326 -0.0077500241 4288558379
0.0043938756 -0.016504899 -0.0088203223 4288625188
-0.011960216 -0.016132087 -0.0095897699 4288429093
-0.010007441 -0.016007051 -0.0099790031 4288754983
-0.0079198405 -0.016629726 -0.0096877115 4288231724
-0.0059641525 -0.016504265 -0.010077354 4288099889
-0.0037282258 -0.017873712 -0.0091080898 4288231214
-0.0014814995 -0.019242309 -0.0081409374 4288165679
0.00077604875 -0.020610131 -0.0071758041 4288035119
0.002600126 -0.019736141 -0.0082461508 4288100654
0.0044189394 -0.018862307 -0.0093153948 4288756768
-0.020011604 -0.017481133 -0.0098802513 4288429094
-0.018062219 -0.017356813 -0.010269179 4288035373
-0.016112678 -0.017232351 -0.010658049 4288100398
-0.013909973 -0.018608861 -0.0096859271 4288165679
-0.011825614 -0.019234225 -0.0093957642 4288034864
-0.0098676383 -0.019108877 -0.009786048 4288558123
-0.0077750012 -0.019733436 -0.0094974125 4288558123
-0.0058141202 -0.019607656 -0.0098880948 4288296493
-0.0037132204 -0.020231441 -0.0096009197 4288165679
-0.0013217367 -0.022353813 -0.00796015 4288165679
0.00079542026 -0.022976309 -0.0076760221 4287904303
0.0027701072 -0.022849157 -0.0080690924 4288231469
0.0042931102 -0.020474806 -0.010489129 4288692253
-0.021852396 -0.020710915 -0.0092934435 4287905833
-0.019897953 -0.020586394 -0.0096834702 4288101419
-0.01794336 -0.020461746 -0.01007345 4288100399
-0.015864938 -0.021089926 -0.0097839208 4288100143
-0.013781041 -0.021717593 -0.0094954418 4288231214
-0.011562631 -0.023097366 -0.0085296463 4288362029
-0.0097284839 -0.022219121 -0.0095993113 4288231214
-0.0076308139 -0.022845544 -0.0093133096 4288427308
-0.0056647323 -0.02271945 -0.0097050387 4288558123
-0.0035587922 -0.023345143 -0.0094204452 4288362028
-0.0014474131 -0.023970306 -0.0091368984 4288034609
0.00052434579 -0.023843475 -0.0095294882 4288035119
0.002496209 -0.023716502 -0.0099219885 4288100909
-0.025112726 -0.027854115 -0.0049170125 4286660924
-0.023704067 -0.02394972 -0.0087106097 4286595643
-0.02197554 -0.022313721 -0.010460595 4288100654
-0.020257555 -0.020678341 -0.012208352 4288165934
-0.018308438 -0.020554051 -0.012597246 4288165678
-0.016235694 -0.02118475 -0.012308272 4288231214
-0.013905101 -0.023324892 -0.010665728 4288296239
-0.011687189 -0.024709083 -0.0097031016 4288296493
-0.0097214878 -0.024583243 -0.010094935 4288100143
-0.0076214522 -0.025211751 -0.0098109972 4288296749
-0.0057897232 -0.024331219 -0.010878423 4288230958
-0.0038236715 -0.024205007 -0.011270059 4288296238
-0.001857508 -0.02407866 -0.011661628 4288036138
-0.0250168 -0.030988231 -0.00473742 4286595133
-0.023714721 -0.026314557 -0.0092024188 4286660668
-0.022213951 -0.023158431 -0.012305344 4287969583
-0.020380452 -0.022276498 -0.013372088 4288623913
-0.01831083 -0.022909716 -0.01308422 4288623659
-0.016235717 -0.023542434 -0.012797354 4288296493
-0.014029115 -0.024931885 -0.011835786 4288165679
-0.011811689 -0.026320465 -0.01087633 4288165678
-0.0099774897 -0.025437891 -0.011942757 4288100399
-0.0078804642 -0.026068754 -0.011659915 4288100909
-0.0061880872 -0.024429806 -0.013398679 4287708974
-0.02383814 -0.027923331 -0.010373952 4286594879
-0.022451982 -0.023998454 -0.014146684 4287968819
-0.020503327 -0.02387435 -0.0145356 4288427564
-0.018554509 -0.023750111 -0.014924454 4288623914
-0.016359217 -0.025144726 -0.013964029 4288493098
-0.014153101 -0.026538573 -0.013005627 4288297514
-0.012064666 -0.027172416 -0.012722889 4287447598
-0.023961529 -0.029531792 -0.011545269 4286267969
-0.022344723 -0.027120382 -0.013960784 4287707190
-0.020273201 -0.027758017 -0.013676612 4287838004
-0.018196188 -0.028395154 -0.013393508 4287839024
-0.015867695 -0.030555204 -0.011765325 4287446833
-0.02212327 -0.031015188 -0.013107983 4287575608
-0.01992657 -0.032418743 -0.012154507 4287249208
-0.017839186 -0.033057392 -0.011875099 4286596153
0.0032385625 -0.0098471567 0.035888683 4282804559
0.0026779249 -0.0094075128 0.032538079 4282674508
0.0042819642 -0.007152684 0.030008797 4282673998
0.0018324405 -0.0075340942 0.027784128 4282608718
0.0035691187 -0.0059835091 0.025968384 4282740299
0.0011315309 -0.0063506812 0.0237514 4282608718
0.0025667399 -0.0033720508 0.020532042 4282741318
0.0044250861 -0.0025307089 0.019428831 4283134528
-0.00087438151 -0.0088520721 0.023650728 4283199043
0.00043202937 -0.0051493794 0.019731686 4282873919
0.0021476783 -0.0035914481 0.017926637 4282745654
0.003852725 -0.0020340756 0.016123787 4282875704
0.0055471584 -0.00047725439 0.014323074 4283985718
0.032855302 0.0034671649 0.0067029558 4283590724
0.03712862 -0.0049403161 0.014635395 4282807364
0.043401554 -0.020455934 0.029487975 4282284614
-0.001842007 -0.0062093139 0.018229261 4284640813
0.00030374527 -0.0067971796 0.01853219 4283399218
0.0021647364 -0.0059514344 0.017431609 4282616113
0.0037248656 -0.0036731362 0.014930718 4283008304
0.0052690133 -0.0013957173 0.012433041 4283529268
0.025337758 0.00716535 0.0011439547 4282872898
0.027664525 0.0058649182 0.0021422505 4281892168
0.030002035 0.0045652539 0.0031385478 4281761353
0.032538254 0.0025526583 0.0048254915 4281826888
0.036997337 -0.0065950304 0.013431475 4281892934
0.043072928 -0.021445632 0.027557191 4281696839
0.0018915869 -0.006877996 0.015534285 4283923754
0.0035970509 -0.0053118914 0.013737869 4283597099
0.0051415712 -0.0030278936 0.011245009 4283270189
0.0063641481 0.0006916821 0.0073593054 4284053804
0.019498341 0.0044551343 0.0018347614 4283786819
0.021287873 0.0052996427 0.00075092353 4281957194
0.023249187 0.0054272413 0.00036149658 4281891914
0.025210524 0.0055549741 -2.7846545e-05 4281827398
0.027536811 0.0042501241 0.00096727535 4281631049
0.030058976 0.0022298992 0.0026520696 4281566534
0.032597221 0.00021086633 0.004333701 4281762119
0.037056569 -0.0089652538 0.012918375 4281893189
0.043131031 -0.023861885 0.027009983 4281762118
0.0030268729 -0.004787907 0.010452643 4284054313
0.0045637451 -0.0024978593 0.0079661943 4283334194
0.0059318282 0.00051173568 0.0047865696 4283334194
0.0074340776 0.0027997345 0.0023072325 4284052528
0.015277661 0.0033075213 0.00074797124 4283917888
0.017238714 0.0034347624 0.00035834126 4282349894
0.019199811 0.0035621226 -3.1217933e-05 4281957449
0.021160953 0.003689602 -0.00042069331 4281434954
0.022945188 0.0045361146 -0.0015018042 4281434954
0.025262937 0.0032261834 -0.0005082991 4281631049
0.027409127 0.0026356429 -0.00020747446 4281435719
0.030115601 -0.00010955334 0.0021626055 4281566789
0.032655872 -0.0021350533 0.0038389862 4281566023
0.03730581 -0.012057617 0.013091352 4281762628
0.043381814 -0.027000062 0.027148269 4281762628
0.0024577826 -0.0042504221 0.0071772411 4284316198
0.0041369684 -0.0026771873 0.0053926371 4283597099
0.0056528896 -0.0003818199 0.0029153433 4282942258
0.0069975033 0.0026350915 -0.00025300868 4282549559
0.0083207674 0.0056507513 -0.0034170225 4282480964
0.010265417 0.0057765767 -0.003803662 4281892423
0.012373518 0.0051805303 -0.003497459 4281631049
0.014819097 0.0031414181 -0.0018079281 4281369673
0.016943373 0.002546683 -0.0015048198 4281238604
0.019244455 0.0012309551 -0.00051152892 4281173068
0.021208137 0.0013585836 -0.00090152025 4281238603
0.02317185 0.0014863312 -0.0012914333 4281369929
0.025315026 0.00089329481 -0.00099173002 4281369929
0.027463578 0.00030072778 -0.0006930083 4281631559
0.029802307 -0.0010119826 0.00029323623 4281566789
0.032526702 -0.0037646592 0.0026533045 4281632068
0.037554368 -0.01515843 0.013258111 4281500743
0.043246251 -0.028706647 0.025906641 4281500743
0.0040105172 -0.0042974502 0.0042132623 4283857708
0.0055268109 -0.0019955188 0.0017407853 4282681903
0.0068719722 0.0010301769 -0.0014211442 4282353973
0.0083536319 0.0033300668 -0.0038865143 4282089028
0.010300819 0.0034560412 -0.0042736633 4281696838
0.01241127 0.002857998 -0.0039696144 4281566023
0.014693007 0.0015364215 -0.0029759854 4281370184
0.016816963 0.00093948096 -0.0026744492 4281238858
0.01911756 -0.00038066506 -0.0016843341 4281304138
0.021428909 -0.0016999692 -0.00069632195 4281304649
0.023397833 -0.0015718713 -0.0010872632 4281370184
0.025366791 -0.0014436767 -0.0014781393 4281632069
0.027517721 -0.0020383298 -0.0011814795 4281632324
0.029858626 -0.0033552349 -0.00019898266 4281632578
0.032584865 -0.0061165094 0.0021541938 4281631813
0.037422292 -0.016822889 0.012047095 4281631304
0.042725403 -0.028968409 0.023294732 4281696073
0.0054007694 -0.0036089122 0.00056644157 4283335724
0.0067464784 -0.00057443976 -0.0025890637 4282484788
0.0082285143 0.0017320216 -0.0050496189 4281893188
0.0103359 0.0011314452 -0.0047467006 4281762629
0.012611732 -0.0001949966 -0.0037552407 4281631813
0.01473264 -0.00079444796 -0.0034548324 4281631813
0.016858973 -0.0013934821 -0.003155373 4281436228
0.019161753 -0.0027178302 -0.002169013 4281370439
0.021649025 -0.0047670528 -0.00049726292 4281305414
0.023799576 -0.00536412 -0.0002023913 4281763138
0.025955513 -0.0059607029 9.1506168e-05 4281828418
0.027935058 -0.0058316886 -0.00030137785 4282024768
0.030099068 -0.0064275116 -8.9108944e-06 4282941238
0.032455571 -0.0077477098 0.00096735731 4283988013
0.036910631 -0.017037846 0.0094678942 4284444719
0.042205259 -0.029221043 0.020689402 4284640303
0.005122643 -0.0044927597 -0.0012977347 4283793449
0.0063114055 -0.00072062761 -0.0051358128 4281960254
0.0082609169 -0.00059464574 -0.0055235317 4281827908
0.010530841 -0.0019259602 -0.0045342594 4281697349
0.012811549 -0.0032565147 -0.0035470016 4281828674
0.014771976 -0.0031294674 -0.0039366279 4281632834
0.016900659 -0.0037304759 -0.0036393069 4281632323
0.019205622 -0.0050590634 -0.0026566535 4281501763
0.021521352 -0.0063868761 -0.0016760062 4281698113
0.023847822 -0.0077138245 -0.00069744512 4282025533
0.026006114 -0.0083124489 -0.00040565617 4282548539
0.028169801 -0.0089106485 -0.00011480227 4283593019
0.0048448965 -0.0053718835 -0.0031584837 4284381223
0.0063409694 -0.0030514896 -0.0056121703 4283203379
0.0081357025 -0.0021942556 -0.0066877864 4282024259
0.010405131 -0.0035299957 -0.0057016946 4281828928
0.012685351 -0.0048649758 -0.0047176201 4281959234
0.014976338 -0.0061990619 -0.0037356298 4282155583
0.017110053 -0.0068019778 -0.0034409668 4282156858
0.019419894 -0.0081346631 -0.0024625026 4283204908
0.021567095 -0.008736439 -0.0021703318 4284247858
0.0062157661 -0.0046530068 -0.0067778453 4284117043
0.008481957 -0.0059934556 -0.0057944693 4282416703
0.010439288 -0.0058668554 -0.0061836615 4282286909
0.012721695 -0.0072060674 -0.0052032955 4282876979
0.014849685 -0.0078116432 -0.0049092136 4283924008
0.016983088 -0.0084167272 -0.0046160966 4284577063
0.0085132793 -0.008334592 -0.0062788576 4283399984
0.01047314 -0.0082078278 -0.0066685602 4283790899
0.012757726 -0.009551242 -0.0056919437 4284706348
0.01738967 -0.023319289 -0.0069436487 4284640304
0.020392753 -0.027664006 -0.0032969471 4284314158
0.023255821 -0.031261057 -0.00032952987 4284050489
0.014783889 -0.022831567 -0.0097528268 4283528758
0.017428353 -0.025695212 -0.0074559171 4282678843
0.020940907 -0.032296315 -0.0018034223 4282351423
0.024157673 -0.037398934 0.0024967697 4283263304
0.010384489 -0.023207314 -0.011491252 4283790134
0.012517858 -0.02383019 -0.011211423 4282874938
0.014656633 -0.024452582 -0.010932567 4282024514
0.017466728 -0.028075188 -0.0079711508 4281566789
0.021149393 -0.035445854 -0.0016631652 4281502274
0.024370141 -0.040563494 0.0026248209 4282936393
0.0041918121 -0.024452284 -0.012163376 4282548793
0.0061610155 -0.024325222 -0.012555154 4282091578
0.0081302933 -0.02419804 -0.012946876 4281566789
0.010099642 -0.024070755 -0.013338516 4281238349
0.012069058 -0.02394332 -0.013730077 4281696328
0.014365781 -0.025320783 -0.012781909 4281566789
0.017338477 -0.02970688 -0.0091586243 4281632068
0.021188244 -0.037851721 -0.002197789 4281698114
0.024238639 -0.042232513 0.001410272 4283132488
-0.00030611455 -0.024051867 -0.014570123 4282939199
0.001802139 -0.02468136 -0.014289027 4282350403
0.0039158277 -0.025310405 -0.014008937 4281959744
0.0058821961 -0.025183551 -0.014400182 4281762629
0.0080040842 -0.025811851 -0.014121482 4281304904
0.0099732764 -0.02568455 -0.014513088 4281108299
0.012103312 -0.026312023 -0.014235863 4281500488
0.014402207 -0.027693726 -0.013291402 4281893189
0.017376401 -0.032092869 -0.009678157 4281893444
0.020720348 -0.037998475 -0.004736918 4282154054
-0.0084068105 -0.025403455 -0.014850313 4283590213
-0.0065857396 -0.02451925 -0.01591236 4282480454
-0.0046306849 -0.024393752 -0.016301816 4282219334
-0.002533637 -0.025026485 -0.016020289 4281892679
-0.00043115765 -0.025658682 -0.015739793 4281566533
0.0015295371 -0.025532462 -0.016130103 4281501509
0.0037901364 -0.026921652 -0.015181767 4281566024
0.0057563484 -0.026794821 -0.015572978 4281434954
0.0077226423 -0.026667833 -0.0159641 4281369673
0.0096889995 -0.026540749 -0.016355162 4281500234
0.01181604 -0.027170643 -0.016078928 4281631304
0.01427504 -0.029313818 -0.014470471 4281630795
0.017413996 -0.034482867 -0.010200675 4281825613
0.020590447 -0.039649293 -0.0059382608 4282412878
-0.010488383 -0.027133092 -0.015628157 4282610504
-0.0089321136 -0.024724685 -0.018030966 4282087753
-0.007119026 -0.023838878 -0.01908976 4281631303
-0.0047550499 -0.02599588 -0.017468153 4281501509
-0.0026583299 -0.026630819 -0.017188193 4281435719
-0.00055617094 -0.027265221 -0.016909266 4281631814
0.0014043748 -0.027139015 -0.017299553 4281566278
0.0036644712 -0.028532594 -0.016354365 4281369673
0.0057829507 -0.029165611 -0.016078362 4281500234
0.0077517591 -0.029038474 -0.016469991 4281565514
0.0094051063 -0.027392283 -0.018193772 4281630794
0.011850011 -0.029543124 -0.016587472 4281826634
0.014311016 -0.031692713 -0.014984297 4281628754
0.017119709 -0.035359085 -0.01205516 4281823573
0.019786723 -0.038264729 -0.0097952886 4282213979
-0.011928633 -0.032679945 -0.013053967 4282545989
-0.010612421 -0.028737023 -0.016795935 4281565259
-0.0091893077 -0.025558896 -0.019863227 4281499979
-0.0073788837 -0.024671063 -0.020919869 4281435464
-0.0050182417 -0.026834831 -0.019302478 4281239368
-0.0030660704 -0.02670943 -0.01969129 4281241154
-0.00082536042 -0.02810894 -0.018745666 4281370439
0.0011323541 -0.027982906 -0.01913538 4281565768
0.0035388432 -0.030143231 -0.017526751 4281695053
0.0056569912 -0.030778453 -0.017252306 4281759824
0.0076256432 -0.030651346 -0.017643919 4282021454
0.0094367638 -0.029762417 -0.018699983 4282085459
0.011883672 -0.031919643 -0.017098954 4282345303
-0.013898179 -0.03518635 -0.013167372 4283066189
-0.012053333 -0.034294538 -0.014229538 4282544969
-0.010736428 -0.030340672 -0.017963504 4281631048
-0.0091794357 -0.027919158 -0.020356683 4281304139
-0.0073663108 -0.027029 -0.02141224 4281304648
-0.0052810572 -0.027669109 -0.021133402 4281436484
-0.0033317097 -0.027543902 -0.021521663 4281501509
-0.0010941848 -0.028947935 -0.020578714 4281369673
0.00086069852 -0.028822087 -0.020967862 4281369163
0.0032638535 -0.030989215 -0.019363416 4282216528
0.0053789839 -0.031626776 -0.019090055 4282345558
-0.012178004 -0.035908811 -0.015404875 4282544458
-0.010729887 -0.032711759 -0.018464213 4281892424
-0.0091698691 -0.030283526 -0.02085313 4281434444
-0.0073540546 -0.029390998 -0.021907588 4281630793
-0.0054049753 -0.029265933 -0.02229589 4281762119
-0.0033145845 -0.029907793 -0.022019619 4281762373
-0.0012187511 -0.030549154 -0.021744328 4281825103
0.0007359758 -0.030423343 -0.022133464 4281627733
-0.010854006 -0.034317009 -0.019632949 4281694798
-0.0091606155 -0.032651968 -0.02135255 4281369163
-0.0074778013 -0.030987531 -0.023069898 4281563218
-0.0055288561 -0.030862466 -0.023458166 4281690973
-0.011108242 -0.035149828 -0.021464905 4281694034
-0.0094173327 -0.0334806 -0.023180762 4281954133
-0.018818021 -0.038802043 -0.019743115 4282406758
-0.022610493 0.0068991184 0.019158933 4285360423
-0.019474134 -7.1533024e-05 0.025900833 4285360678
-0.030521482 0.0040617809 0.02026679 4284902189
-0.029496238 0.010600425 0.013446022 4285426978
-0.028194487 0.01499895 0.0087755173 4285623583
-0.026259646 0.015122302 0.0083894618 4285820443
-0.024097599 0.013821706 0.0094283521 4285951259
-0.021343738 0.008962512 0.01402485 4286017304
-0.017601311 -0.0015876815 0.024305098 4286082839
-0.035275355 0.0071940422 0.014874302 4285164330
-0.033619933 0.0094635189 0.012343261 4285361699
-0.032082997 0.012447044 0.0091024265 4285558814
-0.030461945 0.014714569 0.0065783523 4285689884
-0.028964721 0.017695744 0.0033455752 4285689374
-0.02704607 0.017818026 0.0029627141 4285623838
-0.024900541 0.016511925 0.0040016491 4285623838
-0.022280045 0.012350373 0.0078797657 4285689373
-0.019271187 0.0060492903 0.013880935 4285755163
-0.015243009 -0.005958423 0.025546663 4285623838
-0.04338979 0.0065267533 0.013836276 4285097773
-0.042064548 0.011675932 0.0084483121 4285820443
-0.040409401 0.013951704 0.0059219673 4285885978
-0.038392313 0.013356023 0.0062508564 4285885978
-0.036369666 0.012760788 0.0065787099 4285754909
-0.034441233 0.012883291 0.006193595 4285689884
-0.032717526 0.014440089 0.0043857135 4285624093
-0.031109452 0.016713325 0.0018691048 4285689883
-0.029625058 0.019702412 -0.0013545863 4285952788
-0.027830385 0.020540394 -0.0024445746 4285886488
-0.025588207 0.018512394 -0.000696389 4285952279
-0.023098081 0.015053004 0.0024660695 4286018579
-0.020462498 0.010879368 0.0063314252 4285952024
-0.017552227 0.0052760094 0.01160576 4285558814
-0.013607942 -0.0060504973 0.022528596 4285558814
-0.046129279 0.010564581 0.007349994 4285426979
-0.044547118 0.01356785 0.0041127335 4285623838
-0.042897172 0.015849665 0.0015922673 4285623583
-0.040988229 0.015970618 0.0012108106 4285623838
-0.038890511 0.014652029 0.0022521596 4285689373
-0.036878847 0.014053866 0.0025805384 4285755163
-0.034861587 0.013456121 0.0029079169 4285755163
-0.033145688 0.015016824 0.0011048019 4285624093
-0.031335309 0.015857771 1.3148412e-05 4285624094
-0.029853038 0.018855445 -0.00320361 4285689884
-0.028060988 0.019695416 -0.0042914599 4285689628
-0.02582211 0.017660599 -0.0025475491 4285689628
-0.023566984 0.015626974 -0.00080684014 4285624348
-0.021532349 0.015031055 -0.00048246421 4285558813
-0.01925011 0.012999296 0.0012530126 4285559069
-0.016085707 0.005943045 0.0079240222 4285493533
-0.012109302 -0.0054163933 0.018814389 4285295908
-0.04817687 0.0088577718 0.0065807942 4284966703
-0.046750516 0.013315745 0.0019239131 4285558559
-0.045097724 0.015604235 -0.0005923491 4285755673
-0.043283232 0.016447037 -0.0016836319 4285623583
-0.041382439 0.016567416 -0.0020634998 4285689374
-0.039293185 0.015243843 -0.0010237079 4285886744
-0.037289813 0.014642939 -0.00069532916 4285952789
-0.035081968 0.012599126 0.0010494515 4285689884
-0.033164278 0.012720942 0.0006664861 4285624093
-0.031455956 0.014285564 -0.0011317581 4285624604
-0.029865652 0.016570807 -0.0036349948 4285624349
-0.027960725 0.016692117 -0.0040151905 4285624349
-0.02594278 0.016092658 -0.0036892556 4285558558
-0.024034813 0.016214371 -0.0040699039 4285624093
-0.022244871 0.017056696 -0.0051555466 4285689628
-0.020339236 0.017178439 -0.0055355979 4285689373
-0.017692208 0.012979366 -0.0016919989 4285689374
-0.014381848 0.0051825792 0.0056621525 4285623328
-0.011012435 -0.0026103035 0.013004616 4285557538
-0.04695341 0.012469076 6.8921596e-05 4285427489
-0.045474753 0.016213372 -0.0038616043 4285690138
-0.043668233 0.017057866 -0.0049497336 4285886999
-0.041775562 0.017177701 -0.0053279977 4285886999
-0.039600849 0.015124954 -0.0035816263 4285952788
-0.037603118 0.014521472 -0.0032537822 4285755674
-0.035401233 0.012470633 -0.0015126988 4285689884
-0.033488996 0.012592077 -0.0018946026 4285624093
-0.031576551 0.012713626 -0.0022764672 4285624604
-0.029878534 0.014282033 -0.0040693358 4285624604
-0.027861074 0.013680264 -0.0037450865 4285624349
-0.025950737 0.013801992 -0.0041263048 4285690139
-0.024386235 0.016092427 -0.0066192895 4285689883
-0.022601575 0.016936541 -0.0077022184 4286018324
-0.020701423 0.017057911 -0.0080811856 4285886489
-0.018307641 0.014289983 -0.0056508007 4285886233
-0.015640207 0.01007919 -0.0018210802 4285885978
-0.012296878 0.0022605434 0.0055085812 4285754654
-0.0095515102 -0.0019450858 0.0093229786 4286146588
0.0013292395 -0.0063578635 0.012244251 4284904738
-0.04690668 0.0094457939 0.00034349225 4285361444
-0.045593455 0.014655203 -0.0049964953 4285558813
-0.043875307 0.016228616 -0.0067906771 4285623838
-0.041894324 0.015621655 -0.0064612925 4285624094
-0.039907761 0.015015095 -0.00613291 4285623838
-0.038108557 0.015861556 -0.0072177611 4285624094
-0.036116235 0.015255541 -0.0068903882 4285624093
-0.034118369 0.014650024 -0.0065640975 4285624349
-0.031906009 0.012593448 -0.004829891 4285624348
-0.029998846 0.012714744 -0.0052106474 4285624348
-0.027981669 0.01211074 -0.004888 4285624349
-0.026296452 0.013682902 -0.0066749658 4285689884
-0.02485209 0.016704611 -0.0098643918 4285820953
-0.022957571 0.01682549 -0.010242334 4285689374
-0.020942375 0.016221724 -0.0099189421 4285557794
-0.018675268 0.014169395 -0.0081951721 4285689118
-0.016391948 0.012118138 -0.0064745294 4285689373
-0.013449669 0.0064470097 -0.0012587439 4285624093
-0.010595649 0.0015027896 0.0032493919 4285557794
-0.045540936 0.011639103 -0.0047179982 4285493535
-0.043905459 0.013946146 -0.0072161164 4285493534
-0.041922078 0.013337068 -0.0068888254 4285559068
-0.040026739 0.01345709 -0.007267613 4285624349
-0.038420036 0.015762582 -0.0097597782 4285689883
-0.03653229 0.015882328 -0.010136897 4285886743
-0.034644365 0.016002156 -0.010513991 4285886744
-0.032443337 0.013938256 -0.0087824557 4285755418
-0.030440018 0.013331071 -0.0084587578 4285689884
-0.02843117 0.012724318 -0.0081361011 4285624349
-0.026641428 0.013572872 -0.0092169736 4285624348
-0.02508685 0.015875742 -0.011698211 4285952789
-0.023312829 0.016723491 -0.012775796 4285755163
-0.021423623 0.016844109 -0.013152622 4285623584
-0.01928822 0.015511364 -0.012131169 4285623838
-0.017016239 0.013452806 -0.010413179 4285886743
-0.0144713 0.0099425912 -0.0073022395 4285624093
-0.01163733 0.0049817264 -0.0028015207 4285623584
-0.0086320192 -0.000702627 0.0023887269 4285425193
0.0021840073 -0.0051498711 0.0053003281 4284904484
-0.045232728 0.0064204931 -0.0023307055 4285427488
-0.043935865 0.011659503 -0.0076445285 4285427998
-0.04204087 0.011779375 -0.0080233421 4285624603
-0.040239103 0.012630209 -0.0091055576 4285690139
-0.038634665 0.014942035 -0.011592351 4285886743
-0.0368485 0.015792035 -0.012671262 4285821209
-0.034966052 0.015911482 -0.013047287 4285886744
-0.032770991 0.013840668 -0.011319518 4285952534
-0.030880123 0.013960853 -0.011697078 4285689884
-0.028770097 0.012621537 -0.01067418 4285624348
-0.026985683 0.013471946 -0.011752425 4285558558
-0.025321238 0.015051544 -0.013528632 4285755928
-0.023784854 0.01735989 -0.016001284 4285886998
-0.022023991 0.018209066 -0.01707455 4285886998
-0.019776896 0.016142227 -0.015356597 4285887253
-0.017513596 0.014076576 -0.01364184 4285820954
-0.015234083 0.01201202 -0.011930192 4285624093
-0.012545712 0.0077633411 -0.0081339525 4285624094
-0.0094244033 0.0013320446 -0.0022578724 4285492003
-0.0065272301 -0.0036398619 0.0022189841 4285425448
-0.043966562 0.0093687922 -0.0080759907 4285295653
-0.042431399 0.012421526 -0.011264676 4285559324
-0.040730856 0.014006965 -0.013045441 4285755418
-0.039040789 0.01559189 -0.014824072 4285689375
-0.037163995 0.015710853 -0.015199073 4285557539
-0.03518571 0.015097439 -0.014873838 4285558048
-0.03299395 0.013019763 -0.013150299 4285689373
-0.031105876 0.013139762 -0.013527313 4285755929
-0.028999001 0.011795886 -0.012507122 4285624348
-0.027329177 0.013380058 -0.014281236 4285558558
-0.025555231 0.014232025 -0.01535565 4285558558
-0.024021141 0.016546749 -0.017822972 4285624603
-0.022142902 0.016666621 -0.018197643 4285624604
-0.020019121 0.015324302 -0.017180391 4285624604
-0.017633781 0.012520887 -0.014774514 4285558814
-0.015226863 0.0097189248 -0.012372805 4285493024
-0.012667693 0.0061878189 -0.0092810011 4285493023
-0.0098148286 0.0011976138 -0.0048068715 4285558304
-0.007060416 -0.0030597374 -0.0010334328 4285359659
0.032700196 -0.010832526 0.0011470299 4285033004
0.036778949 -0.018697277 0.0082605463 4285098283
0.041878156 -0.030191213 0.018772829 4284966704
-0.043909766 0.0063384399 -0.0078091854 4285229098
-0.042820849 0.013077155 -0.014496209 4285493023
-0.041314311 0.016136825 -0.017672556 4285755673
-0.039541617 0.016990233 -0.018745661 4285886999
-0.037675634 0.017108478 -0.019118519 4285755418
-0.035607211 0.015757419 -0.018094115 4285821209
-0.033424109 0.013672657 -0.016373813 4285952789
-0.031331241 0.012323357 -0.01535414 4285690138
-0.029336646 0.011709057 -0.015033599 4285624349
-0.027448326 0.011829235 -0.015410535 4285558813
-0.025674336 0.012683354 -0.016483352 4285559068
-0.023788363 0.012803592 -0.016859662 4285559068
-0.021902218 0.012923941 -0.017235929 4285558813
-0.019648381 0.010844409 -0.015529202 4285624603
-0.01737833 0.0087659881 -0.013825582 4285690139
-0.014836326 0.0052227229 -0.010738616 4285624093
-0.012528524 0.0031469166 -0.0090423645 4285558559
-0.0099380761 -0.00039299577 -0.0059648836 4285557794
-0.0074566491 -0.0031986386 -0.0035843365 4285490728
0.023719687 -0.0093377382 -0.0018791277 4284967468
0.026235152 -0.011398017 -0.00022260658 4285098793
0.02840386 -0.011998042 6.5559521e-05 4285230119
0.030762047 -0.013326958 0.0010348856 4285427234
0.033130944 -0.014655039 0.0020021163 4285427233
0.037026197 -0.021814421 0.0084154326 4285361189
-0.043028705 0.012271047 -0.016319666 4285295398
-0.041710153 0.016814135 -0.020886306 4285559068
-0.040041044 0.01840641 -0.022654263 4285755929
-0.037989311 0.017049782 -0.021629898 4285755928
-0.036027648 0.016430892 -0.021304656 4285690138
-0.03364595 0.012865528 -0.018194582 4285690139
-0.031449914 0.010775082 -0.016481649 4285558558
-0.02945561 0.010158539 -0.016162714 4285558814
-0.027567416 0.010278687 -0.016539641 4285492513
-0.025564738 0.0096628889 -0.016222214 4285426978
-0.023439549 0.0083116591 -0.015211975 4285426723
-0.02130349 0.0069612563 -0.014203872 4285623839
-0.019156583 0.0056116283 -0.013197801 4285558048
-0.016873792 0.0035274774 -0.011501684 4285557793
-0.014319405 -2.592802e-05 -0.008425354 4285491748
-0.011998869 -0.002107501 -0.0067365672 4285426468
-0.0097951889 -0.0034530163 -0.0057415273 4285426214
-0.007716395 -0.0040630996 -0.0054385737 4285556264
0.019292433 -0.0097538531 -0.0036408287 4285033258
0.02143931 -0.010357827 -0.0033502132 4285163818
0.023591582 -0.010961339 -0.0030605942 4285164074
0.026106372 -0.013028234 -0.0014088452 4285229608
0.02845601 -0.014362171 -0.00044122711 4285295144
0.030816372 -0.015695348 0.00052437931 4285360933
0.033374049 -0.017759025 0.0021678526 4285426469
0.037272777 -0.024940066 0.0085641872 4285295143
-0.042785704 0.0077707693 -0.01465206 4285360424
-0.041641116 0.013806894 -0.020605261 4285559069
-0.040157326 0.016882718 -0.023763999 4285624349
-0.038204163 0.016260915 -0.023438754 4285558559
-0.036144666 0.014900535 -0.022419184 4285558559
-0.033867389 0.012063064 -0.020011961 4285558558
-0.031568527 0.0092270821 -0.017608967 4285558558
-0.029465713 0.0078697428 -0.01659783 4285623838
-0.027463503 0.0072516277 -0.016282028 4285624094
-0.025455758 0.0066339225 -0.015967209 4285558049
-0.023208871 0.0045405626 -0.014269094 4285623584
-0.021065265 0.003186211 -0.013265735 4285491748
-0.018788613 0.0010949969 -0.01157338 4285557539
-0.01674547 0.00047995895 -0.01126531 4285491749
-0.014186718 -0.0030841231 -0.0081980452 4285426213
-0.011991687 -0.0044346899 -0.0072046444 4285426468
-0.0099187046 -0.0050474256 -0.0069023129 4285491748
0.014723063 -0.0094238892 -0.0060825534 4285165348
0.016856145 -0.010031208 -0.005791029 4285427744
0.019164998 -0.011372715 -0.0048189126 4285426978
0.021484587 -0.012713358 -0.0038488889 4285361188
0.023814937 -0.014053226 -0.0028808601 4285360934
0.026334412 -0.01612632 -0.0012349822 4285360933
0.028688911 -0.01746437 -0.00027156435 4285360933
0.031054126 -0.018801533 0.00068978034 4285426213
0.033616494 -0.020871505 0.0023274701 4285426214
0.037140466 -0.02660732 0.0073511545 4285360168
-0.042364135 0.0017692968 -0.011605194 4285228588
-0.041387483 0.009307541 -0.018939596 4285558814
-0.039987728 0.013134375 -0.022788944 4285493533
-0.037928894 0.011769421 -0.021772558 4285427233
-0.035859168 0.010405295 -0.020758312 4285558304
-0.033571988 0.0075596794 -0.018359624 4285492259
-0.031369217 0.005456537 -0.016657922 4285491494
-0.029150203 0.0033544898 -0.014959338 4285426214
-0.027248889 0.0034754053 -0.015338932 4285426214
-0.025119446 0.0021155551 -0.014336175 4285492004
-0.022979148 0.00075653195 -0.013335563 4285492514
-0.020828001 -0.00060167909 -0.012337033 4285557794
-0.018665969 -0.0019591376 -0.011340545 4285492259
-0.01661779 -0.002576001 -0.011035169 4285492259
-0.014309391 -0.004671596 -0.0093538556 4285426468
-0.01198481 -0.0067659914 -0.0076757185 4285492259
-0.01017487 -0.0059023127 -0.0087502766 4285425958
0.0085442849 -0.010679767 -0.0067662597 4285294889
0.010506675 -0.010552868 -0.007156482 4285360679
0.01279344 -0.011900499 -0.0061835656 4285295144
0.014761318 -0.01177299 -0.0065746857 4285361188
0.017064262 -0.013119377 -0.0056047561 4285558049
0.019207783 -0.013728082 -0.0053168545 4285492513
0.021702431 -0.015809655 -0.0036710883 4285492259
0.024037629 -0.017153516 -0.0027073268 4285426469
0.026561789 -0.019232929 -0.0010672417 4285360678
0.028921133 -0.020574957 -0.00010808371 4285360678
0.031291217 -0.02191624 0.00084907003 4285361188
0.033672005 -0.023256652 0.0018041451 4285426214
0.036819231 -0.027538642 0.0054620858 4285294379
-0.039628893 0.0078855455 -0.020436745 4285360933
-0.037752688 0.008004345 -0.020811714 4285557793
-0.035574965 0.005892776 -0.019110039 4285557794
-0.033277877 0.0030390471 -0.016719863 4285492003
-0.031065024 0.00092995912 -0.015025087 4285426468
-0.029052906 0.00030788779 -0.014714615 4285492004
-0.027035236 -0.00031367689 -0.014405206 4285426469
-0.025012061 -0.00093476474 -0.014096808 4285426469
-0.02286689 -0.0022978634 -0.013100442 4285492259
-0.020830013 -0.002917923 -0.012794584 4285492259
-0.018665813 -0.0042795837 -0.011801854 4285492258
-0.016615257 -0.0048985109 -0.011498597 4285492259
-0.014559209 -0.005516991 -0.0111963 4285492258
-0.012237936 -0.0076181814 -0.0095224231 4285492259
-0.010165572 -0.0082353503 -0.0092232451 4285359914
0.008574985 -0.013029039 -0.0072566504 4285294633
0.010539897 -0.012901962 -0.0076473663 4285295143
0.01282886 -0.014253885 -0.0066781202 4285360933
0.015128575 -0.015604943 -0.0057109566 4285426468
0.01743906 -0.016955152 -0.0047458271 4285492259
0.019420266 -0.016826548 -0.0051394226 4285492258
0.021919601 -0.018914364 -0.0034994911 4285426469
0.02425966 -0.020262323 -0.0025399085 4285360679
0.026788497 -0.022347927 -0.00090569817 4285295143
0.029152706 -0.023694083 4.9272552e-05 4285229354
0.031711023 -0.025777511 0.0016778279 4285360679
0.034471512 -0.028597757 0.0039784815 4285425959
-0.039271645 0.0026150495 -0.018100334 4285360678
-0.037479818 0.0034805015 -0.019169101 4285492258
-0.035292029 0.0013629943 -0.01747435 4285557794
-0.032985061 -0.0014988631 -0.01509269 4285492258
-0.03086777 -0.0028685629 -0.014094368 4285492003
-0.028739624 -0.004237473 -0.013098136 4285492004
-0.026933536 -0.003370598 -0.014169356 4285426468
-0.02479165 -0.0047384426 -0.013175657 4285426469
-0.022871569 -0.0046161488 -0.013558861 4285492259
-0.020713337 -0.0059826821 -0.012568295 4285558048
-0.018665925 -0.006604135 -0.01226615 4285492513
-0.016613007 -0.007225126 -0.011964956 4285557538
-0.014681622 -0.0071016625 -0.012350079 4285491748
0.0086053722 -0.015382357 -0.0077499906 4285360934
0.010572817 -0.015255131 -0.0081412168 4285426469
0.013025764 -0.017353021 -0.0064973431 4285361189
0.015165851 -0.017966583 -0.0062122131 4285426469
0.017478518 -0.019321091 -0.0052507566 4285492768
0.01963209 -0.019933522 -0.0049681151 4285492768
0.021963581 -0.021286502 -0.0040102499 4285229353
0.02430582 -0.022638708 -0.0030543823 4285098028
0.027192414 -0.026212141 -7.5133517e-05 4285032493
-0.039105579 -0.0011806935 -0.017159836 4285229354
-0.037403136 0.00043547899 -0.018918179 4285426468
-0.035310745 -0.00094043463 -0.017918272 4285491748
-0.033001907 -0.0038109422 -0.015543535 4285492259
-0.030776955 -0.0059324056 -0.013861004 4285426469
-0.028752036 -0.0065580532 -0.013556359 4285426213
-0.026832439 -0.0064360574 -0.013939664 4285426214
-0.024799161 -0.0070609152 -0.013636574 4285426213
-0.022644252 -0.0084321797 -0.012648718 4285492259
-0.020597287 -0.009055987 -0.012348156 4285492258
-0.018666334 -0.0089327991 -0.012733381 4285557539
0.0084791631 -0.016995512 -0.0089241127 4285360933
0.010605425 -0.017612457 -0.0086380104 4285426469
0.012898739 -0.018972784 -0.0076762075 4285361188
0.015202817 -0.020332292 -0.0067164386 4285361189
0.017517664 -0.021691039 -0.0057586776 4285492259
0.020012937 -0.023792356 -0.0041278359 4285426723
0.02252429 -0.025892451 -0.0025001224 4285228844
-0.039129667 -0.0034885183 -0.017605713 4285229354
-0.037327066 -0.0026180595 -0.018673396 4285426468
-0.035329744 -0.003247954 -0.018365175 4285491749
-0.033121645 -0.0053772032 -0.016684223 4285492003
-0.030897327 -0.0075052679 -0.015006464 4285557793
-0.028656803 -0.0096322596 -0.013331831 4285557538
-0.026621342 -0.010259315 -0.013030916 4285425958
-0.024467044 -0.01163514 -0.012046253 4285425958
-0.02230189 -0.013010129 -0.011063709 4285491494
-0.020244554 -0.013635457 -0.010766917 4285491239
-0.018303037 -0.013511606 -0.011154254 4285819168
0.0083529986 -0.018608332 -0.010098 4285360933
0.010637727 -0.01997377 -0.0091378028 4285294888
0.012771752 -0.020592228 -0.0088548297 4285229099
0.014911182 -0.021210216 -0.0085728513 4284902189
-0.037251621 -0.0056800544 -0.018434843 4285492259
-0.03514947 -0.0070641264 -0.017443445 4285491748
-0.033036426 -0.0084473416 -0.016454171 4285622564
-0.030702278 -0.011333644 -0.014097499 4285688353
-0.028346576 -0.014218472 -0.011745046 4285425958
0.0082268529 -0.020220868 -0.011271679 4285229353
0.010511089 -0.021590702 -0.010314644 4285097773
0.012644786 -0.022211373 -0.010033244 4285098539
-0.038707338 -0.011890404 -0.015079968 4284901169
-0.036595151 -0.013278276 -0.014093971 4285360678
-0.034472093 -0.014665425 -0.013110031 4285426214
