# .PCD v0.7 - Point Cloud Data file format
VERSION 0.7
FIELDS x y z rgba
SIZE 4 4 4 4
TYPE F F F U
COUNT 1 1 1 1
WIDTH 969
HEIGHT 1
VIEWPOINT 0 0 0 1 0 0 0
POINTS 969
DATA ascii
-0.0088758469 0.025652491 0.035083264 4289996833
-0.0055484995 0.020333759 0.040418729 4290323999
-0.0021783113 0.015018135 0.045744918 4290716444
0.00053860992 0.012434341 0.048182175 4289539363
0.0032769889 0.0098521858 0.050614804 4289277224
0.0058574378 0.0079534724 0.052324042 4289341739
0.0088180825 0.0046927631 0.05546619 4289602858
-0.019056451 0.024000429 0.035333931 4288557104
-0.017237127 0.024827074 0.034178875 4289603623
-0.015265182 0.024967931 0.033746809 4290127138
-0.014095519 0.028535508 0.029708693 4290323488
-0.012136649 0.02867559 0.029279614 4290258464
-0.0096801706 0.026760928 0.031010738 4290062114
-0.0063651204 0.021423738 0.036335707 4290323744
-0.0036918931 0.018828005 0.038775802 4290062368
-0.0018663481 0.019655708 0.037619844 4289931553
0.00030695274 0.019114774 0.037900493 4289735714
0.0021273419 0.019942287 0.036745794 4289604899
0.0046698339 0.018034317 0.038458481 4290585884
0.0090734996 0.009291552 0.047327295 4290258463
-0.021919012 0.025672361 0.030966373 4289865254
-0.019958142 0.025812212 0.030536579 4290126884
-0.017687205 0.024576325 0.031548388 4290519838
-0.01587832 0.025404468 0.030397309 4290323744
-0.014234941 0.02691989 0.028527798 4290192674
-0.012276184 0.027059939 0.028098719 4290062114
-0.009820383 0.025138643 0.029825019 4290062114
-0.0070118681 0.021844693 0.032983549 4290323743
-0.0046894625 0.020613052 0.033984445 4289997089
-0.003050819 0.022128534 0.032116339 4289931809
-0.0014227703 0.023643389 0.030250585 4290193183
0.00037368387 0.024471354 0.029102759 4289800739
0.0027098097 0.023241013 0.030100966 4289996833
0.0061625876 0.017896757 0.035382934 4289015338
0.010593094 0.0091275647 0.044224471 4289538599
0.01509307 0.00036346167 0.053050891 4290062623
-0.024312273 0.025296573 0.028772032 4289079598
-0.022655867 0.026816916 0.026902674 4289472809
-0.020553686 0.026265636 0.027195005 4289276713
-0.018291224 0.02502479 0.028205322 4290716444
-0.016332846 0.025164608 0.027776176 4290192928
-0.014374312 0.025304534 0.027347075 4290258208
-0.012415659 0.025444549 0.026918003 4290062114
-0.010125987 0.024205949 0.027922662 4289996835
-0.0078255311 0.022968259 0.028924981 4289734948
-0.0056850724 0.02242038 0.029209355 4289669669
-0.0038860627 0.023250509 0.028062468 4289735203
-0.0022684112 0.02476893 0.026202315 4290258974
-0.00084014237 0.026975106 0.023630606 4290847514
0.0011165664 0.027115624 0.023202451 4289538853
0.0036257282 0.025192194 0.024912572 4289539364
0.0072717331 0.019143138 0.030892184 4289538853
0.011344783 0.011722401 0.038284458 4290193184
0.016821573 -0.00050604343 0.050640903 4289931554
-0.026549734 0.024237737 0.027301895 4289014319
-0.025183715 0.027148269 0.023996526 4289473574
-0.0235404 0.028672013 0.022133308 4288884523
-0.021451831 0.028117564 0.022426965 4288950314
-0.019048654 0.026179004 0.024154531 4289931298
-0.016786538 0.024933755 0.025161693 4289866018
-0.01451363 0.023689423 0.02616653 4289865763
-0.01239251 0.023137681 0.026453266 4289734948
-0.010431167 0.023277957 0.026023658 4290192929
-0.0088055469 0.024801027 0.024164839 4289604133
-0.006678734 0.024249963 0.024450531 4289473319
-0.00489299 0.025081314 0.02330819 4289473829
-0.0032884255 0.026603188 0.021454139 4290193183
-0.0015158467 0.027433787 0.020314815 4290782234
0.000251472 0.028264094 0.019176716 4290323998
0.0027492717 0.026333276 0.020884367 4290127903
0.0058229528 0.022333685 0.024720186 4290258719
0.0098750927 0.01488737 0.032098882 4290062113
0.01590546 0.00054904819 0.046558641 4289931298
-0.028781064 0.023184162 0.025833977 4289210669
-0.027262837 0.025408607 0.023251573 4289472554
-0.02605322 0.029022213 0.019237274 4290323744
-0.024422958 0.030549381 0.017380198 4289669668
-0.022196315 0.02929702 0.018391686 4289800483
-0.019650087 0.026656531 0.02083276 4290454814
-0.017239422 0.024712022 0.022553792 4290650908
-0.014972344 0.023462821 0.023556622 4289800484
-0.013019249 0.023602393 0.023128731 4289865763
-0.011561215 0.025823329 0.020560035 4289734948
-0.0099513382 0.027349625 0.018707948 4289734948
-0.0078408383 0.026795179 0.018995544 4289407783
-0.0057248995 0.026241224 0.019282026 4290389533
-0.0037792698 0.026380714 0.018856118 4289866274
-0.0020119511 0.027213104 0.017719587 4289997088
0.00011225045 0.026660021 0.018004471 4289735204
0.0026093535 0.024722576 0.019707309 4289669669
0.0060545951 0.019325349 0.02495137 4289734948
0.010298945 0.011163145 0.033019617 4289538344
0.016908424 -0.0052963123 0.049567163 4289407529
-0.0305916 0.020042211 0.02652193 4287573569
-0.029341489 0.023669414 0.022506842 4289015594
-0.027974352 0.026597362 0.019214304 4289865764
-0.026628383 0.029523887 0.015926475 4290389023
-0.024856977 0.030357715 0.014789915 4290127393
-0.02263616 0.029100589 0.015799316 4290389279
-0.020250335 0.027147576 0.017520791 4290454558
-0.018005226 0.025892373 0.01852501 4290127648
-0.015908837 0.025334302 0.018813798 4289669923
-0.013806995 0.024776753 0.019101424 4290062368
-0.01235918 0.027003493 0.016539888 4289931298
-0.010592178 0.027837642 0.015404774 4290454814
-0.008660201 0.027975965 0.014981708 4290716444
-0.0062094815 0.026028235 0.016689455 4290716444
-0.0040937625 0.025472146 0.016974384 4289669923
-0.0019726157 0.024916545 0.017258206 4289800994
0.00051572174 0.02297182 0.018957945 4289866019
0.0033872426 0.019639116 0.022070037 4289669669
0.0072166324 0.012836382 0.02871302 4289800228
0.011477252 0.0046491027 0.036757909 4289669413
-0.030453622 0.017030343 0.026776018 4287638848
-0.029478706 0.022068575 0.02133649 4288295219
-0.028110929 0.025005281 0.018050386 4289473319
-0.026764311 0.027940553 0.014768975 4289604134
-0.024992831 0.028776541 0.013634028 4289996835
-0.022772513 0.027514979 0.014640214 4289931299
-0.020541377 0.026254233 0.015644146 4290192929
-0.018456101 0.025693119 0.015933597 4289996835
-0.016684048 0.02652951 0.014798792 4289800738
-0.014593177 0.025968973 0.015087152 4290062369
-0.012990896 0.027503323 0.013243213 4289800483
-0.011064474 0.027641136 0.012821281 4288492334
-0.0091379546 0.027779024 0.012399381 4289669668
-0.006520588 0.025126781 0.014812088 4290585629
-0.0042324737 0.023870867 0.01580411 4290062368
-0.0017555952 0.021918673 0.01750127 4290324253
0.0010987744 0.018573675 0.020608837 4290193184
0.0043466203 0.013837144 0.025123181 4289734948
0.0081899874 0.0070135221 0.031746604 4289342759
0.012464201 -0.0011990219 0.039768711 4288426288
-0.03017851 0.013307676 0.027738525 4287247933
-0.028913431 0.01695773 0.023736591 4288033845
-0.027674809 0.020605993 0.019740524 4288164913
-0.026316881 0.02355079 0.016463222 4288623404
-0.024683155 0.025091171 0.014615247 4288623403
-0.022606485 0.024527028 0.014904762 4289211944
-0.020831961 0.025365572 0.013770908 4289735204
-0.019062661 0.026203874 0.012638215 4289866019
-0.017298523 0.027041864 0.011506783 4290062369
-0.015215978 0.026478518 0.011795292 4289931298
-0.013456937 0.027316328 0.010665115 4290520093
-0.011870291 0.028854016 0.0088279601 4289342759
-0.0097847283 0.02829117 0.0091160331 4288819243
-0.0070037469 0.024929721 0.012231145 4289146408
-0.004020825 0.020870704 0.016046913 4290585884
-0.0011836253 0.017513469 0.01914986 4289997089
0.0018608458 0.013459034 0.022952346 4289342503
0.0053037442 0.0080090389 0.028157236 4289342759
0.0089752562 0.0018633679 0.034056991 4287969074
0.012883369 -0.0049773455 0.040649831 4286660669
-0.029904447 0.0095721036 0.028691595 4287574843
-0.028490238 0.012529425 0.025408363 4288033333
-0.02709718 0.015485339 0.022129858 4288099634
-0.025579661 0.017735973 0.019567324 4288492589
-0.024077967 0.019985516 0.017008374 4288492589
-0.022139221 0.020123582 0.016583266 4288623403
-0.020661235 0.022371676 0.014029607 4289081128
-0.019199111 0.024618741 0.011479506 4289408038
-0.017752849 0.026864737 0.0089330021 4289669669
-0.015999209 0.027704272 0.0078055244 4290062369
-0.014415078 0.029246025 0.0059721228 4290520093
-0.012674537 0.030084778 0.0048477035 4290258464
-0.010430317 0.028816789 0.0058425199 4290454814
-0.0074860975 0.024741735 0.009656826 4290323999
-0.0041598305 0.019265581 0.014873816 4290062369
-0.00079077855 0.013792552 0.020081544 4289538853
0.0026210509 0.0083226934 0.025280001 4289408038
0.0062586218 0.0021547899 0.031172251 4288688684
0.0095729977 -0.0026074722 0.035649016 4288034354
0.013113121 -0.0080678016 0.040819637 4286856763
-0.029906355 0.0072369277 0.028212333 4288490293
-0.028348722 0.0094967484 0.025645783 4288098869
-0.026806928 0.011755474 0.023082802 4288099633
-0.02513551 0.013307162 0.021232998 4288427053
-0.023474596 0.014858164 0.019385612 4288492589
-0.021673426 0.015702859 0.018249052 4288688938
-0.02033776 0.01866373 0.01499003 4288361773
-0.019023292 0.021623235 0.011735678 4288885289
-0.017571252 0.023876201 0.0091927852 4288885034
-0.015973642 0.025423169 0.0073596388 4289015849
-0.014714811 0.028378993 0.0041177012 4289866020
-0.013143666 0.029924311 0.0022904593 4289800484
-0.010905266 0.028651476 0.0032832865 4289734948
-0.0074513033 0.022450332 0.0092005767 4289865763
-0.0037744418 0.015548773 0.015810644 4289996835
-0.00022158027 0.0093549266 0.021706438 4289800229
0.0031992719 0.0038682222 0.026889721 4288884779
0.0066628754 -0.001615271 0.032063678 4287838003
0.0096128806 -0.0049859732 0.035125673 4286791739
0.012965886 -0.0097607076 0.039582558 4286791483
-0.02990856 0.0048976392 0.027730061 4289078834
-0.02834782 0.0071642026 0.025167739 4287968054
-0.02680292 0.0094296783 0.022609008 4287968819
-0.025128588 0.010985903 0.020761827 4288492844
-0.023168907 0.011125289 0.020332007 4288492589
-0.021359652 0.011972681 0.019195346 4288361773
-0.019862115 0.014235221 0.016647251 4288623404
-0.018380415 0.016496696 0.014102757 4288688939
-0.017073184 0.019464489 0.01085664 4288688939
-0.015625909 0.021723751 0.0083197933 4288950313
-0.014358442 0.024688903 0.0050825384 4288950314
-0.01277902 0.026239123 0.003256809 4289407783
-0.010194615 0.023549337 0.0056502745 4289538599
-0.0069010668 0.01803571 0.010847995 4289734693
-0.0030409694 0.01040674 0.018141298 4289538599
0.00052338839 0.0041940436 0.024019724 4288491823
0.003775984 -0.00060350448 0.028486749 4287183928
0.0067008361 -0.0039870888 0.031545967 4286529853
-0.030322284 0.0046873316 0.025120152 4288491059
-0.028766446 0.0069600418 0.022563821 4288099124
-0.027084015 0.0085210353 0.020718103 4288165679
-0.025267035 0.0093709752 0.019581182 4288492843
-0.023159735 0.0088000223 0.019857278 4288558123
-0.021347765 0.0096497908 0.018721597 4288427309
-0.019540977 0.010499261 0.017587168 4288623148
-0.018050842 0.012767904 0.015045704 4288427054
-0.016418181 0.014325969 0.013211366 4288426544
-0.014957126 0.016592741 0.010676425 4288491823
-0.013675671 0.019567564 0.0074427277 4288492333
-0.011916269 0.020414211 0.006319033 4288688683
-0.009485811 0.018425491 0.0080013871 4288884778
-0.006180577 0.012895212 0.013183348 4289081129
-0.0023093596 0.0052430034 0.020456081 4288557869
0.0010894313 -0.0002803728 0.025617724 4286987833
0.0039917678 -0.0036765784 0.028673491 4286530364
0.0063736252 -0.004947342 0.02962864 4286334014
-0.027222469 0.0069042593 0.019536061 4287906343
-0.025260523 0.0070436597 0.019105634 4287839278
-0.02329842 0.0071831644 0.018675236 4288231214
-0.021486402 0.008035101 0.017541176 4288165679
-0.01967955 0.0088867322 0.016408367 4288558123
-0.01803343 0.010449991 0.014574273 4288296239
-0.016397856 0.012012646 0.012742523 4288688174
-0.014772806 0.013574608 0.010913201 4288491823
-0.013158318 0.015135959 0.009086227 4288557613
-0.011388175 0.015985481 0.0079618543 4288492589
-0.0087788627 0.013279974 0.010336651 4288558124
-0.0056334734 0.0084438026 0.014803866 4288819498
-0.0019280203 0.0014787242 0.021358201 4288230959
0.0009464696 -0.0019305274 0.024411729 4287053623
0.0036681667 -0.0046275556 0.026762249 4286530619
-0.02358444 0.0062812865 0.016790705 4287643184
-0.021624982 0.0064206719 0.016360944 4287904304
-0.019818064 0.0072744712 0.015229749 4288099889
-0.01786099 0.0074139014 0.014800673 4288427308
-0.016219825 0.0089812502 0.012971016 4288295728
-0.014589198 0.01054801 0.011143714 4288622638
-0.012969125 0.012114055 0.009318836 4288491823
-0.010861538 0.011539474 0.0095920339 4288623148
-0.0082424544 0.0088259056 0.011958083 4288688939
-0.0054305717 0.0054010376 0.015016912 4288688938
-0.0020698532 -0.00016013533 0.020160424 4289016359
0.00062685832 -0.0028678253 0.022509722 4289866784
0.0031656362 -0.0048614293 0.024158737 4288558889
0.0057204887 -0.0068538263 0.025804354 4287054898
-0.020109028 0.0063789859 0.01335147 4287120434
-0.017999578 0.0058019012 0.013622275 4288035119
-0.016200334 0.0066575184 0.012494553 4288230449
-0.014406294 0.0075128525 0.011368038 4288426798
-0.012780644 0.0090837032 0.0095451809 4288427054
-0.010668047 0.0085072815 0.0098156258 4288492589
-0.0078760087 0.005069904 0.012870511 4288492844
-0.0053995475 0.0030649304 0.01452796 4288427308
-0.0023854785 -0.0010837391 0.018267659 4289278244
-4.5329332e-05 -0.0023708418 0.01922187 4289867549
0.0026639029 -0.0050862581 0.021561911 4289671964
-0.01649645 0.00576628 0.010620875 4287772978
-0.01470504 0.0066236407 0.0094965361 4288165423
-0.012918815 0.0074807033 0.0083734579 4288558379
-0.010640889 0.0061842874 0.0093376972 4288689194
-0.0080155879 0.0034536645 0.011689184 4288623659
-0.005539827 0.0014420822 0.013341842 4288754728
-0.0028743222 -0.0012854263 0.0156847 4289867293
-0.00036371127 -0.0032943562 0.017329926 4290195480
0.0023419559 -0.0060187653 0.019664155 4288167463
-0.01111044 0.0060170293 0.0067754481 4287969839
-0.0084913671 0.0032772198 0.0091217067 4288886053
-0.0060216337 0.0012586042 0.010770774 4288820774
-0.0033623613 -0.0014781132 0.013108393 4289737753
-0.0061614439 -0.00035924464 0.0095882937 4288558889
0.014361374 -0.017235555 0.02330509 4288756514
0.016199259 -0.016369097 0.022175005 4289932828
0.015861895 -0.007584773 0.013509536 4290256934
0.0077278577 -0.0098043904 0.014055451 4288691233
0.010292668 -0.01182849 0.015674425 4289606683
0.012490038 -0.012406491 0.01592054 4289867548
0.013720732 -0.0093729123 0.012744943 4290325783
0.0072125681 -0.0099981278 0.011485778 4289345054
0.0090157986 -0.0091300383 0.010366382 4290063389
0.010430623 -0.0068129972 0.0078819878 4289998109
0.010858402 -0.00087492913 0.0019885879 4289215258
0.0043447763 -0.0088708103 0.0079908241 4289475359
0.006326016 -0.0087284222 0.0075573791 4289606174
0.0075525418 -0.005677931 0.0043956805 4290130198
0.0016807131 -0.0084536895 0.0051865 4289083678
0.0040201023 -0.0097711608 0.0061180685 4289540638
0.0054410286 -0.0074408427 0.0036420282 4289409313
0.0057149976 -0.00073648244 -0.0029133093 4290915599
-0.00061051548 -0.0094860718 0.0037509929 4289214239
0.0013596527 -0.0093447268 0.0033197813 4290522899
0.0035128668 -0.0099349916 0.0035686921 4290914834
0.0043719485 -0.005403854 -0.00093971752 4290587413
0.0042575523 0.0027820244 -0.0088354135 4289149723
-0.0028956383 -0.010513224 0.0023177657 4288299809
-0.0011057965 -0.0096378997 0.0012074895 4289672218
0.00067877769 -0.0087628141 9.845756e-05 4290849299
0.0028236471 -0.0093558803 0.00034753047 4290587669
0.0036757216 -0.004812099 -0.0041495096 4290652949
-0.0035594366 -0.0099209994 -0.00090050697 4289475868
-0.0016002916 -0.0097805858 -0.001329409 4290064153
0.00017898902 -0.0089037195 -0.0024356563 4289212708
0.0019530021 -0.008027114 -0.0035406537 4288950569
0.003165938 -0.0049428865 -0.0066731833 4289409568
-0.0061729886 -0.0094550699 -0.0036817286 4289934104
-0.0040476471 -0.01005426 -0.0034319377 4289736224
-0.0022710636 -0.0091755465 -0.0045360513 4290717464
-0.00049974024 -0.0082970336 -0.0056389477 4289604644
0.0014487207 -0.0081571415 -0.0060653295 4289604133
0.0028420277 -0.0058027282 -0.0085155685 4290064408
-0.0084312186 -0.010457247 -0.0051035238 4289478928
-0.0064831898 -0.010317899 -0.0055301925 4289017633
-0.0047092922 -0.0094373152 -0.0066321585 4289408548
-0.0029406622 -0.0085569844 -0.0077328775 4289539108
-0.0011772886 -0.0076769218 -0.0088323615 4289146664
0.00094524771 -0.0082781464 -0.0085833464 4288884778
0.0028882772 -0.00813853 -0.0090084504 4290195733
-0.0080633685 -0.014289893 -0.0042493036 4288168993
-0.0064502284 -0.012663044 -0.0060264217 4288232234
-0.00467363 -0.011780061 -0.0071273847 4288754474
-0.0030789897 -0.010154277 -0.0089002503 4289081384
-0.0013155751 -0.0092720389 -0.0099981073 4289669668
0.00080662221 -0.0098754764 -0.0097506661 4289866018
0.0027495027 -0.0097358748 -0.010175744 4290653968
-0.0080336444 -0.016643643 -0.0047512045 4288037413
-0.0062464327 -0.015757896 -0.0058529144 4288101164
-0.0044644624 -0.014872409 -0.0069533838 4288492844
-0.0030407794 -0.012496561 -0.0093958285 4288558124
-0.0012746602 -0.011611961 -0.010492632 4288819754
0.00084985793 -0.012217395 -0.01024734 4288885034
0.0026107579 -0.011332914 -0.01134281 4289672219
-0.0080042556 -0.019001491 -0.0052560447 4287905323
-0.0058723651 -0.019609094 -0.0050143888 4288100653
-0.0040823668 -0.018720858 -0.0061149774 4288362029
-0.0024739504 -0.017085351 -0.0078843413 4288296238
-0.00051815435 -0.016945086 -0.0083124479 4288165679
0.0010744035 -0.015310533 -0.010078131 4288688939
0.0028406605 -0.014423437 -0.011173173 4288623403
0.0040407293 -0.011296555 -0.014269925 4287839279
-0.0083114915 -0.019862883 -0.0071042283 4287904813
-0.0058410019 -0.021972999 -0.0055244081 4288231213
-0.0038748458 -0.021832258 -0.0059549771 4288100654
-0.0020847358 -0.020941719 -0.0070538521 4288230958
-0.00047869608 -0.019301914 -0.0088193296 4288492844
0.0011167601 -0.017662801 -0.010582357 4288949804
0.0028857291 -0.016773395 -0.011676322 4288622639
0.0044626258 -0.015135303 -0.013435139 4287969073
0.0060289092 -0.013497889 -0.015191491 4288298023
0.0075845644 -0.011861071 -0.016945468 4288102438
-0.0082824081 -0.022224478 -0.0076118112 4287969839
-0.0061511919 -0.022836499 -0.0073732994 4287969583
-0.0041878521 -0.022695966 -0.007803265 4288231469
-0.0020485036 -0.023307137 -0.007566344 4288231214
-0.0004395619 -0.021662824 -0.0093291327 4288492844
0.0011587739 -0.020019107 -0.011089552 4288296239
0.0031143688 -0.019878618 -0.011517439 4288295983
0.0046968274 -0.018235825 -0.013274136 4288296493
0.0066471845 -0.018095441 -0.013700671 4288099379
0.0082137212 -0.016453519 -0.015453762 4288165168
0.0099642221 -0.015562765 -0.016541667 4288100654
0.011314902 -0.013171583 -0.018952606 4287774254
-0.0064609721 -0.023695298 -0.0092187785 4287185714
-0.0045004487 -0.023554973 -0.0096481256 4288035374
-0.0023641139 -0.024168573 -0.009412203 4288426798
-0.00057920069 -0.023273937 -0.010506578 4288230704
0.0012004375 -0.022379503 -0.011599731 4288231214
0.002974797 -0.021485366 -0.012691606 4288165679
0.004743889 -0.02059149 -0.013782226 4288165679
0.0065076798 -0.019697867 -0.014871593 4288230958
0.0084579177 -0.019557379 -0.015298012 4288165679
0.010019377 -0.017911322 -0.017046601 4288231213
0.011570215 -0.016265944 -0.018792719 4288231469
0.013110396 -0.014621176 -0.020536475 4288231469
-0.0051584356 -0.022896446 -0.012817964 4287644458
-0.0032059848 -0.022756584 -0.013245452 4288167209
-0.000897035 -0.024128661 -0.012346841 4288100654
0.0010608621 -0.02398812 -0.012775309 4288296749
0.0028352663 -0.02309183 -0.01386556 4288231213
0.0046043843 -0.022195764 -0.014954545 4288231214
0.006745968 -0.022810511 -0.014720928 4288165679
0.0087013729 -0.022669666 -0.015148479 4288231214
0.010462604 -0.021773778 -0.016235445 4288035119
0.012021644 -0.02012343 -0.017980136 4288231214
0.014168665 -0.020737298 -0.017747276 4288231213
0.016118817 -0.020596303 -0.018173277 4288167209
0.00092132762 -0.02559644 -0.013950668 4287579179
0.0028791167 -0.025455795 -0.014379036 4287969838
0.0046509318 -0.024557374 -0.015466977 4288296493
0.0066061504 -0.024416663 -0.015894581 4288362028
0.0087527446 -0.025033094 -0.015663601 4288165934
0.010710683 -0.024891913 -0.016091596 4288296749
0.012078613 -0.022479989 -0.018491525 4288231469
0.014227934 -0.023095824 -0.018260844 4288296748
0.016988624 -0.025980674 -0.016062681 4288231469
0.020179968 -0.030376472 -0.012557913 4287380788
0.0046971329 -0.026923053 -0.015982378 4288101163
0.0066548511 -0.026782185 -0.016410545 4288362539
0.0088037774 -0.02740065 -0.01618167 4289016359
0.010764217 -0.027259298 -0.016610216 4288820008
0.012135215 -0.024840571 -0.019005924 4288427308
0.014286853 -0.025458418 -0.018777389 4288296493
0.017251097 -0.029110536 -0.01593161 4288035119
0.020855416 -0.035036124 -0.011129552 4287249974
0.023880925 -0.038683534 -0.0082969414 4286661689
0.0092363767 -0.031295508 -0.01539214 4287446833
0.011011016 -0.030392155 -0.016477127 4287969073
0.011995167 -0.026443966 -0.020177431 4288295983
0.014146451 -0.027064003 -0.019950461 4288230704
0.017311197 -0.031487957 -0.016459674 4287904048
0.021120775 -0.038191535 -0.011018545 4287184438
0.012443462 -0.030337445 -0.019391079 4287838004
0.01480116 -0.031722367 -0.018515464 4287772469
0.017773818 -0.035395615 -0.015687916 4287641909
0.021385409 -0.041355431 -0.010913668 4286856763
0.018034082 -0.038550816 -0.015575291 4286071874
-0.030872077 0.0051993504 0.021810239 4283198788
-0.031283982 0.0050093681 0.01921518 4282545734
-0.029461868 0.0058637634 0.018080225 4282481474
-0.027502887 0.0060028359 0.017650349 4284180029
-0.031149045 0.0019580051 0.019440291 4281763393
-0.029599883 0.0042497963 0.01690018 4281503294
-0.027782857 0.0051060542 0.015768087 4281567808
-0.025826499 0.0052449927 0.015338829 4281698623
-0.023869991 0.0053840354 0.014909616 4283136569
0.0083311088 -0.011226349 0.026921054 4283787074
0.012417423 -0.01893466 0.034092747 4283197513
-0.031151108 -0.00038202852 0.018957419 4281697349
-0.02959884 0.0019164458 0.016421573 4281567554
-0.027779102 0.0027751029 0.015290471 4281110593
-0.026108839 0.0043526739 0.013460582 4281110594
-0.024302103 0.0052105561 0.01233252 4281829439
-0.0223509 0.0053493157 0.011904538 4282352698
-0.020399556 0.0054881796 0.011476601 4283723324
0.0080018342 -0.012179017 0.025010085 4283919419
0.011522299 -0.017763078 0.03009264 4283658043
-0.031153493 -0.0027261749 0.018471519 4281827398
-0.029598124 -0.00042096525 0.015939912 4281501763
-0.027775645 0.00043999404 0.014809875 4281045059
-0.026246607 0.0027435943 0.012284165 4281241153
-0.02458661 0.0043249354 0.010459842 4281371714
-0.02278766 0.0051845238 0.0093352031 4281567554
-0.020689659 0.0046021268 0.009605119 4281828418
-0.018895753 0.0054615662 0.0084817391 4281828674
-0.016792156 0.0048797503 0.0087505747 4282676548
-0.015163451 0.0064593628 0.0069335736 4283984444
0.0043810308 -0.008240737 0.018713122 4283790643
0.0071206093 -0.010971241 0.021033505 4283988014
0.010255164 -0.015136845 0.024727451 4284247603
-0.031292126 -0.0043502003 0.017284064 4281893189
-0.029874936 -0.001314424 0.014059292 4281632579
-0.028055079 -0.00045146793 0.01293141 4281370948
-0.026528262 0.0018584505 0.010411141 4281240899
-0.024724074 0.0027205124 0.0092868563 4281175364
-0.023074336 0.0043055192 0.0074681845 4281566789
-0.021131255 0.0044437572 0.0070420224 4281566279
-0.01934262 0.0053049922 0.0059214365 4281697348
-0.017244682 0.0047205836 0.0061898548 4281892168
-0.015621066 0.0063041672 0.004377244 4282022984
-0.013520215 0.0057201907 0.0046451855 4283460419
0.001342129 -0.0064273104 0.014500456 4283660083
0.0036942065 -0.0077264681 0.01544231 4283660848
0.0064248815 -0.01046633 0.017758055 4284118829
-0.031294942 -0.0067003742 0.016793808 4282875959
-0.029736057 -0.0043818429 0.014271213 4282156603
-0.028051883 -0.0027903542 0.01244803 4281371204
-0.026378229 -0.0011994913 0.010627171 4281239879
-0.024568662 -0.00033494085 0.0095033757 4281435974
-0.022913359 0.0012548491 0.0076867025 4281435719
-0.021116816 0.0021186918 0.0065659322 4281370694
-0.019479882 0.0037073418 0.0047534984 4281566279
-0.017539326 0.0038456023 0.0043280479 4281566789
-0.015918154 0.0054333955 0.002519194 4281370693
-0.013820276 0.0048469529 0.0027861781 4281305414
-0.011882044 0.0049853772 0.0023614857 4281500998
-0.0092727616 0.002227433 0.0046966467 4282482748
-0.006471619 -0.0012528822 0.0077166576 4283069759
-0.0034706742 -0.0054548606 0.011419633 4283333429
-0.0013163351 -0.0060366467 0.011674637 4283530799
0.0010218173 -0.0073413402 0.012616197 4284184874
-0.031433649 -0.0083260015 0.015605165 4284640813
-0.029874332 -0.0060009137 0.013087394 4284513568
-0.02818992 -0.0044050887 0.011267414 4282024769
-0.026372463 -0.0035378858 0.010143388 4281697603
-0.024560161 -0.002670981 0.0090206154 4281696839
-0.022753052 -0.0018043444 0.0078990702 4281631558
-0.021102697 -0.00021045655 0.0060868431 4281500743
-0.019462861 0.0013827384 0.0042770524 4281566789
-0.017833546 0.0029753074 0.0024696626 4281435973
-0.015736129 0.0023865774 0.0027349573 4281566789
-0.013957694 0.0032517314 0.0016201157 4281175363
-0.011854719 0.0026636198 0.0018843692 4281044803
-0.0095787644 0.001349695 0.0028358568 4281828163
-0.0066111609 -0.0028679296 0.0065362174 4282220863
-0.0036114901 -0.0070830956 0.010229593 4282680373
-0.0014574863 -0.0076671019 0.010483017 4283334959
-0.028187193 -0.0067499354 0.010779602 4283854649
-0.026510388 -0.0051501617 0.0089646038 4282614074
-0.024551995 -0.0050111189 0.0085348673 4282024768
-0.022890873 -0.0034122989 0.0067235138 4281959489
-0.02093754 -0.0032733977 0.0062950533 4281435208
-0.019292131 -0.0016754046 0.0044872817 4281631559
-0.017500557 -0.00080738217 0.0033710096 4281371204
-0.015714191 6.0394406e-05 0.0022559818 4281502019
-0.013933036 0.00092791021 0.0011421759 4281567553
-0.01182773 0.00033777207 0.0014042575 4281567554
-0.0095496178 -0.00098038465 0.0023519732 4281567554
-0.0069206916 -0.0037543252 0.0046697855 4282156604
-0.0037522614 -0.0087110326 0.0090397727 4282877999
-0.0015985928 -0.0092972592 0.0092916023 4284250663
-0.024835847 -0.0058908984 0.0066664945 4284641834
-0.023028642 -0.0050199404 0.0055481736 4283791918
-0.021226615 -0.0041492209 0.0044310838 4282351934
-0.019429781 -0.0032787248 0.0033151712 4281893698
-0.017481662 -0.003139995 0.002888009 4281436738
-0.015533403 -0.003001146 0.0024609007 4281632834
-0.013746873 -0.0021310747 0.0013475511 4281567809
-0.011801064 -0.0019921735 0.00092115067 4281502274
-0.0096879825 -0.0025838315 0.0011799615 4281567554
-0.0070599541 -0.0053665712 0.0034913849 4282287164
-0.0040655024 -0.0096083507 0.0071661826 4283400494
-0.02151528 -0.0050203204 0.0025705006 4283855414
-0.019721068 -0.0041479021 0.0014568251 4282679353
-0.017619416 -0.0047430322 0.0017161462 4281763648
-0.016148258 -0.0024038106 -0.00076681562 4281828929
-0.014046378 -0.0029987097 -0.00050738454 4281698113
-0.012103371 -0.0028600097 -0.00093317218 4281568064
-0.0096593127 -0.0049199238 0.00069174729 4281763138
-0.0071991757 -0.0069785193 0.0023132022 4282680119
-0.0045506395 -0.0097683892 0.0046136323 4284184363
-0.016285542 -0.0040000007 -0.0019336455 4283661869
-0.014345448 -0.0038616508 -0.0023588967 4282091579
-0.012076996 -0.0051937029 -0.0014190357 4281961019
-0.0099645853 -0.0057898238 -0.0011634026 4281896248
-0.007507816 -0.0078552514 0.00045388751 4283858219
-0.014321566 -0.0061952025 -0.0028439742 4283920948
-0.012378849 -0.0060565621 -0.0032697264 4283139629
-0.010269426 -0.0066550598 -0.003015073 4283202358
-0.020829804 -0.02447591 0.001807509 4284311098
-0.020819474 -0.026852109 0.0012939647 4282413898
-0.01990588 -0.021451809 -0.0038556568 4282286144
-0.018255357 -0.019809939 -0.0056317179 4283005499
-0.020958792 -0.028478615 0.00010481477 4282217549
-0.019892056 -0.023816571 -0.0043615252 4281696838
-0.018238652 -0.022170179 -0.0061349571 4281762374
-0.01643848 -0.021277614 -0.0072350577 4282810934
-0.014643542 -0.020385303 -0.0083339205 4283988524
-0.021247163 -0.029348873 -0.001755137 4282284104
-0.020030338 -0.025429666 -0.0055408329 4281631304
-0.018376719 -0.023778915 -0.0073110349 4281370184
-0.016576525 -0.022884183 -0.0084095038 4281240644
-0.014621761 -0.022744901 -0.0088380612 4281370948
-0.012829341 -0.021850489 -0.0099346526 4282286399
-0.010711972 -0.022465937 -0.0096949562 4282939964
-0.02123728 -0.031730719 -0.0022728266 4282022729
-0.019713838 -0.029316284 -0.0047133863 4281434953
-0.018206235 -0.026902892 -0.0071503334 4281500743
-0.016557585 -0.025248013 -0.0089160651 4281305668
-0.014919482 -0.023593821 -0.010679372 4281370949
-0.012967452 -0.023454629 -0.011107251 4281828418
-0.010850418 -0.024072252 -0.010869108 4281959233
-0.0087279752 -0.024689399 -0.010632075 4282807873
-0.0069405809 -0.023792796 -0.011725642 4284049469
-0.021673948 -0.031835675 -0.0047969678 4281760334
-0.020155407 -0.029415056 -0.0072315335 4281370183
-0.018344592 -0.028515384 -0.0083291754 4281370183
-0.016695727 -0.026856154 -0.010091681 4281174088
-0.0150574 -0.025197603 -0.011851758 4281239369
-0.013267569 -0.024299033 -0.012944505 4281435463
-0.011318266 -0.024159916 -0.013371695 4281631813
-0.0092014857 -0.02477964 -0.013135061 4281435974
-0.007419385 -0.023881249 -0.014225841 4281631048
-0.0054698214 -0.023741715 -0.014652781 4282481984
-0.0036955774 -0.022843592 -0.015741687 4283070013
-0.022258379 -0.031169012 -0.0079807639 4281952093
-0.020596184 -0.029504798 -0.0097430758 4281368653
-0.018790673 -0.028603293 -0.010837957 4281173324
-0.016833838 -0.028464004 -0.011267073 4281303628
-0.01519528 -0.026801087 -0.013023928 4281303883
-0.013243556 -0.02666194 -0.013451748 4281239369
-0.011291735 -0.026522629 -0.013879489 4281239623
-0.009339828 -0.026383184 -0.014307145 4281043784
-0.0077275559 -0.0247216 -0.01605789 4281435208
-0.0059533305 -0.023821466 -0.017145202 4281826633
-0.0041843653 -0.022921592 -0.018231265 4281892679
-0.0018871352 -0.02430322 -0.017336663 4283329604
-0.019235969 -0.02868218 -0.013340078 4281755999
-0.017128248 -0.029307418 -0.013105139 4280974679
-0.015492141 -0.027640365 -0.014858183 4280975954
-0.013381548 -0.028265126 -0.014623664 4281237328
-0.011429891 -0.02812583 -0.015051365 4281172303
-0.0096451379 -0.027223058 -0.016139556 4281370693
-0.0080353059 -0.025557302 -0.01788649 4281434953
-0.006263718 -0.024655215 -0.0189716 4281434954
-0.0043223947 -0.02451615 -0.019396655 4281565513
-0.0023809969 -0.024376944 -0.019821625 4281631049
0.00010139868 -0.026524894 -0.018273596 4281696074
0.0027828068 -0.029433794 -0.016071934 4282088008
0.0052999184 -0.031578921 -0.014531322 4283199809
-0.015947416 -0.027708769 -0.01734975 4281364574
-0.013842501 -0.02833613 -0.017115645 4281236053
-0.011732161 -0.028963007 -0.01688258 4281236563
-0.0097832233 -0.0288238 -0.017309599 4281435464
-0.0083426461 -0.026388332 -0.019711677 4281369674
-0.0065736845 -0.025484264 -0.020794567 4281369419
-0.0048099793 -0.024580434 -0.021876212 4281434698
-0.0028740726 -0.024441652 -0.022299998 4281369673
-0.00039773807 -0.026596501 -0.020755596 4281630283
0.0026430115 -0.031043373 -0.017248183 4281761353
0.0057157576 -0.035487793 -0.013747708 4282153543
0.0078799166 -0.036109604 -0.013525584 4283328329
-0.014141358 -0.029166237 -0.018942446 4281625949
-0.012197986 -0.029027559 -0.019368347 4281170008
-0.010254532 -0.02888874 -0.019794174 4281302863
-0.0084802955 -0.027982242 -0.02087668 4281237073
-0.0065393522 -0.027843364 -0.021301769 4281434188
-0.00477295 -0.026937164 -0.022382364 4281369419
-0.0028345399 -0.026798189 -0.022806689 4281631558
-0.00035626441 -0.028959431 -0.021267641 4281762374
0.0026858486 -0.033419259 -0.017770357 4282023749
0.0055746958 -0.037110202 -0.014933293 4282087498
-0.0087870024 -0.028806135 -0.022696644 4281496919
-0.0066771209 -0.029436976 -0.022466522 4281498959
-0.0049106926 -0.028528631 -0.023545504 4281499469
-0.0026182719 -0.029927976 -0.022662953 4281826633
-0.00031513721 -0.03132648 -0.021782614 4281761863
0.0023635179 -0.034261651 -0.01960003 4281761608
-0.0069864318 -0.030258596 -0.024284061 4281626459
-0.0050484017 -0.030119784 -0.024708413 4281300824
-0.0027565174 -0.031523518 -0.023829028 4281303118
-0.00063349307 -0.032155223 -0.023603134 4281629519
0.0016771443 -0.033557408 -0.022727627 4281498194
-0.0030714422 -0.03234525 -0.025645118 4281624163
-0.0011307895 -0.032205984 -0.026069846 4281561178
0.027570456 0.0027012303 0.012945445 4284901169
0.022693858 0.01018022 0.0032522473 4285361698
0.024005223 0.012457982 0.0007664673 4285755419
0.027032703 0.0090395808 0.0037713163 4285820699
0.031182755 0.002064757 0.01019692 4285885724
0.020391753 0.0091458336 0.0018181205 4285361699
0.021075955 0.01357384 -0.0027203579 4285820699
0.022369104 0.015856795 -0.0051971748 4285623839
0.024944155 0.01385425 -0.0035648085 4285623839
0.028411165 0.0089973509 0.00079896674 4285755164
0.032358803 0.002715908 0.0065208934 4285689373
0.03657873 -0.0042754337 0.012914971 4285623839
0.013232317 -0.018581852 0.027725978 4284900915
0.017273821 0.010984801 -0.0023536952 4285230374
0.018794231 0.012558617 -0.0041455086 4285623838
0.019882366 0.015565135 -0.0073025934 4286018068
0.021376085 0.017137252 -0.0090884045 4285886488
0.023507494 0.016559862 -0.008823825 4285755163
0.026519407 0.013118632 -0.005831942 4285755419
0.03000089 0.008247681 -0.0014827969 4285755928
0.033295557 0.0040952042 0.0021774173 4285558813
0.036395367 0.00066069514 0.005150374 4285493534
0.039062861 -0.0013411567 0.0067581069 4285493535
0.041282024 -0.0019114837 0.007004058 4285164328
0.0088037476 -0.011763334 0.018694224 4285033259
0.014387392 0.012128621 -0.0058310386 4285164584
0.015902705 0.013706379 -0.0076185651 4285427743
0.017615292 0.014564365 -0.008720845 4285624093
0.019111928 0.016140975 -0.01050413 4285755164
0.020597894 0.017716892 -0.012284953 4285952534
0.022936909 0.016418263 -0.011339132 4285886998
0.025723789 0.013683952 -0.0090345424 4285886998
0.028974522 0.0095150843 -0.005374697 4285624349
0.032033268 0.0060665831 -0.0024010921 4285624349
0.03375899 0.0069263503 -0.0035056798 4285559068
0.035020787 0.0092208162 -0.005965258 4285690139
0.03649845 0.010796942 -0.0077437283 4285820698
0.039607637 0.0073525608 -0.0047807833 4285885978
0.044878908 -0.0025421157 0.0042642243 4285885978
0.003189642 -0.0079219267 0.012868421 4284902698
0.01212335 0.011126556 -0.0072511705 4285425448
0.012831941 0.015595272 -0.011765597 4285754909
0.014738992 0.01573313 -0.012182204 4285689374
0.016646042 0.0158711 -0.012598727 4285689374
0.018553086 0.016009189 -0.013015166 4285623838
0.020460114 0.016147397 -0.013431504 4285623838
0.022798613 0.014844388 -0.012488849 4285558559
0.025366172 0.012821749 -0.010869518 4285558814
0.028170779 0.010080107 -0.0085752988 4285558814
0.030772936 0.008060202 -0.0069633471 4285624349
0.032258965 0.0096411034 -0.008740508 4285624348
0.033276115 0.012660705 -0.011868346 4285690138
0.034503631 0.014959328 -0.014315428 4285755418
0.037121546 0.01294107 -0.012706611 4285492513
0.041414954 0.0058902353 -0.0063774856 4285623583
0.046720617 -0.0040323436 0.0026370827 4285820444
0.052100834 -0.013949312 0.011635454 4285755163
0.0007019192 -0.0082506016 0.010735331 4284903208
0.0026858598 -0.0081082359 0.010301135 4285360168
0.010652896 0.0072327778 -0.0059412131 4285556518
0.01078783 0.013888367 -0.012495397 4285820699
0.012088077 0.016197607 -0.014954397 4285820698
0.013986992 0.016334899 -0.01536921 4285952278
0.016508561 0.014301933 -0.013745118 4285952533
0.018625684 0.013716765 -0.013482507 4285755163
0.020748127 0.01313211 -0.013220964 4285624094
0.023091447 0.011825047 -0.012282608 4285558814
0.025445394 0.010518909 -0.01134653 4285624349
0.027809991 0.0092136189 -0.010412637 4285624348
0.029738098 0.0093538016 -0.010833241 4285624349
0.030987494 0.011660405 -0.013280354 4285624093
0.031991951 0.014687814 -0.01639884 4285886743
0.03366968 0.015548669 -0.017489433 4285557793
0.036044657 0.014244735 -0.016557429 4285492003
0.039614677 0.0093350932 -0.012261568 4285623583
0.043221928 0.0044283196 -0.0079737799 4285623839
0.047593091 -0.0026384369 -0.0016778242 4285558559
0.053241894 -0.013304792 0.0079639126 4285558303
-0.031572297 -0.0099513307 0.014416723 4284967469
-0.030012541 -0.0076196939 0.01190378 4285033768
0.0091374144 0.010729082 -0.011864305 4285690139
0.0098533519 0.015224375 -0.016360687 4285558558
0.011345401 0.016813368 -0.018133311 4285557794
0.013440868 0.016224228 -0.017867781 4285623584
0.016163748 0.013458662 -0.015569301 4285820953
0.018697917 0.011420235 -0.013952846 4285689883
0.021035399 0.010108277 -0.013016585 4285624349
0.022952799 0.01024735 -0.013435103 4285559069
0.025306225 0.0089368299 -0.012502192 4285624859
0.027008209 0.0098011792 -0.013596778 4285624348
0.028704822 0.010665253 -0.014690094 4285624349
0.029717971 0.013701923 -0.017803963 4285558558
0.030938426 0.016013071 -0.020239741 4285887254
0.032605547 0.016875349 -0.021326367 4285952788
0.034969352 0.015566215 -0.020395167 4285821464
0.038527194 0.010640472 -0.016108204 4285821464
0.041882928 0.0064408705 -0.012500287 4285755928
0.045996644 7.4349344e-05 -0.0068878811 4285624858
0.051871091 -0.01134903 0.0034032408 4285493024
-0.031710878 -0.011576362 0.013228493 4285295143
-0.030012839 -0.0099709705 0.011411939 4285360933
-0.028465815 -0.0076336488 0.0089068282 4285426724
-0.026648253 -0.0067621395 0.0077860262 4285230374
-0.0020900033 -0.0094668642 0.0067336261 4284904484
0.0067005716 0.010475844 -0.013954282 4285558559
0.0080176517 0.012799159 -0.016407261 4285624604
0.0093187727 0.015121393 -0.018856619 4285755673
0.011007555 0.015986212 -0.019947315 4285623838
0.012895525 0.016122699 -0.020359753 4285623838
0.015819339 0.012620099 -0.017390046 4285755418
0.018559959 0.0098472536 -0.015101976 4285821719
0.020896912 0.0085308999 -0.014168895 4285624349
0.022814173 0.008669965 -0.014587377 4285558814
0.02451358 0.0095361993 -0.015679833 4285624348
0.026207605 0.01040221 -0.016771065 4285624349
0.02767311 0.011994563 -0.0185339 4285624094
0.028902059 0.014312766 -0.020966677 4285624094
0.030343466 0.015903585 -0.022724086 4285623838
0.032005318 0.016767658 -0.023807926 4285689884
0.034363251 0.015453793 -0.022878762 4285690138
0.037677772 0.011238009 -0.019271804 4285624348
0.041502539 0.0055736229 -0.014332847 4285624604
0.046337195 -0.0029887706 -0.0067276973 4285493278
0.052947186 -0.016622171 0.0055414401 4285493279
-0.031579398 -0.014671408 0.013421584 4284966448
-0.029875785 -0.013061337 0.011607124 4285426214
-0.028323017 -0.010717057 0.0091056209 4285492259
-0.026786059 -0.0083737895 0.0066076759 4285426979
-0.025119275 -0.0067659989 0.0048015378 4285296673
-0.023463011 -0.0051587895 0.0029977541 4285165348
0.004275497 0.010232598 -0.016039936 4285359659
0.0055956542 0.012562551 -0.018488737 4285493024
0.0067035295 0.015622273 -0.021611078 4285493278
0.0083870292 0.016488723 -0.022699028 4285756183
0.010065215 0.017354913 -0.02378572 4285821973
0.012555294 0.015299991 -0.02216967 4285821974
0.01506138 0.013246283 -0.020556999 4285756184
0.017583463 0.011193871 -0.018947721 4285558814
0.019909214 0.0098723993 -0.018015513 4285558814
0.021600697 0.010740131 -0.01910468 4285624349
0.023286823 0.011607595 -0.02019258 4285689884
0.024747266 0.013203867 -0.021951154 4285886743
0.026419988 0.014070578 -0.023035962 4285952534
0.02831297 0.014208362 -0.023448788 4285886998
0.0302059 0.014346249 -0.023861526 4285689629
0.032098778 0.014484249 -0.024274157 4285624094
0.034225218 0.013894267 -0.024017727 4285559069
0.037774749 0.0089373887 -0.01975191 4285559068
0.042556353 0.00034489483 -0.012155058 4285493534
0.048126772 -0.010425366 -0.0025702519 4285493534
-0.031583413 -0.017037578 0.012919523 4284900913
-0.029739417 -0.016160123 0.011796063 4285295144
-0.028321043 -0.013071947 0.008610433 4285360934
-0.026638187 -0.011458784 0.0068039577 4285426979
-0.025111318 -0.0091096014 0.0043132305 4285558559
-0.023304015 -0.0082343221 0.0031981412 4285493025
-0.021501899 -0.0073592886 0.0020842832 4285295398
-0.019858442 -0.0057484061 0.00028676726 4285164329
0.0037577711 0.010135852 -0.018535838 4285624348
0.0052664876 0.011738762 -0.020302501 4285624348
0.0065684356 0.014074057 -0.022742303 4285559324
0.0080532059 0.015675493 -0.024503553 4285493278
0.0097287595 0.016543709 -0.025588075 4285493023
0.012011349 0.015214361 -0.024649948 4285493023
0.014718171 0.012421481 -0.022367693 4285493023
0.017027412 0.011094339 -0.021435259 4285558814
0.019559428 0.0090362355 -0.019832984 4285558558
0.020818725 0.011369251 -0.022262866 4285690139
0.022279458 0.012969755 -0.02401825 4285755418
0.023729485 0.01456964 -0.025771255 4285755163
0.025614372 0.014706723 -0.026182396 4285820699
0.027950116 0.013382167 -0.02525517 4286018324
0.030524567 0.011327855 -0.023661694 4285755673
0.032653421 0.010735743 -0.023407448 4285558558
0.03502097 0.0094138905 -0.022486947 4285559068
0.038343549 0.0051725581 -0.018901452 4285493789
0.043369461 -0.004175581 -0.010659264 4285493534
0.049188916 -0.015707642 -0.00043513253 4285427488
-0.031318486 -0.02088695 0.01378922 4284900913
-0.029603757 -0.019267432 0.011978844 4285295399
-0.02803947 -0.016909301 0.0094846506 4285360678
-0.026491031 -0.014552198 0.0069940034 4285426723
-0.024958409 -0.012196146 0.0045069717 4285426978
-0.023145728 -0.011318259 0.0033923071 4285493024
-0.021338228 -0.010440685 0.002278896 4285426723
-0.01968921 -0.0088251308 0.00048346631 4285361189
-0.01805073 -0.0072101727 -0.0013096146 4285230374
-0.01626417 -0.0063337162 -0.002418153 4285230629
-0.0081545785 -0.0072530583 -0.002761526 4285425958
0.0043844171 0.0056347176 -0.016974542 4285426213
0.0057107657 0.007978186 -0.019414844 4285558558
0.0070211552 0.010320581 -0.021851525 4285690138
0.0083155595 0.012661986 -0.024284659 4285624859
0.0097952485 0.014267519 -0.026041424 4285559069
0.012079971 0.012934007 -0.025107095 4285493533
0.014168769 0.012335807 -0.024846585 4285559324
0.016262893 0.011738099 -0.024587162 4285559324
0.018362354 0.011140853 -0.024328772 4285624859
0.020037927 0.012011833 -0.025411209 4285690139
0.021490907 0.013616145 -0.027161608 4285755928
0.022933194 0.015219785 -0.028909588 4285557794
0.025032528 0.014623038 -0.028650856 4285492258
0.027587648 0.012560703 -0.02705816 4285623838
0.03061457 0.009033829 -0.024134919 4285624348
0.033206902 0.0069744363 -0.022550162 4285624349
0.036281671 0.0034513474 -0.019637203 4285559068
0.040326685 -0.0029988214 -0.014069153 4285493533
0.044896767 -0.01090955 -0.00718218 4285493278
0.050490364 -0.021743424 0.0023482293 4285294379
-0.029331662 -0.023124702 0.012840552 4285098283
-0.028038539 -0.019276731 0.0089802761 4285164074
-0.026487 -0.016912892 0.0064938758 4285361189
-0.024806179 -0.015291087 0.0046944749 4285492769
-0.022988133 -0.014410719 0.0035803001 4285492769
-0.021325704 -0.012789942 0.0017850716 4285426978
-0.019520681 -0.01191026 0.00067393109 4285361188
-0.017876633 -0.0102906 -0.0011170469 4285295399
-0.016084716 -0.0094115809 -0.0022251848 4285361443
-0.014297999 -0.0085328519 -0.0033320468 4285361188
-0.012352765 -0.0083940327 -0.0037583634 4285295909
0.0050095618 0.0011163503 -0.015425852 4285360933
0.0063470043 0.0034671649 -0.017863641 4285558304
0.007668484 0.0058168843 -0.020297814 4285558049
0.0089739859 0.0081656277 -0.022728443 4285558303
0.010866703 0.0083023384 -0.023142006 4285558304
0.01235196 0.0099127963 -0.024896652 4285493278
0.014445771 0.0093127266 -0.024638847 4285493278
0.015708631 0.011658855 -0.027059807 4285493533
0.017378954 0.012531489 -0.028139492 4285559324
0.019043928 0.013403848 -0.029217931 4285558814
0.020703536 0.014275968 -0.030295154 4285887253
0.022357792 0.01514779 -0.031371072 4285821464
0.024229068 0.015283883 -0.031779245 4285755673
0.027000541 0.012479089 -0.029523617 4285821974
0.030476464 0.0074708015 -0.025276497 4285756183
0.034220025 0.0017305166 -0.020372724 4285559068
0.038006175 -0.0040065795 -0.015478084 4285493278
0.042070623 -0.010474898 -0.0099290367 4285493279
0.046182964 -0.016939618 -0.0043903468 4285755163
0.051066343 -0.025602967 0.0031253323 4285556773
-0.027479559 -0.024622515 0.011204848 4284901678
-0.026198782 -0.020764448 0.0073555671 4285295398
-0.024654672 -0.018394493 0.0048758034 4285427234
-0.02297882 -0.016768605 0.003080843 4285558814
-0.021313474 -0.015143313 0.0012883041 4285426979
-0.019658674 -0.013518639 -0.00050189532 4285361188
-0.017858826 -0.012637049 -0.0016101887 4285361188
-0.016222432 -0.011013433 -0.0033961674 4285361189
-0.014274769 -0.010874562 -0.0038231006 4285492259
-0.012327023 -0.010735609 -0.0042499928 4285426724
-0.010379165 -0.010596484 -0.0046767881 4285360934
0.0052527823 -0.0019392967 -0.015233533 4285492258
0.0067888685 -0.00032134354 -0.016996322 4285558303
0.0081187636 0.0020355582 -0.019427458 4285558303
0.0096308999 0.0036520362 -0.021184824 4285492259
0.011333266 0.004528679 -0.022270232 4285492258
0.0130303 0.0054051131 -0.023354422 4285623838
0.014722008 0.0062812269 -0.024437323 4285558048
0.015572896 0.010111503 -0.02819021 4285559068
0.016820185 0.012463145 -0.030602755 4285493533
0.018265678 0.01407551 -0.032345027 4285493023
0.019700482 0.015687227 -0.034084879 4285690138
0.021124581 0.017298311 -0.035822354 4285756184
0.023204589 0.01669582 -0.035562675 4285821719
0.02618935 0.013144054 -0.03264679 4285755929
0.030110832 0.0066453591 -0.027081631 4285493789
0.034540638 -0.0013238713 -0.0202005 4285427743
0.039261859 -0.010025509 -0.012669513 4285427743
0.043811463 -0.017985739 -0.0058143055 4285361953
0.047943227 -0.024468638 -0.00029462203 4285294634
-0.022822447 -0.019875728 0.0032580364 4285360679
-0.021301601 -0.017500728 0.00078850985 4285295653
-0.019796621 -0.015126683 -0.001677488 4285361189
-0.017685968 -0.015732154 -0.0014284281 4285426979
-0.016044013 -0.014103852 -0.0032123169 4285426724
-0.014091171 -0.013964646 -0.0036404086 4285426723
-0.011974867 -0.014569335 -0.003392308 4285492514
-0.010019165 -0.014429681 -0.0038208449 4285491749
0.0051152296 -0.0035191551 -0.016387967 4285558304
0.0066515431 -0.0018968359 -0.018147523 4285689374
0.0079818703 0.00046663731 -0.020573812 4285492513
0.0098902769 0.00060436875 -0.020990888 4285492258
0.011798698 0.00074223429 -0.021407871 4285492258
0.013503779 0.0016213581 -0.02249215 4285492258
0.015203536 0.002500236 -0.023575163 4285558304
0.015854537 0.0070828572 -0.027988002 4285624348
0.016896261 0.010182023 -0.031062447 4285624348
0.017916633 0.013279796 -0.034132183 4285492768
0.019132327 0.015635945 -0.036532704 4285493279
0.020770691 0.016510971 -0.037601862 4285493534
0.022847699 0.015906088 -0.037343178 4285493533
0.026502702 0.010124259 -0.032446496 4285427999
0.030882303 0.0021273568 -0.025572602 4285427744
0.036010489 -0.0080829114 -0.016726723 4285427743
0.040747903 -0.016809538 -0.0092189303 4285296164
0.045078535 -0.024053618 -0.003045775 4285097774
-0.021140188 -0.020609386 0.00096315891 4285032749
-0.019781988 -0.017481431 -0.0021760268 4285360933
-0.017824199 -0.01734212 -0.0026053889 4285361188
-0.016024154 -0.016456075 -0.003710377 4285426723
-0.014068808 -0.016316704 -0.0041390276 4285427234
-0.011950169 -0.01692342 -0.0038930913 4285493024
-0.009991955 -0.016783603 -0.0043221852 4285491493
0.0051675513 -0.0058430657 -0.016873443 4285623329
0.006514255 -0.0034720078 -0.019298492 4285493024
0.0080401562 -0.0018459186 -0.021052435 4285558049
0.0097532608 -0.00096426159 -0.022136999 4285492003
0.011661533 -0.00082642585 -0.02255396 4285492259
0.013366655 5.4903328e-05 -0.023636585 4285492259
0.015066456 0.00093597174 -0.024717953 4285492258
0.016135449 0.0040457249 -0.027791928 4285624094
0.017605413 0.0056684986 -0.029533114 4285689884
0.018637082 0.0087757632 -0.032598689 4285689884
0.019647392 0.011881642 -0.035659559 4285690394
0.021074643 0.013501674 -0.037391152 4285493533
0.023600277 0.011410937 -0.03581176 4285427999
0.027488725 0.0048705265 -0.030269053 4285427999
0.032333672 -0.0046327859 -0.022094535 4285427999
0.03747765 -0.014872357 -0.013275071 4285295909
0.04176629 -0.02214139 -0.007109277 4285031984
-0.019615348 -0.020589471 -0.0020022579 4285098793
-0.017807379 -0.019700818 -0.0031074388 4285295399
-0.016162302 -0.018063553 -0.0048854826 4285360678
-0.014367439 -0.017175607 -0.0059876135 4285427489
