# .PCD v0.7 - Point Cloud Data file format
VERSION 0.7
FIELDS x y z rgba
SIZE 4 4 4 4
TYPE F F F U
COUNT 1 1 1 1
WIDTH 969
HEIGHT 1
VIEWPOINT 0 0 0 1 0 0 0
POINTS 969
DATA ascii
0.010567505 0.0072021484 0.002507668 4283791664
0.012650039 0.0066359825 0.0028141495 4283331134
-0.051700946 0.025599899 -0.010785069 4283721793
-0.049796727 0.025016589 -0.010444592 4283985973
0.0014797114 0.010711513 -0.0026881006 4284185638
0.0042233579 0.0073423646 0.00045450032 4284053803
0.006817691 0.0046744794 0.0028842892 4283921713
0.0088971518 0.0041057095 0.003189642 4283790388
0.010800559 0.004236389 0.0027878415 4283659064
0.012704022 0.004367169 0.0023861034 4283265089
-0.055705454 0.025988216 -0.013267068 4283856178
-0.054198552 0.028229561 -0.015815742 4283861279
-0.052411977 0.02834947 -0.016194928 4283664674
-0.050524045 0.027762838 -0.015852651 4283795233
-0.048526738 0.026470156 -0.014790574 4283923244
-0.046518538 0.025178337 -0.013730789 4284384539
-0.00035654008 0.0083312318 -0.002703514 4284247859
0.0020341612 0.0063540116 -0.0009801751 4284118573
0.0047874525 0.0029745139 0.0021522008 4284053804
0.007039804 0.0017016307 0.0031621428 4283856689
0.0089457072 0.0018323734 0.0027597323 4283790899
0.010851666 0.0019632205 0.0023573907 4283658554
0.012757674 0.0020941719 0.0019551115 4283264068
-0.057709131 0.025093159 -0.014680992 4283856433
-0.056382615 0.028760089 -0.01866914 4283795743
-0.054700013 0.029588539 -0.019767681 4283859493
-0.052825894 0.028998623 -0.019424148 4283729954
-0.050845269 0.027700365 -0.018361924 4283732759
-0.049061012 0.02782023 -0.018740529 4283924264
-0.047063965 0.026523229 -0.017681679 4284184619
-0.0040794723 0.0058179982 -0.0023231236 4284313139
-0.0017029904 0.0038330518 -0.00060188305 4283986484
0.00068962947 0.0018492639 0.0011160681 4283856434
0.0029279664 0.00057085976 0.0021254979 4283988014
0.0050040185 -2.8088689e-06 0.0024281787 4283922479
0.0072612055 -0.0012797192 0.0034337733 4283921714
0.0091723315 -0.0011486262 0.0030302601 4283790643
0.011264596 -0.0017208382 0.0033296999 4283724344
0.01354602 -0.0029958114 0.0043304581 4283066444
0.047494404 -0.023559161 0.020889811 4283397433
0.051289879 -0.029023364 0.026019033 4282546753
0.057393331 -0.04148718 0.038072664 4282547009
-0.061155554 0.021235269 -0.012826217 4284053294
-0.05979408 0.024915315 -0.016813777 4283990308
-0.058188643 0.026458345 -0.018634066 4283926814
-0.05659363 0.028000794 -0.020452123 4283793193
-0.055009063 0.029542584 -0.022267863 4283792428
-0.053238686 0.029661313 -0.022643674 4283857963
-0.051367301 0.029069092 -0.022301216 4283991074
-0.0493869 0.027766431 -0.021242131 4284189718
-0.04760788 0.027885975 -0.021619603 4284186658
-0.045719858 0.027295124 -0.021280492 4284185893
-0.0062479042 0.0048431307 -0.0037532924 4284051508
-0.0040450543 0.0035575442 -0.0027398253 4283921203
-0.0015016831 0.00085939467 -0.00031917915 4283790643
0.00072805211 -0.00042410567 0.00068871118 4283725874
0.0029685907 -0.0017068163 0.0016944418 4283856689
0.0050469898 -0.0022824705 0.0019949498 4283791409
0.0071308091 -0.0028576702 0.0022943765 4283791154
0.0095764995 -0.0048440024 0.0039965212 4283856179
0.011857361 -0.0061234832 0.0049940012 4283920948
0.044914123 -0.023947649 0.018730214 4283789878
0.047576353 -0.025917314 0.020387989 4283070268
0.051372901 -0.031399034 0.025503974 4282153798
0.057475537 -0.043902338 0.037528384 4282154054
-0.061444078 0.021175753 -0.015341867 4284053549
-0.0602617 0.026294719 -0.020759393 4284055588
-0.058666658 0.027841404 -0.022574235 4283992094
-0.057082053 0.029387468 -0.024386805 4283993623
-0.055412609 0.030219333 -0.025479358 4283926304
-0.053650338 0.030337481 -0.025853477 4283926558
-0.051686604 0.029029192 -0.024794208 4284125204
-0.049712013 0.027721738 -0.023737241 4284121889
-0.048044357 0.028553775 -0.024829119 4284187169
-0.046273243 0.028672835 -0.025204878 4284187168
-0.044279356 0.027366938 -0.024151815 4284317219
-0.042160641 0.025349475 -0.022387102 4284512293
-0.0085668899 0.0045828968 -0.0058859247 4284116024
-0.0062159747 0.0025827698 -0.004169195 4283855668
-0.0040109493 0.0012929589 -0.0031595156 4283856179
-0.0014657639 -0.0014138594 -0.00074579287 4283790899
0.00076616183 -0.0027016178 0.00025836099 4283790899
0.0031788982 -0.0046971142 0.0019623274 4283594803
0.0052623414 -0.0052746385 0.0022601243 4283791409
0.0075265728 -0.0065599158 0.0032577328 4283988014
0.0098015442 -0.0078442991 0.0042531099 4284117554
0.012629423 -0.011251315 0.0073454659 4284508214
0.040138867 -0.02375894 0.016301895 4283658044
0.042776439 -0.025737055 0.017959772 4282089794
0.045211878 -0.027008779 0.018922579 4281892168
0.048099559 -0.029689677 0.021265712 4281956174
0.05167903 -0.034483634 0.025676608 4281890639
0.057557397 -0.04632166 0.036981165 4281956174
-0.060971837 0.014676571 -0.011384705 4283657533
-0.060030986 0.021961197 -0.018948762 4283989289
-0.058784116 0.026377646 -0.0236321 4284120869
-0.057291683 0.028644094 -0.02615831 4284057119
-0.055815022 0.030909525 -0.028681075 4283992094
-0.053963076 0.030311456 -0.028337868 4283991583
-0.052005153 0.028998384 -0.027280711 4284056098
-0.050139431 0.028401366 -0.02694026 4283990308
-0.048373941 0.028519919 -0.02731492 4283990563
-0.046716701 0.029353539 -0.028402971 4283990564
-0.044842366 0.028757347 -0.028064163 4283990309
-0.042962525 0.028161636 -0.027726516 4283989033
-0.040844273 0.026137648 -0.025966611 4284251174
-0.012741257 0.0042055398 -0.0076192645 4283855668
-0.010566432 0.0029089637 -0.0066066999 4283855923
-0.0085372925 0.0023248941 -0.0062995376 4283790899
-0.0063435324 0.001029782 -0.0052907709 4283791154
-0.0038153343 -0.0016870461 -0.0028801197 4283790898
-0.0015946664 -0.0029801279 -0.0018768962 4283790898
0.00063677132 -0.0042723231 -0.00087591633 4283725618
0.0030488372 -0.0062744543 0.00082329568 4283725108
0.0053044744 -0.0075647831 0.0018193256 4283790643
0.0077460781 -0.0095646754 0.0035124514 4284053039
0.037800141 -0.024832644 0.014842872 4283135294
0.040001173 -0.025402658 0.015115499 4282350914
0.043068625 -0.028802656 0.018150264 4281696329
0.045508891 -0.030078374 0.019108754 4281826378
0.04840105 -0.032767765 0.021444473 4281826378
0.051761124 -0.03686969 0.025154002 4281891148
0.057412907 -0.048038155 0.035742421 4281956429
-0.059540819 0.015454613 -0.015001729 4283856689
-0.058632713 0.022758998 -0.022542506 4284054568
-0.057500888 0.027905354 -0.027926411 4284121634
-0.055931527 0.029459162 -0.029729223 4284056354
-0.054275047 0.030294547 -0.030815758 4284056609
-0.052222658 0.028258966 -0.029047135 4284056609
-0.050462801 0.028377036 -0.029420678 4283991329
-0.048597176 0.027777893 -0.029081861 4283991074
-0.04705077 0.029330561 -0.030879503 4283994134
-0.045292985 0.029448746 -0.031252414 4283730718
-0.043421421 0.028850259 -0.030914666 4283864084
-0.041428078 0.027535608 -0.029867891 4283991073
-0.039186027 0.024789033 -0.027404347 4284184619
-0.017183769 0.0052685328 -0.010758165 4284247349
-0.01488274 0.0032514371 -0.0090410532 4283986738
-0.012716521 0.0019497313 -0.0080299713 4283921204
-0.010539509 0.00064889714 -0.0070211468 4283856944
-0.0083516873 -0.00065112486 -0.0060144747 4283791408
-0.0059941076 -0.0026639588 -0.0043090191 4283922224
-0.0036203973 -0.0046756342 -0.0026068529 4283791154
-0.0012305491 -0.0066860989 -0.0009080153 4283791153
0.0011753999 -0.0086953044 0.00078745931 4283922224
0.0035974719 -0.01070337 0.0024796333 4283920948
0.0060356483 -0.012710199 0.0041685048 4283920439
0.0086649247 -0.015428372 0.0065516606 4284643364
0.030689131 -0.023332827 0.011454901 4284638773
0.032868519 -0.023906827 0.011730164 4282939454
0.035260323 -0.025190771 0.012695316 4281567809
0.037872542 -0.027184047 0.014348641 4281436739
0.040288333 -0.028466068 0.015308857 4281631304
0.04292988 -0.030457102 0.016956165 4281631049
0.046022952 -0.033866175 0.019977476 4281695564
0.049363129 -0.03798274 0.023681317 4281629518
0.053404652 -0.044224806 0.029441096 4281891404
0.058397345 -0.053299792 0.037938692 4281956173
-0.058532547 0.0045928694 -0.006788475 4283921714
-0.058035206 0.015524529 -0.017891536 4283924518
-0.05715717 0.022848856 -0.025409594 4284056098
-0.055953238 0.027288819 -0.030064186 4284056863
-0.05439141 0.02884659 -0.031862155 4284122143
-0.052539792 0.028244073 -0.031522095 4284056353
-0.050682653 0.027642047 -0.031183196 4283991329
-0.048819963 0.027040487 -0.0308454 4283991074
-0.047275979 0.028597349 -0.032639287 4283860514
-0.045520958 0.028715311 -0.033011645 4283793958
-0.043652367 0.028114395 -0.032674924 4283863573
-0.04166216 0.026795162 -0.031630814 4283928598
-0.039542336 0.024758099 -0.029880965 4284121124
-0.037649173 0.024159113 -0.029549247 4284316708
-0.035378236 0.021405816 -0.027098201 4284644894
-0.021300841 0.0049185902 -0.012486216 4284247859
-0.019164871 0.0036101118 -0.011472239 4284052528
-0.017018091 0.0023025237 -0.010460513 4284054824
-0.014860492 0.00099571794 -0.0094509646 4283923243
-0.012692105 -0.00031021982 -0.008443675 4283988269
-0.010512907 -0.001615297 -0.0074385782 4283922479
-0.0080106556 -0.0043517239 -0.0050356262 4283987759
-0.0058045164 -0.0056548119 -0.0040360317 4283922479
-0.0032646693 -0.0083884671 -0.0016408768 4283791153
-0.00086749718 -0.010404982 5.1463023e-05 4283921203
0.0017126091 -0.013135679 0.0024382751 4284182578
0.02798165 -0.022959702 0.0086216591 4284246328
0.030553125 -0.024962686 0.010278368 4282676803
0.033344857 -0.027677238 0.012621701 4282088773
0.035744172 -0.028965034 0.013582014 4281827653
0.037944578 -0.029539563 0.013851378 4281435208
0.040574767 -0.031538017 0.015496068 4281499978
0.043220971 -0.033535294 0.017137507 4281369673
0.046753488 -0.038378753 0.021523893 4281629774
0.051204376 -0.046066135 0.028648444 4281629518
0.055713985 -0.053749323 0.035760716 4281760333
-0.057961661 -0.0027110241 -0.0021821586 4283921714
-0.057083491 0.0053638592 -0.010415549 4283856433
-0.056447547 0.014880154 -0.020060511 4283791153
-0.055596922 0.02222462 -0.027556403 4283988523
-0.054410469 0.026676605 -0.032197475 4284121633
-0.052756283 0.027516225 -0.033280257 4284121889
-0.051004652 0.027633665 -0.033652112 4283992349
-0.049147572 0.02702946 -0.033314742 4283992094
-0.047608685 0.028590368 -0.035104357 4283924774
-0.04585911 0.028707927 -0.035475589 4283925029
-0.043996122 0.028104408 -0.03513933 4283858473
-0.042011719 0.026780328 -0.034097224 4283925793
-0.04013503 0.026177922 -0.033763736 4284122399
-0.038010348 0.024134675 -0.032019768 4284121634
-0.035869483 0.022092655 -0.030279201 4284317474
-0.033206139 0.01717066 -0.02572336 4284381989
-0.023687292 0.0054241829 -0.015305098 4284183343
-0.02142537 0.0033909343 -0.013589746 4283921203
-0.019147296 0.0013588332 -0.011877698 4283921714
-0.016853083 -0.0006720759 -0.010168998 4283989543
-0.014690634 -0.0019829124 -0.0091637932 4284054314
-0.012517389 -0.0032929108 -0.0081607997 4283988523
-0.01018006 -0.0053205639 -0.0064609773 4283987758
-0.0076706521 -0.0080652982 -0.0040660799 4283987758
-0.005298391 -0.010090359 -0.0023734905 4283856689
-0.0029099993 -0.012114182 -0.00068427809 4283921459
-0.00050548092 -0.014136828 0.0010016533 4284378419
0.027846359 -0.02458261 0.0074501038 4283201339
0.030618504 -0.027307384 0.0097908974 4282285379
0.033412032 -0.030030593 0.012127321 4281957958
0.036020216 -0.032037407 0.013771631 4281892424
0.038225643 -0.032613762 0.014038319 4281696073
0.041284598 -0.036047339 0.017050344 4281499978
0.044799697 -0.040907472 0.021428902 4281565004
0.049004339 -0.047907017 0.027856059 4281825869
0.053702511 -0.056330547 0.035641875 4281889874
-0.057566319 -0.0085996389 0.00097582676 4283723069
-0.0563141 -0.003399428 -0.0043995846 4283856433
-0.055557553 0.0054224096 -0.013319061 4283856434
-0.054770369 0.01351548 -0.021515153 4283856944
-0.053944539 0.020880233 -0.02898946 4284121124
-0.05267318 0.024620162 -0.032908857 4284121379
-0.051223483 0.026910221 -0.03540631 4283992093
-0.049684528 0.02847535 -0.037192732 4283929363
-0.048048321 0.02931614 -0.038269855 4283861023
-0.046196487 0.028709562 -0.037932955 4283860004
-0.044339109 0.028103454 -0.037597146 4283925793
-0.042244773 0.026051378 -0.035851792 4283993113
-0.040371049 0.025446555 -0.035519317 4283991329
-0.038249683 0.023396477 -0.033779562 4284122144
-0.035864677 0.019902281 -0.030635942 4284121378
-0.033326436 0.015687522 -0.026794892 4284119848
-0.030497875 0.010030396 -0.021555597 4284119084
-0.027889919 0.0058205314 -0.017729178 4283987504
-0.025787402 0.0045007206 -0.016714942 4283921714
-0.023811113 0.0039034411 -0.016403668 4283921713
-0.021549869 0.0018635392 -0.014693089 4283987759
-0.019130047 -0.00089659542 -0.012286156 4283987759
-0.016833823 -0.0029339567 -0.010582782 4283987758
-0.014521454 -0.0049700812 -0.0088827945 4283923243
-0.012493763 -0.0055633411 -0.008582009 4283988778
-0.010001358 -0.008318074 -0.0061901696 4284053803
-0.0074874647 -0.011071295 -0.0038027521 4284183343
-0.0051105246 -0.013102621 -0.0021160506 4284247094
0.028108098 -0.027640335 0.0076543633 4284705838
0.030884724 -0.030373596 0.009987738 4282154054
0.033478871 -0.032388084 0.011630025 4281957703
0.036089018 -0.03440129 0.013268996 4281826634
0.039133579 -0.037846945 0.016275812 4281695819
0.042840444 -0.043440543 0.021332104 4281565004
0.047019087 -0.050463937 0.027748335 4281564749
0.051251125 -0.057483509 0.034153424 4281695054
-0.05751792 -0.011604883 0.0012750421 4283722049
-0.05608147 -0.0078433603 -0.0026715752 4283855414
-0.054946046 -0.0019024387 -0.0087389769 4283855924
-0.053853046 0.0040356889 -0.014797264 4283855924
-0.053190004 0.012877725 -0.023677289 4283790644
-0.05219252 0.018809669 -0.02971521 4283790899
-0.05133969 0.025465151 -0.036450598 4284056099
-0.050115112 0.029213028 -0.040351819 4283926559
-0.048594389 0.030781372 -0.042131074 4283928088
-0.046643291 0.029446097 -0.041088641 4283992858
-0.044455569 0.02666044 -0.038639836 4283992348
-0.042361882 0.024601711 -0.036899261 4284057119
-0.040133793 0.021818966 -0.034458891 4284121888
-0.037763324 0.018312704 -0.03132043 4284055843
-0.035242449 0.014083497 -0.027485576 4284054823
-0.032815587 0.01058124 -0.024358921 4284054569
-0.030361902 0.0070808828 -0.021237887 4283922478
-0.028012913 0.004306756 -0.018822791 4283921713
-0.025642429 0.00153419 -0.016412172 4283921459
-0.023524206 0.00021113083 -0.015404464 4283987759
-0.021395188 -0.0011111423 -0.014398929 4283987758
-0.019113112 -0.0031561218 -0.012697584 4283987759
-0.016669977 -0.0059233569 -0.010302046 4283987503
-0.014352929 -0.0079657957 -0.0086079054 4283922734
-0.012019742 -0.010006987 -0.0069171432 4284054058
-0.0096704066 -0.012047015 -0.0052296766 4284184619
-0.0071493573 -0.014808528 -0.0028503025 4284380459
0.028369132 -0.030706547 0.007852491 4284313394
0.030949228 -0.032728694 0.0094927642 4281957194
0.033341683 -0.034030236 0.01044466 4281695053
0.036157474 -0.036769263 0.012763405 4281695053
0.039830681 -0.042382844 0.017813658 4281629775
0.044605024 -0.051587529 0.026272021 4281433168
0.049663145 -0.061505914 0.035398718 4281432914
-0.057384107 -0.015348285 0.0022764644 4283984188
-0.055850167 -0.012304641 -0.00095611066 4283855668
-0.054428671 -0.0085330978 -0.0048913602 4283855668
-0.053127635 -0.0040341765 -0.0095276274 4283855924
-0.052051764 0.001920376 -0.01556921 4283790389
-0.051316436 0.010058284 -0.023718361 4283725618
-0.050741572 0.018920802 -0.032559954 4283991073
-0.050021078 0.026322519 -0.03997916 4284056354
-0.048602145 0.028623762 -0.042460226 4284056354
-0.046648834 0.027284222 -0.041421544 4284056098
-0.04423387 0.023034301 -0.037574254 4284056099
-0.042017456 0.020241875 -0.035138018 4284121634
-0.039543469 0.015996147 -0.031303156 4284121634
-0.037157979 0.012479927 -0.028176039 4284122398
-0.034622286 0.0082385428 -0.024354124 4283990563
-0.032306474 0.0054531842 -0.021938682 4283989799
-0.030097876 0.0033960938 -0.020227011 4283856433
-0.028004479 0.0020667352 -0.01921748 4283856434
-0.025632154 -0.00071448833 -0.016813785 4283856433
-0.023511764 -0.002041813 -0.015809814 4283987504
-0.021101791 -0.0048202835 -0.013413941 4283987759
-0.018954422 -0.0061456263 -0.012415497 4283987504
-0.016362075 -0.0096469522 -0.0093315355 4283987758
-0.013890292 -0.012420908 -0.0069485013 4283986993
0.028035033 -0.031615429 0.0059905965 4283725874
0.030812576 -0.034366146 0.0083107539 4281629774
0.033408001 -0.036393695 0.0099429917 4281497684
0.036637899 -0.040584199 0.013620753 4281300314
0.040735148 -0.047657289 0.020021375 4281102179
-0.055797298 -0.015320048 -0.00066562463 4284575533
-0.054278497 -0.012268595 -0.0038884245 4283986483
-0.052686926 -0.0099497363 -0.0064015798 4283527483
-0.05120765 -0.0069007538 -0.0096158553 4283659063
-0.050245438 -0.00019867718 -0.016345259 4283790898
-0.049942169 0.010884497 -0.027284682 4283790898
-0.049509596 0.020501386 -0.036801506 4283856944
-0.048288617 0.024270957 -0.040685646 4284186149
-0.046215255 0.022197522 -0.038950756 4284186658
-0.043563087 0.016475298 -0.033713635 4284186658
-0.041098449 0.012215666 -0.029886661 4284187168
-0.03883734 0.0094175562 -0.027466364 4283989289
-0.0364342 0.0058915466 -0.024351161 4283857454
-0.034127396 0.0030967034 -0.021940414 4283857199
-0.032050814 0.0017615668 -0.020930696 4283856944
-0.03009193 0.0011561923 -0.020620961 4283922224
-0.02799635 -0.00017740205 -0.019615155 4283922479
-0.025756065 -0.0022387542 -0.017914956 4283922224
-0.023499619 -0.0042989217 -0.016218115 4283856944
-0.020948615 -0.0078142285 -0.013133714 4283922480
-0.018512655 -0.010599628 -0.010749804 4283987503
-0.015910666 -0.01411128 -0.0076760431 4284052783
-0.01357628 -0.016165674 -0.0059954249 4284379694
0.028097238 -0.033967905 0.0054981746 4283594803
0.030876571 -0.036727242 0.0078114495 4281497684
0.033270672 -0.038037427 0.0087564848 4281102434
-0.054129299 -0.016017057 -0.0028948067 4284640303
-0.052529331 -0.01369106 -0.0054049292 4283658298
-0.050945114 -0.011366077 -0.007911589 4283527484
-0.049673725 -0.0068427324 -0.012521928 4283855924
-0.04894251 0.0013430417 -0.020634318 4283856178
-0.048582781 0.011723202 -0.030837886 4283790643
-0.047334369 0.01550553 -0.034719732 4283922479
-0.045454349 0.014891971 -0.034395412 4284185893
-0.042894725 0.0098856911 -0.029875062 4284055588
-0.04064263 0.0070780739 -0.027459471 4283989799
-0.038486701 0.0050038919 -0.025746781 4283923754
-0.036555301 0.0043941624 -0.025433078 4283857199
-0.034249324 0.0015904717 -0.02302869 4283791664
-0.03192186 -0.0012116693 -0.020628791 4283857199
-0.029957931 -0.0018188991 -0.020321757 4283922224
-0.027988512 -0.0024257004 -0.020015767 4283922479
-0.026147295 -0.0023012422 -0.020405892 4283856689
-0.023896854 -0.0043683574 -0.018712714 4283922479
-0.021213192 -0.0086255074 -0.014941238 4283987503
-0.018780757 -0.011419885 -0.012563158 4283987758
-0.016182464 -0.014942743 -0.0094967708 4284313393
-0.013851415 -0.017004006 -0.0078203036 4284639794
0.028356887 -0.037050851 0.0056842975 4282543184
-0.050876278 -0.014377795 -0.0076225461 4284314158
-0.049499769 -0.010576256 -0.011523689 4283921458
-0.048555721 -0.00383595 -0.018219903 4283855924
-0.047659453 0.0029012375 -0.024905913 4283724344
-0.046490442 0.0074310638 -0.029484514 4283724599
-0.044586714 0.0068168677 -0.029166875 4283790388
-0.042453136 0.0047343373 -0.027454454 4283922478
-0.040303383 0.00265304 -0.025745435 4283857708
-0.038372438 0.0020409301 -0.025433306 4283857708
-0.036435988 0.0014293157 -0.025122326 4283858219
-0.034248356 -0.00064919144 -0.023421083 4283857964
-0.032044571 -0.002726458 -0.021723229 4283923244
-0.029952776 -0.0040692836 -0.020723224 4283857199
-0.028111834 -0.0039449595 -0.021113373 4284053294
-0.026270743 -0.0038205348 -0.021503486 4284053803
-0.024020974 -0.005894281 -0.019815067 4284641578
-0.049721461 -0.011372723 -0.013331445 4283986994
-0.048373293 -0.007562086 -0.01721839 4283855924
-0.047259558 -0.0022788234 -0.022495721 4283790134
-0.045969624 0.0015281364 -0.026370142 4283790388
-0.04426885 0.0023862943 -0.027451277 4283725363
-0.042461228 0.0025076345 -0.027834907 4283790899
-0.04042412 0.0011562742 -0.026826985 4283857198
-0.038376149 -0.00019429624 -0.025821246 4283857708
-0.036317345 -0.0015440099 -0.024817783 4283857708
-0.034002375 -0.0043646507 -0.022428365 4283857708
-0.031916562 -0.0057123601 -0.021430418 4283989034
-0.02994791 -0.0063237138 -0.021127688 4283923243
-0.028104436 -0.0061992519 -0.021518402 4284053294
-0.026127476 -0.0068098083 -0.021217261 4284445229
-0.049647298 -0.014383569 -0.013043145 4284313649
-0.048293028 -0.0105616 -0.016923264 4283790644
-0.047069017 -0.0060019828 -0.021494124 4283659319
-0.045876805 -0.0014443994 -0.02605816 4283724344
-0.044279788 0.00015531108 -0.027834166 4283725108
-0.042469624 0.00027678907 -0.028218361 4283790899
-0.040315833 -0.0018174797 -0.026519965 4283922479
-0.038380172 -0.0024336576 -0.026212176 4283922989
-0.036079537 -0.0052641444 -0.023826322 4283988524
-0.034002397 -0.0066169128 -0.022829946 4284120868
-0.032039527 -0.0072310008 -0.022527657 4284316964
-0.0044258311 -0.022525601 -0.011850803 4283853374
-0.0021973029 -0.023866467 -0.010885258 4284509744
-0.048213404 -0.01356969 -0.016634272 4284444464
-0.047086779 -0.0082549825 -0.021891598 4284052274
-0.045890953 -0.0036840476 -0.026446657 4283791154
-0.04440001 -0.0013386309 -0.028913751 4283790644
-0.04236668 -0.0026991926 -0.027911603 4283922479
-0.040436823 -0.0033180751 -0.027604301 4283922479
-0.038384479 -0.0046771243 -0.026606089 4283988013
-0.036201674 -0.0067758337 -0.024918607 4284053804
-0.033880379 -0.0096136034 -0.022543592 4284054059
-0.0059869662 -0.02643837 -0.010531085 4283134019
-0.004235331 -0.02557037 -0.011618232 4282350913
-0.0020019673 -0.026915275 -0.01065696 4284247604
-0.047104839 -0.010512106 -0.02229207 4284509488
-0.046011526 -0.0051842816 -0.02753083 4283854904
-0.044302579 -0.004319068 -0.028608862 4283856434
-0.042375851 -0.00494048 -0.028302616 4283922479
-0.040443625 -0.0055614114 -0.02799746 4283987503
-0.038505901 -0.0061818808 -0.027693408 4283987504
-0.036323737 -0.0082872137 -0.026010685 4284184109
-0.034003299 -0.011133827 -0.023642011 4284576043
-0.012592986 -0.024700545 -0.013874419 4284246329
-0.010241076 -0.026793078 -0.012226675 4283004225
-0.0080271885 -0.028144054 -0.011264808 4282154309
-0.0058025159 -0.029494204 -0.010305084 4281892424
-0.0038860291 -0.029363602 -0.010710374 4281892934
-0.0018073134 -0.029972635 -0.010434769 4284443953
-0.044314411 -0.0065624304 -0.029000718 4283987758
-0.042385343 -0.007185895 -0.028696623 4284053294
-0.040450756 -0.007808879 -0.028393615 4284314923
-0.014763985 -0.025650501 -0.015285315 4284574514
-0.01272079 -0.026264735 -0.015004264 4282219844
-0.010520864 -0.027621217 -0.014042763 4281892169
-0.0080022253 -0.030461796 -0.011721639 4281695819
-0.0056187585 -0.032558516 -0.010085279 4281695819
-0.0035377927 -0.033169702 -0.0098118745 4281892680
-0.0017753206 -0.032296486 -0.010897983 4282677313
-0.042395119 -0.0094354153 -0.029093603 4284641578
-0.017071951 -0.025849767 -0.01737556 4284246838
-0.014891434 -0.02721218 -0.016413381 4282873918
-0.012551669 -0.02931881 -0.014772939 4281892424
-0.010346901 -0.030679293 -0.013815755 4281696584
-0.0079775713 -0.03278368 -0.01218139 4281565513
-0.0057485774 -0.034142271 -0.01122915 4281499723
-0.0036679357 -0.034755677 -0.010957308 4281761864
-0.0015818551 -0.035368651 -0.010686487 4283070014
-0.019368086 -0.026039071 -0.019461442 4282416703
-0.017198849 -0.027406715 -0.018500267 4281957959
-0.015164416 -0.028026119 -0.018220687 4281826633
-0.012679745 -0.030886814 -0.015905544 4281826634
-0.010475483 -0.032251716 -0.014951514 4281891914
-0.0079532377 -0.035109602 -0.012644138 4281761865
-0.0060346313 -0.034979016 -0.01304999 4281630283
-0.0037980527 -0.036341362 -0.01210253 4281826634
-0.0017122999 -0.036956556 -0.011833274 4282872134
-0.023125779 -0.028596483 -0.019104863 4284052528
-0.020965304 -0.029969372 -0.01814522 4282809913
-0.019074198 -0.029841378 -0.018545792 4282155328
-0.017325711 -0.02896338 -0.019624757 4281826634
-0.015146185 -0.030334629 -0.018668884 4281826634
-0.01280779 -0.032454506 -0.017037932 4281826634
-0.010302525 -0.035322376 -0.014733601 4281827144
-0.0082360692 -0.035941429 -0.014462169 4281761608
-0.0061641969 -0.036559962 -0.014191837 4281695819
-0.0040868782 -0.037177995 -0.013922558 4281563473
-0.0020041391 -0.037795529 -0.013654341 4281560668
-0.027798001 -0.025887616 -0.023506472 4284182834
-0.025533061 -0.028019726 -0.02186536 4282874428
-0.023251992 -0.030150585 -0.020227626 4282023239
-0.021092024 -0.031527907 -0.019271145 4282022474
-0.019061159 -0.032152131 -0.018994292 4281892168
-0.017167386 -0.032023832 -0.019395338 4281761098
-0.015128259 -0.032647267 -0.019120067 4281695308
-0.012787897 -0.034773573 -0.017494412 4281563728
-0.010431405 -0.036898598 -0.01587211 4281498449
-0.0082120411 -0.038271166 -0.014927671 4281432658
-0.029665377 -0.028309524 -0.023544682 4283463478
-0.02766471 -0.028938442 -0.023263408 4282547263
-0.025395121 -0.031076811 -0.021628169 4282024004
-0.023378167 -0.031704403 -0.021350179 4281891659
-0.02108163 -0.033840701 -0.019720471 4281826889
-0.019048419 -0.034466974 -0.019445762 4281826634
-0.017009746 -0.035092749 -0.019172113 4281696074
-0.014965605 -0.035718076 -0.018899489 4281369163
-0.01291604 -0.036342867 -0.018627962 4281433678
-0.010710627 -0.037720844 -0.017683957 4281039448
-0.033532705 -0.030103967 -0.023865428 4283658044
-0.031537984 -0.030735709 -0.023584701 4282743104
-0.029663984 -0.030609481 -0.023982098 4281957703
-0.027660962 -0.031240486 -0.023702921 4281827654
-0.025389392 -0.03338524 -0.022073027 4281892424
-0.023370091 -0.034014873 -0.021797178 4281761353
-0.021071564 -0.036157608 -0.020172775 4281696074
-0.019036014 -0.036785908 -0.019900184 4281630283
-0.016852777 -0.038170189 -0.01895497 4281433169
-0.014803644 -0.038797319 -0.018685076 4281236309
-0.034701828 -0.037093595 -0.019842668 4283983679
-0.032932986 -0.036206461 -0.020920169 4283003714
-0.031169336 -0.035319604 -0.021996446 4282284869
-0.029536877 -0.033673286 -0.023746995 4282088263
-0.027786244 -0.03278707 -0.024820326 4281826888
-0.025646705 -0.034179129 -0.023869522 4281761353
-0.023362327 -0.0363295 -0.022247095 4281761354
-0.020925116 -0.039237633 -0.019954797 4281630283
-0.018884543 -0.039867803 -0.019684918 4281434189
-0.016838532 -0.040497467 -0.019416083 4280907613
-0.032576416 -0.040810533 -0.019343749 4282544204
-0.031171631 -0.037634514 -0.022444021 4282088009
-0.029536303 -0.035983659 -0.024191953 4282022984
-0.027782958 -0.035095088 -0.025264243 4281892679
-0.025378872 -0.038014449 -0.022971611 4281827143
-0.023087185 -0.040170871 -0.021355674 4281826634
-0.020642836 -0.043087281 -0.0190714 4281760078
-0.030928221 -0.041482136 -0.021548845 4281956684
-0.029410366 -0.039062239 -0.023967594 4281761098
-0.027394962 -0.039698973 -0.023695935 4281761609
-0.024981078 -0.042626455 -0.021411899 4281630283
-0.022545714 -0.045552276 -0.019132348 4281694034
-0.020497922 -0.046186499 -0.018867301 4281233248
-0.028783087 -0.045214511 -0.021066505 4281825869
-0.026623864 -0.046618469 -0.020129712 4281695309
-0.024192158 -0.049553469 -0.017855952 4281694798
0.062755138 0.01681152 0.037999626 4280109464
0.068439811 0.0071590915 0.048433371 4278471599
0.056533188 0.026168272 0.024939731 4278929324
0.060180582 0.021717537 0.029588092 4278471343
0.064604178 0.015304707 0.036394216 4278800294
0.056398049 0.024560954 0.023779735 4279258018
0.060044058 0.020094749 0.02841695 4278799783
0.064219601 0.014316931 0.034486875 4278669479
0.0057885498 0.026906403 0.024782952 4282143089
0.0082305819 0.025045164 0.026579093 4278468793
0.05746574 0.019655209 0.026218873 4280830859
0.061123732 0.015174463 0.030842137 4279259548
0.065310888 0.0093776844 0.03689491 4278670244
0.0016950518 0.033193707 0.015249835 4278272699
0.0039227419 0.03198953 0.016317336 4278600883
0.006161198 0.030786199 0.017382573 4279780769
0.0085892789 0.028917449 0.019176781 4280630684
0.059012331 0.013403639 0.030078623 4280372369
0.062444586 0.0095705092 0.033969134 4279063709
0.06640029 0.0044165216 0.039287142 4279130009
-0.0018638335 0.030041674 0.016385628 4282273904
0.00054270402 0.035651743 0.0097389258 4278272698
0.0073872022 0.031356625 0.013664883 4279257508
0.0098146982 0.029481346 0.015454313 4279453604
0.012074303 0.028275244 0.016512021 4280684234
0.055631507 0.0095021874 0.031883873 4282861679
0.057851084 0.0089756884 0.03218393 4281028738
0.060556304 0.0071213059 0.033916179 4279980945
0.06352032 0.0046041831 0.036361106 4279522453
0.067487806 -0.0005665496 0.041663572 4279326104
-0.0048050098 0.024192398 0.020447489 4282602089
-0.0038780719 0.028352773 0.015657572 4278865063
-0.0028180256 0.031839505 0.011605259 4278274994
-0.0014490634 0.033981793 0.0090190694 4279258018
0.00024485216 0.034780696 0.0078956615 4279127968
0.0022797547 0.034237351 0.0082316063 4278733994
0.0041442849 0.034365248 0.0078379307 4278864299
0.0061873607 0.033822626 0.0081722662 4278667694
0.0085981674 0.031939544 0.0099603478 4279192738
0.011025079 0.030057644 0.01174509 4279454368
0.053279638 0.0083916858 0.030400921 4281944698
0.055963017 0.0065290444 0.032132752 4280503694
0.058187656 0.0060007386 0.032430135 4280242063
0.060897574 0.0041401014 0.034156494 4279784083
0.063623428 0.00228066 0.035879567 4279587733
0.068082727 -0.004239548 0.042596471 4279718803
-0.0060515441 0.027338354 0.014199389 4281226363
-0.0046555959 0.029488908 0.011612272 4279127714
-5.2593648e-05 0.03391429 0.00605575 4278798763
0.0019793548 0.03336852 0.0063906647 4278601903
0.0057029463 0.033624001 0.0056045149 4278733229
0.007926777 0.032406583 0.0066631045 4278668203
0.0099777244 0.031862393 0.0069942884 4279061923
0.012406699 0.029974153 0.0087736901 4279978138
0.014851782 0.028087055 0.0105498 4281541798
0.01731294 0.026201189 0.012322536 4281280678
0.048051018 0.0098269917 0.026471496 4281159809
0.050246235 0.0092941746 0.026773319 4280177038
0.052910306 0.0074235722 0.028504211 4279784083
0.056059297 0.0042162389 0.031660896 4280111504
0.058286343 0.003685873 0.0319562 4279980433
0.060998268 0.0018188506 0.033677205 4279980945
0.063968629 -0.00071540102 0.036107808 4279456663
0.06892167 -0.0085937753 0.044232257 4279194778
-0.0051074699 0.029290656 0.0090362635 4281292153
-0.0037323646 0.031446442 0.0064585004 4278931363
0.0033629052 0.033307105 0.0034351833 4278405554
0.0052192844 0.033434495 0.0030432651 4278667438
0.0072565265 0.032887083 0.0033756439 4278733229
0.009115696 0.033014834 0.0029832637 4278668203
0.011161052 0.03246817 0.0033140015 4279389089
0.013400607 0.031247666 0.0043661725 4279911583
0.015842397 0.029353818 0.0061381236 4279579064
0.046172153 0.0073926225 0.026427105 4282534769
0.04814088 0.0075292699 0.026012622 4279259803
0.050567411 0.0063229464 0.027026325 4279653269
0.053004559 0.005117435 0.028037846 4279718803
0.055920906 0.0025703982 0.030473102 4279849618
0.058147669 0.0020378418 0.030766845 4279718803
0.060858935 0.00016419962 0.032483108 4279718803
0.064070761 -0.0030494779 0.035618603 4279522454
0.069514111 -0.012295008 0.045144726 4279456919
-0.0040238127 0.030585347 0.0046209656 4279784338
-0.002165176 0.030712551 0.0042283181 4278997153
-0.00047636405 0.031517684 0.0031108102 4278930853
0.0015523583 0.030967219 0.0034431498 4278668458
0.0034112446 0.031094695 0.0030506412 4278668459
0.0054481253 0.030544993 0.0033813361 4278536624
0.0067679994 0.03270407 0.00082050171 4278667439
0.010103583 0.034312271 -0.0014048824 4278403004
0.01475706 0.031184986 0.00141693 4280173469
0.01758885 0.027932473 0.0046231709 4280499614
0.041225988 0.0081895702 0.023222376 4280766599
0.043625493 0.0069767311 0.024238318 4280177294
0.045812234 0.0064388216 0.024538495 4279718803
0.04823035 0.0052274056 0.02555069 4278669989
0.050659087 0.0040168501 0.026560672 4279653014
0.053098448 0.002807077 0.027568519 4279850129
0.056016628 0.00025140122 0.029996868 4279653523
0.058482535 -0.0009563081 0.030999213 4279850129
0.06143795 -0.0035092272 0.033419855 4279981453
0.06441465 -0.0060605779 0.035836075 4280572289
0.069615811 -0.014664009 0.044629656 4280506754
-0.00060305372 0.029983023 0.002002635 4279193503
0.0012529828 0.030110197 0.0016106479 4278668713
0.0032841712 0.029557778 0.0019408893 4278472363
0.0049652718 0.03036481 0.00082681421 4278667694
0.0062802546 0.032530095 -0.0017280467 4278929834
0.0077623203 0.034015294 -0.0035590781 4278405044
0.0094195157 0.034820907 -0.0046678702 4278405298
0.014246941 0.031002892 -0.0011318671 4278404278
0.016297188 0.030452369 -0.00080521032 4278995878
0.018745732 0.028545992 0.00095557701 4279192228
0.036536846 0.0083306804 0.020735998 4282271353
0.038917243 0.0071119554 0.021752574 4281027208
0.041308306 0.005894009 0.022767007 4280307854
0.043930568 0.0040003881 0.024491817 4279980433
0.046345588 0.0027843229 0.025501292 4279521943
0.04877124 0.0015690848 0.026508592 4278867103
0.051207535 0.00035464019 0.027513772 4279784084
0.053654429 -0.00085894391 0.02851674 4279784338
0.05611195 -0.002071742 0.029517576 4279981199
0.05905325 -0.0046344958 0.031934597 4279915918
0.062015824 -0.0071956404 0.034347165 4280506499
0.0649997 -0.0097552538 0.036755361 4282341478
-0.00089923665 0.029130826 0.00017295685 4281423988
0.0011262372 0.028575761 0.00050265342 4279325084
0.0029822402 0.028702995 0.00011072215 4278734248
0.0070873387 0.034535747 -0.0068155802 4279061668
0.0091077648 0.033980764 -0.0064844987 4278996899
0.011510115 0.032064304 -0.0047190245 4278931108
0.013546661 0.031510595 -0.0043912223 4278471599
0.015588582 0.030957334 -0.0040644966 4278602414
0.018028457 0.029043727 -0.002306737 4278799528
0.02088231 0.025770901 0.00087861437 4278799783
0.024771104 0.019099906 0.0076329298 4279583398
0.033823147 0.0086221583 0.017843587 4281290369
0.036402069 0.0067186914 0.019572429 4280242574
0.038997013 0.0048164055 0.021297961 4280111503
0.041390263 0.0035942644 0.022308625 4279980178
0.043794174 0.0023729317 0.023317169 4279980433
0.04643175 0.00047391653 0.025033876 4279325848
0.049085319 -0.0014239363 0.026747327 4278801314
0.051754862 -0.0033205822 0.028457493 4279653268
0.054209303 -0.0045380183 0.029455613 4280112014
0.056674358 -0.0057546161 0.030451577 4280177548
0.059622824 -0.0083256513 0.032860562 4281292154
0.002506014 0.028536923 -0.0024349727 4280376703
0.0041792542 0.029347746 -0.0035440931 4278801058
0.015461393 0.029427432 -0.0051690005 4278603689
0.017900608 0.02750718 -0.0034160102 4278472619
0.021150988 0.022858478 0.0011891155 4278603434
0.02484173 0.016847953 0.0072130617 4278735013
0.02837649 0.011522885 0.012514187 4279194013
0.031540424 0.007564608 0.016381964 4279521433
0.034108009 0.0056536756 0.01810823 4279718805
0.036691606 0.0037439726 0.019831136 4279915409
0.03907641 0.0025167353 0.020840302 4279914898
0.041689366 0.00060921162 0.02255721 4279784084
0.044098131 -0.00061613694 0.023561422 4279849873
0.046963252 -0.003202185 0.025981091 4279522198
0.049624175 -0.0051061027 0.027688105 4278998428
0.052072868 -0.0063284002 0.028684117 4280571014
0.054532174 -0.0075498596 0.029677965 4281488758
0.003875725 0.02850648 -0.0053637126 4279984258
0.0051813275 0.030690905 -0.0079019545 4278801058
0.0068360344 0.031502817 -0.0090054078 4278865829
0.0088558868 0.030943375 -0.0086774901 4278799528
0.010881122 0.030384392 -0.0083506452 4278668968
0.013292886 0.028455475 -0.0065969038 4278930853
0.015913971 0.025842758 -0.0041330969 4279127969
0.0189483 0.021862004 -0.00024806056 4278735014
0.022411937 0.016514264 0.0050548483 4278473639
0.025717091 0.011854041 0.0096370522 4278997664
0.028855756 0.0078807212 0.013500337 4279325084
0.031613249 0.0052779131 0.01593568 4279521944
0.033973556 0.0040444136 0.01694661 4279718293
0.036556482 0.0021280758 0.018664761 4279784338
0.039155442 0.00021290779 0.020379651 4279784338
0.041770406 -0.0017010532 0.02209124 4279915154
0.044401355 -0.0036137737 0.023799494 4279849874
0.047270969 -0.0062082894 0.026211686 4279981199
0.04993657 -0.0081184581 0.027912822 4279850638
0.0068927966 0.029298782 -0.0093860021 4279131794
0.0091000646 0.02804954 -0.0083467383 4278670243
0.011505786 0.026113532 -0.0065966877 4278669478
0.014308356 0.022803929 -0.0034252452 4278735015
0.017137699 0.019496277 -0.00025937334 4278669734
0.02038529 0.014816478 0.0043234359 4279063199
0.023670316 0.010139406 0.0088983849 4279194779
0.026791714 0.0061515942 0.012755422 4279457174
0.029130159 0.0049120449 0.013767505 4279521944
0.031479292 0.0036733299 0.014777411 4279784084
0.033839114 0.0024353974 0.015785165 4279718549
0.036633164 -0.00017351285 0.018206462 4279718805
0.039448582 -0.002780851 0.020623326 4279653013
0.042285342 -0.0053865649 0.023035727 4279653269
0.044923652 -0.0073053874 0.024737585 4280046479
0.01026782 0.021697246 -0.0044625895 4279852168
0.013066661 0.018376306 -0.0012985989 4278474659
0.016082473 0.014367718 0.0025705853 4278604708
0.018937528 0.011050843 0.0057228599 4278866593
0.021819344 0.0077359118 0.008869566 4279260569
0.024331465 0.0058009885 0.010592535 4279260058
0.02665874 0.0045561381 0.011603676 4279390873
0.0289967 0.0033121593 0.012612592 4279653014
0.031757846 0.00069199875 0.015034148 4279653013
0.034331445 -0.0012382381 0.016744411 4279719059
0.036921073 -0.00316732 0.018451398 4279784338
0.03974098 -0.0057831183 0.020860791 4279849618
0.042365298 -0.0077095851 0.022560626 4280832133
0.044785984 -0.0089472607 0.023552544 4282274413
0.014249559 0.011983596 0.0025514429 4279850894
0.017282888 0.0079629794 0.0064071734 4279391128
0.019770229 0.0060196146 0.0081302784 4279325593
0.022078285 0.0047688447 0.009142058 4279456408
0.024397038 0.0035189502 0.010151617 4279587479
0.026726499 0.0022698641 0.011159034 4279194524
0.029270032 0.0003307648 0.012870582 4279587478
0.032035679 -0.0022978671 0.015284657 4279849620
0.035240177 -0.0063059889 0.019104801 4280045970
0.037842494 -0.0082407221 0.020804189 4280504203
0.01524277 0.0062543675 0.0056712441 4280178824
0.017721403 0.0043037236 0.0073912162 4279587734
0.020408615 0.0016603954 0.0098149236 4279587223
0.022336502 0.0017932616 0.0094083343 4279062943
0.024660122 0.00053927675 0.010413643 4279062688
0.026994441 -0.00071382895 0.011416724 4279259804
0.029949069 -0.0040454082 0.014531957 4279587478
0.032930426 -0.0073750466 0.01764163 4280569739
0.035938509 -0.010702737 0.020745739 4281158789
0.014924955 0.0053738505 0.0038261712 4280047244
0.017589886 0.0027201585 0.006247934 4279128988
0.020276248 6.7986548e-05 0.008665286 4278997919
0.02259402 -0.0011909045 0.0096684787 4278670754
0.025120167 -0.0031445809 0.011373747 4278537644
0.027862709 -0.0057925694 0.01377948 4279521179
0.030829666 -0.0091342777 0.016883945 4280045969
0.033617657 -0.011778928 0.019280251 4280831369
0.015167918 0.0024021789 0.0040993504 4279981964
0.017837349 -0.00026004761 0.0065136608 4279325593
0.020720344 -0.003618937 0.0096273702 4278932128
0.023240458 -0.0055797659 0.011328971 4278997409
0.02597411 -0.0082372129 0.013729924 4279455899
0.028929342 -0.011590838 0.016828677 4282991219
0.015410174 -0.0005780533 0.0043663476 4281293173
0.018462673 -0.0046500713 0.0081788208 4280046224
0.021163363 -0.0073188208 0.010580093 4279980433
0.024274714 -0.011386521 0.014380263 4280438413
0.026826255 -0.013351671 0.016070418 4282073728
0.016397454 -0.0063790381 0.007434329 4281620595
0.019464761 -0.010463163 0.011233838 4281422203
0.022180628 -0.013139643 0.01362538 4282469488
0.045308806 -0.056168668 0.027774483 4280640373
0.040594578 -0.049336307 0.018809477 4280245123
0.045377176 -0.058597356 0.027223758 4279851658
0.033539589 -0.041132845 0.0089308303 4280113034
0.036772329 -0.045349427 0.012588454 4279915664
0.040662479 -0.051740602 0.018277017 4279718804
0.04502295 -0.059579231 0.025312852 4279587224
0.028220631 -0.038685136 0.0045045316 4281424243
0.030803282 -0.04073339 0.0061247218 4280244104
0.033199009 -0.042052165 0.0070628617 4279980944
0.036222219 -0.045554154 0.010033382 4279456664
0.040730044 -0.054149054 0.017741634 4279128479
0.045090988 -0.062011696 0.024759408 4279718549
0.02590796 -0.039724968 0.003063946 4280440199
0.028479213 -0.041780643 0.004681522 4279981199
0.0310665 -0.043835126 0.0062958542 4279784594
0.033467054 -0.045157947 0.0072297323 4279784594
0.036289118 -0.047940381 0.0095146243 4279653523
0.040797248 -0.056561507 0.017203288 4279522454
0.045158681 -0.064448193 0.024203058 4280045968
0.021625124 -0.040895693 0.0020424081 4282275688
0.023601323 -0.040759504 0.0016256301 4280833663
0.025772091 -0.041356407 0.0018861955 4280112014
0.02834264 -0.043418698 0.0034990367 4280046734
0.030729337 -0.044747032 0.0044325199 4279850129
0.033329256 -0.046807043 0.0060393568 4279719058
0.036560908 -0.05106315 0.0096679498 4279719314
0.041072007 -0.059710294 0.017336411 4279653268
0.045015447 -0.066156738 0.02296989 4280897669
0.021489769 -0.042524599 0.00086641591 4280440198
0.023657516 -0.043124013 0.0011259085 4280177804
0.026024982 -0.044458248 0.0020599654 4279915664
0.028600184 -0.046526827 0.0036669876 4279850128
0.03139111 -0.049329162 0.0059452448 4279981199
0.034001008 -0.051395044 0.0075451005 4279850128
0.037447136 -0.05639825 0.011835327 4279915664
0.04155378 -0.063602053 0.01813627 4280178059
0.014341909 -0.040129997 -0.0031199092 4281357943
0.016852219 -0.042210244 -0.0015045526 4279784849
0.018820049 -0.042074881 -0.001919766 4279849874
0.021165594 -0.043415256 -0.00098452438 4280046479
0.023330331 -0.044017039 -0.00072607864 4280112013
0.026082983 -0.046830997 0.0015535634 4279915664
0.028660148 -0.048906021 0.003155278 4279850129
0.031652384 -0.052454181 0.0060995761 4280046479
0.034873508 -0.056737356 0.0097107235 4280243339
0.038536407 -0.062491864 0.014658853 4281029503
0.012070592 -0.041138679 -0.0045481781 4281751408
0.014208172 -0.041745022 -0.0042860033 4280308364
0.016534451 -0.043091394 -0.0033501023 4279194524
0.018685451 -0.043696545 -0.0030905725 4279587733
0.021219138 -0.045781456 -0.0014848905 4279915408
0.023577545 -0.047125235 -0.0005554799 4280243339
0.026334649 -0.049947672 0.0017166976 4280177803
0.029309794 -0.053508058 0.0046563763 4280046988
0.032510974 -0.057805859 0.008261865 4280702339
0.035744198 -0.062101342 0.011860691 4281947759
0.0043692738 -0.035717227 -0.01123235 4282339693
0.0071615018 -0.039302282 -0.0082630673 4280767108
0.0098053552 -0.042142153 -0.0059741633 4279850130
0.012292814 -0.044237301 -0.0043639774 4279784339
0.014254924 -0.044102609 -0.0047781817 4280177038
0.016400222 -0.044710524 -0.0045191245 4279325083
0.018550884 -0.045317881 -0.0042611444 4279325338
0.021272358 -0.048151776 -0.0019881483 4280046734
0.024206357 -0.051726215 0.00095186941 4280308873
0.02736089 -0.056040615 0.0045572501 4280833154
0.030547459 -0.060352691 0.0081559513 4281946483
0.0024754331 -0.038185343 -0.011297998 4282405484
0.0044078082 -0.0380532 -0.011706297 4280242319
0.0070293732 -0.040903457 -0.0094192708 4279914899
0.0096723475 -0.043752126 -0.0071366928 4279784594
0.012159098 -0.04585389 -0.0055312454 4279325593
0.014301352 -0.046464331 -0.0052732765 4279980944
0.016448971 -0.047074236 -0.0050163767 4279980433
0.018973224 -0.049173035 -0.0034185518 4279128479
0.021890122 -0.052759759 -0.00048311614 4280112013
0.025215659 -0.057833128 0.0037864689 4281224833
0.028384946 -0.06215965 0.0073789656 4282403954
0.031389974 -0.06573987 0.010296065 4282863208
0.00024812296 -0.039160989 -0.012713228 4281488504
0.0025111251 -0.040525563 -0.011774347 4279587989
0.0046154447 -0.041141242 -0.011510395 4279260059
0.006897267 -0.042504303 -0.010575262 4279653013
0.00936459 -0.044614092 -0.0089706825 4279719060
0.01202542 -0.047470167 -0.0066982931 4279587989
0.014347438 -0.048830085 -0.005771352 4280177039
0.016680166 -0.050189085 -0.0048466083 4280504203
0.019394502 -0.053041115 -0.0025852229 4281159044
-0.0062937178 -0.038140617 -0.015333478 4280247163
-0.004216738 -0.038760871 -0.01506576 4279721099
-0.0022955686 -0.038629875 -0.015471981 4279655054
0.00028133392 -0.04150106 -0.013188818 4279457428
0.002546493 -0.042869851 -0.012253647 4279588498
0.0049916469 -0.044988021 -0.010649418 4278474403
0.0069371201 -0.044854872 -0.011060406 4279260314
0.0094064176 -0.046971135 -0.0094610844 4279719059
0.011891771 -0.049086131 -0.0078651067 4279980944
0.014393192 -0.051199935 -0.0062723774 4280832643
0.016910665 -0.05331251 -0.0046829451 4282338419
-0.006267488 -0.040474288 -0.01580248 4279785614
-0.004029762 -0.041849732 -0.014864986 4279719824
-0.001942344 -0.042471349 -0.014601023 4279588754
0.00031421334 -0.043845236 -0.013667383 4279587988
0.0024151243 -0.044465668 -0.013406076 4279260824
0.0048595853 -0.04659044 -0.011806579 4279130009
0.0071483739 -0.047961757 -0.010879474 4278408613
0.0094479062 -0.049332216 -0.009954473 4279653269
0.012112308 -0.05220554 -0.0076958518 4280177040
0.014798108 -0.055077262 -0.0054416345 4280700553
-0.010839239 -0.039294258 -0.01882045 4279719824
-0.008623559 -0.040675841 -0.017881747 4279653269
-0.0063971207 -0.042056508 -0.016945258 4279587478
-0.0040016919 -0.044191726 -0.015340664 4279522453
-0.0017510653 -0.045570523 -0.014409123 4279850130
0.00051032379 -0.046948485 -0.013479708 4279718549
0.0026162453 -0.047570758 -0.013221083 4279718549
0.0052342191 -0.050456397 -0.010959437 4279980688
0.0073589422 -0.051077142 -0.010704609 4280046223
0.0098375157 -0.0532059 -0.0091170128 4282990709
-0.012877498 -0.040997081 -0.019552566 4280179334
-0.010817792 -0.041625455 -0.019286361 4279522198
-0.0085999556 -0.043011263 -0.018351369 4278997663
-0.0062159859 -0.045153946 -0.016749324 4278801058
-0.0039739572 -0.046537824 -0.015819309 4279456663
-0.0015604645 -0.048678212 -0.014223298 4279456408
0.00054236874 -0.049303032 -0.013965761 4279849874
0.0028166547 -0.05068431 -0.013042266 4280177039
0.0052703917 -0.052821591 -0.011454495 4280569483
0.0077401921 -0.054957651 -0.0098700281 4281943424
-0.016966444 -0.042068027 -0.020550638 4278867868
-0.015059818 -0.041938804 -0.020954367 4279980688
-0.013005894 -0.042569883 -0.020688657 4279980944
-0.010796662 -0.043960772 -0.019755187 4279325848
-0.0087291934 -0.044590697 -0.019492177 4279260568
-0.0063459091 -0.046739973 -0.017894851 4278932894
-0.0041043945 -0.048128255 -0.01696798 4279063453
-0.0016915947 -0.050275274 -0.015376715 4279784338
0.00057408586 -0.05166164 -0.014454758 4280374154
-0.018722687 -0.045293778 -0.019942323 4279720843
-0.01695266 -0.044401318 -0.021016099 4278998684
-0.015043508 -0.044271924 -0.021420356 4279914899
-0.013134252 -0.044142395 -0.021824546 4279849618
-0.01077586 -0.046300165 -0.020227024 4279391638
-0.0085537173 -0.047694407 -0.019299502 4279260569
-0.0061657913 -0.04984992 -0.017708039 4279587989
-0.0039194562 -0.051242247 -0.016785434 4279653268
-0.0015020221 -0.053395502 -0.015200028 4280373389
0.00093149766 -0.055547535 -0.013617931 4282794359
-0.020217527 -0.050059736 -0.018000947 4279722118
-0.018711913 -0.047633573 -0.020411754 4279784084
-0.017222192 -0.045208313 -0.022819143 4279325338
-0.015315857 -0.04507912 -0.023222819 4279653014
-0.013556223 -0.044184931 -0.024292581 4279522453
-0.011054371 -0.047114342 -0.022033056 4279587733
-0.0085310824 -0.050042152 -0.019777959 4279653268
-0.0058315285 -0.053732686 -0.016862819 4279849874
-0.0037352107 -0.054364778 -0.016608981 4280045969
-0.020074148 -0.053178124 -0.017810708 4281488249
-0.018840123 -0.049209848 -0.021550482 4279522709
-0.017350014 -0.046778001 -0.023953076 4279391384
-0.015299845 -0.047416046 -0.023691567 4279325338
-0.01324423 -0.048053592 -0.023431109 4279391129
-0.010735232 -0.05099123 -0.021179577 4280438413
-0.0082048178 -0.053927302 -0.018932497 4281551744
-0.01869135 -0.05232536 -0.021359587 4280177294
-0.017054375 -0.050656237 -0.023094365 4279653014
-0.01499654 -0.051295944 -0.022836102 4279587733
-0.012640331 -0.053473674 -0.021252846 4279980178
-0.010268018 -0.055650122 -0.019672943 4280176529
-0.0075759925 -0.059363134 -0.01677255 4280565403
-0.016477872 -0.056090929 -0.020919854 4281552764
-0.01440705 -0.056731954 -0.020665981 4281225088
-0.012038182 -0.058915354 -0.019090263 4282862698
