# .PCD v0.7 - Point Cloud Data file format
VERSION 0.7
FIELDS x y z rgba
SIZE 4 4 4 4
TYPE F F F U
COUNT 1 1 1 1
WIDTH 984
HEIGHT 1
VIEWPOINT 0 0 0 1 0 0 0
POINTS 984
DATA ascii
0.014390256 0.03467945 0.031039027 4290520093
0.016800091 0.032825842 0.032883003 4290650909
0.019741792 0.02899739 0.0369334 4290454558
0.022366602 0.026488036 0.039505653 4290192929
0.024481121 0.025955027 0.039867409 4290127393
0.026061144 0.027396895 0.038023271 4290389023
0.027082494 0.030811977 0.03397797 4290389279
0.029003656 0.03093645 0.033607468 4290651164
0.031300873 0.029745774 0.034703784 4290716444
0.033990245 0.027240954 0.037263855 4290978074
0.036314316 0.026052089 0.03835512 4290912794
0.038845178 0.024206949 0.040176153 4289931554
0.042584762 0.018421387 0.046382114 4290062369
0.047984332 0.0073850974 0.058425277 4290193184
0.054291785 -0.0062714778 0.073372044 4289996578
0.057816375 -0.010731135 0.078080297 4289604134
0.0077490658 0.028005634 0.036514491 4289145644
0.0091948248 0.030114623 0.033931226 4289145898
0.010624554 0.032222603 0.031351149 4289866018
0.012038227 0.034329634 0.028774163 4289669925
0.014101267 0.03379092 0.029143957 4290127393
0.016338773 0.032591559 0.030248163 4290323744
0.019102264 0.029410452 0.033554919 4290258208
0.021718249 0.026891809 0.036122188 4290062369
0.023647353 0.027016612 0.035750009 4290062368
0.02539668 0.02780183 0.034644529 4290455069
0.026410762 0.031227333 0.030608984 4290585629
0.028323796 0.031351276 0.030240046 4288950314
0.030612534 0.030155657 0.031334698 4288884778
0.033483617 0.026981939 0.034621023 4289473574
0.036574766 0.023150574 0.038632922 4289211944
0.040089965 0.018002786 0.0440991 4290062369
0.044839691 0.0089032426 0.053935163 4289604389
0.050469741 -0.002827093 0.066673465 4289735459
0.056400426 -0.015209813 0.08012183 4289670179
0.058300033 -0.014414247 0.078987911 4287641398
0.0070798174 0.020338887 0.042346627 4286791229
0.0082472935 0.023784561 0.038289346 4288099123
0.0095461197 0.026564678 0.034973107 4288427053
0.010823529 0.029343465 0.031661041 4289147174
0.012243021 0.031457402 0.029087937 4289604899
0.01397882 0.032243565 0.02798654 4289866019
0.016047042 0.031703059 0.0283537 4290192929
0.018292241 0.030499894 0.029453127 4290062369
0.020373978 0.029960381 0.029817773 4290258718
0.022461124 0.029421275 0.030181421 4290062624
0.024374053 0.029545089 0.029812409 4289931553
0.025557797 0.032318331 0.026518801 4291174678
0.027645003 0.031779379 0.026882624 4290847259
0.029925246 0.030578893 0.027975528 4290520093
0.03335841 0.025408238 0.033444069 4290651164
0.03702759 0.019578813 0.039633445 4290520093
0.04172378 0.010445245 0.049456388 4290389278
0.047288857 -0.0013285503 0.062177107 4290127648
0.052749496 -0.012434844 0.074151665 4289800994
0.057282466 -0.020230461 0.082473665 4290063389
0.0085889213 0.020212419 0.03931655 4287968308
0.0098964125 0.023001775 0.036005296 4288754473
0.011343133 0.025123917 0.033431888 4289409058
0.012773804 0.027245082 0.030861622 4289735968
0.014188431 0.029365238 0.02829455 4290455068
0.015924379 0.030153681 0.027194789 4290651163
0.01782639 0.030276593 0.026827736 4289997344
0.019902509 0.02973449 0.027191831 4290127903
0.021630518 0.030522618 0.026093749 4289997088
0.023532622 0.030645721 0.025726819 4289997088
0.02488837 0.032762453 0.023171401 4290324509
0.026782442 0.032885171 0.022806123 4289669668
0.029051512 0.031679604 0.02389784 4290323999
0.032852829 0.02516276 0.030811293 4290585374
0.03767224 0.015330277 0.041351728 4290519583
0.043354459 0.0028484948 0.054784358 4290323488
0.049336985 -0.010290056 0.068923794 4290062114
0.054422267 -0.020105038 0.079413079 4289864998
0.057755515 -0.023946557 0.083358549 4287837239
0.0087744482 0.017295815 0.039600961 4287969074
0.0099301487 0.020762522 0.035562679 4288885798
0.011219528 0.023559468 0.032261632 4289279009
0.012813795 0.025019221 0.030427841 4289998875
0.014563207 0.025810631 0.029327085 4289933084
0.016307313 0.026601728 0.028227458 4289867548
0.017874889 0.028059952 0.026398962 4290063899
0.01960564 0.028850358 0.025301965 4289998364
0.021154486 0.030307498 0.02347718 4289997599
0.023051139 0.030430255 0.023111302 4289473829
0.024583906 0.031886481 0.021289714 4289342759
0.02665985 0.031342484 0.021652324 4289669925
0.029303152 0.028799787 0.024194514 4290127393
0.033488043 0.02092904 0.032543227 4290061859
0.039086297 0.0084003881 0.04596027 4290061603
0.045177393 -0.0054532774 0.060808316 4289865253
0.050787069 -0.017302524 0.073460318 4289931299
0.054686584 -0.023155961 0.079575405 4288229939
0.0081847347 0.017723851 0.03622181 4288231214
0.0094907582 0.020530496 0.032924168 4288755493
0.01109596 0.021995213 0.031091528 4289672219
0.012853466 0.022789214 0.029990876 4289934104
0.01460566 0.02358293 0.028891293 4290261268
0.016352534 0.024376407 0.027792742 4289933593
0.018094093 0.025169577 0.026695324 4289344798
0.020004034 0.025293048 0.026326774 4289736988
0.021561202 0.026755074 0.024503721 4290064153
0.023286734 0.027547443 0.023409493 4290193949
0.025006913 0.0283395 0.022316404 4290585628
0.027090665 0.027793832 0.022675836 4290454813
0.029928412 0.024574321 0.025935194 4290062113
0.034311708 0.01600964 0.034986898 4290061604
0.040305059 0.0021038577 0.049818665 4289930789
0.046411201 -0.011794504 0.064628698 4289341483
0.051244877 -0.021010507 0.074355125 4289341483
0.054749608 -0.025547717 0.079008684 4286267459
0.0067323111 0.013330042 0.038337305 4288557868
0.0079055987 0.01681954 0.034312241 4288624424
0.009209536 0.019634735 0.031021664 4289542169
0.010812312 0.021103635 0.029192822 4289345819
0.012730021 0.021227326 0.028822554 4289672474
0.014647797 0.021351086 0.028452327 4289672474
0.016565625 0.02147492 0.028082142 4289868568
0.018312637 0.022270605 0.026985327 4289345053
0.020227868 0.022394419 0.026615756 4289345053
0.021966893 0.023189757 0.025520539 4289671964
0.02370058 0.023984797 0.024426462 4289278754
0.02561051 0.024108466 0.024058061 4289736478
0.027704749 0.023561301 0.024413807 4290063134
0.031113215 0.018319342 0.029833628 4289997853
0.035702646 0.0090568401 0.039583556 4289997853
0.041713741 -0.0048934892 0.054376841 4290323743
0.047057476 -0.016155511 0.066260293 4290323743
0.051306181 -0.023391288 0.073797248 4288883758
0.0056960359 0.015795497 0.032779053 4289345308
0.0073176883 0.017269854 0.03094974 4288559653
0.0092432126 0.017393889 0.03057784 4289804309
0.011008877 0.018192654 0.029478865 4290131473
0.012769241 0.018991154 0.02838097 4290195733
0.014524296 0.019789379 0.027284155 4290195989
0.01661003 0.019239059 0.02763954 4290000148
0.01853051 0.01936313 0.027268896 4289280284
0.020451024 0.019487273 0.026898297 4289672984
0.022195518 0.0202851 0.025803735 4289476634
0.024113405 0.020409215 0.025433755 4289475614
0.026212743 0.019860137 0.025786789 4290129944
0.028317459 0.019311475 0.026138844 4290129178
0.031921998 0.013379775 0.032265447 4289866784
0.036522329 0.0040875301 0.0419899 4290128159
0.04254311 -0.0099078752 0.056746259 4289800229
0.047507495 -0.019861396 0.067158595 4289734694
0.051169597 -0.025104005 0.072516397 4287837238
0.010405935 0.018657364 0.026131133 4289805838
0.012320779 0.018780839 0.025761398 4290197264
0.014400829 0.018227892 0.02611615 4290131219
0.016486302 0.017675364 0.026469899 4289935379
0.018406689 0.017799417 0.026099263 4289346329
0.02032711 0.017923549 0.025728678 4289804309
0.022071686 0.018723547 0.024635768 4289804309
0.023989484 0.018847652 0.024265798 4289803033
0.0259073 0.018971844 0.023895888 4289671964
0.028193016 0.017745525 0.024967646 4289606429
0.032169163 0.010443885 0.032520182 4289867804
0.037150972 -0.00022850558 0.043660276 4289866783
0.043178741 -0.014269132 0.058380246 4289735968
0.047567092 -0.022230964 0.066609733 4289539109
0.05123039 -0.027490895 0.071953952 4286856764
0.013947446 0.01802402 0.023502635 4289675533
0.016194951 0.016790397 0.024578134 4288823833
0.018282894 0.016235925 0.024929797 4289347349
0.019857179 0.017716371 0.023116721 4289476888
0.021947879 0.017162213 0.023467956 4289934614
0.023687188 0.01796413 0.022377791 4289934614
0.025783312 0.017410483 0.022728104 4289803033
0.027884817 0.016857265 0.023077438 4290195478
0.032042727 0.0088540986 0.031331182 4289802524
0.037399948 -0.0032075681 0.043881454 4289539873
0.043621156 -0.017970677 0.059283651 4289409058
0.048015386 -0.025958266 0.067492023 4290063134
0.051290836 -0.029881936 0.071388409 4286333758
0.021473017 0.016961498 0.020862075 4289086228
0.023563486 0.016405193 0.021211796 4290000660
0.02547843 0.016529184 0.020842431 4289869333
0.027760575 0.015293939 0.021908207 4290130708
0.031916309 0.0072645321 0.03014235 4289869079
0.037081324 -0.004157152 0.041946657 4289869079
0.043487579 -0.019647714 0.05802945 4289541658
0.047879618 -0.027661543 0.06621822 4289736988
-0.0081768073 0.0079554133 0.031412721 4286987069
0.02499317 0.016334536 0.018243724 4290198793
0.027452935 0.014412679 0.020023236 4289346329
0.031789906 0.0056751892 0.028953681 4289411608
0.037140667 -0.0064651892 0.041445129 4289345563
0.043162536 -0.020643178 0.056061074 4289214748
0.047549695 -0.02868342 0.06423077 4288298024
-0.014955137 0.021263467 0.015029285 4288556593
-0.01360048 0.024133239 0.011768281 4290126118
-0.011341464 0.022190446 0.013580423 4290126628
-0.0083916113 0.016813016 0.019007549 4290257954
-0.0059490912 0.014186345 0.021534014 4291698194
-0.017691057 0.023758911 0.0099063125 4289995303
-0.016721424 0.02870648 0.0044822637 4289931298
-0.014883514 0.028823998 0.0041266195 4290389279
-0.012781348 0.027562605 0.0052159866 4289866019
-0.010264035 0.024233969 0.0084692724 4290519839
-0.0075823255 0.020217976 0.012438845 4290455069
-0.0054287501 0.01896007 0.013518501 4289800993
-0.0036927387 0.019769402 0.012434822 4288494884
-0.020271163 0.02559066 0.0055198632 4289275694
-0.019295234 0.03055378 0.00010614097 4290127648
-0.018230166 0.03482252 -0.0045783501 4290062113
-0.016421873 0.034938104 -0.0049282918 4289081129
-0.014217731 0.032978699 -0.0031155846 4289080619
-0.011324469 0.027562808 0.0022957623 4289473064
-0.0087999366 0.024223806 0.0055393409 4290193184
-0.0062484406 0.020886619 0.0087777711 4290389533
-0.0045257807 0.021697283 0.0076982798 4289801248
-0.002808366 0.022507655 0.0066199116 4289802524
-0.001392208 0.024699073 0.0041071409 4289872393
-0.022467393 0.025362143 0.003310265 4288228153
-0.021114122 0.028257584 6.9287606e-05 4290127138
-0.020029504 0.032540545 -0.004609108 4290324764
-0.019103285 0.037515696 -0.010001465 4291043864
-0.017311182 0.037630223 -0.010348295 4290913049
-0.015123766 0.035663236 -0.0085374238 4290847514
-0.012113664 0.029535115 -0.0024173334 4290847259
-0.0094663985 0.025490727 0.0015388904 4290716444
-0.0070663616 0.022835245 0.0040535573 4289800994
-0.0052145831 0.022953989 0.003695487 4289800484
-0.0037981309 0.025151879 0.0011875331 4290193948
-0.00210201 0.025963116 0.00011499412 4290128668
-0.00011014566 0.02538877 0.00047471561 4290848534
0.0023467615 0.022737339 0.0029786946 4290848534
0.0046693459 0.020779738 0.0047639776 4291633933
0.007008113 0.018823219 0.0065462422 4291831303
-0.025229078 0.028628938 -0.0024982644 4287704893
-0.023529019 0.029441698 -0.0035705906 4289406764
-0.02171332 0.029557468 -0.0039221873 4289669159
-0.020515006 0.033156201 -0.0078695212 4289931810
-0.019595739 0.038146131 -0.01324893 4290585883
-0.017682914 0.037563886 -0.012876097 4289408549
-0.015369903 0.034893874 -0.010351469 4289931553
-0.012229893 0.028050004 -0.0035285028 4290323998
-0.0099945106 0.02607966 -0.001731765 4290258974
-0.007882528 0.024805959 -0.00065414282 4290062623
-0.0061865523 0.02561922 -0.0017251717 4290127903
-0.0047857836 0.02782256 -0.0042250622 4290324764
-0.0031057112 0.028634954 -0.0052928962 4290651929
-0.0011302195 0.02805732 -0.0049316501 4290324253
0.0014628209 0.024701424 -0.0017176513 4290258463
0.0040827803 0.021347346 0.0014912151 4290651163
0.0067296624 0.017995069 0.004694934 4290847768
0.0087591447 0.017421283 0.0050459607 4289410589
0.010794058 0.016847933 0.005396002 4288889623
-0.025920685 0.030645046 -0.0072013508 4289734183
-0.023998003 0.030060919 -0.0068323538 4290192164
-0.022069808 0.029477224 -0.0064643626 4290126883
-0.020506095 0.030990191 -0.0082499254 4290389279
-0.019204993 0.033899765 -0.011467403 4290454814
-0.017410394 0.034014396 -0.011814756 4290520093
-0.015090127 0.031336132 -0.0092982184 4290127648
-0.012614194 0.02796126 -0.0060703699 4290389278
-0.010795053 0.028077705 -0.006422285 4290258718
-0.0089757927 0.028194228 -0.0067741703 4290127903
-0.0070143081 0.027613301 -0.0064121298 4290585883
-0.0054817386 0.029124931 -0.0081911637 4291043864
-0.0039598159 0.030635996 -0.0099681243 4290586139
-0.0021481961 0.030752357 -0.010318281 4289343013
0.00042777881 0.02738448 -0.0071093305 4288950314
0.0030306764 0.024018381 -0.0039054737 4289277223
0.0058187023 0.019957626 3.9711595e-06 4289473574
0.0086390078 0.015899027 0.0039072409 4290127649
0.011000834 0.013931111 0.0056751668 4289669668
0.012381159 0.016140347 0.0031846818 4289736478
-0.027951781 0.029762747 -0.0086690802 4288686898
-0.026495393 0.031981781 -0.011170497 4290453793
-0.024348106 0.029992161 -0.0093671829 4290650909
-0.022425536 0.029405892 -0.0089998022 4290912538
-0.020497438 0.028820058 -0.0086334264 4290847514
-0.018941376 0.030336929 -0.010414137 4290062369
-0.017010305 0.029751455 -0.010048209 4290389278
-0.014942538 0.028465984 -0.008968967 4290127905
-0.012997765 0.027881492 -0.0086055296 4289669668
-0.011457261 0.029397741 -0.01038302 4289996833
-0.0096488334 0.029513557 -0.01073282 4290193184
-0.0078403018 0.02962945 -0.011082586 4289997089
-0.0061762854 0.030444998 -0.012144031 4290651419
-0.0045175366 0.031260289 -0.013204395 4291109143
-0.0025640726 0.030676903 -0.012842294 4290716444
-0.00014711171 0.027996778 -0.010350638 4290520093
0.002757486 0.023221523 -0.0057341279 4290454814
0.0058577918 0.017750038 -0.0004156488 4290454814
0.0094833001 0.010185838 0.007020426 4290323999
0.011860598 0.0082123838 0.008780349 4290061858
0.013091344 0.011127375 0.0055840937 4288557104
-0.02975757 0.027477629 -0.0087006856 4289798699
-0.028514761 0.031111361 -0.012631958 4289537578
-0.027068678 0.033336215 -0.015126411 4289669669
-0.025285628 0.033449732 -0.015471821 4289146408
-0.02314147 0.031453427 -0.013672877 4290258463
-0.020858075 0.028755127 -0.011162766 4290716444
-0.018930104 0.028167164 -0.010797995 4290192928
-0.017124984 0.028282404 -0.011147434 4290127393
-0.015057649 0.026992535 -0.010071462 4289669669
-0.013514329 0.028513167 -0.011846196 4289931299
-0.01198164 0.030033227 -0.013618866 4289865763
-0.010181371 0.030148499 -0.013967106 4289997089
-0.0082392059 0.029561898 -0.013604655 4289866274
-0.0064360425 0.029677514 -0.013953331 4290193183
-0.0047799163 0.030494828 -0.015011583 4290520348
-0.0028294027 0.029909017 -0.014650552 4289669923
-0.00041592121 0.027219964 -0.0121649 4290258208
0.0027950741 0.021027088 -0.006143216 4290389023
0.0065280683 0.012734767 0.0019916818 4290323744
0.010807239 0.0023445338 0.012235178 4289996580
0.012881581 0.0017671175 0.012572614 4289866020
0.013302062 0.0081938915 0.0058495207 4286202434
-0.031995576 0.028013548 -0.01159726 4288032569
-0.03052799 0.030246051 -0.014090985 4289996579
-0.029076319 0.032477669 -0.01658161 4290585629
-0.027640563 0.03470834 -0.019069094 4289538853
-0.02586833 0.034821134 -0.019412432 4289211944
-0.023615364 0.032112099 -0.016903179 4289866019
-0.021217968 0.028699225 -0.013685435 4290585629
-0.019295637 0.028108705 -0.013321256 4290650908
-0.017367784 0.027518565 -0.012958049 4289997089
-0.015565317 0.027633693 -0.013306931 4290127904
-0.01402982 0.029158184 -0.015076883 4290062114
-0.012641165 0.031386469 -0.0175547 4289800483
-0.010573905 0.030092482 -0.016481869 4290062369
-0.008778993 0.030207459 -0.016829032 4289996834
-0.0065511167 0.028210718 -0.015050729 4290193183
-0.0047479533 0.028326405 -0.015399351 4290193439
-0.0026453994 0.027035015 -0.014333087 4290062368
-0.00022733957 0.024337551 -0.011855001 4290323744
0.0034524277 0.016015595 -0.0037298528 4290323744
0.0081428923 0.0034795254 0.0086181145 4290323489
0.012448896 -0.0069416314 0.01883146 4290127138
0.013574038 -0.0033029504 0.014932526 4288556338
-0.034008246 0.027146617 -0.013057668 4288685879
-0.03264166 0.030094407 -0.016261708 4289474084
-0.030968565 0.030915895 -0.017320801 4289800738
-0.029524524 0.033153504 -0.019804977 4290127648
-0.028096396 0.035390127 -0.022285966 4290389278
-0.026566911 0.03691804 -0.024051836 4290585629
-0.024328131 0.034199402 -0.021546513 4290650908
-0.021945093 0.030774714 -0.018334346 4290585629
-0.019911099 0.029473767 -0.017258709 4290062368
-0.017994259 0.028880779 -0.016895093 4290062368
-0.016333323 0.029702149 -0.017951323 4290389279
-0.01454423 0.02981649 -0.018297564 4289996578
-0.013027173 0.031344194 -0.02006058 4290716444
-0.011104461 0.030751918 -0.019697845 4290847258
-0.0088934116 0.028747475 -0.017921366 4290978074
-0.0066661537 0.026744163 -0.016147954 4290912538
-0.0047163069 0.026153872 -0.015790273 4290193439
-0.0027609989 0.025564037 -0.015433566 4290193184
0.00026492402 0.020035427 -0.010140872 4290062114
0.0045726411 0.008866284 0.00078162737 4290127138
0.0095964409 -0.0051183067 0.01450461 4290258209
0.013285708 -0.012750104 0.021873359 4290061348
0.013776097 -0.006279856 0.015166664 4287902519
-0.034328584 0.027109087 -0.015575761 4287443774
-0.032966789 0.030065225 -0.018772241 4289146154
-0.031298984 0.030888515 -0.019828659 4289277224
-0.029524613 0.031001208 -0.020172596 4290062114
-0.028093401 0.03324455 -0.022649258 4290062114
-0.026443858 0.034066916 -0.023701962 4289669669
-0.024440106 0.032759555 -0.022623984 4290127393
-0.022303004 0.030743264 -0.020838663 4290258718
-0.020274814 0.029437615 -0.019765303 4289931810
-0.018363621 0.028842065 -0.01940228 4290455069
-0.01670799 0.029665245 -0.020455835 4290127649
-0.01505759 0.030488167 -0.021508317 4290062113
-0.013684232 0.032728501 -0.02397326 4290258463
-0.011772532 0.032133281 -0.023610033 4289408295
-0.009431567 0.029413164 -0.0211307 4289931554
-0.0069251023 0.025986178 -0.017950237 4290389278
-0.0045383349 0.02326913 -0.015479584 4289866019
-0.0021300055 0.020553555 -0.013013033 4289931299
0.0015158206 0.012177188 -0.0049213963 4290061859
0.0061541833 -0.00044057891 0.0073766094 4290127138
0.011203934 -0.014466885 0.021061217 4289995814
0.014120501 -0.018584494 0.02489586 4289602858
-0.034026865 0.022802345 -0.013819035 4288032059
-0.032759998 0.026480706 -0.017721903 4288360498
-0.031084102 0.027306641 -0.018778263 4288884778
-0.029524971 0.028844846 -0.020543348 4289669923
-0.028090674 0.031094871 -0.023015633 4289604389
-0.026555348 0.032631733 -0.024775982 4290192929
-0.024791297 0.032743994 -0.02511774 4290323744
-0.022904802 0.032144502 -0.024751753 4289996835
-0.021012794 0.031545434 -0.024386775 4290062369
-0.019242976 0.031658318 -0.024729464 4289997088
-0.017342646 0.031059958 -0.024365962 4290062368
-0.015835945 0.032595515 -0.026120365 4290781979
-0.014339875 0.034130517 -0.027872689 4289342759
-0.01257759 0.03424326 -0.028213654 4288884779
-0.010109734 0.030802798 -0.025034091 4289277223
-0.0073274262 0.025943255 -0.020452579 4289866018
-0.0042145401 0.019665577 -0.014472157 4290454814
-0.00105327 0.013391089 -0.0085010231 4290192929
0.0032191239 0.0021500923 0.0023749201 4289931043
0.0075774752 -0.0090853386 0.013234362 4289799974
0.011707384 -0.018895876 0.0226753 4289799974
0.014153909 -0.020897616 0.024396734 4287575608
-0.033623036 0.017763086 -0.011365402 4287901243
-0.032342028 0.0214532 -0.015262759 4287967799
-0.030978899 0.024426743 -0.018446127 4288556849
-0.029414188 0.02596966 -0.020209033 4289146153
-0.027860019 0.027511952 -0.021969784 4289342249
-0.026316416 0.029053705 -0.02372846 4290061858
-0.024783384 0.030594807 -0.025484998 4290061858
-0.023260918 0.032135382 -0.027239447 4289538854
-0.021624204 0.032961473 -0.028286183 4289800483
-0.019865196 0.033073626 -0.028626801 4289996835
-0.017975878 0.03247238 -0.028262846 4290127393
-0.016612548 0.034724921 -0.030715911 4290781979
-0.015129659 0.036263395 -0.032462373 4290650908
-0.013242651 0.035662219 -0.032097727 4290650653
-0.010786507 0.032210171 -0.028924288 4290519584
-0.0075854249 0.025196647 -0.022246292 4290519583
-0.0040380247 0.016761702 -0.014175795 4290454048
2.0761043e-05 0.0061939843 -0.0040149326 4289995813
0.0044634081 -0.0057927035 0.0075311279 4289930279
0.0085343719 -0.015637539 0.016960055 4289930279
0.011895452 -0.021918435 0.022877805 4289275949
0.0143467 -0.023926381 0.024593325 4286332993
-0.032243367 0.018555829 -0.014942445 4287640379
-0.030874316 0.02153844 -0.018120373 4288556593
-0.029415268 0.023802903 -0.020587588 4289080618
-0.027630318 0.023916248 -0.020933587 4289734693
-0.026078429 0.025462789 -0.022690522 4290257954
-0.024656434 0.027725162 -0.025150351 4289930789
-0.023372333 0.030702796 -0.028311491 4289931043
-0.021860223 0.032247055 -0.03006053 4289735204
-0.020231348 0.033074874 -0.031104034 4289996578
-0.018347669 0.032471061 -0.030740676 4289800484
-0.016989317 0.034729816 -0.033187844 4289996578
-0.015511539 0.036272243 -0.034929961 4289800228
-0.013630193 0.035668556 -0.034565948 4289538343
-0.010898869 0.030775191 -0.029997937 4289734694
-0.0074127503 0.022310171 -0.021935653 4290061349
-0.0031315722 0.010275997 -0.010386777 4289930534
0.001389686 -0.002466727 0.0018437682 4289930534
0.0055531748 -0.013060156 0.011959437 4289733928
0.0090264231 -0.02007756 0.018568445 4289864489
0.011769172 -0.023521502 0.021678578 4286594624
0.018674809 -0.02742118 0.024712911 4286071364
-0.032356787 0.01708883 -0.0160404 4287640379
-0.031095568 0.020799356 -0.019917224 4288818479
-0.029527713 0.022351092 -0.021674126 4289537834
-0.027629096 0.021745464 -0.021315709 4289668648
-0.025957886 0.022577809 -0.022366088 4290061349
-0.024530109 0.024846973 -0.024822032 4289930789
-0.023240071 0.02783365 -0.027977673 4289538344
-0.02172238 0.02938262 -0.029724529 4289603878
-0.02008808 0.030212922 -0.030767441 4288753708
-0.01832917 0.030325117 -0.031108011 4288950314
-0.016835202 0.031872809 -0.032850016 4289080874
-0.015216623 0.032702386 -0.033889677 4289931298
-0.013465401 0.032814357 -0.034228548 4290192419
-0.010730024 0.027906096 -0.029673032 4290061093
-0.0065244026 0.015830085 -0.018137928 4290061093
-0.0019355975 0.0023263209 -0.0052241245 4290061094
0.0027552247 -0.011170793 0.0076700272 4290061094
0.0063376091 -0.018929202 0.01496757 4289210669
0.0093631484 -0.023818415 0.019467395 4286594623
-0.033655819 0.011177376 -0.01255944 4286723908
-0.032575693 0.016343692 -0.017842468 4288489784
-0.031099956 0.018622067 -0.020303059 4289014829
-0.02952918 0.020178234 -0.022057187 4289080108
-0.027741779 0.020291692 -0.022403695 4289668903
-0.026186761 0.021847086 -0.024154674 4289407273
-0.024523359 0.022681115 -0.02520179 4289734183
-0.022986803 0.024235478 -0.026949007 4289145389
-0.021336515 0.025068907 -0.027993485 4289145389
-0.019691449 0.025902046 -0.029036837 4288753199
-0.018051606 0.026734943 -0.030079108 4288818988
-0.01654936 0.028287519 -0.031819448 4288950059
-0.014787648 0.028400041 -0.032160442 4289408038
-0.013025817 0.028512672 -0.032501385 4289734694
-0.0098597892 0.02143163 -0.025866605 4289865509
-0.0054953247 0.0086005367 -0.013665824 4289799719
-0.0004511252 -0.0071003549 0.0013024034 4289799719
0.0035235621 -0.01704273 0.010679845 4288883758
0.0065154992 -0.021949407 0.015174426 4287444794
-0.034488987 0.014765427 -0.01858921 4287181378
-0.032794204 0.015603192 -0.019641146 4288293689
-0.031212676 0.017164268 -0.021394126 4288687919
-0.029641684 0.018724756 -0.023144994 4289211688
-0.027967829 0.019561458 -0.024192672 4289407273
-0.02629916 0.020397881 -0.025239229 4289538854
-0.024635691 0.021234063 -0.026284706 4289668903
-0.022977445 0.022070004 -0.02732911 4289537834
-0.021324422 0.022905705 -0.028372426 4289341739
-0.019549783 0.023018761 -0.028716149 4289210668
-0.017645504 0.022409683 -0.028361827 4288622383
-0.016000118 0.023245176 -0.029403452 4289473063
-0.014359985 0.024080468 -0.03044403 4289342504
-0.012174863 0.022028575 -0.028697666 4289931044
-0.0087114237 0.013483815 -0.020690981 4289996834
-0.0043260194 0.0006150566 -0.0085242493 4289866018
0.00015603751 -0.012247469 0.0036238926 4289996069
0.0036967732 -0.020056445 0.01089282 4289668903
-0.029975291 0.018722774 -0.025632668 4288426544
-0.02819347 0.018835815 -0.025978148 4288950059
-0.026527431 0.019674206 -0.027022554 4289211688
-0.024747979 0.019787269 -0.027367437 4289538089
-0.023210969 0.021350274 -0.029108137 4288948784
-0.021436591 0.021463199 -0.029451896 4288948784
-0.019535404 0.020851655 -0.029098719 4289014063
-0.017499391 0.019516135 -0.028050166 4289210668
-0.015848588 0.020354113 -0.029091198 4289603370
-0.014203038 0.02119186 -0.030131135 4289800229
-0.011875805 0.018409835 -0.027695887 4289669414
-0.0082664266 0.0091157407 -0.019016057 4289538599
-0.0038734786 -0.0037916265 -0.0068806983 4289538599
0.0004706718 -0.015969325 0.0045427792 4289603878
0.0035731085 -0.021632124 0.009713972 4289210668
-0.028758008 0.020297671 -0.029853771 4287573823
-0.026871081 0.019682592 -0.029499765 4288425013
-0.025097098 0.019795289 -0.029843606 4288556083
-0.023322981 0.019908076 -0.030187406 4288686388
-0.021672521 0.020747932 -0.031226987 4289013808
-0.019647811 0.019407211 -0.030179616 4289144623
-0.017741431 0.01879389 -0.029829059 4289668649
-0.015829545 0.018181024 -0.029479489 4289210668
-0.014046732 0.018294843 -0.029824607 4289472553
-0.011577729 0.014778348 -0.02670373 4289472553
-0.0081025288 0.0061822757 -0.018739261 4289407274
-0.0037074089 -0.0067639947 -0.0066342782 4289341739
0.00020329654 -0.016801704 0.0026855469 4289341739
0.0034494884 -0.023207504 0.0085353404 4289341483
-0.023676846 0.019924728 -0.032655872 4287965504
-0.021784414 0.019308148 -0.032304436 4288227898
-0.020012815 0.019420942 -0.032647617 4288555573
-0.018241074 0.019533848 -0.032990754 4289668904
-0.016205844 0.018189626 -0.031948619 4289930278
-0.014159795 0.016846212 -0.030908562 4289995558
-0.01169176 0.013318807 -0.027795816 4289538088
-0.0080789998 0.0039684847 -0.019159865 4289538088
-0.0038268045 -0.0082889423 -0.0077752387 4289210668
0.00022646785 -0.019084912 0.0022117682 4289210668
0.0031781383 -0.024055053 0.0066674305 4289538088
-0.020629387 0.020905893 -0.036492903 4287901244
-0.018997323 0.021749018 -0.037525438 4289014064
-0.016712938 0.018938011 -0.03510204 4289734184
-0.014406998 0.016128467 -0.032682747 4290061859
-0.011668872 0.011129115 -0.028197778 4289668904
-0.0080557726 0.0017506294 -0.019583518 4289734183
-0.0038039275 -0.010543682 -0.0082271071 4289930023
0.00010442734 -0.020642262 0.0010465905 4289864743
0.0030547678 -0.025627661 0.005490859 4288818479
-0.014921863 0.016880946 -0.035831138 4287769408
-0.012056399 0.011133153 -0.030667683 4288031294
-0.0083116144 0.00099354982 -0.021385783 4287966014
-0.0039234012 -0.012070235 -0.0093692793 4288358203
0.00012717769 -0.022931416 0.00056835636 4288358203
0.0029314347 -0.027199995 0.0043144999 4287377728
0.010302518 -0.075284287 -0.013826987 4288229684
0.0075958632 -0.073876873 -0.017224785 4287509564
0.0098685473 -0.075317472 -0.016314179 4287510073
0.0031944327 0.016131643 0.029793153 4283985719
0.0046618655 0.018287413 0.027240595 4284250664
0.0064220652 0.019087881 0.026144175 4284578084
0.0021780618 0.01864451 0.024266453 4284120359
0.003781341 0.020126272 0.022447273 4284057374
0.0056824237 0.020248618 0.02208001 4284056608
0.0078974329 0.019012595 0.023161553 4284316963
-0.00014226884 0.018334033 0.022023998 4284119593
0.0011637956 0.021183832 0.018759534 4284189464
0.0030539632 0.021305382 0.018394308 4283730209
0.0049442165 0.021427015 0.018029124 4283731738
0.0069912933 0.020867335 0.018386703 4284122654
0.0087249726 0.021670522 0.017298877 4284251429
0.010939684 0.02043031 0.0183772 4284185384
0.013165195 0.019190863 0.019453488 4284317473
0.015736479 0.016590761 0.021969106 4284515863
-0.0021645278 0.016664436 0.02123362 4284117299
-0.00084724277 0.019523552 0.017973583 4283927324
0.00074568763 0.021013221 0.01616298 4283858473
0.0024791956 0.021818323 0.015076669 4283857199
0.0043612979 0.021939417 0.014713047 4283857964
0.0064000562 0.021377014 0.015070558 4283990054
0.0084442571 0.020815028 0.015427066 4284121124
0.010493916 0.020253444 0.015782634 4284186404
0.012878239 0.018326202 0.017576236 4284186658
0.014944118 0.017765859 0.017928746 4284251429
0.016845413 0.017888645 0.017561767 4284183853
0.018574078 0.01869406 0.016476868 4284248623
0.020823509 0.017452074 0.017545482 4284378929
-0.0030009225 0.018550301 0.016465735 4284378674
-0.0014051534 0.020044362 0.014657892 4283859749
0.00017998368 0.021537818 0.012852166 4283799313
0.0020565353 0.021658463 0.012489544 4283600158
0.0039331727 0.021779178 0.01212696 4283598628
0.0059662908 0.021214217 0.012483874 4283993368
0.0080048591 0.020649686 0.012839796 4283990563
0.010210626 0.01940017 0.013913151 4284055843
0.012427211 0.018151388 0.014984518 4284122143
0.01432031 0.018273553 0.014619054 4284187169
0.015703987 0.020450542 0.012103014 4284122399
0.017761622 0.019887639 0.01245556 4283860513
0.019824672 0.01932512 0.012807164 4283730973
0.022248864 0.017394321 0.014588365 4283860004
0.024328064 0.01683305 0.014936933 4284185639
0.0014837421 0.022195883 0.0091902092 4284315944
0.0033522323 0.022316065 0.0088291895 4284251939
0.0055332445 0.021060424 0.0099038482 4284251684
0.0077250861 0.019805524 0.010976527 4284317474
0.0099277273 0.018551441 0.012047134 4284056608
0.011976894 0.017985577 0.012399463 4284122144
0.013530597 0.019481895 0.010603555 4283991074
0.015073609 0.020977603 0.0088097733 4283926814
0.016778242 0.021785839 0.00773279 4283665183
0.019177631 0.019846784 0.0095137488 4283667734
0.021593157 0.017908858 0.011291659 4283860003
0.024024803 0.015972098 0.013066478 4283989033
0.027021814 0.011977743 0.016976248 4284250664
0.031908654 0.0011251234 0.028001113 4284250918
0.038200557 -0.01452297 0.043990776 4284316709
0.043851446 -0.027420159 0.057112321 4284315688
0.047472365 -0.03276987 0.062397942 4283985463
0.0074456967 0.01896598 0.0091167055 4284707113
0.009645205 0.017707335 0.010184571 4284251683
0.011199102 0.019207928 0.0083918981 4284188444
0.012909088 0.020018505 0.0073154131 4283994643
0.014274813 0.022207316 0.0048128739 4283857709
0.016313113 0.021638798 0.0051658042 4283857708
0.018706508 0.019692829 0.0069429111 4283858473
0.021293562 0.017059291 0.0094289742 4283990308
0.024262566 0.013049994 0.013334071 4284122144
0.027995402 0.006289266 0.020077033 4284252193
0.033637829 -0.0073501989 0.033914655 4284317728
0.039575934 -0.021670718 0.048441641 4284317728
0.04448105 -0.031856496 0.058690175 4284316963
0.047723912 -0.035847548 0.062542759 4283920693
0.050409995 -0.037773836 0.064263977 4283655748
0.012288656 0.020568414 0.0040372889 4284187168
0.01398534 0.021380393 0.0029651048 4283994389
0.015848689 0.021500781 0.0026054904 4283730464
0.018236089 0.019547904 0.0043787546 4283796253
0.0211717 0.015523357 0.0082801804 4283926304
0.025039777 0.0080471113 0.015724972 4283990053
0.029880568 -0.0028781332 0.026705289 4284056099
0.035919782 -0.017940264 0.041922294 4284056099
0.040948529 -0.028853137 0.052866511 4284120869
0.044536926 -0.034239825 0.058131658 4283723578
0.013696242 0.020558033 0.0011208206 4284249643
0.015556797 0.020678233 0.00076174084 4283794469
0.018289898 0.01733204 0.0039492147 4283860514
0.021581423 0.011908282 0.0092579201 4283990818
0.026534764 0.0002508238 0.020932773 4283990309
0.032309607 -0.01417169 0.035421029 4283990309
0.037826754 -0.027201612 0.048473179 4283990309
0.04156667 -0.033300567 0.054438636 4284055334
0.044401854 -0.035935011 0.056863889 4283590723
0.01526529 0.019860296 -0.0010785656 4283792428
0.018343389 0.015112009 0.0035166303 4283858729
0.022521157 0.0061944425 0.012347458 4283923753
0.028565725 -0.0096698999 0.02823122 4283923753
0.034369048 -0.024136249 0.042679019 4283923753
0.038619518 -0.032342065 0.050754763 4283791919
0.041807935 -0.036375981 0.054587759 4283658298
0.0158315 0.015557779 0.00061732531 4281495134
0.019441471 0.0087019168 0.0073170988 4282939964
0.024696713 -0.0044278204 0.020356202 4282939964
0.030592563 -0.019642826 0.035490692 4283069503
0.035513289 -0.03066719 0.04637558 4283659829
0.038855903 -0.035413202 0.050908364 4283592763
0.042048506 -0.039459836 0.054730505 4283525444
0.017642923 -0.060104016 0.0088738389 4283460673
0.017514616 -0.061729949 0.0076575652 4283459653
0.0079341047 -0.063411698 -0.00029339641 4283132488
0.010072034 -0.064046115 -1.5191734e-05 4282019924
0.011903886 -0.063156709 -0.0010606721 4282410584
0.0075073205 -0.063492388 -0.0028188531 4283000399
0.0094866566 -0.06336531 -0.0032014698 4282411349
0.011777241 -0.064765841 -0.0022644741 4281821533
0.0021413453 -0.060803566 -0.0097226016 4282870093
0.0045404434 -0.062984318 -0.0081270039 4282607444
0.0069556795 -0.06516391 -0.0065344167 4282476374
-0.00036512688 -0.060201596 -0.012503304 4283199044
0.0017284192 -0.060847905 -0.012223456 4282411858
0.0039744414 -0.06226461 -0.011288133 4282019158
-0.0031317882 -0.058037985 -0.016589902 4283331133
-0.00091319904 -0.059461009 -0.015652768 4282672723
-0.0066854917 -0.051194977 -0.024596762 4284312373
-0.0036702715 -0.057279203 -0.019727737 4282612289
-0.0016015582 -0.057931561 -0.019446507 4282541909
-0.009909872 -0.045856599 -0.031270754 4282220608
-0.0069417506 -0.05196121 -0.026405953 4282220608
-0.0042077228 -0.056507129 -0.022855625 4282020433
-0.0022885278 -0.056384455 -0.023227029 4282280279
-0.01177961 -0.048281621 -0.031394113 4284180283
-0.0098956339 -0.048161563 -0.031758983 4282742848
-0.0070619881 -0.053503077 -0.027559686 4281696583
-0.0044674501 -0.057281945 -0.024670552 4282347088
-0.0025510937 -0.057159457 -0.025041416 4281429344
-0.0067757554 -0.057391915 -0.026762025 4282740044
0.014011487 0.013217259 0.00054666679 4281879418
0.016396355 0.011238042 0.0023003379 4279390108
0.020885121 0.00086177513 0.012503704 4279259549
0.026514459 -0.013707262 0.02691493 4279259549
0.032077201 -0.02756938 0.040601067 4279326359
0.036109023 -0.035130482 0.047940969 4281425263
0.014396444 0.0095885582 0.0015199687 4281551488
0.017986588 0.002687864 0.0081901513 4279324064
0.023194732 -0.010527551 0.021174949 4279389599
0.028504904 -0.023736272 0.034140125 4278931618
0.032662865 -0.032026518 0.042173609 4279588244
0.03633967 -0.038207944 0.048091099 4282014313
0.015453447 0.0031287931 0.0052922918 4281223558
0.019744344 -0.0066100806 0.01474916 4281092234
0.024978612 -0.01986507 0.027697248 4279455389
0.029433299 -0.029593166 0.037122667 4279651994
0.033247162 -0.036500867 0.043733291 4280570249
0.03656964 -0.041293841 0.04823485 4281750389
0.021669116 -0.016662389 0.021972494 4281092998
0.026064867 -0.026424777 0.031385884 4280961929
0.029655069 -0.032651108 0.037289925 4280438923
0.033114772 -0.038168173 0.042486265 4281160574
0.03643591 -0.042976428 0.046976425 4282012528
0.026628869 -0.030888993 0.032958262 4281486463
0.029700194 -0.035009053 0.036753491 4281094783
0.033161066 -0.040543403 0.041936286 4281488504
0.036483541 -0.045366775 0.046414517 4282209643
0.024313271 -0.031946663 0.031424992 4283189864
0.026845267 -0.033948842 0.033125281 4281159298
0.029920805 -0.038081687 0.036909759 4280897924
0.033207037 -0.042922717 0.041383244 4281750134
0.036349684 -0.047050964 0.045154899 4282537574
0.024524294 -0.03500874 0.031591617 4282405228
0.027233955 -0.037730101 0.033980638 4281160319
0.030491987 -0.042588245 0.038447835 4280439434
0.03396593 -0.048156466 0.043601468 4281028739
0.036758836 -0.050872121 0.045974679 4282471783
0.024904747 -0.038794573 0.032445453 4282536299
0.027621631 -0.041524153 0.034826428 4281881713
0.030886371 -0.046397042 0.039280683 4281619574
0.034010559 -0.050552648 0.04303582 4281749368
0.021912649 -0.036983285 0.028143236 4282929254
0.025114272 -0.041875664 0.032597855 4282143344
0.028008297 -0.045330931 0.035662621 4282012528
0.030929176 -0.048784349 0.038722284 4282078318
0.019442573 -0.037308026 0.025926167 4282273648
0.022451609 -0.041497532 0.02968323 4281618808
0.025492884 -0.045684893 0.033434197 4280635273
0.028221533 -0.048431072 0.03579957 4280701319
0.016822767 -0.036900599 0.023023695 4282863209
0.019642234 -0.040382702 0.026085952 4282077554
0.022655454 -0.044584963 0.029832212 4280963458
0.025870485 -0.049506839 0.034260944 4281094274
0.028434101 -0.051539581 0.035930194 4280701319
-0.037710983 0.020465536 -0.02883685 4279585948
-0.036045711 0.021305578 -0.029879808 4280109209
-0.034175541 0.020689132 -0.029522866 4280305304
-0.032299828 0.020073121 -0.029166935 4281679499
0.020005252 -0.044190098 0.026927413 4281946739
0.022858642 -0.047680739 0.029974883 4281619064
0.025908299 -0.051893588 0.033704259 4281750134
0.027957696 -0.051761169 0.033308752 4282011253
-0.040602762 0.012957241 -0.023627551 4282471018
-0.039685871 0.019647429 -0.030268965 4278930088
-0.032841299 0.021554086 -0.033033494 4279191463
-0.031081285 0.021665592 -0.033374853 4279323809
-0.027560811 0.021888889 -0.034057472 4281606824
0.014251556 -0.038822014 0.019606208 4282798183
0.017050192 -0.042327274 0.022655753 4282078064
0.020039558 -0.046557207 0.026386565 4282077808
0.022894636 -0.050058622 0.029425437 4282274159
-0.041748617 0.019567654 -0.032396905 4279454623
-0.040376339 0.022610534 -0.035529293 4278471344
-0.038826589 0.024186594 -0.037263148 4278994603
-0.037083272 0.024296748 -0.037601497 4279127204
-0.035130363 0.022941995 -0.036547471 4278272954
-0.033273954 0.02232038 -0.036191158 4278864299
-0.031632181 0.023163479 -0.037226066 4278602669
-0.029995609 0.024006378 -0.038259953 4279127459
-0.028133366 0.023385357 -0.037904516 4279389854
-0.026147503 0.022033207 -0.036856566 4279585693
0.014282361 -0.041169513 0.019081259 4282143853
0.017243691 -0.045414437 0.022807453 4281947249
0.020073563 -0.048928399 0.025842739 4282012528
-0.043799508 0.019497633 -0.034520157 4279980179
-0.042327683 0.021814149 -0.03695054 4278340528
-0.040775198 0.023394551 -0.038681641 4278865064
-0.039034855 0.023504391 -0.03901951 4278800294
-0.037294332 0.023614343 -0.039357334 4278603433
-0.035449099 0.022989726 -0.039000615 4278930089
-0.033491094 0.021631029 -0.037950847 4278602414
-0.031961869 0.023210457 -0.039677143 4278471344
-0.030218001 0.023320973 -0.040015347 4278668458
-0.028589267 0.024165558 -0.041045956 4278537389
-0.026729841 0.023542322 -0.040691622 4278733738
-0.024864916 0.022919508 -0.040338293 4279323298
-0.0229945 0.022297097 -0.03998591 4280042909
-0.021118592 0.021675175 -0.039634563 4280107424
-0.019237202 0.021053709 -0.039284199 4278854863
0.0086367168 -0.035730515 0.011788251 4282863463
0.011537738 -0.039992515 0.015515903 4282208623
0.014312867 -0.04352111 0.018553311 4282012274
0.017275695 -0.047778893 0.022269199 4282012273
0.020107247 -0.051303614 0.025295833 4282208623
-0.045396972 0.015748192 -0.033158638 4282143089
-0.044363853 0.021760512 -0.039064787 4278669478
-0.04281133 0.023345187 -0.040792704 4278406828
-0.032290805 0.023266379 -0.042121455 4278799274
-0.030552436 0.023376517 -0.042458616 4278668203
-0.028928991 0.024222951 -0.043486595 4278471344
-0.027192999 0.024333138 -0.043823145 4278667949
-0.021732535 0.02319332 -0.043455012 4278599098
-0.019862149 0.022568956 -0.043104202 4280042908
-0.017592769 0.019739622 -0.040691227 4281157769
-0.015435662 0.017646719 -0.038969524 4282268803
0.0085111 -0.037328716 0.010592604 4282405484
0.011721555 -0.043070991 0.015676608 4282143599
0.014501039 -0.046610106 0.018704822 4282012273
0.017307393 -0.05014741 0.021727908 4282143088
0.019813936 -0.052216712 0.023382951 4282928999
0.044035628 -0.07444559 0.041526526 4282275689
-0.045506667 0.014316432 -0.034230459 4280242064
-0.044472326 0.020346129 -0.040123589 4278735269
-0.043106589 0.023414467 -0.043234944 4278407593
-0.034244914 0.022482775 -0.043532208 4278864809
-0.032399904 0.021853909 -0.043178618 4278602158
-0.030661639 0.021964028 -0.043515772 4278536879
-0.029268008 0.024289262 -0.045920491 4278667948
-0.027655084 0.025137233 -0.046944663 4278274229
-0.025927093 0.02524698 -0.047279611 4278404278
-0.023953054 0.023881199 -0.046239257 4278796469
-0.020100731 0.021889413 -0.044851169 4278732208
-0.018227834 0.021263141 -0.04450243 4278602669
-0.016082112 0.019162983 -0.042783543 4278865064
-0.013101999 0.01264216 -0.03695745 4278996134
-0.0086830892 -0.0012434646 -0.024295395 4278996134
-0.0037370585 -0.017332371 -0.0096009616 4279324063
0.00017177314 -0.027521949 -0.00039719883 4279061668
0.0026848875 -0.030343767 0.0019624298 4280176274
0.0055190772 -0.034636278 0.0056828801 4281946738
0.008385513 -0.038926613 0.0093971733 4281946994
0.011749584 -0.045422096 0.015149569 4281946993
0.014530744 -0.048971955 0.018169137 4282012528
0.043711662 -0.075425327 0.039569885 4282274669
-0.045088384 0.0084317178 -0.031145534 4280439178
-0.044036757 0.014479805 -0.037028737 4278669988
-0.042747755 0.018299669 -0.040828422 4278866084
-0.04138932 0.021376269 -0.04393167 4279062688
-0.039953407 0.02371005 -0.046340011 4279127459
-0.03833067 0.024560273 -0.047364913 4279062178
-0.03650501 0.023927808 -0.047009394 4278865318
-0.034780566 0.024036836 -0.047344029 4278733994
-0.032727759 0.021923443 -0.045612827 4278733738
-0.031107049 0.022773851 -0.046637028 4278733738
-0.027998682 0.025214363 -0.049369223 4278930089
-0.026156057 0.024583522 -0.049016573 4278603433
-0.024430733 0.02469318 -0.04935094 4278341294
-0.022328872 0.022583468 -0.04762882 4278471344
-0.020467091 0.021954194 -0.047279686 4278799018
-0.01846901 0.020585844 -0.046247043 4278602669
-0.016059566 0.017000353 -0.043164656 4278537388
-0.012533654 0.0075034872 -0.034620069 4278472363
-0.0078269616 -0.0079005882 -0.020625759 4278472363
-0.0032907054 -0.021819774 -0.0080179162 4278603434
0.00019361451 -0.029823285 -0.00088455621 4278800294
0.0028555095 -0.03339209 0.0021494022 4278996643
0.0056938902 -0.037697364 0.0058590434 4280438668
0.0085645244 -0.042000484 0.0095625874 4281750133
0.011622358 -0.047039296 0.013939733 4281946739
0.014402512 -0.050600056 0.016951174 4282536043
0.040360935 -0.072856963 0.034651972 4282471273
0.043575205 -0.077136263 0.038290359 4282143599
-0.044672038 0.0025211796 -0.028079944 4280504968
-0.043512646 0.0078434013 -0.033262599 4279522198
-0.042204175 0.011675283 -0.037057776 4278735268
-0.040922288 0.015505591 -0.040847719 4278473129
-0.039469954 0.017846921 -0.043254331 4278472619
-0.037932295 0.019443829 -0.044969246 4278799784
-0.036301304 0.020296751 -0.045994014 4278865064
-0.034675483 0.021149445 -0.047017694 4278602668
-0.032945644 0.021258879 -0.047353327 4278537388
-0.031439465 0.022854123 -0.049061812 4278733994
-0.026744474 0.026151758 -0.05280479 4278799019
-0.024784733 0.024776362 -0.051768333 4278930088
-0.022814143 0.023401719 -0.050733857 4278274739
-0.018448483 0.018429857 -0.046622582 4278602669
-0.015370611 0.011126172 -0.040137306 4278472108
-0.011286851 -0.0013632774 -0.028889822 4278603178
-0.0065570474 -0.016811404 -0.014934845 4278603178
-0.0029870644 -0.02558336 -0.0071283733 4278800294
0.00021515787 -0.032128673 -0.001374952 4279063454
0.0028787367 -0.035708208 0.0016503688 4280308619
0.0058680624 -0.040766876 0.0060289782 4279718549
0.0087428838 -0.045082677 0.0097216908 4280045968
0.036863193 -0.069521546 0.029074697 4282144109
0.040225692 -0.074554533 0.033382416 4282078319
0.043064855 -0.077370822 0.035667203 4282143598
0.045546159 -0.078709856 0.036605045 4282209133
-0.044432942 -0.001922112 -0.026412716 4282601579
-0.043171469 0.0026695877 -0.030897072 4279260059
-0.041569892 0.0042745359 -0.032621332 4278801314
-0.040265869 0.0081170313 -0.036407284 4278866849
-0.038693365 0.0097202994 -0.038125701 4278867104
-0.037434507 0.013560142 -0.041902743 4278408358
-0.034464646 0.017508198 -0.046011783 4278800039
-0.032835949 0.018363349 -0.047034353 4278865573
-0.031547684 0.021453287 -0.050110266 4279061923
-0.029937442 0.022307474 -0.051129095 4279127714
-0.020686392 0.019134566 -0.049389683 4278341039
-0.01790626 0.013294432 -0.044276364 4278603433
-0.013884578 0.00076410919 -0.033045191 4278603433
-0.0093641244 -0.013990778 -0.019791156 4278537898
-0.0052905045 -0.025765408 -0.0092763184 4278603688
-0.0025431775 -0.030102845 -0.0055692689 4279915919
0.00023639575 -0.034438107 -0.0018683742 4281226363
0.0031948201 -0.039514024 0.0025044885 4281357178
0.0061908327 -0.0445874 0.0068701133 4281357179
0.0089205913 -0.048173297 0.0098745003 4281357179
0.036729347 -0.071203545 0.027816748 4282012784
0.039906375 -0.075511381 0.031442292 4282078063
0.04255522 -0.077596352 0.03305079 4281552764
-0.044370096 -0.0048850961 -0.02613405 4281946483
-0.043102387 -0.00028000399 -0.030609721 4279587478
-0.041402403 0.00058116764 -0.031644892 4279390873
-0.039803091 0.0021903291 -0.033365287 4279128733
-0.038214315 0.0037989691 -0.035083607 4278735524
-0.036736939 0.0061548725 -0.037485037 4278866339
-0.035171915 0.0077622011 -0.0391986 4278538663
-0.033829864 0.010864027 -0.042278513 4278276269
-0.03250907 0.013964623 -0.045354217 4278341293
-0.031209562 0.017063949 -0.048425734 4278341804
-0.029931325 0.020161994 -0.051492997 4279062434
-0.028440487 0.021765117 -0.053191788 4279193503
-0.02696025 0.02336761 -0.054888427 4279258783
-0.025368299 0.024223024 -0.055901803 4279193248
-0.023406673 0.022839157 -0.054872304 4278734759
-0.020540673 0.016232761 -0.049084187 4278538154
-0.017105047 0.0066454597 -0.040587075 4278669224
-0.012535598 -0.0089040212 -0.026671033 4278669224
-0.0082605556 -0.022209201 -0.014812272 4278800294
-0.0049958788 -0.029544074 -0.0083962409 4279260314
-0.002382718 -0.033148747 -0.0053779795 4280833409
0.00025735423 -0.036751632 -0.0023647915 4281422713
0.0030707009 -0.0410976 0.0013196934 4281619319
0.0060653798 -0.046186212 0.0056739477 4281881203
0.0087941326 -0.04978301 0.0086702202 4282209134
0.034166127 -0.071533754 0.025618074 4281815923
0.036958016 -0.074370697 0.027898485 4281881714
0.039955288 -0.077948645 0.030844076 4282471528
-0.044395175 -0.007105574 -0.026547998 4282471018
-0.04312392 -0.0024873167 -0.031014428 4279849364
-0.041328531 -0.0023743734 -0.031363275 4279390364
-0.039723661 -0.00076056272 -0.03308145 4279062943
-0.038031284 0.00010245666 -0.034113355 4279194269
-0.036646206 0.0032154433 -0.037195139 4279063199
-0.035075601 0.0048273876 -0.038906444 4278801059
-0.033515546 0.0064388104 -0.040615663 4278735524
-0.031966027 0.0080496147 -0.042322718 4278735524
-0.029240962 0.013517208 -0.047773689 4278538918
-0.027964707 0.016623897 -0.050833911 4278276524
-0.026590299 0.01898044 -0.053209879 4278669733
-0.02498759 0.019838728 -0.054223731 4279193504
-0.022890914 0.017702598 -0.052520543 4278603943
-0.0198857 0.010329098 -0.046071209 4278604199
-0.015785526 -0.0030264035 -0.03420864 4278604199
-0.011323143 -0.017871689 -0.021009875 4278866339
-0.0077020712 -0.027475093 -0.012570101 4278735013
-0.0049785972 -0.031840209 -0.0088784257 4281291644
-0.0023637488 -0.035455603 -0.0058687977 4281553529
0.00042153895 -0.039816488 -0.0021889452 4281750133
0.0032390803 -0.044175211 0.0014847443 4281946739
0.0059399493 -0.047784749 0.0044779973 4282536809
0.03126324 -0.070363551 0.022085886 4282405483
0.034211226 -0.073955819 0.025032459 4281815923
0.037004948 -0.076801285 0.027305873 4281160573
-0.044420544 -0.0093301497 -0.026965013 4282666604
-0.042966064 -0.0062045306 -0.030053947 4279652503
-0.041347776 -0.0045856759 -0.031771511 4279455388
-0.039549645 -0.0044725016 -0.032120839 4279127713
-0.037947062 -0.002854377 -0.033835232 4279455899
-0.036455546 -0.00048465654 -0.036229491 4278997664
-0.034979906 0.0018841997 -0.038620636 4278866849
-0.033308413 0.0027483441 -0.039646618 4278866849
-0.031533521 0.0028605536 -0.039991051 4278866594
-0.029869732 0.0037244074 -0.041015372 4278866594
-0.028552908 0.0068422109 -0.044076912 4278735524
-0.02714077 0.0092075467 -0.046455353 4278473128
-0.025625285 0.01082091 -0.048152201 4278341803
