# .PCD v0.7 - Point Cloud Data file format
VERSION 0.7
FIELDS x y z rgba
SIZE 4 4 4 4
TYPE F F F U
COUNT 1 1 1 1
WIDTH 981
HEIGHT 1
VIEWPOINT 0 0 0 1 0 0 0
POINTS 981
DATA ascii
0.0057502799 0.017471548 0.0788645 4288883503
0.0071632266 0.020180436 0.075485386 4289930278
0.009759292 0.017722517 0.078118838 4290257443
0.012990013 0.012683956 0.083750539 4290453794
0.01641982 0.0070027597 0.090124346 4290388258
0.024622409 0.0075171515 0.088599391 4290650398
0.025487341 0.01215739 0.082985282 4289341993
0.028379798 0.0090632886 0.086342953 4291108124
0.0027667657 0.019610001 0.073503606 4288491569
0.0041748211 0.022327201 0.070132069 4289866019
0.0057092011 0.024395045 0.067514494 4290193184
0.0078291185 0.023870476 0.067897581 4289015594
0.010413788 0.021403175 0.070526451 4289539109
0.013175841 0.018289749 0.073899746 4290193184
0.015806414 0.015825409 0.076520152 4290389278
0.018297404 0.014009703 0.078389123 4290062114
0.019821487 0.016077168 0.075773679 4290127904
0.020663274 0.020731159 0.070175551 4289604389
0.021975139 0.023442738 0.066822208 4290454813
0.024640942 0.020980844 0.069436245 4290585373
0.028550647 0.013995862 0.07726074 4289800483
0.033583432 0.0031376034 0.08954069 4290192674
0.0017896555 0.021900158 0.067789786 4288949294
0.0031822026 0.024625054 0.06442783 4290520603
0.0047008656 0.026698444 0.06181816 4291043609
0.0068044215 0.026170615 0.062202636 4290651164
0.0093722083 0.023693584 0.064827859 4290650908
0.011961609 0.02121792 0.06744916 4290912794
0.014256001 0.02004273 0.068573944 4290520348
0.016400225 0.019517679 0.068950959 4290062624
0.01789514 0.021589858 0.066345923 4290259228
0.019207586 0.024310112 0.062999152 4290978583
0.021005752 0.025082434 0.061889235 4290454814
0.023485605 0.023259642 0.063755415 4289669924
0.026679426 0.018843811 0.068591669 4289015593
0.030796666 0.011188531 0.077134825 4289800739
0.00095660239 0.02356392 0.062843457 4289995813
0.002625674 0.024991546 0.06098482 4290585884
0.0041367188 0.027070913 0.058381628 4290062624
0.0065320991 0.025235957 0.060258131 4290324254
0.0089437105 0.023402022 0.062131695 4290520604
0.011371553 0.021569151 0.064002275 4290455068
0.013499338 0.021040829 0.064380616 4290520604
0.015471738 0.021164455 0.064013876 4290324764
0.01695364 0.023242326 0.061416283 4290390043
0.018585671 0.02466798 0.059564877 4290585884
0.020206966 0.026093055 0.057715457 4291043353
0.022675488 0.024263028 0.059578706 4290716444
0.025857314 0.019831194 0.064405464 4290716444
0.030138658 0.011498528 0.073671915 4290781723
-0.00084558129 0.020542506 0.063500918 4287638848
0.00040893257 0.023939826 0.059405651 4289799974
0.0020702071 0.02537124 0.057551842 4290127393
0.0040152371 0.025492884 0.057189979 4289931809
0.0064100437 0.023651352 0.059061535 4289931809
0.0088210925 0.021810841 0.060930144 4290455069
0.01109308 0.020625515 0.062052276 4290258974
0.013059981 0.020748733 0.061686505 4289931809
0.014866278 0.021525735 0.060578298 4289866274
0.016667258 0.022302451 0.059471119 4290324253
0.018296864 0.023732295 0.05762352 4290520348
0.020084467 0.024508314 0.056518856 4290258463
0.022723844 0.022018671 0.059117626 4289866018
0.025733009 0.018224612 0.063192397 4290258464
0.030012095 0.0098635629 0.072437435 4290193184
-0.00096800923 0.018949447 0.062297866 4289407273
3.9711595e-06 0.023671841 0.056722198 4289801503
0.0015157796 0.025764227 0.054128814 4290847513
0.0035997108 0.025228573 0.054511767 4290978583
0.0061383098 0.022723496 0.057122227 4290978583
0.0085460953 0.020876246 0.058986392 4291109143
0.010814987 0.019686364 0.060105719 4289931808
0.012779132 0.019809388 0.059740447 4289997088
0.014743336 0.019932467 0.059375204 4289800994
0.016381234 0.021367107 0.057529371 4290127903
0.018008418 0.022801165 0.055685524 4290127649
0.019793442 0.02357915 0.054583061 4290585629
0.022600638 0.020425353 0.057914559 4290520093
0.025608722 0.016618185 0.06197945 4290520093
0.030238822 0.0069189072 0.072678745 4290454814
-0.0017843843 0.020653827 0.057379041 4289864999
-0.00068325922 0.024731342 0.052560057 4289604389
0.00081823021 0.026829567 0.049973618 4290258973
0.003038045 0.025632054 0.05109863 4289670178
0.0054182634 0.023776526 0.052962784 4290651418
0.0078147128 0.021922031 0.054824006 4290520604
0.010072444 0.020727092 0.055942047 4290520348
0.012025755 0.02084942 0.055578772 4290127903
0.013979126 0.020971803 0.05521553 4289931553
0.015606534 0.022410119 0.053374995 4290585884
0.017057516 0.024505615 0.050798278 4290585629
0.01950277 0.022654509 0.052650679 4290912538
0.02230636 0.019489622 0.055974446 4290847259
0.02548445 0.015011923 0.060766626 4291043609
0.030464878 0.0039657243 0.072913542 4290912538
-0.0027376637 0.023041818 0.051735278 4289668648
-0.0015104227 0.026469925 0.047670204 4290781214
0.00012207031 0.027912535 0.045831721 4290716444
0.002184011 0.027371073 0.046215411 4289996833
0.0046995953 0.024847176 0.048816636 4290258463
0.0070847161 0.022985445 0.050674919 4290781723
0.0093312897 0.021785397 0.051791701 4290193183
0.011273764 0.021907033 0.051430438 4290193183
0.013376456 0.021368446 0.051806718 4290455068
0.014833208 0.023470754 0.049233917 4290847513
0.016604941 0.024252178 0.048137229 4289996833
0.018707778 0.023713771 0.048513617 4289408295
0.021499695 0.02053728 0.051831152 4288950058
0.024665769 0.016043618 0.056613803 4289866018
0.030337678 0.0023225211 0.071672842 4289800483
-0.004104279 0.027447624 0.043891732 4289734184
-0.0023358576 0.028230483 0.042796936 4290258208
-0.00057271123 0.029013114 0.041703116 4290651164
0.001771301 0.02714216 0.043563902 4290454814
0.0041315444 0.025272273 0.045421708 4290585373
0.0063560978 0.024066474 0.046539132 4290389024
0.0084368922 0.023524212 0.046917707 4289931043
0.010365844 0.023644982 0.046558943 4290192928
0.012294862 0.023765814 0.046200208 4289931298
0.013898581 0.025211304 0.044370767 4290389278
0.015491594 0.026656179 0.042543367 4291043609
0.017578047 0.026114564 0.042921115 4290781979
0.020352904 0.022926137 0.046233419 4290193184
0.024021886 0.016431324 0.053207666 4290193184
0.030034371 0.0013409406 0.069699392 4290454813
-0.0044997595 0.02723089 0.041245606 4289276459
-0.0027366206 0.028015558 0.040153444 4289604389
-0.0006914027 0.027468652 0.040536765 4289538854
0.0015056767 0.026256617 0.041655883 4289538853
0.0037135892 0.025045348 0.042772975 4289930788
0.0057806149 0.024499936 0.043152418 4290126628
0.0076986626 0.024619956 0.042795628 4289996069
0.0094596446 0.025404885 0.041704096 4290584609
0.011534959 0.02486017 0.042082135 4289995813
0.013290677 0.025644887 0.040991671 4290192418
0.014875881 0.027093608 0.039169073 4290323233
0.016450357 0.028541759 0.037348475 4289146154
0.019208163 0.025341362 0.040655594 4289931043
0.023032501 0.0181599 0.048348099 4290192418
0.029203532 0.0023548529 0.065535672 4290192418
-0.0046182424 0.02568667 0.040079396 4289276458
-0.0027142018 0.025805488 0.039724957 4289604389
-0.00066652894 0.025256492 0.04010617 4288950314
0.0015328154 0.024040267 0.041221436 4288688173
0.0034452341 0.024159791 0.040865581 4287576374
0.0055093206 0.023612048 0.041243833 4287183674
0.0071160682 0.025066193 0.039420381 4286529599
0.008869078 0.025852747 0.038332049 4286398783
0.010776419 0.025972193 0.037977327 4286267969
0.012846157 0.025425047 0.038354717 4286399038
0.014591269 0.026211284 0.037267994 4286202689
0.016331028 0.026997291 0.036182266 4286333503
0.018747091 0.025118323 0.03801997 4286725948
0.022564132 0.017912481 0.045695409 4287314744
0.02872565 0.002054736 0.062844463 4287314744
-0.0054230802 0.017989133 0.045886774 4287249464
-0.0040468723 0.020790773 0.042588066 4289668903
-0.0024107657 0.022250811 0.040762208 4290127393
-0.00049862266 0.022370169 0.04040629 4289931299
0.0014136322 0.022489596 0.040050399 4289931299
0.0034746975 0.021939412 0.040427472 4290062113
0.0053898208 0.022059139 0.040071141 4290192674
0.0073050186 0.022178942 0.039714854 4289473574
0.0089067072 0.023637163 0.037895735 4289866018
0.010657188 0.024425771 0.03680959 4290585119
0.012726676 0.023876427 0.037185337 4290912028
0.014801592 0.023327487 0.037560124 4290454814
0.016546834 0.024115955 0.036475096 4288950314
0.018797446 0.022899153 0.037577901 4288819243
0.022269366 0.017005842 0.043777831 4288819243
0.028599698 0.00042753294 0.061615843 4288819243
-0.0038905181 0.017890951 0.042880453 4289342248
-0.0021082908 0.018683244 0.041789711 4289800229
-0.00047450513 0.020147512 0.039967675 4290324508
0.0015862286 0.019595012 0.04034311 4289997343
0.0033553056 0.020386714 0.039254922 4289932063
0.0054215975 0.019834688 0.039629418 4289932063
0.007339403 0.019954631 0.039272625 4289735713
0.0092572868 0.020074654 0.03891588 4289670434
0.011015911 0.020865966 0.037829835 4289932063
0.013093229 0.020314887 0.038202487 4289539619
0.015011281 0.020435112 0.037845854 4290128414
0.016929369 0.020555403 0.037489261 4289997344
0.019187629 0.019334728 0.038587272 4289866273
0.022666026 0.013422299 0.044770908 4289604643
0.029175572 -0.0038802177 0.063292541 4289604643
-0.0051229224 0.012162862 0.04645399 4286267969
-0.0037347861 0.014982598 0.043166399 4288949293
-0.0020874031 0.016451923 0.041345153 4289603878
-0.000307668 0.017246271 0.040256586 4290258719
0.0016124807 0.017366141 0.039899185 4290258719
0.0032359622 0.018834217 0.038082507 4289865764
0.0053019971 0.018279988 0.038455367 4289669923
0.0073734857 0.017726202 0.038827211 4289604644
0.0096068755 0.016499288 0.039926235 4289473828
0.011373661 0.017293232 0.038840387 4289800994
0.013135128 0.018086905 0.037755579 4289866528
0.015384831 0.016861212 0.038851723 4290390043
0.017310902 0.016981997 0.038493644 4290324508
0.019746728 0.015084727 0.040312562 4289997343
0.023234285 0.0091533214 0.04647937 4290128414
0.029925406 -0.0088775791 0.065680847 4290128414
-0.0053780749 0.011268156 0.04453643 4289733929
-0.0039920434 0.0140964 0.04125591 4289341994
-0.0022069626 0.014893165 0.040167954 4289407784
-0.00028430298 0.015013102 0.03981002 4289670179
0.001492925 0.015809502 0.038723625 4289800994
0.0031166524 0.017281923 0.036910247 4289669414
0.0051824339 0.016725477 0.03728145 4289669414
0.0071000755 0.016845377 0.036924664 4289538088
0.009486638 0.014938196 0.038747389 4289407273
0.011412486 0.015058748 0.038389184 4289276459
0.013176717 0.015854757 0.03730553 4290062114
0.015428688 0.01462486 0.038397893 4290062114
0.017357368 0.014745804 0.038039327 4290258719
0.019795289 0.012842139 0.039852805 4290062369
0.023456356 0.0062165745 0.046727814 4289603878
-0.0057674572 0.011057245 0.041893452 4289144113
-0.0043862201 0.01389385 0.03862052 4289145643
-0.0024664477 0.014013512 0.038263049 4290193438
-0.00068924576 0.014811989 0.037178267 4289996323
0.0012280531 0.014931643 0.036821369 4289734948
0.003145434 0.015051369 0.036464509 4289341994
0.0050629154 0.015171176 0.036107685 4289472809
0.0071338899 0.014612984 0.036476247 4289472554
0.0092103183 0.014055207 0.036843847 4289145388
0.011292189 0.013497841 0.037210494 4289668649
0.013218008 0.013618451 0.036852337 4290127394
0.015472248 0.01238431 0.03794096 4289865763
0.017236643 0.013182666 0.036859013 4289734949
0.019504406 0.011949517 0.037945233 4289931043
0.023161002 0.005301971 0.04480429 4289668648
-0.0031450093 0.015181733 0.034182947 4287638593
-0.0013784803 0.015981697 0.033101812 4287835453
0.00081834942 0.014739145 0.034197316 4288359224
0.0025823899 0.015539091 0.033116758 4288949549
0.0046422742 0.014977947 0.033485632 4288426289
0.0065543577 0.015097477 0.03312986 4288621619
0.0090903156 0.012496712 0.035666954 4288948018
0.011013292 0.012617059 0.035309263 4289210159
0.012936324 0.012737483 0.034951616 4289799463
0.014859404 0.012857983 0.034594018 4289799718
0.016782526 0.012978565 0.034236472 4289472809
0.019213881 0.01106146 0.036041103 4289603369
0.022866018 0.004391931 0.042884208 4289538088
0.0059758723 0.015595255 0.029793503 4287833924
0.0085029937 0.012985244 0.032325517 4288422209
0.010259341 0.01378716 0.031248283 4288423994
0.012332678 0.013224971 0.031613197 4288946998
0.014083751 0.014026707 0.03053706 4289208629
0.016495652 0.012101799 0.032340217 4289078068
0.018754475 0.010859434 0.033421334 4288555573
0.022571385 0.0034864806 0.040967599 4288621619
-0.012587786 0.021522919 0.011730439 4288227644
-0.010874927 0.022332173 0.010669069 4289013808
-0.0087589435 0.021058206 0.011759231 4289930024
-0.0062156543 0.017702481 0.014996463 4290060838
-0.0039283782 0.015736502 0.016797073 4289405233
-0.014548041 0.019912578 0.010944809 4288230194
-0.013224304 0.022814602 0.0077359392 4289145643
-0.01165539 0.024321999 0.0059625283 4290323489
-0.0096892342 0.023739314 0.0063367183 4289800738
-0.0074402988 0.021764342 0.0081393626 4290455069
-0.0050338022 0.019094327 0.010653185 4290847258
-0.0027497262 0.017121702 0.012449409 4289866019
-0.00074285269 0.01654187 0.012816264 4289734694
0.00097067654 0.017353792 0.011756801 4289603369
0.0028309897 0.017469972 0.011410573 4289603879
0.0042270385 0.01967226 0.0089293038 4289342248
0.0062368959 0.01909291 0.0092959078 4289472298
0.0085724741 0.017124027 0.011082876 4290060838
0.011087079 0.014461385 0.013577133 4289995558
0.013457712 0.012494829 0.015357762 4290126374
0.017358478 0.0042789541 0.023518132 4289733929
0.024058357 -0.015042044 0.043005653 4289733929
-0.015556186 0.023311473 0.0048098732 4289081128
-0.014120273 0.025521958 0.0023256745 4290193183
-0.012434155 0.026333828 0.0012725963 4289604389
-0.010481697 0.025748108 0.0016476532 4288884778
-0.0083852857 0.024464287 0.0027347836 4289277224
-0.0059956834 0.021784494 0.0052450784 4289866018
-0.0035844743 0.019106124 0.0077514113 4290520603
-0.0014447719 0.017825248 0.0088306721 4289800995
0.00025806949 0.018638659 0.0077748662 4289931299
0.0018036887 0.020149482 0.0060095652 4289735204
0.0031840056 0.022357279 0.0035362411 4289799973
0.0051774494 0.021774765 0.0039041694 4290126884
0.0074962974 0.019798286 0.0056892629 4289996069
0.0099940076 0.017125916 0.0081799561 4289865508
0.01300934 0.01236446 0.012790812 4290847259
0.017574828 0.0013353713 0.023762707 4290716188
-0.017371051 0.021016629 0.0047465754 4286659648
-0.016306832 0.025338324 0.0001249694 4289540128
-0.014623448 0.026152095 -0.0009259975 4290716953
-0.013078257 0.027666636 -0.0026883241 4290913304
-0.011272453 0.027778894 -0.0030248081 4290586139
-0.0091899075 0.026489859 -0.0019384561 4290782234
-0.0066735074 0.023099976 0.0012786642 4290978329
-0.0042738244 0.020412205 0.0037804297 4290520604
-0.0022916868 0.019826464 0.0041485131 4289735458
-0.00075129047 0.021341208 0.0023874647 4289931808
0.00077842548 0.02285541 0.00062842621 4289931553
0.0021430217 0.025068665 -0.0018369145 4290847259
0.003962934 0.025182458 -0.0021755164 4290258463
0.0061025284 0.023897644 -0.0010992769 4289015594
0.008902967 0.019816803 0.0028026849 4289211944
0.012396477 0.012942024 0.0095242746 4289800483
0.017958399 -0.0023154579 0.024706751 4289800483
-0.018107437 0.02305329 6.5913948e-05 4288490293
-0.016800955 0.025980074 -0.0031197695 4289670433
-0.01512558 0.026795521 -0.0041676387 4289800993
-0.013455443 0.027610699 -0.0052144127 4290193439
-0.011655115 0.027722582 -0.0055499012 4289800738
-0.0094402321 0.025725923 -0.0037560374 4290062368
-0.0070682876 0.023027664 -0.001255883 4290258718
-0.0046747513 0.020330831 0.0012403162 4289604644
-0.0028444752 0.020444922 0.00089951459 4290062624
-0.0013119206 0.021963531 -0.00085678301 4289800994
-9.3206763e-05 0.024885613 -0.0040255263 4289539108
0.0012583435 0.027104545 -0.0064834207 4290782234
0.0029077418 0.02791921 -0.0075258054 4290847259
0.0051904283 0.025927454 -0.0057440479 4290716444
0.0079763047 0.021832736 -0.0018494794 4290651164
0.011949673 0.01283174 0.0069724862 4290716444
0.017837841 -0.0038760491 0.023528365 4290716444
-0.018219382 0.021582525 -0.0010450358 4288489783
-0.017166808 0.025929451 -0.0056444062 4290063134
-0.015496731 0.02674666 -0.0066895927 4290258463
-0.013566703 0.026152898 -0.0063154986 4289931553
-0.011631176 0.02555955 -0.0059423698 4289735204
-0.0094142109 0.023556512 -0.004153932 4289800483
-0.0074623637 0.022964338 -0.0037837224 4289931299
-0.0053616874 0.021667859 -0.0027073035 4289539108
-0.0035422668 0.021781249 -0.0030461019 4289670179
-0.0020202324 0.023303526 -0.0047970973 4289604644
-0.00066028908 0.025529373 -0.0072516091 4289670179
0.00099179521 0.026346281 -0.0082928911 4290324508
0.0027953722 0.026459023 -0.0086284745 4290193439
0.005077444 0.024460725 -0.0068516317 4289473829
0.0077000372 0.021056468 -0.003670516 4289735459
0.01150357 0.012730375 0.0044275052 4289997089
0.017717313 -0.0054363944 0.02235017 4289997089
-0.018455662 0.020820109 -0.002864812 4288556083
-0.017404862 0.025179852 -0.0074537788 4290127903
-0.015996948 0.027414516 -0.0099127954 4290323999
-0.013810344 0.025402904 -0.0081238654 4290192928
-0.011877783 0.024807181 -0.0077518811 4290389278
-0.0096641071 0.022797421 -0.005967868 4290062369
-0.0078557245 0.022909939 -0.0063047525 4289669923
-0.0057608709 0.021608783 -0.0052306601 4289735459
-0.0039469339 0.021721818 -0.0055684489 4289800994
-0.0022814833 0.022541488 -0.0066106506 4289735459
-0.0012263432 0.02618649 -0.010467684 4289343014
0.00072562695 0.025592579 -0.010098848 4289866529
0.0028396659 0.02429302 -0.0090279402 4289604644
0.005442448 0.020876601 -0.0058515822 4289408294
0.0077481419 0.018873399 -0.0040841438 4290193439
0.011552233 0.010521341 0.0039936681 4289997089
0.017764192 -0.0077018738 0.021873182 4289997089
-0.018815748 0.020772468 -0.0053884145 4289276968
-0.01764255 0.024434827 -0.0092596998 4289997088
-0.016236916 0.026675828 -0.011713283 4290716444
-0.014185883 0.025367215 -0.010634607 4290912538
-0.012124017 0.0240594 -0.0095579308 4290912538
-0.0099136345 0.022042919 -0.0077783437 4290978074
-0.0081080459 0.022155233 -0.00811473 4289539108
-0.0061593428 0.021558605 -0.0077472292 4289669923
-0.0043508895 0.021671288 -0.0080840038 4289800994
-0.0028391555 0.02320154 -0.0098264189 4289866273
-0.0013381019 0.02473118 -0.011566727 4289735458
0.00061359629 0.024135081 -0.011199518 4290455324
0.0028836466 0.022122934 -0.0094305631 4290651419
0.005329024 0.019403834 -0.0069637331 4290651419
0.0077959448 0.016686177 -0.0045008361 4290585884
0.011600591 0.0083082132 0.0035567367 4290062624
0.017977964 -0.010678954 0.022092383 4290389788
-0.019671351 0.023583416 -0.010728045 4289341738
-0.018260069 0.025831144 -0.01317775 4289342249
-0.016864799 0.028077971 -0.015624399 4289866019
-0.014957063 0.02747621 -0.015251187 4289211944
-0.013043858 0.026874915 -0.014878972 4290323999
-0.01085021 0.024850929 -0.013101341 4290258463
-0.0087805092 0.023539385 -0.012029309 4290062624
-0.0066999719 0.022228653 -0.010959265 4289800994
-0.0047541521 0.021629741 -0.010592855 4289604643
-0.0032475628 0.023163943 -0.012330931 4289866273
-0.0019025765 0.025408356 -0.01476766 4289866529
4.0784478e-05 0.024809519 -0.014400539 4290978839
0.0023021512 0.022790371 -0.012635038 4290782233
0.0048976578 0.019351825 -0.0094740828 4290651418
0.0075200908 0.015915064 -0.0063180616 4290978583
0.011813004 0.0053810515 0.0038149306 4290781979
0.030145744 -0.055406749 0.063078679 4290978583
-0.021694049 0.022737136 -0.012193928 4286856254
-0.020401023 0.02570612 -0.015343751 4289276459
-0.019002788 0.027959518 -0.017786015 4290650908
-0.017491296 0.029497769 -0.019522188 4289800483
-0.015858486 0.030321334 -0.02055373 4289146408
-0.013557769 0.027575074 -0.018073991 4289342759
-0.01137279 0.025543984 -0.016299741 4290650908
-0.0091715939 0.023514038 -0.014528485 4290455069
-0.007382255 0.023625402 -0.014861799 4289800994
-0.0055928342 0.023736874 -0.015195048 4289866273
-0.0039513968 0.024561502 -0.016227791 4290193949
-0.0023152679 0.02538589 -0.017259469 4290455324
-0.00083787739 0.026922766 -0.018988637 4289670434
0.0015655681 0.024183678 -0.016527504 4289016104
0.0041493736 0.020733573 -0.013372746 4289081383
0.0072446056 0.0151485 -0.0081317769 4290258974
0.012188949 0.0017334558 0.0047632637 4290258974
0.030862244 -0.060663894 0.065273948 4288754218
-0.02265121 0.026307821 -0.018207911 4289277224
-0.021252729 0.028567616 -0.020645291 4289997089
-0.019870214 0.030826461 -0.023079576 4290585373
-0.018374614 0.032368027 -0.024809459 4290454558
-0.016494304 0.031760238 -0.024434557 4290323233
-0.014205113 0.029004589 -0.021959379 4290323233
-0.01189433 0.026250375 -0.019488148 4290389024
-0.0099814795 0.025644872 -0.019119106 4290062114
-0.0083482154 0.026470961 -0.020148801 4290258718
-0.0065750256 0.026581405 -0.020479042 4290062624
-0.0049496554 0.027407177 -0.021507129 4290651929
-0.0031790063 0.027517643 -0.021836754 4291109909
-0.0017148443 0.029058058 -0.023560163 4290324764
0.00051843002 0.027024105 -0.021799447 4289212454
0.0032438152 0.022847531 -0.017953986 4289016104
0.0066468306 0.01581537 -0.011332799 4289866529
0.012235884 -0.000498496 0.0043121874 4289866529
0.031068921 -0.063800775 0.06537132 4288950568
-0.023122557 0.027032848 -0.021393679 4288884524
-0.021731727 0.029298583 -0.023824589 4289472553
-0.020230651 0.030844713 -0.025552226 4290127139
-0.018482342 0.03095305 -0.025878266 4289211434
-0.016602308 0.030343061 -0.025504999 4289407530
-0.014448181 0.028296947 -0.023735136 4289930534
-0.012414843 0.026970066 -0.022666514 4289930788
-0.010510318 0.026361831 -0.022297557 4289800228
-0.0087427013 0.026471812 -0.022626847 4289734948
-0.0069749989 0.026581891 -0.022956084 4289996578
-0.0055026934 0.028126948 -0.024677809 4290193184
-0.0038906336 0.028954133 -0.025701683 4290323998
-0.0024369843 0.030498173 -0.027419744 4290782233
-0.000370875 0.029173966 -0.02635674 4290258463
0.0021814741 0.025700245 -0.023212867 4290062113
0.0060500689 0.01649558 -0.014523817 4290323999
0.011954792 -0.0013016313 0.002471433 4290323999
0.030767258 -0.064797796 0.063385554 4290258463
-0.023351431 0.026328597 -0.02317014 4288425779
-0.021839507 0.027879564 -0.024896502 4288426289
-0.020086057 0.027988112 -0.025223583 4288165423
-0.018461257 0.028817561 -0.026248774 4287184184
-0.016578801 0.028205492 -0.025877602 4287053369
-0.014690883 0.027593907 -0.02550742 4286268224
-0.012797482 0.026982747 -0.025138192 4286071874
-0.010759119 0.025651922 -0.024073798 4286006339
-0.0072293989 0.025871607 -0.024731301 4286333503
-0.0057595521 0.027420782 -0.026449192 4286791738
-0.0041501299 0.028249957 -0.027470911 4288623404
-0.0026989654 0.029798191 -0.029185224 4288950314
-0.00063597783 0.028469425 -0.028124934 4288819498
0.0017544255 0.025703561 -0.025681375 4289277224
0.0054543465 0.017189087 -0.017704796 4289799719
0.011674065 -0.002100192 0.00063420442 4289799719
0.030465951 -0.065790117 0.06140326 4288819498
-0.023097746 0.022735195 -0.022151168 4288818478
-0.021454342 0.023567751 -0.023178317 4289015339
-0.019816175 0.024400035 -0.02420437 4289213473
-0.017926067 0.023786206 -0.023836434 4289344798
-0.016293041 0.024618348 -0.024861392 4289212454
-0.014397331 0.024005061 -0.02449435 4289081383
-0.012769476 0.024837071 -0.025518198 4289669668
-0.010589521 0.022779731 -0.023763068 4289473573
-0.008819446 0.022889843 -0.024092834 4289604388
-0.0069045834 0.022278113 -0.023729078 4288885289
-0.005426459 0.023832114 -0.025445174 4288231214
-0.003959015 0.025385601 -0.02715924 4288230958
-0.0025022514 0.026938453 -0.02887122 4288230959
-0.00058980659 0.026326954 -0.028506719 4287902774
0.0014862046 0.024994789 -0.027452186 4288164914
0.0051813163 0.016454017 -0.01949474 4288426289
0.011720739 -0.0043356307 0.00018041639 4288164914
0.030671693 -0.068939127 0.061491475 4287902774
0.034847848 -0.077449277 0.069359764 4288099378
-0.022845022 0.019129032 -0.021141917 4287902773
-0.021193504 0.019964186 -0.022168882 4288951334
-0.019295737 0.019348571 -0.02180412 4289343523
-0.017520912 0.019458486 -0.022135155 4289671454
-0.015877098 0.02029345 -0.023160459 4290064154
-0.014104739 0.020403394 -0.023490891 4289212963
-0.012468763 0.021238053 -0.024514593 4289016359
-0.010420553 0.019899154 -0.023458753 4288885544
-0.0089289397 0.021458121 -0.025174171 4288950823
-0.007014364 0.020844201 -0.024812043 4289017124
-0.0053887926 0.021678591 -0.025833512 4289147938
-0.0036186129 0.021788979 -0.02616309 4289082148
-0.0020009689 0.022623064 -0.02718294 4289343778
-0.00023335218 0.022733482 -0.027511893 4289212708
0.0016922839 0.022120731 -0.027151449 4289539363
0.0053906403 0.013554253 -0.019214718 4289015848
0.012257151 -0.0087439865 0.0017885828 4289212198
0.031045502 -0.072819076 0.062260658 4289212708
0.034541927 -0.078465112 0.067360453 4289539363
0.036688581 -0.078330189 0.066961601 4289212199
0.038835235 -0.078195155 0.066562831 4288425779
-0.022713438 0.016237846 -0.020836966 4288297768
-0.021056496 0.017075473 -0.021863287 4289280028
-0.019279219 0.017185422 -0.022194866 4289737753
-0.017501839 0.017295478 -0.022526389 4289803288
-0.015986241 0.018859902 -0.02424329 4289803288
-0.014080368 0.018242883 -0.023881515 4289868314
-0.012577981 0.019806636 -0.025595754 4289344799
-0.010669231 0.019189989 -0.025234371 4289606938
-0.0090383999 0.02002666 -0.026255311 4289214238
-0.0071241111 0.019410541 -0.025894813 4289345308
-0.0052043609 0.018794877 -0.025535243 4289345308
-0.0034289286 0.018905574 -0.025865816 4289934359
-0.0016534328 0.019016379 -0.026196312 4289933594
0.00027724728 0.018401628 -0.025838528 4289998873
0.0022133477 0.017787365 -0.025481705 4289605664
0.0059203133 0.0091954693 -0.017566647 4289474848
0.012792259 -0.013169445 0.0033838339 4289605664
0.031081237 -0.075262256 0.06164889 4289998619
0.034578845 -0.080925465 0.066735052 4289605664
0.036380187 -0.079341531 0.064966336 4289278753
0.038524006 -0.07920669 0.064568087 4288426033
0.041026421 -0.080519885 0.065537333 4286920514
-0.022582471 0.01333827 -0.020538433 4288297258
-0.021042846 0.014908159 -0.022256657 4289410079
-0.019263022 0.015018249 -0.022588728 4289344798
-0.017739259 0.016587386 -0.024303896 4289737753
-0.015964568 0.016697349 -0.02463486 4289737753
-0.014323227 0.017536534 -0.025656318 4289868824
-0.012687162 0.018375492 -0.026676722 4289279773
-0.010917537 0.018485429 -0.027006518 4289345563
-0.0090062954 0.017866855 -0.026647203 4289345563
-0.0072338134 0.017977173 -0.026977375 4289280029
-0.0051674545 0.016630968 -0.025931358 4289541914
-0.0033894591 0.016741818 -0.02626241 4289869078
-0.0016114004 0.016852776 -0.026593395 4289999894
0.00032167137 0.016236065 -0.026237756 4290130198
0.0024178028 0.014892166 -0.025197014 4290260759
0.0062883459 0.0055470429 -0.016617024 4289213474
0.03111665 -0.077709407 0.061034046 4289737753
0.034444377 -0.082663082 0.065423056 4289606428
0.036245909 -0.081074804 0.063657656 4289214238
0.038036697 -0.0794871 0.061894327 4288557614
-0.022572003 0.011162398 -0.020937674 4288428583
-0.021029487 0.012736769 -0.022653114 4289213473
-0.019497573 0.01431057 -0.024366507 4289934104
-0.017848372 0.015152225 -0.025387978 4289934104
-0.016073793 0.01526217 -0.025718931 4289934614
-0.014432408 0.016103497 -0.026738744 4289934614
-0.01266031 0.016213475 -0.027069088 4289476889
-0.011165477 0.017785469 -0.028775189 4289280539
-0.0092572086 0.017164534 -0.028417008 4289084188
-0.0074875355 0.017274654 -0.028746672 4289476634
-0.0054243244 0.01592399 -0.027703442 4289934613
-0.0036491342 0.01603465 -0.028033987 4289869334
-0.0018738844 0.016145417 -0.028364453 4289410588
5.6218356e-05 0.015526297 -0.02800991 4289672474
0.0023066811 0.013448099 -0.026287515 4289672474
0.0066554137 0.00188585 -0.015677046 4289344799
0.023556415 -0.05622793 0.038276248 4289737753
0.030815318 -0.078702383 0.059051335 4289737753
0.034139037 -0.083671421 0.0634294 4289344799
0.035764478 -0.081350215 0.060986381 4289017633
0.037550069 -0.079758465 0.059227325 4289081129
-0.022801243 0.010451032 -0.022719553 4288559654
-0.021506004 0.013497828 -0.025809802 4289541148
-0.019731775 0.013607534 -0.026140857 4289803035
-0.018085197 0.014451137 -0.027160132 4289934103
-0.016052522 0.013093593 -0.026114989 4290130709
-0.014541551 0.014670735 -0.027820967 4290000659
-0.012905404 0.015513981 -0.028838068 4289084699
-0.011551559 0.017823294 -0.031226696 4288953628
-0.0095077455 0.016466839 -0.030183321 4289084188
-0.0075970031 0.015843982 -0.0298272 4289738774
-0.0053876787 0.013756277 -0.028102435 4289804053
-0.0037591867 0.014599593 -0.029117767 4290327059
-0.0019840598 0.014710346 -0.029448222 4289933849
0.00010036677 0.013356915 -0.028412033 4289933849
0.0023528896 0.011272354 -0.026695034 4289738009
0.0067014992 -0.00032448396 -0.016111283 4289671964
0.023428846 -0.057880186 0.037028637 4289933849
0.030178241 -0.078228071 0.055710562 4289803544
0.033151112 -0.081750609 0.058718115 4289671964
0.034936894 -0.080154687 0.056962319 4289279263
0.036888033 -0.079290032 0.055887856 4288688684
-0.007706441 0.014413567 -0.030907543 4289281813
-0.0057905428 0.013788963 -0.03055398 4289477398
-0.0040182956 0.013899421 -0.030883992 4289804054
-0.0020942092 0.013275543 -0.030531788 4290131473
0.00014421344 0.011183457 -0.028817229 4290000403
0.0022416525 0.0098266564 -0.027786769 4289804053
0.0065874606 -0.0018049218 -0.017229224 4289607703
0.0234665 -0.060265757 0.03646088 4290000403
0.029877976 -0.079207368 0.053738166 4289934868
0.0326766 -0.082007647 0.056059431 4289607703
0.034457184 -0.080407687 0.0543079 4288952608
0.036402978 -0.079541281 0.053236123 4289276203
-0.00042939931 0.011951827 -0.031945512 4290133258
0.0019734725 0.0091175437 -0.029557778 4290001933
0.0063137934 -0.0025489405 -0.019025931 4289805329
0.023503851 -0.062655337 0.035890099 4290133258
0.029578075 -0.080181986 0.051769309 4290263818
0.03220278 -0.082255647 0.053407498 4289936144
0.034151264 -0.081387021 0.052336805 4289934613
-0.024344534 0.0066877604 -0.02141072 4284379693
-0.025037698 0.0089323446 -0.025940744 4283919673
-0.023974948 0.013473982 -0.030391948 4284184109
-0.022455968 0.015059788 -0.032093029 4284250409
-0.02082283 0.015906746 -0.033106558 4284316709
-0.019067526 0.016015342 -0.033434033 4284184618
-0.017181985 0.015386071 -0.033076964 4284445994
-0.015290968 0.01475725 -0.032720838 4284706859
-0.025612645 0.010457931 -0.029768819 4284051764
-0.024321303 0.013530239 -0.032838434 4284186148
-0.022685573 0.014379406 -0.033850864 4284253469
-0.021179691 0.015968855 -0.035546139 4283797018
-0.019429877 0.016077083 -0.035872612 4283798039
-0.017679952 0.016185433 -0.036199018 4283928599
-0.015797257 0.015553879 -0.03584297 4283989799
-0.013909124 0.0149228 -0.035487909 4284186149
-0.012015529 0.014292158 -0.035133786 4284251683
-0.010257177 0.014401425 -0.035461463 4284317474
-0.0084987469 0.014510807 -0.035789058 4284382243
-0.0068863034 0.015359433 -0.036796451 4284250918
-0.0052791685 0.016207812 -0.037802786 4284055333
-0.0033744685 0.015578384 -0.037450328 4283989799
-0.0010019727 0.012733448 -0.035063714 4284054058
0.001548849 0.0091514923 -0.032003164 4284250154
0.00604048 -0.00328831 -0.02081921 4284250154
0.023705762 -0.065786988 0.035992645 4284054058
0.029613625 -0.082627535 0.051155671 4284185384
0.032070123 -0.083969913 0.05211312 4284250154
0.033845711 -0.082361676 0.050369237 4284117554
-0.026418984 0.0134874 -0.034951031 4284118574
-0.024905093 0.015081437 -0.036644638 4284121123
-0.023158312 0.015189273 -0.036970705 4283927324
-0.021535829 0.016039861 -0.037978929 4283858983
-0.019918613 0.016890211 -0.038986102 4283927834
-0.018047072 0.016255723 -0.038629785 4283996173
-0.016170055 0.01562169 -0.038274404 4283924773
-0.014422737 0.015730059 -0.038600184 4284121634
-0.012537494 0.015096728 -0.038246185 4284186404
-0.010646783 0.014463803 -0.037893079 4284252703
-0.0090370663 0.015314337 -0.038898431 4284187424
-0.007432647 0.016164603 -0.039902672 4283928344
-0.0058335215 0.017014647 -0.040905837 4283731229
-0.0037859045 0.015641559 -0.03987629 4283600668
-0.0014195815 0.012787592 -0.037495207 4283992094
0.0014382005 0.0077131353 -0.033089362 4284252449
0.0062455162 -0.0062445402 -0.020581761 4284252449
0.023907019 -0.068926923 0.036088847 4283665183
0.029314112 -0.083597183 0.049190566 4283992094
0.031427305 -0.083464488 0.048797835 4284185639
0.033195004 -0.081852391 0.047058705 4284185128
0.035127416 -0.080980346 0.045994431 4283721283
-0.027710132 0.0082360134 -0.032280736 4283655749
-0.026642248 0.012816664 -0.036702979 4284186658
-0.02524972 0.015159937 -0.039074339 4284188954
-0.023630016 0.01601244 -0.040080503 4283924519
-0.022015549 0.016864656 -0.04108559 4283858219
-0.020279408 0.016972018 -0.04140953 4283924264
-0.018413514 0.01633502 -0.041053832 4283924773
-0.016542144 0.015698405 -0.040699042 4283925793
-0.014800325 0.015806424 -0.041023806 4284055843
-0.012920737 0.015170572 -0.040670432 4284056354
-0.011035696 0.014535164 -0.04031799 4284122144
-0.0092882551 0.014643842 -0.040643565 4284057119
-0.0078322105 0.016239567 -0.042322222 4283925029
-0.006090004 0.016348125 -0.042646654 4283857199
-0.0043477379 0.016456785 -0.04297103 4283925028
-0.0018364713 0.012850666 -0.039919894 4283994899
0.0010146275 0.0077607036 -0.035524547 4283990818
0.0064499006 -0.0092091113 -0.020350689 4283990818
0.023943113 -0.071332924 0.035505675 4283927578
0.028680529 -0.083077833 0.045883805 4283994899
0.030955406 -0.083687648 0.04616465 4283990054
0.032890502 -0.082813375 0.045101468 4284185384
-0.028384663 0.010547591 -0.036763325 4283656004
-0.027329333 0.015140409 -0.041173223 4284186658
-0.025712386 0.015994722 -0.042177267 4284189974
-0.024222098 0.017595954 -0.043859698 4283993623
-0.022494227 0.017702699 -0.044182174 4283926048
-0.020766258 0.017809536 -0.044504605 4283992349
-0.018779241 0.016423194 -0.043471098 4284059414
-0.016913548 0.015784109 -0.043116972 4283991328
-0.015042387 0.015145471 -0.042763777 4284056353
-0.013165765 0.014507217 -0.042411484 4284056353
-0.011423904 0.01461543 -0.042736106 4284056354
-0.0096819624 0.014723742 -0.043060668 4283994133
-0.0079399534 0.014832178 -0.043385155 4283990819
-0.0063461326 0.015686242 -0.044384047 4283924008
-0.004455734 0.01504937 -0.044033922 4283924264
-0.0024063066 0.013667846 -0.043011323 4283924519
0.00074806064 0.0070722215 -0.037279978 4283925028
0.0064946637 -0.01143733 -0.020798368 4283926049
0.023978908 -0.073742986 0.034919489 4283924264
0.027880935 -0.081800863 0.041916154 4283924519
0.030314488 -0.083157673 0.042867895 4283926048
0.032241538 -0.082281731 0.041807812 4284119593
-0.028604716 0.0098819062 -0.038512118 4283722048
-0.027551197 0.014487488 -0.042911641 4284186658
-0.026055455 0.016093265 -0.044591833 4283990563
-0.024449088 0.01694922 -0.045592204 4283991584
-0.022847958 0.0178049 -0.046591483 4283992094
-0.020872235 0.016413391 -0.045559257 4283991584
-0.019014977 0.015771518 -0.045205303 4283990819
-0.017020278 0.014381425 -0.0441765 4283990563
-0.015284076 0.014489075 -0.044500232 4284055843
-0.013410442 0.013848512 -0.044149105 4284056098
-0.011811428 0.014704688 -0.045147508 4284055844
-0.010074981 0.014812646 -0.045471054 4284123674
-0.0084838681 0.015668547 -0.046467818 4283993878
-0.0068980604 0.016524205 -0.047463521 4283992349
-0.0051667951 0.016632164 -0.04778586 4283926303
-0.00297511 0.014498314 -0.046092719 4283994134
0.00016957149 0.0078826547 -0.040374592 4283992859
0.0063802898 -0.012922566 -0.02191994 4283992859
0.024178581 -0.076903664 0.035000041 4283926303
0.027583349 -0.082745664 0.039969798 4283994134
0.029674593 -0.082614347 0.039581146 4283926048
0.031938091 -0.08322905 0.039860893 4284119849
0.033682186 -0.08160539 0.038136303 4283656004
-0.028937414 0.0099727549 -0.040935062 4283853884
-0.02777268 0.013839183 -0.044646576 4284053803
-0.026161022 0.014697455 -0.045646325 4283989544
-0.024554625 0.015555551 -0.046645045 4283989544
-0.022705905 0.014910731 -0.046291295 4283989544
-0.020851724 0.014266377 -0.045938537 4283923753
-0.018992081 0.013622476 -0.045586716 4283924008
-0.016995147 0.012228204 -0.044561666 4283924008
-0.015121885 0.011585305 -0.044212185 4284055334
-0.013380371 0.011693371 -0.044536836 4283989799
-0.011918508 0.013302201 -0.046206802 4284055589
-0.01032475 0.014160303 -0.047202483 4283924263
-0.0087362826 0.015018182 -0.048197098 4283925284
-0.0071531273 0.015875824 -0.049190648 4283925793
-0.0052740686 0.015233962 -0.048841801 4283991328
-0.0032363012 0.013843065 -0.047823712 4283990564
0.00037198886 0.0049597509 -0.040110767 4283990818
0.0067419074 -0.016654942 -0.021033801 4283990564
0.024213584 -0.07932388 0.034406122 4283991328
0.027119407 -0.082937114 0.037359275 4283990564
0.029035727 -0.082057685 0.03630447 4284055843
0.031118775 -0.081926771 0.035917427 4284054568
0.033201821 -0.081795722 0.035530485 4283528503
-0.028479278 0.0047935285 -0.038618997 4283789369
-0.027184881 0.007917624 -0.041649289 4283989798
-0.025675334 0.0095328353 -0.043325424 4283990564
-0.023934551 0.009640228 -0.043650426 4283926048
-0.022317253 0.010501241 -0.044649452 4283990819
-0.020452634 0.0098553114 -0.044300277 4283990563
-0.018840507 0.010716224 -0.045298167 4283924263
-0.016838655 0.0093178935 -0.044277336 4283857708
-0.015229009 0.010178795 -0.045274578 4283989544
-0.013487615 0.010286851 -0.045599215 4283989034
-0.012025557 0.01190001 -0.04726588 4283988779
-0.010431767 0.01276025 -0.048259914 4283923244
-0.0088432692 0.013620267 -0.049252883 4283923243
-0.0072600693 0.01448008 -0.050244763 4283923499
-0.0052308775 0.01308422 -0.049228508 4283923753
-0.0031908937 0.011689143 -0.048214175 4283990054
0.00057375059 0.0020284988 -0.03985332 4284056099
0.0074195415 -0.021902688 -0.018822163 4283990054
0.017015941 -0.057841398 0.012849772 4283923753
0.024084428 -0.080997132 0.033142645 4283923753
0.026656169 -0.083119608 0.034755573 4283990054
0.028567132 -0.082238369 0.033703431 4284121124
0.030472735 -0.081357338 0.032652393 4284054059
-0.028248161 0.0011055209 -0.037667885 4283789113
-0.026829801 0.0034826174 -0.040019222 4283988268
-0.025073178 0.0035908483 -0.040347286 4283924008
-0.023316421 0.003699217 -0.040675282 4283989798
-0.021436118 0.0030520335 -0.040330835 4283990309
-0.019802578 0.0039162524 -0.041331112 4283990053
-0.018303119 0.0055355616 -0.043001719 4283990563
-0.016551301 0.0056440346 -0.043328471 4283925028
-0.014933579 0.0065076388 -0.04432559 4283990819
-0.013321124 0.0073709823 -0.045321606 4283859748
-0.011574417 0.0074794553 -0.045647159 4283925538
-0.010112081 0.0090969913 -0.047310427 4283925284
-0.0083705932 0.00920536 -0.047634847 4283925284
-0.0066290423 0.009313833 -0.047959186 4283990308
-0.0047371686 0.0086684413 -0.047616072 4283924008
-0.0026869141 0.0072696917 -0.046606984 4283989543
0.0012418032 -0.0031721182 -0.037602995 4283989544
0.0080955327 -0.02717182 -0.016626677 4283989543
0.017375164 -0.061707072 0.013633416 4283990054
0.023627918 -0.081163801 0.03054961 4283990054
0.025860878 -0.081787132 0.030829838 4283989544
0.027761109 -0.080904417 0.029781343 4284054314
0.029827725 -0.080774523 0.029397363 4283921204
-0.026360758 -0.0017277636 -0.037729807 4283988523
-0.024590857 -0.0016187169 -0.038060352 4283989034
-0.022700228 -0.0022675432 -0.037719596 4283989288
-0.021050677 -0.0014002845 -0.038721278 4283989543
-0.019406371 -0.00053326041 -0.039721902 4284055078
-0.018024638 0.0018485449 -0.042061016 4284055334
-0.016264908 0.0019574873 -0.042389262 4283990053
-0.014639094 0.0028237104 -0.043386176 4283990308
-0.012881875 0.0029327162 -0.043713786 4283925028
-0.01112457 0.0030418374 -0.044041324 4283925284
-0.0093671903 0.0031510815 -0.044368789 4283859748
-0.0076097436 0.0032604225 -0.044696189 4283925029
-0.0061470717 0.0048825033 -0.04635603 4284056099
-0.0043948665 0.0049917363 -0.046682283 4283989799
-0.0023370348 0.0035891421 -0.045677945 4284055589
0.0015972666 -0.0068824925 -0.036698326 4284055588
0.008769881 -0.032462329 -0.014447333 4284055589
0.017572589 -0.064829983 0.013743763 4284055078
0.023499154 -0.082832076 0.029289884 4284055078
0.025565576 -0.08270245 0.02890574 4284055588
0.027294235 -0.081062719 0.027197136 4284120359
0.029355319 -0.080933198 0.026814165 4283920694
-0.026123442 -0.0054385848 -0.036797784 4284054058
-0.024345621 -0.0053290762 -0.037129831 4284054823
-0.022688113 -0.0044593029 -0.038131431 4283989543
-0.020789623 -0.0051096864 -0.037793726 4284054824
-0.019137248 -0.0042400248 -0.038794208 4284055334
-0.017747097 -0.0018512309 -0.041129887 4284055334
-0.016110621 -0.00098234043 -0.042127244 4283990053
-0.014345571 -0.00087296218 -0.042456396 4283989799
-0.012580432 -0.00076346844 -0.042785481 4283989798
-0.010676008 -0.0014128312 -0.042448379 4283989798
-0.0089080371 -0.0013029464 -0.042777825 4283989799
-0.0069954209 -0.0019515939 -0.042442083 4283989799
-0.0053718835 -0.001082819 -0.043436497 4283989799
-0.0037536509 -0.00021428615 -0.044429846 4284055334
-0.0016828775 -0.0016204044 -0.043431267 4283989288
0.0024176724 -0.012879524 -0.033813909 4284120613
0.0096005835 -0.038532048 -0.01162146 4283989288
0.018090714 -0.069476537 0.015172035 4284055334
0.023207061 -0.083742537 0.027368801 4283989288
0.025104588 -0.082855769 0.026324013 4284120869
0.026828056 -0.081212111 0.024619726 4284053803
0.028883619 -0.081082903 0.024237802 4283721793
-0.027223796 -0.012323234 -0.032863859 4283590213
-0.02600199 -0.0083994605 -0.036544416 4284119849
-0.024336524 -0.0075271539 -0.037545923 4284120358
-0.022676289 -0.0066550747 -0.03854638 4284120868
-0.020898372 -0.0065453574 -0.038878284 4284054823
-0.019120343 -0.0064355135 -0.039210126 4284055334
-0.017598845 -0.0048018917 -0.040874906 4284055334
-0.015825972 -0.0046921484 -0.041205611 4283989799
-0.01418668 -0.0038208179 -0.042201735 4283924264
-0.012416318 -0.003711015 -0.042531811 4284055078
-0.010645878 -0.0036010966 -0.042861812 4283989799
-0.0088753551 -0.0034910515 -0.043191735 4283989288
-0.0068159476 -0.0049025714 -0.04219459 4283923753
-0.0051870272 -0.0040312745 -0.043188389 4283989799
-0.0035634041 -0.003160242 -0.044181071 4284055333
-0.001640182 -0.0038100518 -0.043848719 4283989543
0.0026155561 -0.015861694 -0.03359485 4284120613
0.017965507 -0.071100838 0.013945486 4284055334
0.022915317 -0.084648319 0.025451178 4283989543
0.024810178 -0.083759613 0.024408577 4284120104
0.026531138 -0.082111798 0.022708109 4283987759
-0.025995888 -0.010603908 -0.036964729 4284251429
-0.024210282 -0.010493942 -0.037298247 4284120358
-0.022544675 -0.009619385 -0.038298044 4284120613
-0.020761512 -0.0095093474 -0.03863094 4284054823
-0.019103728 -0.0086350553 -0.039629113 4283989288
-0.017323047 -0.0085249431 -0.039961364 4284055334
-0.015673093 -0.0076509081 -0.040957894 4283989288
-0.013894908 -0.0075407438 -0.041289523 4283924009
-0.012389034 -0.0059034526 -0.042947803 4283989034
-0.010616042 -0.0057933964 -0.043278292 4283989033
-0.0087014139 -0.0064463802 -0.042946305 4283989288
-0.0066371188 -0.0078618713 -0.041953456 4283989289
-0.0048558712 -0.0077509396 -0.042285204 4283989543
-0.0030745678 -0.0076398998 -0.042616885 4283989543
-0.00098863244 -0.0090536848 -0.04162778 4283989033
0.0032777153 -0.021139149 -0.031402558 4283988778
0.017840326 -0.072724812 0.012719177 4283989288
0.022297908 -0.084025912 0.02222039 4283988778
0.024350423 -0.083897166 0.021838823 4283988013
0.026234575 -0.083006822 0.020800008 4283921458
-0.027666196 -0.013689607 -0.036387809 4284180539
-0.026219234 -0.011278506 -0.038719561 4284250663
-0.024201922 -0.012702361 -0.037722081 4284381478
-0.022533603 -0.011825446 -0.038720772 4284316963
-0.020870522 -0.010948788 -0.039718356 4284186148
-0.019212715 -0.010072358 -0.040714882 4284251174
-0.017304175 -0.010728396 -0.040383901 4284119849
-0.015390188 -0.011383999 -0.040053859 4284054059
-0.01373744 -0.010507539 -0.041049175 4284120359
-0.012089975 -0.0096313022 -0.042043421 4284120614
-0.010309082 -0.0095207468 -0.042375382 4284120359
-0.0083867162 -0.010175373 -0.042046547 4284186149
-0.0066029951 -0.010064412 -0.042378861 4284120358
-0.0048192106 -0.0099533461 -0.042711101 4284120359
-0.0033342466 -0.0083125532 -0.044361692 4283989543
-0.0010993443 -0.010495476 -0.042716622 4283988778
0.0033190064 -0.023380056 -0.031859312 4283989034
0.010505937 -0.049252085 -0.0098375948 4283988778
0.017715171 -0.074348487 0.011493098 4283989288
0.021844368 -0.084154077 0.019656347 4283989034
0.023891356 -0.084025688 0.019275798 4283988269
0.025938369 -0.083897166 0.01889536 4283921459
-0.02766338 -0.015904482 -0.03681542 4284442168
-0.020857051 -0.013156597 -0.040142998 4284642853
-0.019071378 -0.013046309 -0.040476285 4284511528
-0.017157771 -0.013704251 -0.040147886 4284512293
-0.015499741 -0.012825385 -0.04114265 4284447268
-0.013713792 -0.012714759 -0.041475743 4284186404
-0.011927746 -0.012603998 -0.041808754 4284186403
-0.010141626 -0.012493126 -0.042141691 4284186404
-0.0082142018 -0.013149656 -0.041815445 4284185384
-0.0064252578 -0.013038386 -0.042148732 4284186149
-0.0047828481 -0.012159802 -0.043140061 4284055589
-0.0031457394 -0.011281494 -0.044130281 4284120869
-0.00090610608 -0.013470646 -0.042491056 4283923243
0.0036692768 -0.027158335 -0.031005928 4283923243
0.010701124 -0.052336991 -0.0096973348 4283923243
0.017590046 -0.075971864 0.010267235 4284054314
0.021391537 -0.084273346 0.017099099 4283923243
0.023432992 -0.084145285 0.016719593 4283857708
0.025306422 -0.08325132 0.015686085 4283920694
0.023140531 -0.085024022 0.01482313 4284641578
0.025011279 -0.084128074 0.013791784 4284115258
0.014368564 -0.077977091 -0.0085265115 4284704309
-0.0072154179 0.014080307 0.032999843 4281352588
-0.0058572292 0.016932769 0.029744575 4281614218
-0.0042411424 0.018417438 0.027942453 4282205309
-0.0022086725 0.017852142 0.028314624 4282270844
-0.0089765936 0.011045065 0.033636995 4282273904
-0.0078700259 0.015278697 0.028937452 4279389598
-0.0063852146 0.017453557 0.026414167 4278732973
-0.0047769435 0.018942013 0.024616886 4278729404
-0.002894979 0.019059317 0.024266453 4279253174
-0.00072319806 0.017806487 0.025359876 4279779749
0.0011643395 0.017924292 0.025008529 4279584928
0.0033524334 0.016672587 0.026099076 4279061414
0.0053984262 0.016106276 0.026467215 4279585694
0.0077611022 0.014171513 0.028274214 4279323554
0.0093484595 0.015659181 0.026481224 4279519393
0.011408091 0.015093958 0.026847005 4279387049
0.013145786 0.015897015 0.025775027 4279779494
0.015710011 0.013280949 0.028293664 4279582633
0.018126719 0.011349905 0.030090949 4280305048
0.022277094 0.0025856532 0.039054397 4280239769
-0.0094887055 0.011560602 0.03029881 4281355904
-0.0082553662 0.015118811 0.0263329 4278602668
0.001046896 0.016394844 0.023853492 4278864809
0.0030844919 0.015825748 0.024221446 4278603435
0.0051275454 0.015257031 0.02458849 4278471854
0.0071760379 0.014688773 0.024954539 4278536879
0.008755561 0.016180316 0.023166303 4278798254
0.012536563 0.016417107 0.022463124 4278599098
0.02215476 0.0010037571 0.037859961 4279125674
-0.010393031 0.014160344 0.0248073 4280962693
-0.0073015876 0.017844984 0.020503609 4278537134
-0.0052888356 0.017271848 0.020874262 4279913623
-0.003412433 0.017388761 0.02052483 4279323298
-0.0013914034 0.01681626 0.02089411 4278798764
0.00048786774 0.016933508 0.020544264 4278339509
0.0026670285 0.015672578 0.021629697 4278602669
0.0047044307 0.015101368 0.02199606 4278602414
0.0067472868 0.014530579 0.02236147 4278536624
0.0086376071 0.014648832 0.022009814 4278601648
0.010367334 0.015455624 0.020942589 4278864299
0.012418419 0.01488558 0.021306649 4280175508
0.017717913 0.008931011 0.027030831 4278864554
0.02254669 -0.0026413016 0.038806584 4278995878
-0.011557143 0.018171446 0.017896691 4282466938
-0.0016525313 0.015985491 0.019027308 4282398343
0.00022396073 0.016102554 0.018677974 4280370838
0.0021005385 0.016219692 0.018328674 4279061413
0.0042820349 0.014954597 0.019410415 4278930344
0.0061641298 0.015072245 0.019060219 4279191464
0.008046288 0.015189979 0.018710073 4278534328
0.0099285021 0.015307795 0.018359978 4279520414
0.012137122 0.01404476 0.019436879 4279848854
0.014522403 0.012092138 0.021224849 4279258528
0.017935198 0.0059997812 0.027284736 4278864554
0.023108874 -0.0069891512 0.04045549 4278274739
-0.0001864396 0.015969809 0.01610036 4283315833
0.0015350878 0.016780069 0.015037739 4282727294
0.0035558231 0.016203461 0.015403834 4282203523
