# .PCD v0.7 - Point Cloud Data file format
VERSION 0.7
FIELDS x y z rgba
SIZE 4 4 4 4
TYPE F F F U
COUNT 1 1 1 1
WIDTH 970
HEIGHT 1
VIEWPOINT 0 0 0 1 0 0 0
POINTS 970
DATA ascii
-0.0038132481 -0.055817731 -0.020431975 4286463553
-0.0090079792 -0.063213095 -0.016115628 4286659394
-0.0073779412 -0.060746551 -0.018389264 4286660158
-0.0055250153 -0.059851348 -0.019364625 4288165169
-0.0035552457 -0.059741452 -0.019691724 4287510838
-0.0092309266 -0.064008355 -0.017975681 4286528323
-0.0074866526 -0.062323138 -0.01959734 4286921279
-0.0056337416 -0.06142579 -0.02057102 4288492589
-0.0036641322 -0.061315924 -0.020898096 4288296493
-0.0075953417 -0.063899428 -0.020805169 4286921024
-0.0056232773 -0.063789532 -0.021132749 4288164404
-0.0036511384 -0.063679487 -0.021460235 4288230449
-0.0016789287 -0.063569352 -0.021787655 4287575864
-0.0057321042 -0.065365568 -0.022340361 4288229684
-0.0037601218 -0.065255538 -0.022667821 4287052859
-0.034461822 0.022785006 0.058931015 4284250663
-0.035415474 0.01103393 0.069244675 4284053803
-0.033939261 0.015830629 0.063679069 4284120868
-0.04223064 0.015108306 0.062281378 4283918654
-0.04072183 0.019921746 0.056722 4284251684
-0.038514588 0.018017508 0.058630206 4284317729
-0.035756905 0.01141426 0.065755643 4284122908
-0.033418987 0.0088417493 0.068400577 4284055843
-0.04213741 0.011472195 0.063280709 4283854648
-0.04076105 0.017648995 0.056241706 4284119339
-0.038845379 0.018433254 0.055166587 4284317219
-0.036097374 0.011807829 0.062276654 4284121379
-0.03337403 0.0058589019 0.06863419 4284121634
-0.031580281 0.007992208 0.066066071 4284711958
-0.040306274 0.010639671 0.06096106 4283855159
-0.038662154 0.014130861 0.056912728 4283989288
-0.03628486 0.010863058 0.060292512 4284055333
-0.033486951 0.0042187944 0.067377418 4284185638
-0.039572019 0.00088295341 0.068620309 4283656513
-0.038114298 0.006420929 0.06235145 4283922479
-0.035941083 0.00517736 0.063496739 4284120868
-0.033521254 0.0019011125 0.066861019 4284185128
-0.038981821 -0.0075648427 0.07475996 4283722303
-0.037423071 -0.0026883297 0.069239341 4283921459
-0.035599027 -0.000534188 0.066681139 4283921714
-0.033477385 -0.0011006966 0.067080058 4283987759
-0.031512287 -0.00030716509 0.066001728 4284053038
-0.03881542 -0.011960454 0.076436847 4283722303
-0.03717209 -0.0077506416 0.071663857 4283855414
-0.035334211 -0.0055893026 0.069108374 4283856179
-0.033434037 -0.0041109361 0.067292541 4283856178
-0.031625342 -0.001951091 0.064742006 4283855413
-0.038860124 -0.014319032 0.075890779 4283787839
-0.037067894 -0.011465274 0.07259959 4283855414
-0.035372365 -0.0079282001 0.068576291 4283855924
-0.033469271 -0.0064453669 0.066763267 4283790898
-0.031738307 -0.0035948083 0.063482419 4283790389
-0.030028667 -0.00074536353 0.060205176 4283920948
-0.028340373 0.0021029189 0.056931585 4284314159
-0.038974907 -0.015994824 0.074606538 4284049468
-0.037037063 -0.01450593 0.072790951 4283985974
-0.035335485 -0.010957785 0.068775035 4283855668
-0.033582661 -0.0080974959 0.065497205 4283855924
-0.031851184 -0.005238317 0.06222298 4283855669
-0.030224372 -0.001694113 0.058219656 4283855668
-0.028452259 0.00047663972 0.055685386 4283986483
-0.037151527 -0.016177215 0.071510158 4284313138
-0.035299119 -0.013995811 0.06896729 4283921459
-0.03346261 -0.011815265 0.066427164 4283790643
-0.031883497 -0.0075701177 0.061695226 4283855669
-0.030086968 -0.0053915903 0.05916182 4283855668
-0.028392281 -0.0025257394 0.055900522 4283920694
-0.026453238 -0.0017250739 0.054833308 4284181558
0.0018841885 0.021339979 0.027038656 4284512295
0.0040967725 0.020078234 0.028161578 4284120869
0.007828813 0.011278879 0.037225716 4283728679
-0.035338189 -0.016351409 0.06842237 4284313648
-0.033576269 -0.013473451 0.06515643 4283921713
-0.031755362 -0.011287235 0.062623918 4283725364
-0.029950392 -0.0091018677 0.060094163 4283855414
-0.02816138 -0.006917268 0.057567082 4283855414
-0.026388329 -0.0047334954 0.055042699 4283789623
-0.024813522 -0.001170475 0.051064964 4283789878
-0.0028687268 0.023688905 0.022153605 4284443953
-0.00094149262 0.023797004 0.02183402 4284316708
0.00085424259 0.024592949 0.020793166 4284252958
0.0026446469 0.02538872 0.01975321 4283599903
0.0056626648 0.019996945 0.025198113 4283533859
0.0097017922 0.009796463 0.035675775 4283534114
-0.033612374 -0.015824355 0.064614467 4284444463
-0.031708222 -0.014324374 0.062814683 4283725363
-0.029897507 -0.012132227 0.060288943 4283725363
-0.028102759 -0.0099408925 0.057765916 4283855669
-0.026500512 -0.0063656755 0.053791955 4283658809
-0.024925042 -0.002791848 0.049822517 4283789879
-0.023469996 0.0014725849 0.045131642 4284182834
-0.0075542741 0.026068157 0.017278034 4284509488
-0.0053968206 0.02479434 0.018403092 4284315178
-0.0033545196 0.024211494 0.018805809 4284316708
-0.0015642233 0.025009202 0.017767468 4284253214
0.00022076815 0.02580669 0.016730065 4283990818
0.0020004287 0.026603995 0.015693558 4283791408
0.0047326684 0.022573523 0.01968945 4283791919
0.0076368935 0.01785551 0.02439829 4283792939
0.011716913 0.007624954 0.034843985 4283793193
-0.03174163 -0.016674966 0.062272415 4284705839
-0.029927876 -0.014476217 0.059751183 4284052018
-0.028130066 -0.012278318 0.057232715 4283790133
-0.026612628 -0.0079976134 0.052541383 4283855669
-0.024945665 -0.0051073842 0.049304929 4283855924
-0.023487132 -0.00082983449 0.044623565 4283789878
-0.022349428 0.0055282302 0.037776105 4284052528
-0.011942174 0.0270916 0.013853433 4284119338
-0.010160338 0.027890714 0.012817884 4284053804
-0.0080222785 0.026611399 0.013942711 4284186149
-0.0057501383 0.024640249 0.015785081 4284317473
-0.0037134737 0.024054868 0.016187081 4284383519
-0.002057109 0.025546713 0.014432807 4284059413
-0.00028017163 0.026345892 0.013398411 4283864593
0.001357466 0.0278368 0.011647409 4283858983
0.0038045123 0.025176378 0.014200844 4283794724
0.0064126216 0.021825515 0.017467488 4283930383
0.0096161254 0.015710272 0.023594532 4283864338
0.012868259 0.0095978715 0.02971353 4283924518
-0.030041043 -0.016127326 0.058485873 4284444464
-0.028328199 -0.013226107 0.055248372 4283856178
-0.026636664 -0.010326006 0.052014478 4283921459
-0.0250572 -0.0067304783 0.048061151 4283856178
-0.023504507 -0.0031363554 0.044112336 4283855923
-0.022362862 0.0032413118 0.037279349 4283921458
-0.021664631 0.012400702 0.027567644 4284640049
-0.015846591 0.02535356 0.013314953 4284379948
-0.014059551 0.026154945 0.012280086 4284185894
-0.012392718 0.027651245 0.010527173 4283796253
-0.010501258 0.02775698 0.010213245 4283729954
-0.0082486495 0.025778119 0.012053767 4283864084
-0.0061027966 0.024495015 0.013173927 4284055334
-0.0040717907 0.023907175 0.013575114 4284121889
-0.0024206154 0.025402984 0.011825098 4284056354
-0.00051787123 0.025509734 0.011509595 4283992604
0.0013849437 0.025616564 0.011194142 4283796508
0.0036974475 0.023641573 0.013025051 4283730208
0.0057477392 0.02305517 0.013423393 4283730463
0.0080873556 0.021081854 0.015249928 4283924774
0.010153946 0.020496517 0.015645688 4283990308
0.01266798 0.017831542 0.018181525 4283986993
-0.028440785 -0.014868371 0.05398985 4284706093
-0.026660938 -0.012658536 0.051484466 4283921968
-0.025078151 -0.0090520754 0.047538973 4283921713
-0.02352209 -0.0054470189 0.043597985 4283856178
-0.022376511 0.00095025823 0.036779489 4283790899
-0.02167375 0.010137957 0.027088862 4283921713
-0.020838324 0.017925657 0.01884912 4284183343
-0.019750033 0.023616202 0.012776805 4284184618
-0.018064525 0.025117652 0.01102392 4284251938
-0.016170848 0.025223255 0.010709422 4284187933
-0.014389131 0.026026433 0.0096771494 4283794468
-0.012612689 0.026829394 0.0086458139 4283857964
-0.010724038 0.026934937 0.0083323214 4283794724
-0.008594878 0.025646476 0.009451801 4283928854
-0.0063319206 0.023661783 0.011285597 4283859493
-0.0044294558 0.023768328 0.010969995 4283991328
-0.0026551895 0.024571568 0.0099393297 4284122399
-0.00075524673 0.024678137 0.0096242707 4284056098
0.0014121532 0.023392221 0.010737721 4284056099
0.0034540258 0.022803126 0.011135649 4283924773
0.0046668425 0.026390379 0.0072527137 4283924519
-0.026773129 -0.01429411 0.050231077 4284314158
-0.025189679 -0.010676861 0.04629387 4284118064
-0.023539927 -0.0077617317 0.043080457 4283725363
-0.022294644 -0.0020454116 0.036995277 4283856178
-0.021289241 0.0050694272 0.029480524 4283856178
-0.020641122 0.014282193 0.019820914 4283921968
-0.019751366 0.021390755 0.012325503 4284186404
-0.018276062 0.024296578 0.0091413986 4284252193
-0.016494442 0.025101803 0.0081107412 4284254999
-0.014606122 0.025207145 0.007797163 4283860513
-0.012832344 0.026012091 0.0067679342 4283857709
-0.010829125 0.025418093 0.0071701389 4283726638
-0.0085803233 0.023426073 0.0090011042 4283860259
-0.006437961 0.022134054 0.010115111 4283928089
-0.0044101514 0.021541674 0.010513425 4283990818
-0.002761282 0.023045959 0.0087705124 4284187423
-0.00086143613 0.023152502 0.0084554572 4284187168
0.0013055541 0.021862239 0.0095655937 4284186659
0.0028022267 0.024064207 0.0071133506 4283989798
0.0034491532 0.030454321 0.00039378647 4283264069
-0.02337214 -0.011486299 0.043995023 4283856178
-0.021830816 -0.007860478 0.040073339 4283790643
-0.020611215 -0.002128318 0.034005988 4283790644
-0.019939665 0.0071137697 0.02436436 4283790389
-0.019338097 0.016352043 0.014734421 4283856689
-0.018168036 0.021373685 0.0094085149 4284120868
-0.016708281 0.024287278 0.0062338132 4284186914
-0.015158176 0.026497966 0.0037771706 4284059668
-0.013395123 0.027304441 0.0027513858 4283928088
-0.011520155 0.027409174 0.0024401313 4283862810
-0.0091654994 0.024708441 0.0049815383 4283733013
-0.006666556 0.021307781 0.0082321037 4283794724
-0.0045164004 0.020011991 0.0093414597 4283793958
-0.0027393438 0.020819653 0.0083136614 4283791919
-0.0013596602 0.023729468 0.0051527154 4283263049
-0.023297947 -0.014518596 0.044183902 4284183343
-0.021750595 -0.010881692 0.040269606 4283921714
-0.020230021 -0.0072461851 0.036359828 4283790643
-0.019139696 -0.00079366192 0.029596049 4283724598
-0.018408451 0.0077696294 0.020697813 4283790389
-0.017848033 0.017033711 0.011096653 4283856689
-0.016812813 0.022773167 0.0050736442 4284120868
-0.015597321 0.027102357 0.00048346259 4284056098
-0.013842322 0.027910516 -0.00053932518 4283990563
-0.011858501 0.027311074 -0.00013730489 4283924773
-0.0095099322 0.02460135 0.0023983577 4283858984
-0.0068948045 0.020486131 0.006352555 4283661868
-0.0044974759 0.017779298 0.0088802576 4283531564
-0.021480251 -0.015325435 0.041887134 4284181559
-0.01985025 -0.01238548 0.03869725 4283856179
-0.018443074 -0.0080330372 0.034085035 4283855924
-0.017378341 -0.0015624687 0.027340706 4283790388
-0.0167864 0.007731352 0.017756229 4283790643
-0.016264472 0.01702138 0.0081833899 4283857454
-0.015589509 0.024895294 4.4597313e-05 4283989289
-0.014174353 0.027823769 -0.0031091431 4283793194
-0.012313083 0.027927693 -0.0034181601 4283070778
-0.0099733286 0.025208868 -0.00088783074 4281493603
-0.019863386 -0.014709793 0.038171232 4284115259
-0.018352155 -0.011053227 0.034279857 4283920183
-0.016867738 -0.007398054 0.030393023 4283855923
-0.015939932 -0.00020111725 0.022958625 4283856179
-0.015283234 0.0084099062 0.014113281 4283790898
-0.014802471 0.017725758 0.0045692287 4283921713
-0.013707407 0.022788649 -0.00070867222 4283661359
-0.030912671 -0.026966013 0.048920881 4284704308
-0.018261794 -0.014081784 0.034468196 4284246328
-0.016565111 -0.01183746 0.032007162 4283855413
-0.015096094 -0.0081723072 0.02813134 4283790644
-0.014087912 -0.0016659461 0.021426812 4283790643
-0.013684165 0.0083903037 0.011191096 4283856179
-0.013014108 0.016311429 0.0030901842 4282804814
-0.032524381 -0.033727311 0.052981123 4282740043
-0.0310251 -0.028612927 0.047658686 4283134784
-0.016469549 -0.014867641 0.032193139 4284311354
-0.014783185 -0.01261732 0.029738873 4283854649
-0.013437916 -0.0082293712 0.025167447 4283790389
-0.012569103 -0.00099246576 0.017776618 4283855668
-0.011981592 0.0076665953 0.0089832805 4283528248
-0.031056192 -0.030976035 0.047106147 4282415173
-0.029506851 -0.026564695 0.0425102 4284247859
-0.014682449 -0.015649185 0.029922523 4284376889
-0.013331007 -0.011247978 0.025360141 4283855923
-0.012122706 -0.0061336346 0.020098601 4283790643
-0.01117922 0.0004080683 0.013435228 4283396668
-0.031168621 -0.03262458 0.045842689 4282217038
-0.029534716 -0.028918788 0.041964032 4282348873
-0.02732208 -0.030242793 0.043038338 4283068484
-0.013332691 -0.013557822 0.024843041 4284377398
-0.011899255 -0.0098621994 0.020998459 4283724344
-0.010719568 -0.0047342889 0.015753502 4283265088
-0.030957129 -0.037156038 0.047404073 4282151503
-0.029311832 -0.033438891 0.043531887 4282087243
-0.027347874 -0.032605149 0.042485282 4282218569
-0.02521104 -0.033212274 0.04284922 4283789113
-0.011787269 -0.012884289 0.021187305 4283854903
-0.010487951 -0.008459989 0.016653882 4283724089
-0.030908387 -0.040258586 0.047543366 4281759058
-0.029173572 -0.037253216 0.04438265 4281760078
-0.027373914 -0.03497155 0.041929111 4281565259
-0.025412422 -0.034135722 0.040884644 4281763394
-0.023456145 -0.033300079 0.039841127 4282089793
-0.030860152 -0.043369524 0.047676288 4281693523
-0.02911948 -0.040355213 0.044521246 4281891148
-0.027314108 -0.038066804 0.042071786 4281695563
-0.025613453 -0.035054557 0.038923599 4281566788
-0.023659859 -0.034216903 0.037882134 4281828674
-0.030812431 -0.046488799 0.047802735 4282020178
-0.029232342 -0.042011328 0.043251969 4281956684
-0.027426649 -0.039716467 0.040807471 4281956684
-0.025725525 -0.036695607 0.037665907 4281566788
-0.0239545 -0.034402475 0.035227329 4281567299
-0.022105467 -0.032836668 0.033490412 4282545988
-0.01997697 -0.033450566 0.033850893 4283852353
-0.029179011 -0.045125715 0.04338105 4282542418
-0.027539123 -0.041365847 0.039543364 4281956429
-0.025925998 -0.037607335 0.035710216 4281565513
-0.024157327 -0.035307944 0.033277091 4281631048
-0.02240466 -0.033009291 0.030846659 4281956939
-0.020281848 -0.033625662 0.031206328 4282152268
-0.02756593 -0.043746278 0.038976476 4281954898
-0.025949497 -0.039976858 0.035151154 4281631048
-0.024177831 -0.037670843 0.032722503 4281827908
-0.022515837 -0.034634709 0.029600982 4281891148
-0.020778839 -0.032330409 0.027178258 4282284104
-0.018661525 -0.032949209 0.02753726 4282479688
-0.025708754 -0.044550307 0.03667355 4282020944
-0.024107713 -0.040770911 0.032859243 4281825103
-0.022439864 -0.037725896 0.02974344 4281956173
-0.02098589 -0.033216223 0.025244247 4282153033
-0.019069415 -0.032371894 0.024215855 4282414918
-0.024219524 -0.042408668 0.031604066 4281954898
-0.022644613 -0.038619861 0.027802579 4281956173
-0.021192577 -0.034097426 0.023313764 4282153543
-0.019476365 -0.031781301 0.020904619 4282611779
-0.022755768 -0.040246576 0.026555896 4281760079
-0.021111082 -0.037185594 0.023457423 4282153289
-0.019487802 -0.034125715 0.020362638 4282677823
-0.022959959 -0.041133471 0.024620444 4281102943
-0.021125931 -0.039542779 0.02290618 4281956683
-0.019400995 -0.037213311 0.020505629 4282481473
-0.01931474 -0.04030925 0.020642214 4282284358
-0.019425411 -0.041926481 0.019402826 4281823319
0.0078396387 -0.011996306 -0.022095311 4284507704
-0.0027892739 -0.030818969 -0.0062733367 4284509489
-0.0030218065 -0.031627879 -0.0081419647 4283593528
-0.0010713339 -0.031518824 -0.00846567 4282480453
0.00061994046 -0.029900335 -0.010128312 4284181558
-0.0033780895 -0.031675041 -0.010675795 4283135804
-0.0014331602 -0.031566314 -0.010998596 4282087753
0.00025287643 -0.029943764 -0.01265705 4282348874
0.001928214 -0.028321758 -0.014313599 4283853119
-0.0031140335 -0.035509676 -0.0098673292 4282874429
-0.0012878105 -0.034641378 -0.0108581 4281956939
0.00014510751 -0.031496279 -0.013846513 4281957703
0.0016885623 -0.029111087 -0.016165527 4282155074
0.0033506341 -0.027485415 -0.017816439 4283920183
-0.0029746369 -0.038595557 -0.009733961 4282807363
-0.0012695119 -0.0369635 -0.011388984 4282087753
0.00016654283 -0.033809647 -0.014371227 4281762374
0.0014492422 -0.029895872 -0.018013896 4281959743
0.0029742084 -0.027505219 -0.020324683 4282416194
0.0046203099 -0.025875956 -0.021969527 4284573239
-0.0029594414 -0.040926121 -0.01027079 4282805068
-0.0011251457 -0.040053099 -0.011259557 4282088009
5.8677047e-05 -0.035363697 -0.015561882 4281892934
0.0014737062 -0.032202318 -0.018533839 4281761863
0.0030016564 -0.029805064 -0.020840107 4281892424
0.0045134947 -0.027408525 -0.023143629 4282743869
0.0061490238 -0.025775522 -0.024783254 4283984954
-0.0033150166 -0.040963396 -0.012797129 4281627478
-0.001486104 -0.040088557 -0.01378334 4281760589
7.9736114e-05 -0.037682973 -0.016091045 4281891914
0.0016294681 -0.035278127 -0.018396031 4281826888
0.0030288361 -0.032108918 -0.021358591 4281891914
0.0045436695 -0.029705785 -0.023657592 4282285379
0.006182041 -0.028068334 -0.025294345 4282743868
-0.0015943497 -0.041650638 -0.014980179 4281496154
0.00010051578 -0.040006198 -0.016623318 4281760589
0.0017846599 -0.038362205 -0.018264633 4281760843
0.0034580976 -0.036718726 -0.019904025 4281826123
0.0049839951 -0.034308553 -0.022199849 4281761098
0.0064937919 -0.031899184 -0.024492847 4281891914
0.0078452602 -0.028723717 -0.027440488 4283004988
0.0094649941 -0.027082741 -0.029070657 4284246329
-0.00013614446 -0.040793933 -0.018474545 4281496154
0.0016767308 -0.039915398 -0.019454598 4281760078
0.0033503175 -0.038267627 -0.021090671 4281761609
0.0050131716 -0.036620297 -0.022724917 4281826633
0.0065259561 -0.034204327 -0.025013389 4281761354
0.0078805648 -0.031020112 -0.027954858 4282153798
0.0095031299 -0.029374674 -0.029582132 4283200573
0.0011754557 -0.03915301 -0.022611864 4281496409
0.0029749162 -0.038272962 -0.023587912 4281695308
0.0049055554 -0.038164608 -0.023908019 4281761098
0.0065578371 -0.036513492 -0.02553701 4281761353
0.0079155862 -0.033320524 -0.028472302 4281630794
0.0092518255 -0.030128628 -0.031403922 4281827653
0.011008397 -0.029250413 -0.032372341 4284511018
0.002600152 -0.038269423 -0.026078291 4281366614
0.0046616122 -0.038934991 -0.025744174 4281499724
0.0063113458 -0.037279747 -0.027369408 4281567299
0.0078085922 -0.034851618 -0.02964521 4281436228
0.0092897154 -0.032424279 -0.031918254 4281630794
0.010901846 -0.030770764 -0.033536956 4282284868
0.012653042 -0.029890612 -0.034502737 4283069249
0.0044179894 -0.039700776 -0.027576808 4281236818
0.0062040761 -0.038816988 -0.028547065 4281696328
0.007701613 -0.036382437 -0.030817905 4281761863
0.0090387501 -0.033173338 -0.033736289 4281957449
0.010942291 -0.03306599 -0.034051497 4282284868
0.012845851 -0.032958552 -0.034366623 4282481219
0.014444694 -0.031301245 -0.035979595 4284248114
0.0062355809 -0.041131727 -0.029074956 4281497174
0.0077361092 -0.03869056 -0.031341262 4281629264
0.0092205256 -0.036250211 -0.033604763 4281695818
0.010982461 -0.035365231 -0.034569103 4281891913
0.012888554 -0.035257638 -0.03488465 4282218824
0.014794663 -0.035149902 -0.035200089 4282415428
0.016236067 -0.032711498 -0.037456088 4283199809
0.00791163 -0.041782513 -0.031220203 4281627734
0.0091137439 -0.037776165 -0.034773704 4281629774
0.010729 -0.036109582 -0.036382928 4281695819
0.012781613 -0.03678143 -0.036051873 4281891914
0.015295815 -0.039790414 -0.033784561 4282022218
0.017057788 -0.038902953 -0.034746893 4282480709
0.017554803 -0.031784743 -0.040866598 4284378418
0.0092946514 -0.040865324 -0.034651659 4281890128
0.010622382 -0.037630916 -0.037548304 4281695564
0.012823913 -0.039086469 -0.036574375 4281825359
0.015947687 -0.045229122 -0.031737942 4281890893
0.018496122 -0.048244603 -0.029482881 4282086479
0.019493153 -0.04344859 -0.033662736 4282739279
0.011686802 -0.045422211 -0.033567235 4281890893
0.013909403 -0.046880811 -0.032600168 4281957449
0.017205104 -0.053822994 -0.027138041 4282087243
-0.0028455071 0.019292351 0.0071435366 4281950054
-0.0074895844 0.021785691 0.0023484239 4279458448
-0.0048537739 0.017658748 0.0062891319 4279322789
-0.012299746 0.025725435 -0.0038544298 4279852423
-0.010316331 0.025121694 -0.0034556803 4278933149
-0.0079609826 0.022395127 -0.00093459059 4278472108
-0.0026751123 0.014116213 0.0069243051 4279256743
-0.012170058 0.022808906 -0.0035868809 4278801824
-0.010658685 0.025043435 -0.0060167094 4278604199
-0.0025268383 0.011163924 0.0071601197 4278994348
-0.0011316948 0.014109068 0.004023511 4280566679
-0.011691589 0.017746858 -0.0012098467 4278997408
-0.01076211 0.023549674 -0.0071612215 4278800293
-0.0090227984 0.024365798 -0.0081745768 4278668204
-0.00032841414 0.0075992718 0.00777396 4281546899
-0.01063307 0.0090907589 0.0046689995 4280375174
-0.010151524 0.017769903 -0.004086371 4278997153
-0.0087610669 0.02073171 -0.0072089862 4278931110
-0.0060237981 0.015837546 -0.002602593 4278668714
-0.002613239 0.0073760077 0.0055068191 4279192484
-4.6361238e-05 0.0039145872 0.0086957142 4282007938
-0.0089484602 0.0083816908 0.0024764603 4279653269
-0.0077709332 0.012786563 -0.0020466046 4279194269
-0.0053832717 0.010027327 0.00044221058 4279128479
-0.00233927 0.0036889315 0.0064284783 4279127969
0.00023483485 0.00021711737 0.0096077397 4282138499
-0.0088728666 -0.006193947 0.014226845 4281164653
-0.0077486411 -0.0010538995 0.0090030599 4279718804
-0.0065406784 0.0033656359 0.0044849869 4279390618
-0.0046204291 0.0034729987 0.004166293 4279391129
-0.002192948 0.00070744008 0.0066418238 4279259804
0.00025619939 -0.0020568073 0.0091138352 4282402168
-0.0089812428 -0.0077623837 0.01302507 4281490034
-0.0073819049 -0.0054907091 0.010605795 4279980433
-0.0057986453 -0.0032197833 0.0081892312 4279783828
-0.0041075237 -0.0016702302 0.0064727236 4279652759
-0.0023004636 -0.00084162131 0.0054549947 4279849619
-0.00011070818 -0.0021740347 0.00652753 4280504968
0.0016938113 -0.001345329 0.0055103321 4282337654
-0.0088581704 -0.010776922 0.013217559 4281489013
-0.0071347207 -0.0092214644 0.011498889 4280504458
-0.005421944 -0.0076665469 0.0097821075 4279718039
-0.0039674416 -0.0046666376 0.0066758133 4279849364
-0.002534423 -0.0016678348 0.0035731597 4279783828
-0.00086452812 -0.00011502951 0.0018637208 4279718804
0.0013221689 -0.0014517903 0.0029334249 4280177549
-0.0071248859 -0.011514559 0.010992434 4282205563
-0.0055301823 -0.0092301592 0.0085840691 4278996643
-0.0040752068 -0.0062216222 0.0054844115 4279587224
-0.0028943866 -0.0017647222 0.0010012789 4279521943
-0.0012297146 -0.00020786375 -0.00070397742 4279194524
0.00081943721 -0.00082483888 -0.00032934546 4278997153
0.0028740615 -0.0014414564 4.4501387e-05 4280831624
0.0045227557 0.0001148209 -0.0016578594 4282796143
-0.0055175871 -0.011520684 0.0080790427 4279979159
-0.0043064207 -0.00704927 0.0036008768 4279783828
-0.0030013397 -0.0033064671 -0.00017995667 4279784338
-0.0014653727 -0.0010185577 -0.0025733439 4278801059
0.00044922903 -0.00091126561 -0.0028909119 4279914643
0.0022296198 -7.7437609e-05 -0.0038989754 4280373388
0.0041416511 2.9906631e-05 -0.0042159641 4280897158
-0.0055052489 -0.013815254 0.0075709168 4282205563
-0.0044139549 -0.0086015314 0.0024115555 4280307854
-0.0032342933 -0.0041188374 -0.0020512743 4279914388
-0.0017007068 -0.0018246584 -0.004439191 4279128989
7.9639256e-05 -0.0009887293 -0.0054456899 4279718549
0.0018546581 -0.00015306845 -0.0064511923 4279849108
0.0037611723 -4.6040863e-05 -0.0067672683 4280307598
0.0059467778 -0.0013955571 -0.0057072164 4281093509
0.030511558 0.024291212 -0.033235963 4280563619
0.031963632 0.025846766 -0.034897678 4279585438
0.034909345 0.021597311 -0.031117572 4279060903
0.039413407 0.011546552 -0.02190632 4278929833
-0.0042750761 -0.01161626 0.002600519 4282599283
-0.0030892491 -0.007120356 -0.001853222 4280897158
-0.0019356944 -0.0026260987 -0.0063015497 4279456918
-0.00015802681 -0.0017882474 -0.0073059006 4279784083
0.0014803484 -0.00021980703 -0.0089965267 4279718804
0.0033813305 -0.00011310726 -0.009311703 4280176273
0.0052823722 -6.2957406e-06 -0.0096268049 4280372879
0.007041391 0.00083093345 -0.010627733 4282468724
0.025345087 0.028448626 -0.039194193 4282203014
0.027505955 0.02709497 -0.038132261 4280305559
0.029312525 0.027198067 -0.03843046 4279257763
0.035684869 0.023870058 -0.035935089 4278469303
0.040790737 0.011608273 -0.024718538 4278337468
-0.0028190315 -0.010863543 -0.00097465888 4282467449
-0.0016566254 -0.0063559636 -0.0054143663 4280177294
-0.00013310835 -0.0040493011 -0.0077905017 4279915409
0.0013743117 -0.0017434806 -0.010163848 4279784339
0.0032751672 -0.0016367808 -0.010478993 4280111248
0.0050368607 -0.00079736114 -0.011478773 4280045459
0.006651286 0.00077438354 -0.013161878 4280504203
0.0082549714 0.0023455881 -0.014843077 4282140793
0.021125542 0.028992156 -0.041742988 4279189934
0.022918655 0.029094188 -0.042039193 4279520669
0.024711723 0.029196335 -0.042335302 4278996134
0.028115353 0.030131068 -0.043604847 4278337978
0.029535457 0.031693384 -0.045254506 4279322788
0.031132448 0.032525361 -0.046225645 4278800038
0.033866681 0.028978707 -0.043138377 4278471344
-0.02442183 -0.04330866 0.029658001 4281163378
-0.0012501255 -0.010833882 -0.0038520582 4282468724
2.2541732e-05 -0.0070496798 -0.0075937789 4281094020
0.0014019795 -0.004001949 -0.010647007 4280242574
0.00316903 -0.0031601936 -0.011646089 4279849619
0.0046526007 -0.00084900111 -0.014010315 4279783828
0.0061200485 0.001461342 -0.016371749 4279587224
0.0075713508 0.0037709177 -0.01873048 4280307088
0.0087121986 0.0075483546 -0.022449847 4281419654
0.018555868 0.030385632 -0.045259915 4280109464
0.020338105 0.030486967 -0.045554388 4279192228
0.022468552 0.029122733 -0.044494256 4278864808
0.024079293 0.029957218 -0.045466252 4278537133
0.025864106 0.030058989 -0.045760918 4278274739
0.029063748 0.031727247 -0.04770096 4278338744
0.03065539 0.032561034 -0.048669487 4278800549
0.033193048 0.029735155 -0.046264153 4278865829
0.036524139 0.023983719 -0.041165739 4278734760
0.04087672 0.01457689 -0.032705862 4278275759
0.046687964 5.4188073e-05 -0.019544665 4278341294
-0.02604584 -0.049494997 0.032883853 4281488249
-0.02462377 -0.044203997 0.027715478 4280243338
0.00030843914 -0.010795802 -0.0067207236 4282534003
0.0016964376 -0.0077390037 -0.009768663 4280307853
0.0031991452 -0.0054204054 -0.012131119 4279783828
0.004685726 -0.0031025968 -0.014490816 4279718293
0.0061561912 -0.00078563765 -0.016847715 4279718293
0.007466197 0.0022672117 -0.019882392 4279587224
0.0083136559 0.0075284615 -0.024953607 4279914388
0.014401034 0.030961864 -0.04779667 4281025169
0.015843345 0.03253343 -0.049443834 4278863023
0.017443432 0.03336915 -0.050412625 4278338998
0.019723181 0.031264164 -0.04867626 4278339254
0.021845097 0.029895201 -0.047618117 4278797999
0.023624439 0.029996581 -0.047911949 4278602669
0.02522438 0.030832699 -0.048880402 4278537388
0.043010879 0.011737753 -0.032797981 4278669733
-0.026158076 -0.051142633 0.031621058 4280963968
-0.024825398 -0.045094758 0.025776476 4279980688
-0.0229779 -0.043499082 0.024063192 4280243593
-0.021236654 -0.041162439 0.021664903 4280639609
0.0018566363 -0.01074928 -0.009580696 4282402933
0.003228981 -0.0076846592 -0.012619248 4280045714
0.0047185831 -0.0053602904 -0.014974376 4279848853
0.0061920546 -0.0030366555 -0.017326774 4279718038
0.0075052343 2.4970621e-05 -0.020355262 4279587224
0.0083563179 0.0053014457 -0.025415279 4279128223
0.0085714795 0.013529997 -0.033180825 4280176784
0.01091047 0.028601395 -0.047621984 4279258018
0.012847465 0.027964123 -0.047239687 4278930343
0.013974696 0.031015975 -0.050236825 4278601904
0.02352323 0.028570853 -0.04900381 4278668203
0.025123199 0.029409142 -0.049970571 4278603434
0.026535815 0.030983929 -0.051609002 4278472363
0.029890409 0.031922787 -0.052865043 4278930854
0.032038536 0.030551586 -0.051814061 4278931109
0.034968078 0.026236914 -0.048081484 4278931108
0.03812525 0.021188293 -0.043683771 4278603944
0.041716222 0.014670417 -0.037952282 4278538409
0.048367105 -0.0028784722 -0.022186186 4278538409
-0.026270267 -0.052789941 0.030358493 4280702084
-0.024846416 -0.047468804 0.02521329 4280177294
-0.023088884 -0.045124888 0.02281718 4280046224
-0.021442834 -0.042038083 0.019738577 4280050304
0.0033944771 -0.010694399 -0.012431901 4282468978
0.0047511682 -0.0076219365 -0.015461052 4280504204
0.0063689537 -0.0060328059 -0.017131284 4279586968
0.0078320056 -0.0037032627 -0.019476805 4278800549
0.0085453913 0.0023296401 -0.02520333 4279455899
0.0084686801 0.012063548 -0.034304146 4280111504
0.0081698 0.022534128 -0.044069108 4280174999
0.0090337731 0.027077606 -0.048418235 4279127714
0.010337859 0.029398778 -0.050737049 4278799273
0.013223235 0.032558814 -0.054018263 4278864298
0.014815308 0.0333983 -0.054982439 4278865318
0.016401967 0.034237582 -0.055945635 4278603434
0.018838033 0.031379424 -0.053544205 4278731698
0.023069326 0.028623652 -0.051439133 4278602669
0.02466392 0.029463857 -0.052403357 4278602923
0.026434824 0.029564958 -0.052695632 4278865318
0.028205676 0.029666167 -0.052987814 4278865574
0.029976455 0.029767476 -0.053279903 4278669734
0.032316674 0.027653757 -0.051563032 4278734504
0.035443094 0.022588193 -0.047172025 4278865574
0.038802367 0.016786885 -0.04211846 4278865318
0.04260052 0.0095122568 -0.035735276 4278668458
0.048659179 -0.0058743618 -0.02201464 4278735524
0.068737701 -0.063913122 0.030048441 4278931873
-0.026295107 -0.055183277 0.029781122 4282340713
-0.024957653 -0.049100742 0.023962539 4280308365
-0.023107167 -0.047496378 0.022255428 4279914898
-0.021553319 -0.043654978 0.018499412 4279720079
-0.019732121 -0.042052053 0.016797388 4281359729
0.0050604008 -0.011374488 -0.014597978 4282730353
0.0065452866 -0.0090373755 -0.016942164 4280832134
0.0078701787 -0.0059578866 -0.019959165 4278931108
0.0087338798 -0.00065055117 -0.024997806 4279389854
0.0089628883 0.0076260604 -0.032728661 4279914643
0.0088287257 0.01738479 -0.041798048 4279980433
0.0090884045 0.024912093 -0.048834473 4279324318
0.0099235103 0.029466957 -0.053168662 4278734249
0.014219739 0.034218304 -0.058075033 4278996134
0.015966449 0.034317523 -0.058363702 4278930598
0.018396385 0.031450428 -0.055967961 4278733993
0.02084785 0.028584661 -0.053575691 4278340274
0.022792229 0.027944125 -0.053197488 4278602923
0.024563061 0.028045144 -0.053489815 4278603178
0.026515441 0.027405221 -0.05311273 4278800038
0.028841713 0.025284115 -0.05139878 4278538409
0.030810144 0.024645323 -0.05102418 4278604198
0.033352911 0.021785427 -0.048646543 4278997408
0.036494296 0.016705677 -0.044269748 4278801313
0.039868385 0.010887984 -0.039232001 4278866849
0.043087732 0.0058129616 -0.034867935 4279195034
0.048549727 -0.0073988326 -0.023181856 4279129498
0.068409875 -0.064868554 0.028085403 4278997919
-0.026233081 -0.058329046 0.029883895 4282798439
-0.024979029 -0.051480681 0.023394831 4280504458
-0.023310695 -0.048375592 0.020325825 4280045714
-0.021663759 -0.04527159 0.017260456 4279325338
-0.020038206 -0.042168684 0.014198801 4280112268
0.006580025 -0.011304796 -0.017433798 4282862189
0.007764373 -0.0074712597 -0.021118486 4279258784
0.0087754019 -0.0028939918 -0.02547206 4279324319
0.0094559155 0.0031715594 -0.031166203 4279783574
0.0097897425 0.010724455 -0.038198192 4279980433
0.0099151768 0.019019116 -0.045893315 4278931109
0.010295689 0.025821455 -0.052235212 4279389854
0.01094744 0.031132374 -0.05722655 4278930089
0.022691507 0.026525695 -0.054283757 4278865574
0.024819702 0.025140075 -0.053239852 4278866084
0.027321501 0.022268891 -0.050862361 4278865573
0.029476531 0.020885047 -0.04982277 4278604453
0.032202765 0.017273389 -0.046784576 4278604199
0.034766357 0.014406051 -0.044417035 4278800804
0.038120303 0.0085699037 -0.039389469 4279129753
0.040542718 0.0064482354 -0.037696034 4279456664
0.043969233 0.00061652437 -0.032680295 4279326104
0.049041182 -0.011149235 -0.022355234 4279522710
0.06808234 -0.065819353 0.026125915 4279325593
-0.024910953 -0.054615095 0.023505267 4280570503
-0.023236793 -0.051501118 0.020441987 4279718038
-0.021774132 -0.046887867 0.016021753 4279390873
-0.020050373 -0.044526376 0.013646528 4279980433
-0.018342648 -0.042165607 0.011274019 4280832898
0.0088166334 -0.005141411 -0.025949437 4279520923
0.009947747 -0.0012998953 -0.029616741 4279128223
0.010748643 0.0040342174 -0.034621313 4279456409
0.011357494 0.010113113 -0.040289946 4279587223
0.011452127 0.018429797 -0.047961418 4279520668
0.011647198 0.025996644 -0.054953426 4279062178
0.012113191 0.03206782 -0.060598217 4278604454
0.013361633 0.034405451 -0.062892437 4278735523
0.015265115 0.033757992 -0.062511064 4278997154
0.017855987 0.030127257 -0.059459392 4278866084
0.020820174 0.025006611 -0.055077456 4278865573
0.02364617 0.020633791 -0.05136849 4278997154
0.025968678 0.018499386 -0.049664136 4278931618
0.028488597 0.015620638 -0.047296342 4278735269
0.030846041 0.013488382 -0.045597557 4279128733
0.033406261 0.010612156 -0.043236244 4279325338
0.035987969 0.007737264 -0.0408784 4279456664
0.038591154 0.0048637167 -0.038524006 4279587733
0.041021045 0.0027360804 -0.03683687 4279653523
0.044454284 -0.00311248 -0.031835623 4279915664
0.067960657 -0.06750942 0.024831969 4279915664
-0.02325565 -0.05388248 0.019872634 4279653269
-0.021789562 -0.049256213 0.015461924 4279259803
-0.020160418 -0.046135917 0.012413012 4279587734
-0.01825178 -0.04527276 0.011400959 4280111249
-0.016348403 -0.044409722 0.010389837 4280439178
0.0090036802 -0.0081423111 -0.025759775 4280702339
0.0099920109 -0.0035404265 -0.030089369 4279652759
0.011250988 -0.0004385151 -0.03307505 4279456663
0.012334239 0.0034112632 -0.036725871 4279718548
0.012919907 0.0095061883 -0.042377204 4279391128
0.01282417 0.018593524 -0.050692894 4279585693
0.012826007 0.026928814 -0.058330391 4278669989
0.013923276 0.0300221 -0.061288897 4278669989
0.016004924 0.028624825 -0.06024434 4278538919
0.018778728 0.024235973 -0.056537028 4278997409
0.021411791 0.020596992 -0.053500634 4278866338
0.024598997 0.014716316 -0.048472885 4278735268
0.027115524 0.011828687 -0.046111323 4278931874
0.030015821 0.00744747 -0.042424563 4279129244
0.03202926 0.0068047903 -0.042062506 4279326614
0.034607597 0.0039210133 -0.039710891 4279522709
0.036639772 0.0032795593 -0.039351732 4279522453
0.039061066 0.0011448897 -0.037668288 4279522453
0.041303854 -0.00024210662 -0.036649477 4279719058
0.045332994 -0.0083472095 -0.029677302 4279915664
0.067633584 -0.068453111 0.022877928 4279915664
-0.022998538 -0.058531702 0.021332514 4280373899
-0.021615695 -0.053137437 0.016252916 4279915154
-0.019978035 -0.050008088 0.01320928 4279653014
-0.018161472 -0.048388198 0.011521475 4279914643
-0.016355533 -0.04676877 0.0098355357 4280046223
-0.014665775 -0.044395894 0.0074762348 4281030524
0.010184634 -0.0065364204 -0.029897055 4280767874
0.011752147 -0.0049282312 -0.031541795 4279391129
0.013154857 -0.0025693513 -0.033851847 4279783828
0.014227949 0.0012907088 -0.037492506 4279849364
0.014317565 0.0096544735 -0.045126103 4279718293
0.014347896 0.018014964 -0.05274982 4279587223
0.01514297 0.022619521 -0.057036895 4279128223
0.017078225 0.021969587 -0.05666412 4279456408
0.020040052 0.016818594 -0.0523053 4278866849
0.022693776 0.013170045 -0.049280707 4278801058
0.025374405 0.0095231384 -0.046260465 4279128734
0.027903661 0.0066276565 -0.043907698 4279521944
0.030635394 0.0029838793 -0.040895738 4279456663
0.032659326 0.0023396499 -0.040537085 4279653523
0.034502216 0.0024451464 -0.040841021 4279587988
0.036723163 0.0010523871 -0.039822139 4279654033
0.038954802 -0.00033959746 -0.038804963 4279522964
0.041391589 -0.0024797581 -0.037128977 4279260823
0.045421585 -0.010608427 -0.030175379 4279588244
0.067717269 -0.070888609 0.02224483 4279588244
0.070449799 -0.073011115 0.023872528 4280243849
-0.021442678 -0.057031333 0.017034272 4282143344
-0.020088416 -0.051623501 0.011971256 4279849619
-0.018371705 -0.049243003 0.0096123386 4279915153
-0.016568322 -0.047619388 0.0079301242 4279980688
-0.014775559 -0.045996279 0.0062498134 4280308365
-0.0133177 -0.04210601 0.0025520837 4280373388
0.01194974 -0.0079279616 -0.031353429 4280636294
0.013358153 -0.0055623688 -0.033659361 4279521944
0.014750395 -0.0031975135 -0.035962552 4279784338
0.015489407 0.00217852 -0.040921349 4279914899
0.015704781 0.0098111667 -0.047866318 4279652504
0.016689548 0.01367731 -0.051483717 4279128734
0.018484112 0.013779286 -0.051780272 4279128733
0.021298939 0.0093669593 -0.048099812 4279456664
0.023627833 0.0072133578 -0.046411779 4279652759
0.025797429 0.00581282 -0.045388196 4279521943
0.028155876 0.0036611408 -0.043704864 4279456663
0.030892104 6.8619847e-06 -0.040701956 4279587733
0.033104647 -0.001390852 -0.039685257 4279784594
0.034769274 -0.00053342804 -0.040650636 4279718805
0.036617346 -0.00042751804 -0.040955335 4279457428
0.039040141 -0.0025749765 -0.039282188 4279392149
0.041673314 -0.0054724365 -0.036952745 4279719569
0.046100836 -0.015126258 -0.028701399 4279981453
0.067390509 -0.071827322 0.020294603 4280046988
0.069911972 -0.073206231 0.021261245 4282144873
-0.019810107 -0.056273147 0.013426362 4280767364
-0.01838189 -0.051610127 0.0090522859 4280046733
-0.01667821 -0.049223758 0.0067006145 4279784083
-0.015095789 -0.046079971 0.0036798296 4280111503
-0.013534788 -0.042937316 0.00066273566 4278997664
-0.011773963 -0.041311428 -0.0010087946 4280439943
0.013868317 -0.01007463 -0.032145601 4280963458
0.015271652 -0.007702712 -0.034445599 4279784338
0.016181476 -0.00306613 -0.03873165 4279391383
0.016573522 0.0038338043 -0.044999767 4279391129
0.017410567 0.0084665343 -0.049273644 4279587734
0.019218465 0.0085692555 -0.049572408 4279194524
0.021705914 0.0056538917 -0.047226403 4279587734
0.024042306 0.0034942403 -0.045544583 4279587734
0.02604425 0.0028441399 -0.04518592 4279522453
0.028229522 0.0014403164 -0.044168189 4279653268
0.03060618 -0.00071664527 -0.042492788 4279653268
0.032815594 -0.0021188632 -0.041478872 4279719059
0.034663599 -0.0020130463 -0.041783631 4279849874
0.036700286 -0.0026605986 -0.041430257 4280243848
0.038742281 -0.003307756 -0.041077681 4281096059
-0.018492039 -0.05322063 0.0078180414 4282861679
-0.016890462 -0.050067328 0.0048006754 4280242573
-0.015205193 -0.047675431 0.0024571773 4279652503
-0.013535973 -0.045284361 0.000116474 4279062689
-0.011661824 -0.044414118 -0.00088282023 4279718549
-0.0099061243 -0.042784117 -0.0025500515 4280374664
0.01547917 -0.010709897 -0.034265131 4280702083
0.016395144 -0.006060075 -0.038542144 4279784338
0.016793808 0.00085955858 -0.044796266 4279456409
0.017472673 0.0062624961 -0.04972145 4279325594
0.019116074 0.0071222857 -0.050680611 4279194523
0.021602774 0.0041982755 -0.048341196 4279457173
0.023938563 0.002032157 -0.046664301 4279653778
0.026290478 -0.00013293326 -0.044989988 4279850129
0.028302861 -0.00078446791 -0.044634629 4279981199
0.030501099 -0.002191674 -0.04362233 4279719059
0.032710068 -0.0035981983 -0.042611681 4279849874
0.034929737 -0.0050039589 -0.041602753 4280570759
0.037160125 -0.0064090155 -0.040595446 4281488249
-0.016897876 -0.052431569 0.0042422917 4281289858
-0.015209615 -0.05003313 0.0019033533 4278865828
-0.013429768 -0.048397735 0.0002352614 4279455899
-0.011550248 -0.047525078 -0.00076326821 4279784083
-0.0099020377 -0.04512845 -0.0030953037 4280046734
-0.0082698688 -0.042732626 -0.0054245302 4281554549
0.016290605 -0.0075434037 -0.039678276 4279260058
0.016851999 -0.0013636984 -0.045258336 4279063199
0.017698681 0.0032953024 -0.049513642 4279391129
0.019347489 0.0041575022 -0.05047198 4279587988
0.021838825 0.0012251809 -0.048140023 4279719314
0.024179395 -0.00094706565 -0.046468996 4279784593
0.02618615 -0.0016012192 -0.046114419 4279522964
0.028198238 -0.0022549108 -0.04576068 4279850383
0.030396029 -0.0036664233 -0.044751655 4279915664
0.032787602 -0.0058353394 -0.043088641 4280767619
-0.016803432 -0.055564657 0.0043482427 4282468213
-0.015109506 -0.053159416 0.0020133387 4279127968
-0.013431612 -0.050754964 -0.00031881221 4279718293
-0.01165957 -0.049115643 -0.0019821208 4279784083
-0.010011077 -0.046712577 -0.0043091937 4279915409
-0.0084941946 -0.04354623 -0.0072986232 4280112013
-0.006880492 -0.041144893 -0.0096196765 4281095548
0.016748549 -0.002829507 -0.046381019 4280570759
0.017924102 0.00031974912 -0.049312163 4279194524
0.0195783 0.0011844411 -0.050269756 4279195034
0.022074273 -0.0017562062 -0.04794528 4279587988
0.024247508 -0.003173802 -0.046935778 4279719314
0.026606293 -0.0053513236 -0.045272689 4279915919
0.028803695 -0.0067673028 -0.044266995 4281358963
-0.015219238 -0.054760441 0.00078641437 4282402679
-0.013541054 -0.052349538 -0.0015407596 4280700809
-0.011878904 -0.049939446 -0.0038651391 4280045969
-0.010232802 -0.04753007 -0.0061867847 4280111503
-0.0086027496 -0.045121469 -0.0085056657 4280045968
-0.0069887638 -0.042713709 -0.010821764 4280374153
-0.0051492341 -0.041838489 -0.011809916 4281030524
0.017985025 -0.0019006617 -0.049772579 4279653269
0.0201417 -0.0033236705 -0.048763912 4279391128
0.022478411 -0.0055091493 -0.047102332 4279915919
0.024831256 -0.0076936074 -0.04544333 4280047243
0.026850875 -0.0083512664 -0.045094267 4281881459
-0.013757661 -0.053174987 -0.0034256522 4282468724
-0.012097899 -0.0507586 -0.0057446044 4280438669
-0.010341626 -0.049111441 -0.0073985588 4280046224
-0.0085960105 -0.047464803 -0.0090506207 4279980688
-0.0069790371 -0.045050383 -0.011362218 4280111503
-0.0051368214 -0.044172883 -0.012349152 4279391383
-0.012097102 -0.053114787 -0.0062984098 4282468469
-0.010450412 -0.050692514 -0.0086101238 4280832388
-0.0088197775 -0.048271038 -0.010919074 4279980688
-0.0070873983 -0.046620727 -0.012565483 4279521689
-0.0052451789 -0.045741096 -0.013550756 4279914899
-0.0035314746 -0.044091538 -0.01519391 4280046223
-0.0017025657 -0.043212399 -0.016176779 4280309129
-0.010446884 -0.053046122 -0.0091624912 4282337909
-0.0088132694 -0.050618097 -0.011466874 4279521433
-0.0070780478 -0.048963279 -0.01311045 4279980433
-0.0052331537 -0.048081376 -0.014094507 4279914899
-0.0033935606 -0.047199629 -0.01507757 4279914898
-0.001810763 -0.044773892 -0.017373163 4279980433
-0.0088070296 -0.052969083 -0.01201777 4282272374
-0.0070689805 -0.051309854 -0.013658492 4280569483
-0.0053416006 -0.049651131 -0.015297296 4279914643
-0.0036249086 -0.047992878 -0.016934218 4280045969
-0.0020445138 -0.045560829 -0.01922439 4279849618
-0.00073676556 -0.041581452 -0.022821084 4279981709
0.00080607459 -0.039151274 -0.025104847 4280244614
-0.0070601627 -0.053660467 -0.014209563 4282141049
-0.0054500215 -0.051220588 -0.016499856 4279914898
-0.0038559437 -0.048781484 -0.01878739 4279718548
-0.0022779331 -0.046343185 -0.021072101 4279718548
-0.00084415451 -0.043129414 -0.024007086 4279784338
0.00069897249 -0.040692799 -0.026285879 4279391383
-0.0055584088 -0.052789748 -0.017702186 4281813629
-0.0039640442 -0.050344199 -0.019984746 4279783573
-0.002260454 -0.048678003 -0.021612728 4278669733
-0.00082354248 -0.045455486 -0.024541534 4279259549
0.00072257221 -0.043012239 -0.026815783 4279586969
0.002652701 -0.042904034 -0.027135894 4279981453
0.0044468082 -0.04201781 -0.028105931 4280244868
-0.0040721148 -0.05190663 -0.021181894 4281486208
-0.0022432432 -0.051016808 -0.022156408 4279849364
-0.00080320239 -0.047785535 -0.025079055 4279587479
0.00074590743 -0.045335762 -0.027348749 4279849364
0.0025453381 -0.044447154 -0.028318118 4279915409
0.0046112686 -0.045118965 -0.02798973 4279195289
-0.0021013059 -0.054142497 -0.022054644 4281225088
-0.00078313053 -0.050119653 -0.025619598 4279783828
0.00063858181 -0.046880707 -0.028532401 4279587224
0.0024380051 -0.045989968 -0.029500108 4279915408
0.0043678656 -0.045881659 -0.029820073 4279456408
0.0067131259 -0.048119485 -0.028201154 4279456409
0.0080865584 -0.044882737 -0.031105552 4280572544
-0.00089086592 -0.051672928 -0.026809672 4280242063
0.00027081743 -0.046855986 -0.031007778 4279914644
0.0020648651 -0.045963444 -0.031972878 4279915408
0.0043960139 -0.048208624 -0.030356735 4279456408
0.0068816543 -0.051236995 -0.02809857 4279914898
0.0089658797 -0.051911741 -0.027776392 4280112269
0.010193415 -0.047882535 -0.031317368 4280768638
-0.00074381381 -0.054799847 -0.026710013 4283187823
0.00029391795 -0.049182899 -0.031543422 4279586204
0.0020906404 -0.04828807 -0.032507289 4280045969
0.0045593381 -0.051326081 -0.030253099 4279718549
0.0074640587 -0.056721918 -0.026073465 4279980434
0.0097022727 -0.058184303 -0.025112635 4280439433
0.011664215 -0.058073819 -0.025437629 4281686383
0.00070652738 -0.053880788 -0.030154126 4282469998
0.0026466288 -0.05377204 -0.030475898 4280176783
0.0052633286 -0.057606593 -0.027588753 4281225088
0.0080449879 -0.062228054 -0.024064612 4282928999
0.0058303811 -0.063121811 -0.025584087 4282667624
-0.00018846989 0.021916617 0.026637454 4286801429
-0.037265923 -0.017848291 0.070229515 4284901169
-0.023359265 0.0030810125 0.046364143 4285885469
-0.037452314 -0.018825889 0.06821952 4284966703
-0.03545228 -0.018017985 0.067145184 4284966958
-0.037350509 -0.022580601 0.069124468 4285097773
-0.033803362 -0.016789146 0.062615439 4285097518
-0.013504509 0.02490598 0.016332129 4286409239
-0.037536722 -0.023557693 0.067114748 4285032494
-0.03391679 -0.018446639 0.061345197 4285163054
-0.031935047 -0.017635383 0.060277298 4284901168
-0.035794046 -0.023016289 0.063314602 4285163309
-0.033953089 -0.020803347 0.060798749 4285163309
-0.030154135 -0.017778195 0.057220727 4285097518
-0.035833586 -0.025383666 0.062760502 4285228588
-0.033912707 -0.023865737 0.060971148 4285229099
-0.032081958 -0.021646902 0.058462113 4285228589
-0.028553318 -0.016510382 0.052731507 4285032749
-0.034026328 -0.025529005 0.059696443 4285294379
-0.032115791 -0.02400735 0.057912238 4285163053
-0.030380104 -0.021079198 0.054690979 4285032238
-0.028750602 -0.01744882 0.050754372 4285031983
-0.026972782 -0.015226208 0.048259307 4285033004
-0.034063254 -0.027897991 0.059140615 4285031984
-0.032149855 -0.026371881 0.057359211 4285097518
-0.030574974 -0.022023685 0.052708611 4285097774
-0.029032212 -0.01767718 0.04806342 4285031983
-0.027172055 -0.01615376 0.046291083 4284901168
-0.025232393 -0.015336066 0.045237027 4285033004
-0.032342423 -0.027324557 0.055369966 4284901168
-0.030769456 -0.022963576 0.050729748 4285032494
-0.029144075 -0.019311942 0.046810597 4285031983
-0.027283732 -0.017784245 0.045041557 4284966448
-0.025164168 -0.018379159 0.045418657 4285097518
-0.023131665 -0.018266477 0.045080587 4285689119
-0.029255863 -0.020946451 0.045557957 4285097773
-0.027221154 -0.020833857 0.045219354 4285228843
-0.02919909 -0.024004675 0.045730166 4285098284
-0.027159099 -0.023891822 0.045390662 4285163563
-0.02939513 -0.024928831 0.043763921 4284901679
-0.027271163 -0.025530182 0.044135071 4285098029
-0.02729651 -0.027884431 0.043588243 4284901424
-0.017683256 -0.032540664 0.018650075 4284901169
-0.015681285 -0.032429621 0.018317126 4285032238
-0.01748972 -0.036362767 0.019483173 4284901423
-0.015895318 -0.033295654 0.016400015 4285098029
-0.014002621 -0.032445922 0.015380822 4285163054
-0.017499108 -0.038715079 0.01893452 4284901423
-0.015797835 -0.036380269 0.016543094 4285098029
-0.014218997 -0.033305332 0.01346931 4285097518
-0.012443356 -0.031713024 0.011768542 4285163053
-0.010342941 -0.032343067 0.012122232 4285228843
-0.015804451 -0.038730025 0.015995931 4285097518
-0.012552954 -0.033306628 0.010547383 4285097518
-0.010676149 -0.032453299 0.0095343236 4285360424
-0.0085759014 -0.033085406 0.0098864324 4285359914
-0.014226198 -0.0379913 0.012384217 4285032238
-0.012553692 -0.035645008 0.01000778 4285031983
-0.010897201 -0.033299536 0.0076341555 4285360168
-0.0090283528 -0.03244435 0.0066241398 4285360424
-0.007164795 -0.031589419 0.0056151152 4285425449
-0.014230188 -0.040340304 0.011837013 4284966704
-0.012445994 -0.038734689 0.010144841 4285097773
-0.010895189 -0.035635337 0.007096 4285294889
-0.0092517622 -0.033283994 0.0047296081 4285360168
-0.0075076446 -0.031680278 0.0030443557 4285425958
-0.012664434 -0.039584421 0.0082413144 4285032494
-0.01111586 -0.036476642 0.0051995888 4285294889
-0.0094748326 -0.03411901 0.0028386153 4285425958
-0.0078498609 -0.031762138 0.00048040971 4285425959
-0.011114065 -0.038816154 0.0046585891 4285229353
-0.0093562752 -0.03720317 0.0029776236 4285426724
-0.0078420751 -0.034088448 -5.1543117e-05 4285426214
