# .PCD v0.7 - Point Cloud Data file format
VERSION 0.7
FIELDS x y z rgba
SIZE 4 4 4 4
TYPE F F F U
COUNT 1 1 1 1
WIDTH 977
HEIGHT 1
VIEWPOINT 0 0 0 1 0 0 0
POINTS 977
DATA ascii
-0.020567406 0.038346019 0.02259919 4290323999
-0.017741386 0.033873484 0.02746259 4290454814
-0.014188763 0.026121877 0.036062837 4290651164
0.02350349 0.031929489 0.024516333 4286857274
0.024064608 0.036624867 0.018964425 4289800484
0.025571994 0.038055647 0.017104719 4290716444
0.027268097 0.038833488 0.01598365 4290847259
0.02936307 0.038306866 0.016335353 4290716444
0.032077797 0.035824921 0.018891897 4290651164
0.034813952 0.033344463 0.021444134 4290193184
0.036941007 0.032820173 0.02178948 4289538853
0.038647693 0.033599041 0.020666506 4289473829
0.040348962 0.034377616 0.01954468 4289669923
0.041826591 0.035806961 0.017691411 4290258463
0.04351433 0.036584772 0.016572425 4290585884
0.0454202 0.036711626 0.01618606 4290193184
0.048683491 0.032935642 0.020185366 4290585629
0.053123526 0.025910277 0.02783021 4290651164
-0.04363687 0.037964143 0.023052741 4289211433
-0.042078372 0.040067941 0.020408981 4290454558
-0.040535677 0.042170811 0.017768431 4290651164
-0.038684297 0.042291291 0.017391082 4290651418
-0.03650016 0.040430952 0.019272022 4290847513
-0.034072708 0.03725151 0.02265409 4290782489
-0.031850677 0.035393797 0.024527352 4289800993
-0.030087877 0.036176249 0.02339289 4289932063
-0.028330225 0.036958426 0.022259522 4290193438
-0.026577722 0.037740331 0.02112725 4290193183
-0.02495731 0.039181229 0.019246552 4290258463
-0.023217831 0.039962403 0.018117022 4290389278
-0.021086741 0.038766604 0.019233797 4290127648
-0.018270064 0.03427802 0.024087612 4290389278
-0.014865268 0.02715778 0.031923026 4290323999
0.023745039 0.035707541 0.017097147 4289930788
0.025250025 0.037142538 0.015241243 4290323743
0.026943542 0.037922416 0.01412233 4289800483
0.029035572 0.037393406 0.014473008 4290323999
0.031542204 0.035556525 0.016290043 4290193438
0.034064885 0.033720829 0.018103842 4289931809
0.036183655 0.033193756 0.018449288 4289604644
0.03788238 0.033974357 0.017329523 4289473573
0.039791048 0.034101218 0.016942458 4289997089
0.041699663 0.034228154 0.016555458 4290192928
0.043387502 0.035008192 0.015438098 4290389279
0.045069903 0.03578794 0.014321893 4290258464
0.047877226 0.033303872 0.016853536 4289735204
0.05184966 0.027558677 0.023024879 4289669668
-0.044057641 0.038407393 0.019679282 4289211433
-0.042506721 0.040517293 0.01704186 4289473574
-0.040866297 0.041963335 0.015160002 4289408038
-0.038912352 0.041420732 0.015535416 4289146408
-0.036620807 0.038891006 0.018163238 4289997089
-0.034307647 0.036362752 0.020786703 4290128158
-0.032320935 0.035822466 0.02115557 4289670178
-0.030447368 0.035944574 0.020773835 4289604388
-0.028694969 0.036728568 0.019643132 4289997088
-0.026823688 0.036850661 0.01926196 4289866020
-0.025205676 0.038295764 0.017384978 4290192928
-0.023468774 0.039078936 0.016257575 4289996834
-0.021340806 0.037878521 0.017371643 4289473574
-0.018528108 0.033374153 0.02221486 4289342759
-0.015402857 0.02755082 0.028541863 4289735204
0.023813304 0.033480678 0.016701816 4289669158
0.025124822 0.035577193 0.014114816 4290258209
0.026619351 0.037015975 0.012264347 4290389279
0.028708443 0.036484569 0.012613989 4290651163
0.031416226 0.033984527 0.015158894 4290520604
0.033731155 0.032798342 0.016236385 4290389788
0.035846971 0.032268915 0.016580762 4289670179
0.037543125 0.033051528 0.015463211 4289473829
0.039449029 0.033178221 0.015076715 4289866274
0.041137032 0.033960428 0.013960918 4289669668
0.043040138 0.034087073 0.013575096 4289866018
0.044719957 0.034868874 0.012461061 4290127648
0.047297895 0.033030737 0.014259126 4290650908
0.050577566 0.029229451 0.018235657 4290520093
-0.044177886 0.036867891 0.018570725 4289277224
-0.042524058 0.038319133 0.016689258 4289800483
-0.040985826 0.040434781 0.014059367 4289669923
-0.039032135 0.039889902 0.014433159 4289866019
-0.036851872 0.038016014 0.016304977 4289866019
-0.034542162 0.035478666 0.018922586 4289996833
-0.03255837 0.034935888 0.019290421 4289342503
-0.030806106 0.03572201 0.018161252 4289539108
-0.028937768 0.03584379 0.017780591 4289997089
-0.027193096 0.036629498 0.016653107 4289604133
-0.025453623 0.037414931 0.015526725 4289735204
-0.023848545 0.038863622 0.013655657 4290324254
-0.021858264 0.038321655 0.01402246 4290782234
-0.01918951 0.034464397 0.018111441 4290978328
-0.015939366 0.027957402 0.025170356 4290781979
0.024074761 0.030590354 0.01703606 4289277223
0.024999637 0.034012038 0.012988528 4290127648
0.0258977 0.037432034 0.0089465026 4290454814
0.027978482 0.036897868 0.0092961993 4291043609
0.030473158 0.035046987 0.011105891 4291109399
0.033190843 0.032538868 0.013642324 4290978583
0.035091396 0.032665074 0.01325682 4289996833
0.036991913 0.032791354 0.012871379 4289800738
0.038677372 0.033575583 0.011757644 4289866019
0.040357426 0.034359477 0.010645097 4289408038
0.042032052 0.035143085 0.0095337071 4289866018
0.043924272 0.035269104 0.0091501642 4290323999
0.046267845 0.034080923 0.010218959 4290847259
0.049535643 0.030265642 0.014188135 4290847259
0.054915164 0.020541571 0.024676386 4290978073
-0.044298057 0.035328589 0.017462296 4289604644
-0.042746257 0.037451647 0.014834393 4289604643
-0.041105304 0.038906425 0.01295886 4290913304
-0.03925949 0.03902638 0.012582524 4290847259
-0.037192833 0.037812546 0.013702117 4290847259
-0.035002235 0.03593269 0.015566988 4290847259
-0.032795396 0.034053996 0.017428555 4289931554
-0.030927341 0.034175649 0.017047871 4289866274
-0.029180113 0.034963615 0.015921412 4289931553
-0.027438041 0.035751309 0.01479605 4289669923
-0.025953915 0.037870541 0.012182364 4289997089
-0.024227556 0.038657349 0.011060307 4290978328
-0.022242885 0.038112804 0.011426546 4290913304
-0.019580606 0.034241825 0.015507078 4290913304
-0.016611855 0.029042684 0.021066062 4290978583
-0.012342114 0.01786121 0.033294149 4291044119
0.022981934 0.032321788 0.012246544 4288621873
0.024090255 0.035092361 0.0089402571 4290455324
0.024978392 0.038522724 0.0049083997 4289996833
0.026846778 0.038646586 0.0045292638 4289342759
0.02912334 0.037448943 0.0056080204 4289538853
0.03203091 0.034270287 0.0088697076 4290258463
0.034127429 0.033735197 0.0092147514 4289800739
0.036229268 0.033200532 0.0095587764 4289670179
0.037691977 0.034646474 0.0077216178 4289931809
0.039143894 0.036091805 0.0058866553 4289669668
0.040805209 0.036876753 0.0047796089 4290716444
0.042461097 0.037661415 0.0036737192 4290193184
0.045013677 0.035808399 0.0054671671 4288165169
0.048266917 0.031978939 0.00942952 4288230703
0.052706685 0.024856752 0.017002733 4289866019
0.061122485 0.018000279 0.023770701 4288164149
-0.044617053 0.035129212 0.014856858 4289606429
-0.043070149 0.037258469 0.012234844 4289670688
-0.041434277 0.038717303 0.010363519 4289997344
-0.039701376 0.039506171 0.009241337 4289408294
-0.037863474 0.039625622 0.0088666212 4290062369
-0.035686869 0.037738193 0.010729417 4290585629
-0.033493999 0.035851922 0.012588901 4289866018
-0.031403061 0.034635365 0.013700435 4290193184
-0.02966376 0.035425019 0.012577148 4290062113
-0.028053168 0.036882624 0.010711355 4289996834
-0.026326898 0.037671518 0.0095908623 4290651418
-0.024734687 0.039128102 0.0077288765 4289800993
-0.022889879 0.039248534 0.0073531419 4289212199
-0.020507928 0.036698695 0.0099433083 4289474084
-0.017693628 0.0321481 0.01475192 4289866529
-0.014283296 0.024931129 0.022514395 4289735969
-0.010529343 0.016383953 0.031744592 4289801248
0.021697709 0.034739301 0.0067436565 4288490294
0.022986434 0.036854155 0.0041759703 4290062369
0.023861963 0.040294707 0.000154824 4290650909
0.02571686 0.040417679 -0.00022156816 4289996834
0.027571734 0.040540732 -0.00059789885 4289800483
0.030872762 0.036024094 0.0041131955 4290454814
0.032955617 0.035485901 0.0044593923 4290258463
0.035043783 0.034948133 0.0048045646 4289669923
0.036922626 0.035073072 0.0044235904 4289866274
0.038584106 0.035860181 0.003318103 4289931809
0.039580151 0.038632795 4.1612424e-05 4290847259
0.041222729 0.039418783 -0.0010599419 4290650908
0.043310579 0.038881376 -0.00071442407 4290454813
0.046543885 0.035037421 0.0032421555 4289866018
0.050501414 0.029212032 0.0093579311 4290585373
0.054740462 0.022728907 0.01618534 4290585373
0.057380464 0.020875391 0.017956465 4289015339
-0.045133825 0.036283009 0.010764008 4289345564
-0.043699142 0.03909003 0.0074025281 4290389788
-0.04207636 0.04055237 0.0055370983 4290454814
-0.040356752 0.041342523 0.0044192132 4289342759
-0.038422342 0.040789682 0.004791975 4289408038
-0.036257017 0.038894854 0.0066521429 4290520093
-0.034075473 0.037001207 0.0085090157 4290585629
-0.03199565 0.035779465 0.009619521 4290062369
-0.030387674 0.037241239 0.0077573955 4290062368
-0.028420124 0.036690846 0.008123694 4289931553
-0.026951183 0.038822226 0.005522823 4290978328
-0.025369417 0.040282458 0.0036662407 4290586139
-0.023535397 0.040402144 0.0032926742 4289800994
-0.021030892 0.037172914 0.0066184998 4289866529
-0.01849943 0.033945516 0.0099388901 4290389788
-0.015522782 0.028711626 0.015470179 4290586393
-0.012503106 0.023480585 0.020992808 4289605409
-0.009730015 0.019590642 0.025031321 4289409569
0.020608634 0.036517709 0.0019879416 4289341994
0.021884397 0.038638324 -0.00057221856 4290258464
0.023144074 0.040757943 -0.003129066 4290454303
0.024990834 0.040880382 -0.0035038022 4290454814
0.027245061 0.039672449 -0.0024270294 4290389278
0.030129233 0.036470223 0.00082311314 4290650908
0.032412872 0.035264432 0.001893986 4289996834
0.034283634 0.035388771 0.0015146043 4289604388
0.036154352 0.035513185 0.0011352887 4289800995
0.037807871 0.036301985 3.3058226e-05 4289669925
0.039016321 0.0384188 -0.0025129532 4290323999
0.040431134 0.039870627 -0.004333687 4290454814
0.042285495 0.039994247 -0.0047094692 4289996833
0.045051217 0.037463505 -0.0022018747 4290323999
0.04829935 0.033607416 0.0017419923 4290323999
0.052045975 0.028427029 0.0071189273 4289800483
0.055127673 0.025238788 0.010329645 4289276458
0.056566011 0.026692634 0.0085044783 4288425013
-0.04564913 0.03745468 0.0066840947 4289215513
-0.044224534 0.040269855 0.0033311117 4290193184
-0.042507742 0.041061949 0.002215296 4290651164
-0.04079606 0.041853737 0.001100624 4290454814
-0.0386503 0.039950915 0.0029598027 4290520093
-0.036600772 0.038722664 0.0040730461 4290716444
-0.034540307 0.03749514 0.0051841512 4290062369
-0.032704625 0.037614543 0.0048099589 4290062114
-0.030989256 0.038406909 0.003694782 4290258718
-0.029155862 0.0385263 0.0033211559 4290323998
-0.027574014 0.039990876 0.0014676889 4290193184
-0.026131239 0.042127192 -0.0011229403 4290389278
-0.02417947 0.041573737 -0.00075492729 4290323999
-0.021954428 0.039676741 0.0010885084 4290323999
-0.019576568 0.037108999 0.0036664605 4290192928
-0.017037887 0.033871092 0.006977262 4289931299
-0.013904568 0.027949061 0.013229216 4289997599
-0.010722894 0.022030264 0.019471381 4288757533
0.020292696 0.035645984 0.00015348196 4289210923
0.021370711 0.038440965 -0.0031270394 4289866019
0.022823665 0.039899103 -0.0049527893 4290062369
0.024868535 0.039353762 -0.0046023121 4289669668
0.027122313 0.038141403 -0.0035286993 4289931554
0.030005505 0.034928098 -0.00028650649 4290062113
0.031870857 0.035052009 -0.00066483952 4289669668
0.033524569 0.035842881 -0.0017655855 4289669668
0.035172857 0.036633518 -0.0028652176 4289538853
0.037466638 0.035424188 -0.00179944 4289538853
0.038892485 0.036881145 -0.0036192387 4290062114
0.040974531 0.036338858 -0.003275794 4290127393
0.042386837 0.037795063 -0.0050927317 4289473574
0.045154437 0.035255644 -0.002592029 4289408038
0.047943369 0.032717742 -9.5581636e-05 4289538853
0.050986674 0.029515874 0.003114732 4289538853
0.053820953 0.026981145 0.0056021027 4289603879
0.055722959 0.027108347 0.0052169692 4288752945
-0.046064038 0.037967846 0.0033608004 4289604899
-0.044443641 0.039438672 0.0015022447 4290127649
-0.042729419 0.040232711 0.00038859434 4289866019
-0.040913384 0.040350512 1.8166378e-05 4289669668
-0.038768221 0.038440995 0.0018725479 4289669668
-0.036719117 0.037208259 0.0029825792 4290127648
-0.034774084 0.036651701 0.0033499897 4290127393
-0.032941144 0.036770873 0.0029763207 4289866018
-0.031228382 0.037565276 0.00186323 4289800738
-0.029520761 0.038359366 0.00075127557 4290062114
-0.027944002 0.039827928 -0.0010978794 4289800483
-0.026121054 0.039946742 -0.0014692983 4289538853
-0.024166893 0.039391238 -0.0011034841 4289342759
-0.022073481 0.038161952 -2.0628795e-06 4289669668
-0.019969206 0.036933415 0.0010972517 4289996580
-0.017436843 0.033684045 0.0044011604 4290062114
-0.014452305 0.028415384 0.0099048112 4289670433
-0.011424769 0.023149645 0.015399715 4288953118
0.020555137 0.032767788 0.00049652532 4288294453
0.021639114 0.035572018 -0.0027787294 4289342758
0.023493741 0.03569492 -0.0031551113 4289408293
0.025549056 0.035148073 -0.0028083753 4289735459
0.028016489 0.033262357 -0.0010175891 4289604644
0.030293901 0.032047279 4.7985464e-05 4289539108
0.032373272 0.031502232 0.00039005838 4289997089
0.034035094 0.032295905 -0.00071073417 4289866274
0.035477422 0.033758171 -0.0025306772 4289604644
0.037342533 0.03388232 -0.0029087747 4289735204
0.039207585 0.03400654 -0.0032868069 4289342758
0.04151684 0.032794066 -0.0022273324 4289604644
0.043611936 0.032250538 -0.0018880917 4289604644
0.045939788 0.031039452 -0.00083227828 4289604644
0.048278265 0.029829158 0.00022144616 4289277734
0.05109309 0.027284263 0.0027061999 4289277734
0.054164767 0.02407339 0.005902702 4289276458
0.056072038 0.024200976 0.0055165254 4288228918
-0.044357989 0.036576483 0.001901675 4289081128
-0.042534243 0.036694665 0.0015295846 4289408549
-0.040603478 0.036134765 0.0018980419 4289081128
-0.038667146 0.035575293 0.0022654142 4289211943
-0.03661311 0.034338385 0.003371194 4289146919
-0.034777801 0.034457602 0.0029969588 4289211943
-0.032942291 0.034576897 0.0026227292 4289408294
-0.031346928 0.036050938 0.00077285897 4289081384
-0.02951638 0.036170058 0.00039974879 4289539108
-0.027811181 0.03696622 -0.00071005337 4289343014
-0.025982965 0.037085336 -0.0010825787 4289146919
-0.023761962 0.035174675 0.0007518474 4289473829
-0.021925379 0.035294477 0.00037772208 4289604644
-0.019952428 0.034738123 0.00073816907 4289669924
-0.017696161 0.032829978 0.002565572 4289539108
-0.014857363 0.02821934 0.0073235203 4289670434
-0.011980921 0.023611197 0.012073904 4289150488
0.022297161 0.031349633 -0.00099148136 4289081384
0.024162412 0.031473234 -0.0013700202 4288950568
0.026228171 0.030924885 -0.0010270299 4289408549
0.02850249 0.029705087 3.5903417e-05 4289146919
0.030787488 0.02848612 0.0010966863 4289212198
0.032874614 0.027939431 0.0014355229 4289670179
0.034755811 0.028064495 0.0010540485 4289669923
0.036209118 0.029531928 -0.00076484121 4289473573
0.038084853 0.029656792 -0.0011450863 4289669924
0.039960526 0.029781742 -0.0015252521 4289539109
0.042280048 0.028565552 -0.00047111325 4289408294
0.044610228 0.027350115 0.00058097392 4289277479
0.046951022 0.026135515 0.0016309274 4289343014
0.049302444 0.024921702 0.0026787855 4289146663
0.05212985 0.022368865 0.0051544923 4289343014
0.054978576 0.019817535 0.0076259393 4288621873
0.05689647 0.019945867 0.0072376374 4287574079
-0.044070434 0.032344189 0.0037749428 4289735969
-0.042340007 0.03314358 0.0026611667 4289343523
-0.040294867 0.031901538 0.003765313 4289147429
-0.03834809 0.031340487 0.0041288882 4288885543
-0.036171842 0.029419746 0.0059671309 4289147429
-0.034437891 0.030219648 0.0048528463 4289474083
-0.032474447 0.029659899 0.0052131843 4289473828
-0.030865449 0.031139189 0.0033637602 4289081383
-0.028898951 0.03057974 0.0037236251 4289277734
-0.027177606 0.031379167 0.0026120897 4289081383
-0.025077391 0.030141242 0.0037054829 4288688938
-0.023096975 0.029582977 0.0040626414 4289081383
-0.021111067 0.029025149 0.0044187363 4289408549
-0.019255679 0.029146228 0.0040408205 4289473828
-0.016845237 0.026554149 0.0065925587 4289277734
-0.014413226 0.023963571 0.0091399699 4289343523
0.02295381 0.027109766 0.00078318641 4288819754
0.025027344 0.026559649 0.0011229096 4289147429
0.027106227 0.026009979 0.0014616158 4289146919
0.029190451 0.025460741 0.0017992938 4289212198
0.031280018 0.024911903 0.0021359995 4289081383
0.033583291 0.023689831 0.0031898804 4289343013
0.035475109 0.023815619 0.0028062686 4289016104
0.037153132 0.024614839 0.0017055674 4289277478
0.038825743 0.025413781 0.00060603023 4289146663
0.040492918 0.026212486 -0.00049239025 4289277478
0.042598259 0.025665196 -0.0001585139 4289081384
0.045157786 0.023773106 0.0016042767 4289146663
0.047733322 0.021882124 0.0033639316 4289146663
0.050095003 0.020664621 0.0044064727 4289211944
0.052699812 0.018775761 0.0061603207 4288884268
0.055320591 0.016888045 0.0079109948 4288949548
-0.043784168 0.028094424 0.0056356099 4289278243
-0.041939203 0.028213879 0.0052591171 4289147428
-0.03998756 0.027650828 0.0056199841 4289147429
-0.037921246 0.02640578 0.0067165736 4289016613
-0.035955805 0.025843764 0.0070747305 4288951078
-0.033984814 0.025282145 0.0074318554 4289212964
-0.032125402 0.025402907 0.0070526917 4289016614
-0.030385625 0.026205542 0.0059388839 4288951079
-0.028528515 0.026326297 0.0055602901 4289016104
-0.026796389 0.027128549 0.0044482052 4289081383
-0.024685908 0.025886843 0.0055362154 4289212454
-0.022695061 0.025327018 0.005889589 4289081383
-0.0206987 0.024767635 0.0062419046 4289146663
-0.018696848 0.024208685 0.0065931473 4288950569
-0.016412351 0.022289105 0.0084049813 4289212199
-0.014252905 0.021051046 0.0094832759 4288820773
0.023414232 0.023529269 0.0018258654 4289081638
0.025298037 0.023654101 0.0014435649 4289343779
0.027382012 0.023102531 0.0017796569 4289212454
0.029268466 0.023227712 0.0013969466 4289408548
0.031565953 0.02200078 0.0024486911 4289212454
0.033665914 0.02145057 0.0027816854 4289016104
0.03556031 0.021576531 0.0023975503 4289081383
0.037241094 0.022378152 0.001297934 4289473829
0.039348952 0.021828718 0.0016295128 4289146663
0.041024253 0.02263014 0.00053113047 4289212199
0.042915739 0.022756256 0.00014784373 4289081384
0.045031425 0.022207605 0.00047802925 4289016104
0.047833283 0.01963532 0.0029457845 4289212199
0.050197199 0.018413533 0.0039846729 4288950058
0.052571718 0.017192595 0.0050214417 4289080619
0.054251853 0.017994843 0.0039224532 4288556083
-0.043600123 0.024512386 0.0067467894 4288820518
-0.041643631 0.023947323 0.0071049444 4288950824
-0.03968155 0.023382653 0.0074620601 4289016104
-0.037713919 0.022818457 0.0078180507 4289081893
-0.035740729 0.022254702 0.0081729665 4289081893
-0.033761982 0.021691369 0.0085267965 4289147429
-0.03189465 0.021812605 0.0081459824 4289016104
-0.030146759 0.022617873 0.0070321579 4289212708
-0.028281715 0.022739118 0.0066519286 4288950568
-0.026416484 0.022860453 0.0062717199 4289343269
-0.024423417 0.022298453 0.0066229273 4289343269
-0.022555176 0.022420136 0.0062422175 4289146663
-0.020553719 0.021858806 0.0065918807 4289081384
-0.018546771 0.021297954 0.0069404375 4289277478
-0.01625758 0.01937208 0.0087463502 4289081129
-0.014093209 0.018129867 0.0098204054 4289081129
0.02367899 0.020614728 0.0021414384 4288360499
0.025370738 0.021418756 0.0010408415 4289081129
0.027457096 0.020865187 0.0013747774 4289146663
0.029346127 0.020990543 0.00099154841 4289343269
0.031645834 0.019759364 0.002039589 4289081383
0.033540167 0.019885249 0.0016554147 4289016104
0.035434455 0.02001122 0.001271314 4288950824
0.037328698 0.020137288 0.00088729337 4288950824
0.039006818 0.02094103 -0.00021008123 4289081383
0.040898267 0.021067072 -0.0005934136 4289277734
0.043011073 0.020515956 -0.00026432611 4288885544
0.045129154 0.019965276 6.3757412e-05 4288950824
0.047706094 0.018061221 0.0018133866 4289081638
0.050069548 0.016835019 0.0028491262 4289081129
0.051979329 0.016962722 0.0024624001 4289081129
0.053184535 0.019119598 -5.3159893e-05 4288294453
-0.043417025 0.02091727 0.0078486074 4288820009
-0.041452784 0.020350445 0.0082035065 4289081383
-0.039589044 0.0204711 0.0078231711 4288950568
-0.037725095 0.020591848 0.0074428469 4288885289
-0.035972398 0.021399347 0.0063294619 4289081383
-0.033996586 0.020833589 0.0066822339 4289343779
-0.032015238 0.020268269 0.0070339348 4288950568
-0.030028332 0.019703344 0.0073846057 4289016104
-0.028402332 0.021196894 0.0055414513 4288950568
-0.026537199 0.021318179 0.0051612314 4289081383
-0.024544422 0.020753928 0.0055108424 4289343269
-0.022676256 0.020875577 0.0051301289 4289212454
-0.020675089 0.020311974 0.0054781828 4289146663
-0.018668424 0.019748867 0.005825147 4289343013
-0.016518053 0.018501259 0.0068986602 4289146663
-0.014497694 0.017939225 0.0072429627 4289343014
0.023748592 0.018372849 0.0017345883 4288818223
0.025640223 0.018498212 0.0013507074 4288884269
0.027731657 0.017942768 0.0016819788 4288753709
0.029423445 0.0187492 0.00058314949 4289146408
0.031725369 0.017513767 0.0016274853 4288688428
0.033622272 0.017639823 0.0012427932 4288753963
0.035729676 0.017085768 0.0015711421 4288623148
0.037415951 0.017892234 0.00047364924 4288884778
0.039312713 0.018018559 8.9188106e-05 4288884523
0.041209415 0.018144965 -0.00029519759 4288557614
0.043327302 0.017591968 3.1289645e-05 4288950314
0.04545046 0.017039444 0.00035673194 4288688428
0.047578897 0.01648736 0.00068116747 4288818989
0.049483314 0.016614642 0.00029548071 4288754473
0.051155671 0.017420739 -0.00079869851 4288819499
0.05211864 0.020262301 -0.0040158518 4287640379
-0.04353663 0.01937791 0.0067399889 4288754983
-0.041675884 0.019498244 0.0063601732 4289277734
-0.039603073 0.018240187 0.0074454993 4289016104
-0.037627954 0.017671932 0.0077966806 4289212454
-0.035758551 0.017793067 0.0074152648 4289016104
-0.033888932 0.017914273 0.0070338584 4289212454
-0.031902503 0.017347045 0.0073828697 4289016104
-0.030029822 0.01746862 0.0070009604 4289212454
-0.028278921 0.018278487 0.0058897771 4289343779
-0.026283901 0.017712049 0.0062372126 4289016614
-0.024283353 0.017146058 0.0065835789 4289081638
-0.022407282 0.017268185 0.0062012225 4289016359
-0.02066372 0.018077902 0.0050917827 4288950823
-0.018654663 0.017512709 0.0054365955 4288819754
-0.0167781 0.017635129 0.005054336 4289408548
-0.015042122 0.018444609 0.0039466247 4289213728
0.023040731 0.018860653 -0.0015336564 4288687408
0.024924211 0.01898548 -0.0019158777 4288818989
0.027406607 0.017061055 -0.00015749875 4288819244
0.029298101 0.017186597 -0.00054120924 4288884269
0.031394564 0.016629476 -0.00021244586 4288818733
0.033496354 0.016072802 0.00011530798 4288687918
0.035813831 0.014834151 0.0011534188 4288557869
0.037289821 0.016325213 -0.0006537782 4288622894
0.038970765 0.017133579 -0.0017484501 4288491569
0.040646285 0.017941669 -0.0028419523 4288622639
0.042979591 0.01670447 -0.0018068291 4288557868
0.044876039 0.016831063 -0.0021910127 4288558123
0.046998844 0.016276382 -0.0018670056 4288557868
0.048668683 0.017084494 -0.0029591369 4288557614
0.049869522 0.019254204 -0.0054640304 4288032823
-0.043756548 0.018530592 0.0048994683 4288624168
-0.041898575 0.018650688 0.0045201741 4289147428
-0.040040385 0.018770888 0.0041408967 4289082403
-0.03796513 0.017508619 0.0052224956 4289213474
-0.036101166 0.01762934 0.0048421528 4289081638
-0.034123238 0.017059233 0.0051911734 4289147174
-0.032139737 0.016489528 0.0055391658 4289016869
-0.030150715 0.015920296 0.0058860406 4289278243
-0.028399739 0.016732328 0.0047764443 4289147429
-0.026529465 0.016853876 0.0043951236 4289082148
-0.024659034 0.016975515 0.0040138252 4288886054
-0.022528771 0.015717469 0.0050846823 4288885798
-0.020917635 0.017219067 0.003251303 4288885544
-0.019181903 0.01803058 0.0021450836 4289343524
-0.017313492 0.018152419 0.0017644484 4289212964
-0.015726004 0.019652743 -6.3918531e-05 4290262289
-0.012542624 -0.0061239079 0.0016410435 4287906598
-0.010490391 -0.0067081749 0.0019608727 4288037414
-0.0085796826 -0.0065834075 0.0015717428 4289085464
-0.0063695014 -0.0078753158 0.0025974121 4288102693
-0.0046055652 -0.0070417747 0.0015004603 4288101673
-0.0023818053 -0.0083325878 0.0025235247 4288231978
-0.00046264008 -0.0082068667 0.0021329727 4288232234
0.0014566071 -0.0080810338 0.0017424785 4288492844
0.0033759438 -0.0079550892 0.0013520513 4288230449
0.0052953474 -0.0078290254 0.00096168648 4288164913
0.0073832497 -0.0084100589 0.0012749955 4288361009
0.009305466 -0.0082836114 0.00088421255 4288164658
0.011401504 -0.008863844 0.001195984 4288230449
0.013502944 -0.0094436221 0.0015067365 4288295729
0.015430663 -0.0093164742 0.0011150818 4288230194
0.017722018 -0.010601819 0.0021252334 4288164658
0.019655146 -0.010474116 0.0017326325 4288164658
0.021588296 -0.010346293 0.0013401043 4288099379
0.02333162 -0.0095125735 0.00024839863 4288230194
0.02526211 -0.0093847215 -0.00014342926 4288230194
0.027387798 -0.0099621713 0.00016300753 4288099634
0.029320955 -0.0098339282 -0.00022920221 4288099634
0.031254098 -0.0097055696 -0.00062132813 4287837494
0.03339044 -0.01028195 -0.00031686202 4287968564
0.035120308 -0.0094485283 -0.0014053192 4288034609
0.036219064 -0.006501805 -0.0045788903 4287579179
-0.025771271 -0.0099912584 0.0046515223 4288492843
-0.023733754 -0.0105794 0.0049721841 4288296749
-0.021818805 -0.010455109 0.004581634 4288493353
-0.019903686 -0.010330707 0.0041911304 4288362283
-0.017988425 -0.010206193 0.0038006622 4288492843
-0.015800763 -0.011504538 0.0048273336 4288493098
-0.013741065 -0.012090743 0.0051438436 4288427564
-0.011817351 -0.011965364 0.0047518872 4288558379
-0.0097493716 -0.012550823 0.0050668679 4288492843
-0.0079695582 -0.011714287 0.0039681289 4288950568
-0.0060454831 -0.011588573 0.0035763364 4288558123
-0.0042734705 -0.01075232 0.0024793502 4288427564
-0.0020421483 -0.012047052 0.0034976136 4288492844
-0.00027261674 -0.011210755 0.0024012774 4288558123
0.001651857 -0.011084601 0.0020097103 4288361518
0.0037392937 -0.011668034 0.0023212861 4288295983
0.0058321692 -0.012251012 0.0026318245 4288295728
0.0075939856 -0.011414796 0.0015373863 4288361009
0.009521421 -0.01128801 0.0011455361 4288230194
0.011622507 -0.011870123 0.0014546402 4288295473
0.013729002 -0.012451813 0.0017627832 4288426288
0.015661944 -0.012324318 0.0013700668 4288360754
0.017958157 -0.013613716 0.0023759287 4288295219
0.019896507 -0.013485655 0.0019822642 4288099124
0.021647906 -0.012649357 0.00089050643 4288229939
0.023393963 -0.011813313 -0.00020008534 4288230194
0.025519328 -0.012393072 0.00010464899 4288230194
0.027650051 -0.01297234 0.00040839799 4288099633
0.029588431 -0.012843736 1.5133992e-05 4288099634
0.031326436 -0.012007788 -0.0010735039 4288099633
0.033668183 -0.013293266 -7.622689e-05 4288295473
0.035197742 -0.011750393 -0.0018585175 4287904304
-0.025649119 -0.012998924 0.0049340632 4288819753
-0.023606528 -0.013589025 0.0052520763 4288688939
-0.021686357 -0.013464406 0.0048604514 4288362029
-0.019766022 -0.013339706 0.0044688545 4288558379
-0.017712269 -0.013928726 0.004784774 4288362028
-0.01551706 -0.015230954 0.0058065895 4288427308
-0.013726894 -0.014391877 0.0047071259 4288427053
-0.011941925 -0.013553038 0.003608793 4288557613
-0.0098742433 -0.014140725 0.0039221961 4288361519
-0.0079477392 -0.014014989 0.0035298038 4288557613
-0.0060211159 -0.013889119 0.0031374786 4288557613
-0.0040943809 -0.013763152 0.0027452018 4288558124
-0.0018581785 -0.015062004 0.0037592556 4288492589
-8.3252788e-05 -0.014223129 0.0026634 4288492333
0.0018464364 -0.014096633 0.0022707675 4288491823
0.003938932 -0.014682017 0.0025797021 4288426544
0.0062022321 -0.015978619 0.0035885256 4288426544
0.008140184 -0.015851259 0.0031944495 4288491823
0.009907458 -0.015012376 0.0021006037 4288295729
0.011669435 -0.014173746 0.001007909 4288361008
0.013602193 -0.014046401 0.00061513297 4288622894
0.01571377 -0.014629804 0.00092064217 4288361009
0.017830729 -0.015212744 0.0012251399 4288426034
0.019768946 -0.015084699 0.00083150715 4288164148
0.021707188 -0.014956549 0.00043794326 4288229684
0.023455961 -0.01411812 -0.00065157562 4288229939
0.025391543 -0.013989925 -0.0010444317 4288099379
0.027521953 -0.014571413 -0.00074225478 4288034098
0.029460203 -0.014442816 -0.0011354815 4288099889
0.03159862 -0.015023559 -0.00083476119 4288231214
0.033742372 -0.015603833 -0.00053503923 4288034098
0.03527483 -0.01405637 -0.0023146681 4288165679
-0.025649991 -0.015298456 0.004502397 4288427308
-0.023730118 -0.015174009 0.0041107237 4288492843
-0.021682311 -0.015765831 0.0044260751 4288819498
-0.019629005 -0.016357213 0.0047403667 4288623404
-0.017836411 -0.015516013 0.0036418568 4288689194
-0.015777443 -0.016106799 0.0039551649 4288623659
-0.013851453 -0.015981421 0.0035626348 4288689194
-0.011925321 -0.015855938 0.0031701494 4288361519
-0.0098552667 -0.016445711 0.0034814104 4288557613
-0.007926207 -0.016319811 0.0030884985 4288492334
-0.0058478788 -0.016908869 0.0033982899 4288361519
-0.0039159283 -0.016782559 0.003004944 4288623404
-0.0015203655 -0.018800132 0.0047162231 4288362028
0.00026263297 -0.017958596 0.0036203805 4288296238
0.0023600794 -0.018545911 0.0039265584 4288688428
0.0041378923 -0.017704487 0.0028319415 4288557359
0.0064060651 -0.019005179 0.0038365051 4288622894
0.0083492361 -0.018877476 0.003441371 4288491823
0.010121901 -0.018036075 0.0023480318 4288295729
0.011889271 -0.017194889 0.0012558633 4288557613
0.013827253 -0.017067194 0.00086202566 4288295729
0.01594387 -0.017652482 0.0011648787 4288295729
0.018065874 -0.018237293 0.0014667278 4288295218
0.020009307 -0.018108904 0.0010720333 4288229684
0.021766141 -0.017267853 -1.7582439e-05 4288164148
0.023517631 -0.01642704 -0.0011060219 4288164403
0.025455754 -0.016298681 -0.0014993995 4288230194
0.027393874 -0.016170204 -0.0018926933 4288165168
0.029331986 -0.016041607 -0.0022858884 4288099889
0.031670101 -0.01733622 -0.0012944462 4287969328
0.033410847 -0.016495571 -0.0023803059 4288165678
0.035351571 -0.016366467 -0.0027737841 4288034863
-0.025773395 -0.01688309 0.0033612493 4288361773
-0.023853641 -0.016758665 0.0029695854 4288623403
-0.021933716 -0.016634136 0.0025779642 4288950569
-0.019753125 -0.017946362 0.0035960581 4288623404
-0.017960478 -0.017102994 0.0024991427 4288492844
-0.015766222 -0.018414117 0.0035146121 4288492844
-0.013975967 -0.017570689 0.0024183411 4288492843
-0.011909012 -0.018162973 0.0027285274 4288492589
-0.0099802054 -0.01803723 0.0023355614 4288688939
-0.0079049841 -0.018628798 0.0026442725 4288492333
-0.005973272 -0.018502653 0.0022508781 4288492333
-0.0040414557 -0.01837638 0.0018575424 4288558124
-0.0016465411 -0.020400599 0.0035640672 4288427308
0.00045050308 -0.020990252 0.0038686153 4288558124
0.0022336319 -0.020146415 0.0027744416 4288230704
0.0043361969 -0.020735487 0.0030780323 4288427054
0.0062791593 -0.020607933 0.0026828386 4288492334
0.0083899237 -0.021196291 0.0029849689 4288688428
0.010165293 -0.020352468 0.0018926607 4288492333
0.011935379 -0.019508928 0.00080155674 4288688939
0.014051642 -0.020096533 0.00110278 4288558124
0.015994873 -0.01996839 0.00070795137 4288230704
0.018119249 -0.020555288 0.0010077292 4288361264
0.020065226 -0.020426743 0.0006125113 4287968309
0.021638315 -0.018868521 -0.0011694757 4288033588
0.023389846 -0.018025525 -0.0022563087 4288164914
0.025136029 -0.017182752 -0.0033419644 4288034099
0.027071338 -0.017054468 -0.0037346845 4287838515
0.029006639 -0.016926058 -0.0041273152 4287969328
0.031341586 -0.018225253 -0.0031384705 4287904303
0.033282205 -0.018096283 -0.0035320213 4288100143
0.035017606 -0.017253667 -0.004615075 4287904304
-0.026140872 -0.017025076 0.0008104695 4288362029
-0.024351325 -0.016180053 -0.00028444082 4288426288
-0.022184733 -0.017497703 0.00073317811 4288426288
-0.02026746 -0.017373271 0.00034214649 4288557614
-0.018482786 -0.016528241 -0.0007515382 4288755239
-0.016297024 -0.017844386 0.00026244018 4288492843
-0.01423854 -0.018439539 0.00057263765 4288296749
-0.01231534 -0.018314287 0.00018071849 4288297003
-0.010248575 -0.018908687 0.00048939232 4288427818
-0.0083224662 -0.018783033 9.7041018e-05 4288623659
-0.0062474422 -0.01937668 0.00040418003 4288558379
-0.0044699125 -0.018531352 -0.00068747532 4288427818
-0.0022351518 -0.019843534 0.00031708088 4288427819
1.0389835e-05 -0.021154851 0.0013194913 4288558889
0.0021072179 -0.021746628 0.0016225288 4288362538
0.0040472932 -0.021619387 0.0012278305 4288297003
0.0058225766 -0.020773649 0.00013703201 4288231213
0.0077601187 -0.020646334 -0.00025697332 4288558379
0.0096977241 -0.020518929 -0.00065091718 4288689704
0.011635382 -0.02039139 -0.0010447903 4288558633
0.013573084 -0.020263731 -0.0014385814 4288362539
0.015510831 -0.020135954 -0.001832298 4288297259
0.017810445 -0.021442704 -0.00084013026 4288428329
0.019753607 -0.021314338 -0.0012347726 4288035118
0.021510519 -0.020468891 -0.0023211511 4287969839
0.023073139 -0.018906906 -0.0040976452 4287577393
0.024625044 -0.017345481 -0.0058719185 4287577393
0.026554864 -0.017217547 -0.006263521 4287512624
0.028484669 -0.017089501 -0.006655036 4287447088
0.030614132 -0.017677441 -0.0063573089 4287316019
0.03254658 -0.017548986 -0.0067491853 4287250483
-0.02841622 -0.017281517 -0.0013441769 4287841064
-0.02675138 -0.015711203 -0.0031403303 4288035884
-0.024847906 -0.015587896 -0.0035287198 4287511604
-0.022817049 -0.016187534 -0.0032148007 4288034608
-0.020910602 -0.016063824 -0.0036036391 4287904048
-0.019004006 -0.015939996 -0.0039924253 4287643694
-0.016826753 -0.017261051 -0.002980019 4287512113
-0.014500704 -0.019303672 -0.001269673 4287512879
-0.012720946 -0.018456429 -0.0023605553 4287644714
-0.0088851713 -0.018206321 -0.0031420114 4287840043
-0.0069671087 -0.018081099 -0.0035326527 4287512879
-0.0052002445 -0.017234288 -0.0046205325 4287578668
-0.01419073 -0.055117637 -0.0075350795 4287510839
-0.012367748 -0.054234967 -0.0086105671 4287640889
-0.010549996 -0.053352535 -0.0096849147 4287968053
-0.008450754 -0.053980008 -0.0094088856 4287902774
-0.0063460469 -0.054607019 -0.0091338996 4288033588
-0.0043846145 -0.054479018 -0.0095334183 4288557359
-0.0025744736 -0.053596586 -0.010605847 4288753708
-0.00046147779 -0.054222658 -0.010332255 4288950059
0.0016569383 -0.054848254 -0.010059679 4288034099
0.0037807897 -0.055473395 -0.0097880568 4288033844
0.0059100501 -0.056098029 -0.0095175039 4288230704
0.0078799725 -0.055968717 -0.0099181924 4287969329
0.010017361 -0.056592554 -0.0096490886 4287968818
0.01216016 -0.057215899 -0.0093809906 4288099634
0.014135581 -0.057085827 -0.0097824987 4288295728
0.016637363 -0.059213921 -0.0081796702 4288230193
0.019689549 -0.063598566 -0.0045774272 4287641143
-0.012080304 -0.058119692 -0.0077492804 4288230449
-0.010395043 -0.056477278 -0.009497242 4288164403
-0.0081475824 -0.05786372 -0.0085508171 4288360498
-0.0061810538 -0.057735547 -0.008951487 4288164914
-0.004065901 -0.058363944 -0.0086801592 4288688684
-0.002247721 -0.057478793 -0.0097525995 4289015084
-0.00028092414 -0.057350196 -0.010153035 4289145388
0.0018425137 -0.057977661 -0.0098831039 4288426033
0.0039713718 -0.058604628 -0.0096141715 4288230449
0.0062675439 -0.059986942 -0.0086770412 4288622638
0.0082453191 -0.059857152 -0.0090793502 4288099378
0.010055915 -0.058971688 -0.010149652 4288034099
0.012031127 -0.058841795 -0.010551238 4288099378
0.014178988 -0.059466839 -0.010285677 4288230449
0.016858015 -0.062356338 -0.0080216331 4288229683
0.019736398 -0.065999061 -0.005095887 4287640889
-0.012482256 -0.058219224 -0.010259951 4288360498
-0.010521449 -0.05809167 -0.010659652 4288426288
-0.0082744882 -0.05948253 -0.0097163636 4288230449
-0.0061624199 -0.06011346 -0.0094461311 4288426798
-0.0040449239 -0.060743876 -0.0091768932 4288557869
-0.0022240505 -0.059856355 -0.010248257 4289342759
-0.00025473535 -0.059727624 -0.010649217 4289408294
0.0015582778 -0.058840364 -0.011718797 4288753963
0.0038431771 -0.060227953 -0.010782728 4288557614
0.0061388426 -0.061614685 -0.009848739 4288753708
0.0081164688 -0.061484866 -0.010250988 4288361264
0.0099270754 -0.060597241 -0.011319692 4288230449
0.012071874 -0.061224855 -0.01105526 4288426799
0.014049649 -0.061094634 -0.011457256 4288361008
0.016727816 -0.063992918 -0.0091994954 4288164404
0.019249646 -0.066132709 -0.0076103536 4287248443
-0.010647818 -0.059705749 -0.011821827 4288491824
-0.0085442029 -0.06033954 -0.011551587 4288164913
-0.0062896162 -0.061734185 -0.01061302 4288230449
-0.0041724481 -0.062366836 -0.010345346 4288492079
-0.0023515597 -0.061477125 -0.011415097 4288884523
-0.00022887066 -0.06210915 -0.011148355 4289146153
0.001430627 -0.060458951 -0.012883998 4288557614
0.0035561472 -0.061090544 -0.012617639 4288492079
0.0053639784 -0.060201176 -0.013684358 4289080874
0.0076591931 -0.061592199 -0.01275343 4288164913
0.0096313693 -0.061462618 -0.013154483 4288295728
0.011942726 -0.062852308 -0.012226637 4288230193
0.013920341 -0.062722117 -0.012628607 4288229939
0.016422737 -0.064869858 -0.011040463 4287967799
-0.0085281879 -0.062719248 -0.012046817 4288295728
-0.0062714331 -0.064118065 -0.011111966 4288099378
-0.0041519217 -0.064752758 -0.010846383 4288230193
-0.0021776669 -0.064623833 -0.011248454 4288295219
-0.00020331889 -0.064494789 -0.011650442 4288753199
0.0016150735 -0.063602805 -0.012717894 4288490803
0.0035869069 -0.063473642 -0.013119175 4288294709
0.0052360371 -0.061819494 -0.014849278 4288229683
0.0073666982 -0.062452659 -0.014585393 4287706423
0.009669479 -0.063847423 -0.013659134 4288163893
0.011813611 -0.064479455 -0.013397793 4288229174
0.013791062 -0.064349271 -0.013799726 4288032569
0.016118031 -0.065742075 -0.012878045 4287247169
-0.008512482 -0.065102994 -0.012545037 4287639868
-0.006543912 -0.06497471 -0.012946139 4287770684
-0.0044273995 -0.065611787 -0.01268158 4287443519
-0.0023054592 -0.066248387 -0.012418027 4287639359
-0.00033126771 -0.066119343 -0.012819986 4288685623
0.0013312772 -0.064460218 -0.014549787 4288293689
0.0033002719 -0.064331234 -0.014950487 4287247678
0.0051081255 -0.063437529 -0.016013995 4287574843
0.0074023269 -0.064837344 -0.015089317 4287247934
0.0095407292 -0.065472066 -0.014828521 4288358968
-0.05250239 0.023797624 0.028767377 4283856433
-0.050341282 0.021908667 0.03063288 4283855158
-0.005161915 0.018764712 0.028345924 4284054313
-0.0035362132 0.020224091 0.026477642 4283664163
-0.00098708645 0.017685778 0.029034209 4283664164
-0.056574162 0.023329739 0.026908867 4284122909
-0.0551848 0.027490396 0.022021834 4283468324
-0.053397629 0.028284429 0.0208898 4283207203
-0.051261183 0.026387203 0.022755392 4283991329
-0.048743416 0.021800723 0.027612172 4284120359
-0.04722124 0.024613259 0.024232648 4284119594
-0.0067894869 0.023854766 0.019829996 4284055078
-0.0050375126 0.024648225 0.018706404 4283596844
-0.0029797815 0.024104645 0.019054942 4283664419
-0.00044206157 0.021556817 0.021607343 4283730209
0.0016346313 0.021014623 0.021952134 4283793193
0.003389705 0.021808598 0.020828143 4283661613
-0.06024709 0.019493699 0.02880403 4283854139
-0.05897272 0.025021341 0.022418879 4284056099
-0.05733877 0.027168836 0.019788425 4283925538
-0.055720601 0.029315416 0.017161198 4283792429
-0.053860974 0.029435588 0.016781541 4283728169
-0.051824238 0.028205926 0.017896961 4283859493
-0.04941218 0.024277799 0.021998279 4283991073
-0.047717933 0.02574886 0.020121284 4284186148
-0.0073637627 0.024292633 0.016491154 4283858983
-0.0057723857 0.025758529 0.01463634 4283922733
-0.0037256479 0.025211995 0.014985463 4283792938
-0.0013574362 0.023324996 0.016800301 4283795233
0.00070558116 0.02277969 0.017146232 4283794468
0.0022839867 0.024245048 0.015294285 4282872133
-0.060967859 0.023347018 0.021682989 4283853883
-0.059480872 0.026857283 0.017559359 4284123164
-0.057699401 0.0276551 0.016431557 4283794469
-0.056171704 0.030485248 0.013063671 4283794723
-0.05432285 0.030604664 0.012686169 4283795999
-0.052208964 0.028692598 0.014546543 4283800844
-0.049715158 0.024073649 0.019385267 4283991329
-0.048119549 0.026225513 0.016767707 4284185893
-0.0077871494 0.024070807 0.013895484 4283993624
-0.0062008724 0.025540749 0.012044946 4283926303
-0.0041597635 0.024991617 0.012393566 4283862809
-0.0019553676 0.023770275 0.013472902 4283860514
0.00025985762 0.022549698 0.014550149 4283859239
0.0016699508 0.024691427 0.011971759 4283070013
-0.061237488 0.023154385 0.019070175 4284119338
-0.059677672 0.025995227 0.015702108 4284121633
-0.058058906 0.028154848 0.013084376 4283861789
-0.056455899 0.03031349 0.010469966 4283795998
-0.054612447 0.030432496 0.010093521 4283601688
-0.052592587 0.029192805 0.011205781 4283665183
-0.050108079 0.024557734 0.016034992 4283989544
-0.048333231 0.025357621 0.014910318 4284251938
-0.0082097873 0.023858076 0.011306353 4284121634
-0.0066286251 0.025332099 0.009460045 4284121123
-0.0045931451 0.024780372 0.009808166 4283991074
-0.0023945421 0.023554187 0.010885453 4283990819
-0.00018513948 0.022328818 0.011960549 4283991074
0.0013830476 0.023802282 0.010117175 4283467303
-0.061431799 0.02228836 0.01720936 4284119338
-0.059951272 0.02582013 0.013103189 4284187168
-0.058257516 0.027303822 0.011235742 4283991073
-0.056574184 0.028786918 0.0093704816 4283991073
-0.054645579 0.028224088 0.0097373184 4283925794
-0.052711379 0.027661679 0.010103056 4283991329
-0.050318729 0.02369252 0.014178826 4284121888
-0.04845323 0.023813089 0.01379798 4284251938
-0.046971139 0.026658105 0.010452587 4284711193
-0.0086316764 0.023654466 0.008723706 4284121634
-0.0070556141 0.025132498 0.0068817232 4284056863
-0.0051805638 0.025255425 0.0065002199 4283860768
-0.0028329864 0.023347223 0.0083044972 4283860768
-0.00046922639 0.021440124 0.010105588 4283925028
0.0012593642 0.022241093 0.0089934412 4283727403
-0.061551284 0.020742305 0.016095767 4284119338
-0.060147021 0.024969565 0.011254176 4284186913
-0.058455687 0.026457444 0.009390438 4283991073
-0.056692373 0.027260566 0.0082711373 4283926048
-0.054764029 0.026695453 0.0086363479 4283860003
-0.052830081 0.026130775 0.0090004709 4283859494
-0.050619353 0.023515556 0.011585409 4283990053
-0.048573148 0.022268778 0.012685781 4284252194
-0.046707485 0.022389365 0.012304911 4284711193
-0.0090528205 0.023459919 0.0061476473 4283990818
-0.007633809 0.025621679 0.0035818294 4283731738
-0.0057668947 0.025744043 0.0032019597 4283665949
-0.0035852715 0.024507888 0.0042761471 4283600158
-0.0010728911 0.021914348 0.0068010446 4283860514
0.0008103922 0.022038037 0.0064180288 4283791663
-0.061819095 0.020570278 0.013497662 4284053039
-0.060496103 0.02549707 0.0079249777 4283990308
-0.058812525 0.026988829 0.0060659889 4283995663
-0.056974914 0.027107215 0.0056905579 4283730463
-0.05496728 0.025853246 0.0067954082 4283730973
-0.053036269 0.025286112 0.0071584526 4283927324
-0.051009435 0.024033559 0.0082594361 4284121378
-0.048785862 0.021410378 0.010835251 4284251938
-0.04682738 0.020845227 0.011192843 4284580378
-0.011049636 0.021787748 0.0054137725 4284121634
-0.0096222982 0.023956537 0.0028510578 4284055079
-0.0082109049 0.026124379 0.00029165857 4283857964
-0.0061976798 0.025564475 0.00063941162 4283726383
-0.0040218756 0.024323551 0.0017114645 4283665184
-0.0016754419 0.022402057 0.0035062712 4283859494
0.00019969046 0.022525195 0.003124902 4283792939
-0.062086109 0.0204073 0.010906124 4283987503
-0.060690645 0.024660273 0.0060857702 4283990819
-0.059009474 0.026156185 0.0042305328 4283925793
-0.057174642 0.026274318 0.0038556159 4283857963
-0.055339534 0.026392551 0.0034807008 4283858728
-0.05332939 0.025134388 0.0045817439 4283925539
-0.05130833 0.023876961 0.0056806542 4284253213
-0.048998158 0.020556632 0.0089880545 4284252194
-0.047042612 0.01998904 0.0093445778 4284449308
-0.011464171 0.021607393 0.0028464776 4284121378
-0.010041762 0.023782406 0.00028968044 4283995154
-0.0084837116 0.025272438 -0.0015389575 4283860004
-0.0066277198 0.025394043 -0.0019166386 4283858984
-0.0046146773 0.024832031 -0.0015704744 4283860514
-0.0024365373 0.023586875 -0.00050206482 4283860768
-0.00057222694 0.02370929 -0.0008812435 4283858729
-0.062500089 0.021636028 0.0068428088 4283921458
-0.060961295 0.024519211 0.0035113599 4284057118
-0.059206013 0.025328167 0.0023983996 4283991328
-0.057455797 0.026136864 0.0012865234 4283989288
-0.05562612 0.026254686 0.0009126775 4283989544
-0.053708967 0.025682144 0.0012752106 4284189719
-0.05160648 0.023729488 0.0031083543 4284123164
-0.049395148 0.021087803 0.0056735631 4284186148
-0.04725742 0.019137517 0.0074996557 4284514589
-0.012316141 0.023496015 -0.0018874481 4284121124
-0.010757964 0.024990318 -0.0037128851 4283926559
-0.0090589598 0.025797719 -0.0048128162 4283992603
-0.0070570149 0.025232667 -0.0044661034 4283927579
-0.0050496049 0.024668062 -0.0041204374 4283928343
-0.0030367486 0.024103902 -0.0037758155 4283859493
-0.0011805706 0.024225757 -0.0041533606 4283924264
0.00067568943 0.024347708 -0.0045308508 4281693524
-0.062765226 0.021495648 0.0042674411 4283986484
-0.061154816 0.023693873 0.0016804477 4284055588
-0.059481155 0.025198026 -0.00016687624 4284189974
-0.057817888 0.026701523 -0.0020119864 4284123674
-0.055996303 0.026818769 -0.0023842212 4284123164
-0.054087434 0.026243454 -0.0020216536 4284254744
-0.052083272 0.024976017 -0.00092588831 4284186404
-0.049791012 0.021632437 0.0023688246 4284317729
-0.047566857 0.018982835 0.004924871 4284448543
-0.014292303 0.02184152 -0.0026134485 4284445993
-0.012728658 0.023340454 -0.0044368375 4284121379
-0.011027023 0.024150131 -0.0055357488 4284121634
-0.0090281367 0.023582572 -0.005190121 4283990563
-0.0068698712 0.022327144 -0.0041243779 4284056354
-0.0050139986 0.022448778 -0.0045020077 4283924518
-0.0033172928 0.023258483 -0.0055996561 4283990563
-0.0016258657 0.024067922 -0.0066961716 4283792939
0.0002249293 0.024189502 -0.007072561 4282679864
-0.063029587 0.021364313 0.001698642 4283854393
-0.061424103 0.0235688 -0.00088255201 4284186404
-0.059518922 0.02299073 -0.00052101258 4284121124
-0.057852749 0.024498807 -0.0023635468 4284120869
-0.056028593 0.024616163 -0.0027363496 4283989033
-0.054204185 0.024733599 -0.0031091599 4284186914
-0.052289989 0.024156434 -0.0027492959 4284121378
-0.050093558 0.021496089 -0.00019413605 4284186404
-0.047780652 0.018142857 0.003088234 4284251683
-0.014412884 0.020308584 -0.0037170649 4284314923
-0.012848992 0.02181191 -0.0055372668 4284054823
-0.01114729 0.022623764 -0.0066345837 4284121379
-0.0089976266 0.021363258 -0.0055704303 4284055843
-0.0066833794 0.019412987 -0.0037888 4284055079
-0.004509408 0.018154256 -0.0027294587 4283924263
-0.0028019287 0.018966839 -0.0038276901 4283924519
-0.0010997206 0.019779176 -0.0049247816 4283661358
0.00043274835 0.021281108 -0.0067381691 4282810425
-0.062926427 0.017752323 0.0028081127 4283853883
-0.061312493 0.019963898 0.00023003481 4284054058
-0.059478257 0.020081695 -0.00014497992 4283988778
-0.057806481 0.021594433 -0.0019853981 4283988524
-0.056061115 0.022409361 -0.0030915225 4283989798
-0.054147419 0.021829793 -0.0027332334 4284055588
-0.052228149 0.021250699 -0.0023760786 4284121378
-0.050119217 0.019278586 -0.0005589528 4284187679
-0.047994006 0.017307539 0.0012549367 4284186658
-0.045852523 0.015337624 0.0030655637 4284250408
-0.04389492 0.014761299 0.0034151077 4284184108
-0.042034473 0.014881477 0.0030352511 4284381224
-0.040173817 0.015001722 0.0026553869 4284381733
-0.038312938 0.015122086 0.0022755563 4284446759
-0.036451858 0.015242539 0.0018957397 4284446503
-0.034363713 0.01397239 0.002968261 4284381479
-0.032496896 0.014093377 0.0025873929 4284314923
-0.03062987 0.014214464 0.002206549 4284314923
-0.028762657 0.014335647 0.0018257275 4284381478
-0.026895281 0.014456928 0.0014449377 4284315943
-0.025154535 0.015272789 0.00034074672 4284250918
-0.023289476 0.015394099 -3.9434992e-05 4284251684
-0.021292109 0.014821354 0.00030274037 4284185893
-0.019558895 0.015636995 -0.00079971645 4284316709
-0.017830897 0.01645238 -0.0019010426 4284251173
-0.015967917 0.016573906 -0.0022805473 4284185638
-0.014104795 0.016695537 -0.0026600026 4284120869
-0.012532651 0.018203814 -0.0044786967 4283990309
-0.010674641 0.018325292 -0.0048569832 4284121633
-0.0083638206 0.016368076 -0.0030796276 4283989798
-0.0060368255 0.014412023 -0.0013054889 4284056353
