# .PCD v0.7 - Point Cloud Data file format
VERSION 0.7
FIELDS x y z rgba
SIZE 4 4 4 4
TYPE F F F U
COUNT 1 1 1 1
WIDTH 975
HEIGHT 1
VIEWPOINT 0 0 0 1 0 0 0
POINTS 975
DATA ascii
-0.021286089 0.014165215 0.013595543 4288491569
-0.019409623 0.014308155 0.013155808 4288818223
-0.018022519 0.016513031 0.010556166 4288097338
0.015579544 0.02538725 -0.0041290205 4288821028
0.016776912 0.027579226 -0.0066829501 4288950568
0.018177327 0.029087115 -0.0085262302 4289081129
0.019788798 0.029911455 -0.0096606361 4289212198
0.02161929 0.03005288 -0.010088091 4289408293
0.02367677 0.029512029 -0.0098104374 4289343014
0.025509892 0.029653836 -0.010238372 4289604899
0.027342994 0.029795732 -0.010666234 4289670178
0.028941084 0.03061945 -0.011797204 4289343013
0.030058531 0.032805927 -0.01433196 4289146919
0.031640559 0.03362862 -0.015459091 4289015848
0.032974266 0.035132065 -0.017286181 4288688939
0.035034146 0.034591988 -0.017008644 4288492334
0.037099279 0.034052409 -0.016732264 4288688428
0.040173449 0.03079123 -0.013659212 4288884778
0.044288568 0.024810955 -0.0077969111 4289342503
0.048451476 0.018834475 -0.0019456912 4289408038
-0.034835871 0.012995608 0.01409315 4287116609
-0.032824416 0.012446351 0.014377889 4287443774
-0.030951809 0.012588467 0.013938663 4288032823
-0.029373053 0.014112093 0.012055215 4288360244
-0.027655039 0.014944483 0.010895791 4288621874
-0.025637496 0.014396008 0.01117934 4288752943
-0.023459468 0.013157912 0.012181939 4288752943
-0.021585938 0.013300505 0.011742801 4288491824
-0.020032872 0.014822576 0.0098656816 4288491314
-0.018816192 0.017722841 0.0065543996 4287311683
0.017716225 0.022630099 -0.0042621456 4288754473
0.018911434 0.024828594 -0.0068105999 4288819753
0.020312175 0.026340926 -0.0086505404 4289016614
0.022150543 0.026482977 -0.0090798214 4288885543
0.024215696 0.02594053 -0.008805614 4289147429
0.026056699 0.026082955 -0.0092353802 4289278244
0.027897678 0.026225459 -0.0096650831 4289081638
0.029269071 0.027735956 -0.011497844 4289212198
0.030867213 0.028562004 -0.012627144 4289408804
0.032460004 0.029387686 -0.013755082 4289147174
0.034047421 0.030213038 -0.014881701 4289343268
0.035874873 0.030354926 -0.01530792 4289343268
0.037950344 0.029813979 -0.015035591 4289146663
0.040532544 0.027908061 -0.013368685 4289342758
0.044144217 0.023273431 -0.0089165233 4288950313
0.047280919 0.020006383 -0.0058661578 4288295984
0.01800566 0.019722011 -0.0039701927 4288820009
0.019425318 0.021240089 -0.0058113132 4288754473
0.020834332 0.022757478 -0.0076499251 4288754728
0.022680571 0.022900134 -0.008081045 4288885543
0.024753409 0.022356056 -0.0078102364 4288951079
0.026373023 0.023185711 -0.00894308 4289147429
0.027987303 0.024014987 -0.010074578 4289212198
0.029596237 0.024843942 -0.011204757 4289016104
0.031437047 0.024986617 -0.011634279 4289147429
0.033277806 0.025129389 -0.012063714 4289147429
0.034875967 0.025957771 -0.013191178 4289212708
0.036713954 0.02610049 -0.013619845 4289343268
0.038304016 0.026928419 -0.014745289 4289277734
0.040640268 0.025701266 -0.013780684 4289670434
0.043493479 0.023105573 -0.011427188 4289343013
0.046879575 0.019142602 -0.007688568 4289146919
0.016006049 0.01804176 -0.0046561062 4288627229
0.018078566 0.017495118 -0.0043871412 4288558379
0.019719573 0.018328253 -0.0055235997 4288820009
0.021134224 0.019850396 -0.0073601846 4289016614
0.02276195 0.020682633 -0.0084933694 4289081893
0.024610735 0.020825591 -0.0089250067 4289081893
0.026459506 0.020968623 -0.0093565825 4289147429
0.028308252 0.021111749 -0.009788081 4289016104
0.030391332 0.020566601 -0.0095211463 4288819753
0.032242671 0.020710107 -0.0099531151 4288819753
0.03385428 0.021541648 -0.01108212 4289081893
0.035702866 0.021685112 -0.011513315 4289278243
0.037551388 0.021828678 -0.011944419 4289278243
0.039152171 0.022659689 -0.013070742 4289670943
0.04124824 0.022116043 -0.012806387 4289605409
0.043855499 0.020199116 -0.011155191 4289212964
0.046734285 0.017596781 -0.0088141747 4288951843
0.015863337 0.016504969 -0.0057756416 4288430368
0.017935533 0.015956126 -0.0055082468 4288820009
0.019794852 0.016099613 -0.0059425551 4288820263
0.021433303 0.01693482 -0.0070767058 4289082404
0.023066446 0.017769668 -0.0082094958 4288886054
0.024920441 0.017913025 -0.0086423503 4288885543
0.02654558 0.018747445 -0.0097731324 4289081893
0.028396878 0.018890765 -0.010205227 4289081383
0.0304823 0.018343627 -0.0099404799 4289016104
0.032336194 0.018487349 -0.010373032 4288885544
0.03395056 0.019321285 -0.011501032 4288819753
0.03604383 0.018775042 -0.011237903 4289081893
0.037897568 0.01891901 -0.01167022 4289147429
0.039751239 0.019063078 -0.012102445 4289212708
0.04210509 0.01782855 -0.011148472 4289212964
0.043963932 0.017973192 -0.011581775 4289278754
0.046333555 0.016740117 -0.010631385 4289410843
0.017577177 0.015111618 -0.0073287203 4288888604
0.019433724 0.015254885 -0.0077623879 4288429603
0.021510944 0.014704432 -0.0074976743 4288625443
0.023146825 0.015541721 -0.0086294971 4288886564
0.025229353 0.014991857 -0.00836589 4289017124
0.026631258 0.016522095 -0.010192718 4288885543
0.028485104 0.01666563 -0.010625395 4288950569
0.030572873 0.016116492 -0.010362845 4288689194
0.032665938 0.015567828 -0.010101404 4288689194
0.034285702 0.016404435 -0.01122904 4288820009
0.036142044 0.016548529 -0.011662024 4288951078
0.037998334 0.016692728 -0.012094915 4289409059
0.040101822 0.016145237 -0.01183563 4289081893
0.042210542 0.01559829 -0.011577541 4288951588
0.043819364 0.016434457 -0.012702238 4288886563
0.025311682 0.012757778 -0.0087910946 4288363813
0.026716541 0.014292613 -0.010615312 4289149213
0.028341848 0.015131526 -0.011742744 4289016869
0.030195545 0.015275151 -0.012175309 4288558633
0.03228562 0.014724113 -0.01191487 4288689703
0.03438098 0.01417353 -0.011655547 4288754473
0.035998128 0.015012231 -0.012780838 4288754218
0.038098704 0.014462259 -0.01252258 4289082149
0.040204518 0.013912819 -0.012265524 4289016614
0.042065874 0.014057603 -0.012699451 4289082148
0.043170054 0.016283061 -0.015200957 4288689958
0.037710283 0.013620406 -0.01433227 4288823324
0.039566278 0.013764702 -0.014765 4288560674
0.041172709 0.014605004 -0.015885873 4288755748
0.04226942 0.016836453 -0.018380674 4288625954
-0.028462384 -0.010464065 0.012523397 4286921024
-0.026703712 -0.0096092224 0.011368996 4286920514
-0.027880799 -0.015605677 0.014903174 4287904049
-0.026256453 -0.014035206 0.013041818 4287903540
-0.0244922 -0.013177726 0.011887851 4287837748
-0.022733096 -0.012320559 0.010735155 4287838004
-0.021134775 -0.010751769 0.0088801319 4287706423
-0.019230317 -0.010607056 0.0084335702 4287705913
-0.01748665 -0.0097507723 0.0072847167 4287641144
-0.015584562 -0.0096060336 0.0068388628 4287706423
-0.013848584 -0.0087501295 0.0056919632 4287510074
-0.011948865 -0.0086053796 0.0052468078 4286723908
-0.027880419 -0.017909434 0.014449236 4287707189
-0.026105646 -0.017049138 0.013294336 4287641908
-0.024486151 -0.015474591 0.011437473 4287707189
-0.022724312 -0.014615063 0.010285762 4287903540
-0.020967606 -0.013755817 0.0091353385 4287903028
-0.018741775 -0.015038487 0.010090224 4288033588
-0.016665902 -0.015606608 0.010341988 4287902773
-0.014747988 -0.015460711 0.0098923957 4287707189
-0.013162062 -0.013888117 0.0080438489 4287968819
-0.011080459 -0.014455449 0.0082944511 4288034098
-0.0093361735 -0.013596553 0.0071473895 4287902773
-0.0075970739 -0.012737941 0.0060016206 4287510329
-0.0060398616 -0.011167143 0.0041601127 4287510329
-0.0043138228 -0.010309324 0.0030175624 4286854724
-0.00069271773 -0.0093064271 0.0014314689 4286529853
0.0012076423 -0.0091609471 0.00098668411 4287838259
0.0032980703 -0.0097267739 0.0012358446 4287577139
0.0046233423 -0.0074471496 -0.0012891926 4287250994
-0.027735744 -0.020934407 0.014695139 4287968564
-0.02610286 -0.01935466 0.01283837 4287903538
-0.024330478 -0.01849227 0.011685747 4287707188
-0.022715855 -0.016913664 0.0098333722 4287772468
-0.020645935 -0.017484654 0.010084699 4287903538
-0.018728454 -0.017339017 0.0096350377 4288034610
-0.016650256 -0.017909121 0.0098845316 4287903283
-0.014729809 -0.017763045 0.0094343377 4287968819
-0.012975086 -0.0169014 0.0082863076 4288034098
-0.011057016 -0.016755309 0.0078368122 4287903283
-0.0089676417 -0.017324153 0.008084002 4288099633
-0.0072204955 -0.016462784 0.006937976 4288034098
-0.0056550503 -0.014886994 0.005097826 4288099379
-0.0039209537 -0.014026392 0.003955028 4287903028
-0.0020102747 -0.013880339 0.0035076616 4287968819
8.4962696e-05 -0.014448222 0.0037538735 4288099379
0.0019984841 -0.014301743 0.0033059968 4287837494
0.0041018687 -0.01486877 0.0035504727 4287968309
0.005633343 -0.013294991 0.0017187959 4287903283
0.0069591515 -0.011008646 -0.00080139283 4287904303
0.0088623278 -0.010862537 -0.0012465259 4287904559
0.010765571 -0.010716304 -0.0016915882 4288166954
-0.027880643 -0.022529308 0.01353233 4288034098
-0.025953326 -0.022383343 0.013080041 4287838258
-0.0243253 -0.020799529 0.011227769 4287707189
-0.022555348 -0.01993509 0.010077401 4287641653
-0.020635482 -0.019789387 0.009627088 4287969074
-0.018557783 -0.020361852 0.0098749539 4288034353
-0.016634952 -0.020215739 0.0094240857 4288099634
-0.014874984 -0.019351635 0.0082763778 4287903028
-0.012954529 -0.019205477 0.0078262379 4287838004
-0.01086561 -0.019776668 0.0080717867 4287968819
-0.0089422278 -0.019630086 0.0076211179 4288034098
-0.0071923546 -0.01876634 0.0064760884 4287969074
-0.0054476671 -0.017902877 0.0053323647 4288099889
-0.0035292543 -0.017756354 0.0048830984 4288034354
-0.0016107336 -0.017609712 0.0044338843 4288099633
0.0004921481 -0.018179204 0.0046766466 4288164913
0.0022265986 -0.017316084 0.0035356423 4287968819
0.0041453838 -0.017169129 0.0030865995 4288230449
0.0058720075 -0.016306352 0.001947538 4287968564
0.0075933971 -0.015443925 0.00080982875 4288164914
0.0095070861 -0.015296999 0.0003622463 4288165678
0.011220615 -0.01443496 -0.00077346433 4288165678
0.012928888 -0.013573203 -0.0019078562 4287839535
0.014015306 -0.010567885 -0.0051018065 4287774253
0.015913218 -0.010421753 -0.0055453843 4287773999
0.017600328 -0.0095612966 -0.0066745826 4287838513
0.019495636 -0.009415146 -0.0071173855 4287969583
0.021390956 -0.0092688836 -0.0075601083 4288427563
0.023067459 -0.008408878 -0.0086866245 4288101673
-0.028169688 -0.023402456 0.01167006 4287577649
-0.026245151 -0.023256738 0.0112184 4287314743
-0.024469983 -0.022389848 0.010068362 4287510839
-0.022547763 -0.022244114 0.0096173855 4287642164
-0.020625379 -0.02209824 0.009166467 4287707443
-0.018860336 -0.021231819 0.0080190329 4287706933
-0.016940292 -0.021085929 0.0075688073 4287968819
-0.015182909 -0.020219874 0.0064233383 4287706933
-0.012934301 -0.021513652 0.0073631769 4287707189
-0.01101118 -0.021367218 0.0069124652 4287772213
-0.0089171641 -0.021940138 0.0071552275 4287903028
-0.0071645491 -0.021074008 0.0060111983 4287903028
-0.0054171495 -0.020208184 0.0048684618 4287903028
-0.0036749505 -0.019342635 0.0037270328 4287968564
-0.0017565675 -0.01919603 0.0032778373 4287903028
0.00034598261 -0.019767743 0.0035190163 4287903028
0.002267208 -0.019620705 0.0030693179 4288033843
0.0041885264 -0.019473527 0.0026196977 4288099379
0.0057258531 -0.017890554 0.00079318229 4288164914
0.0076420009 -0.017743569 0.00034493115 4288099378
0.0095582046 -0.017596465 -0.00010325667 4288165423
0.011274468 -0.016732033 -0.0012379577 4288296749
0.012782801 -0.015150886 -0.0030573038 4288100143
0.014280532 -0.013570417 -0.0048741484 4288100143
0.015975658 -0.012707282 -0.0060036583 4287903538
0.017665494 -0.011844438 -0.0071318494 4288231214
0.01977662 -0.012414288 -0.00689176 4288164914
0.021677125 -0.012267608 -0.007335688 4288165168
0.023796244 -0.012836616 -0.0070973048 4287838768
0.02592068 -0.013405111 -0.0068600783 4287446323
0.027602579 -0.012542326 -0.0079859952 4287512114
0.028372813 -0.0088191517 -0.011832135 4288298533
-0.024913263 -0.022533339 0.0075155543 4287119158
-0.022996474 -0.022388022 0.0070658447 4286922298
-0.021079522 -0.022242602 0.0066161705 4287183928
-0.019319724 -0.021374386 0.0054715453 4287248954
-0.017565068 -0.020506475 0.0043282649 4287510838
-0.015490372 -0.021083366 0.004573659 4287445813
-0.01324496 -0.022381838 0.0055109663 4287314488
-0.010988791 -0.023679342 0.0064457925 4287641143
-0.0090630166 -0.023532618 0.0059945295 4287575864
-0.007310342 -0.022664327 0.0048521152 4287641399
-0.0052111037 -0.023238812 0.0050921654 4287903028
-0.0036420636 -0.021649655 0.0032611443 4287903028
-0.0020835549 -0.020061161 0.0014326293 4287706934
1.6003847e-05 -0.020635333 0.0016728984 4287772213
0.0019344464 -0.020488512 0.0012238454 4287772213
0.0040421337 -0.021061797 0.001462331 4288033843
0.0055797286 -0.019474458 -0.00036095269 4288164914
0.0076902397 -0.020047348 -0.00012291409 4288230449
0.0096089654 -0.019900072 -0.00057169981 4288034608
0.011327941 -0.019033212 -0.001705436 4288165423
0.013041664 -0.018166695 -0.0028378172 4288230704
0.014955226 -0.018019464 -0.003285137 4288099889
0.016661048 -0.017153334 -0.0044155093 4287838004
0.01815114 -0.015568856 -0.0062270956 4287968819
0.019630641 -0.013985131 -0.0080360761 4287903540
0.021746757 -0.014556658 -0.0077987192 4287969074
0.023868194 -0.015127655 -0.0075625135 4287707699
0.026216026 -0.016415965 -0.0066474243 4287511093
0.027455859 -0.014115412 -0.0091317883 4287904049
0.028453358 -0.01109862 -0.012291112 4287904303
-0.010060675 -0.021505546 0.0013828631 4287839534
-0.00780214 -0.022807073 0.0023140283 4287575864
-0.0053571723 -0.024831068 0.0039316965 4287641143
-0.0036095232 -0.023960773 0.0027922606 4287772469
-0.0018670894 -0.023090784 0.0016541248 4287838259
-0.00031352788 -0.0214982 -0.0001698602 4287903284
0.0019747429 -0.02279691 0.00075475685 4287771958
0.0038957894 -0.022649784 0.00030517019 4287902518
0.0054336525 -0.021058079 -0.0015148912 4287837749
0.0073495246 -0.020911116 -0.0019630864 4288230704
0.0092654638 -0.020764064 -0.0024112314 4288492589
0.011381056 -0.021338534 -0.0021758694 4288296238
0.013097491 -0.020469587 -0.0033072848 4288230704
0.015013576 -0.02032217 -0.0037551932 4288165168
0.01672212 -0.019453648 -0.0048845559 4287968819
0.018215157 -0.017864633 -0.0066934931 4287968819
0.019910453 -0.016996857 -0.0078196228 4287838004
0.021600464 -0.016129423 -0.0089443959 4287772468
0.023939773 -0.017422851 -0.0080306847 4287576118
0.026068848 -0.017995339 -0.0077978349 4287642164
0.027309163 -0.015688207 -0.010277363 4287904304
0.028081173 -0.011943068 -0.014107426 4288362539
-0.0041117631 -0.024099689 0.00026012398 4287513134
-0.002193775 -0.023953158 -0.00018901378 4287773998
-0.00064260513 -0.02235641 -0.0020091571 4287904049
0.0014563538 -0.022934865 -0.0017720293 4287510838
0.0035607219 -0.023512837 -0.0015360285 4287772469
0.0054790452 -0.023365837 -0.0019849036 4287903283
0.0070092753 -0.021770228 -0.0037998054 4288034608
0.008725673 -0.020899396 -0.0049297065 4288296238
0.011034999 -0.022200238 -0.0040129256 4288361774
0.013152957 -0.0227766 -0.0037796758 4288165168
0.014866844 -0.021905567 -0.0049087759 4288231214
0.016575459 -0.021034848 -0.0060364921 4288034353
0.018068764 -0.019441467 -0.0078422092 4287969074
0.019551443 -0.017848726 -0.0096453913 4287576374
0.021454202 -0.01770189 -0.010089854 4287576374
0.023574958 -0.018277299 -0.0098567791 4287576374
0.025921695 -0.0195744 -0.0089480188 4287511349
0.026939176 -0.016538728 -0.012098907 4287904303
0.027483454 -0.012061078 -0.016595904 4287970348
0.01029101 -0.021605309 -0.0072068982 4288103459
0.012602497 -0.022910248 -0.0062938388 4287643183
0.014515642 -0.022763077 -0.0067410786 4287511858
0.016221657 -0.021890398 -0.0078665596 4287577138
0.017712565 -0.020292778 -0.0096684489 4287380788
0.019405352 -0.019420888 -0.010790663 4287380024
0.021307966 -0.01927406 -0.011235088 4287510838
0.023428375 -0.019851681 -0.011003593 4287707443
0.025554121 -0.020428818 -0.010773206 4287706933
0.027015833 -0.018832888 -0.012567855 4287576374
0.017566429 -0.021866824 -0.010815142 4286727224
0.019047011 -0.020265568 -0.012611195 4287118393
0.020946831 -0.020118963 -0.013054971 4287183928
0.022846654 -0.019972239 -0.01349866 4287315764
0.024966726 -0.020551939 -0.013268633 4287314998
0.026646305 -0.019678425 -0.014385762 4287380789
-0.015064429 -0.064010099 -0.0035347361 4286658883
-0.013263319 -0.063099548 -0.0046593603 4286593603
-0.015211966 -0.065629601 -0.0047153626 4286528578
-0.013249349 -0.06548062 -0.0051756669 4287248444
-0.011450734 -0.064567983 -0.0062979888 4286724418
-0.009323772 -0.065182224 -0.0060960669 4286724419
0.0040482841 -0.062609822 -0.010629421 4286724419
0.0058185682 -0.061698195 -0.011744233 4286397508
0.0075836144 -0.060786825 -0.012857703 4286855234
0.014833227 -0.065663159 -0.0096500646 4286267204
-0.015359465 -0.067248836 -0.005895799 4286659139
-0.013397004 -0.067099854 -0.0063560624 4287051328
-0.01143441 -0.066950738 -0.0068162624 4286986049
-0.0094717182 -0.066801503 -0.0072763991 4286855233
-0.00767814 -0.065886825 -0.008395711 4286528068
0.003714513 -0.063460782 -0.012461858 4286920258
0.0058577508 -0.064074919 -0.012264619 4286594878
-0.015982132 -0.066562906 -0.009056421 4286724164
-0.013705667 -0.067950711 -0.0081957635 4286789443
-0.012073312 -0.06626606 -0.0099731032 4286789443
-0.0099523626 -0.066885114 -0.0097730625 4286789443
0.0035660975 -0.065073311 -0.013636963 4286855744
0.01171717 0.012226406 0.028235145 4282805579
0.01203616 0.017744549 0.02201632 4283989544
0.012925476 0.021246528 0.017968286 4283794979
0.015443776 0.019380216 0.019683693 4283795744
0.0089852437 0.019382752 0.017710168 4283792938
0.009875413 0.022895692 0.013670086 4283793703
0.011351284 0.024387009 0.011792337 4283727659
0.014056992 0.0218396 0.014225374 4283726383
0.017202834 0.017948337 0.018088307 4283794469
0.019108271 0.018095154 0.017643046 4283923753
0.018866494 0.024965873 0.010036054 4284183854
0.006355051 0.019693375 0.014851869 4283462459
0.0078470632 0.021190172 0.012973472 4283860514
0.0089260824 0.024037411 0.0096623106 4283729443
0.010799367 0.024181489 0.0092243692 4283726383
0.013498832 0.02162488 0.0116522 4283725874
0.016219638 0.019069958 0.014075154 4283857964
0.016843185 0.023264682 0.009341239 4284252448
0.0054276399 0.020841442 0.010842414 4283792939
0.0069093294 0.022341764 0.0089697698 4283925283
0.0081794262 0.02451922 0.0063835615 4283797529
0.010044623 0.024662673 0.0059475088 4283665438
0.012735199 0.02209658 0.0083708456 4283665694
0.014611132 0.022241022 0.0079324069 4283799569
0.015217181 0.026447514 0.0032124938 4284316198
0.0028271526 0.021183381 0.00799911 4283136059
0.004306417 0.02268781 0.0061302735 4283859238
0.0061713941 0.022831062 0.0056941314 4283991329
0.0078356378 0.023654431 0.0045435904 4283926048
0.010105003 0.022438044 0.0055358512 4283860259
0.012797322 0.019863319 0.0079521565 4283925538
0.014258243 0.021366742 0.0060879206 4283924774
0.014228407 0.027623866 -0.00075767934 4284315944
0.0024914853 0.020317299 0.006155788 4283594293
0.0037731156 0.022508522 0.003576695 4283924519
0.0054347217 0.023333816 0.0024282979 4283794468
0.0072916821 0.023476535 0.0019940929 4283860768
0.0095552281 0.022255266 0.0029844446 4283859748
0.012241311 0.01967131 0.0053955941 4283989799
0.013697203 0.021178761 0.0035357913 4284121379
0.014297523 0.025411064 -0.0011629472 4284447779
0.057147805 0.013381336 0.0055515291 4284381223
0.058522947 0.014884401 0.0037119808 4284253213
0.059887338 0.016386665 0.0018750457 4283925538
0.062875532 0.013828244 0.0042173015 4283924773
0.067260295 0.0078892931 0.010032126 4283793448
0.0017714389 0.020825936 0.0028896192 4283661103
0.003045585 0.023023168 0.00031717401 4283860003
0.0046993233 0.023849985 -0.0008276999 4283730463
0.0067485943 0.023307653 -0.00054876879 4283666203
0.0094124191 0.020713134 0.0018608989 4283796763
0.012097575 0.018120345 0.0042656446 4284056864
0.013762154 0.01894838 0.0031184508 4284121634
0.01436625 0.023194095 -0.0015712539 4284578084
0.054092214 0.019273933 -0.0032601552 4284187424
0.055705335 0.02009983 -0.0043938654 4283930384
0.057313018 0.020925391 -0.00552624 4283792428
0.059731904 0.019714052 -0.0045738118 4283791663
0.063810579 0.014431674 0.00053957012 4283792429
0.0012448542 0.020660831 0.00034471788 4283728168
0.0027090684 0.022177177 -0.001510716 4283860004
0.0039651655 0.024379663 -0.0040739272 4283924264
0.0058059581 0.02452112 -0.004504364 4283857964
0.0082553662 0.022603365 -0.0028076395 4283926049
0.011131816 0.019314513 0.00030221511 4284056098
0.013410375 0.018085856 0.0012825215 4284121889
0.014856279 0.019601326 -0.00056822971 4284510763
0.051020041 0.020297656 -0.0067375125 4284510764
0.053153493 0.019761682 -0.0064782724 4284186658
0.054758728 0.020589229 -0.0076085143 4284126989
0.056358542 0.021416394 -0.0087373815 4283730208
0.058224916 0.021562157 -0.0091720344 4283860768
0.062013876 0.016941983 -0.0047606183 4283860769
0.068058543 0.0068796463 0.0051754797 4283861789
-0.001129318 0.020362983 -0.001761104 4283397688
0.00033510476 0.021883655 -0.0036134059 4283860259
0.0017889813 0.023403572 -0.005463127 4283927324
0.0034296103 0.024233734 -0.0066016461 4283859238
0.0054649636 0.023685934 -0.0063227843 4283792938
0.0079109818 0.021761391 -0.004630276 4283924774
0.010578338 0.019149724 -0.0022345977 4284126989
0.012851071 0.017916191 -0.0012561949 4284121634
0.014713217 0.018059637 -0.0016913628 4284640559
0.050874345 0.018749412 -0.0078648301 4284446503
0.052215993 0.020262936 -0.0096866218 4284186913
0.053546887 0.021775711 -0.011505841 4284121888
0.055674464 0.02123734 -0.011246773 4283861024
0.057807229 0.020699456 -0.010988856 4283926813
0.061866425 0.015380647 -0.0058973208 4283926813
0.068462104 0.0039196126 0.0053948713 4283926303
-0.0020270571 0.021600107 -0.0057119271 4283792939
-0.00057297945 0.023124348 -0.0075585167 4283925028
0.0012594871 0.023264961 -0.0079871621 4283926303
0.002894897 0.024096895 -0.0091228168 4283927579
0.0047248304 0.024237484 -0.0095507409 4283992604
0.0067572631 0.02368735 -0.0092727914 4284058393
0.0096154884 0.020375211 -0.0061752098 4283991839
0.012084838 0.018446054 -0.0044929218 4284316708
0.050206713 0.018573988 -0.010376286 4284381989
0.051543355 0.02009153 -0.012193576 4284121888
0.052602954 0.022294223 -0.014699271 4283990563
0.055260133 0.020381674 -0.013059262 4283858983
0.057661526 0.019155946 -0.012112599 4283859238
0.061718963 0.013819542 -0.007033844 4283925283
-0.0021673478 0.020078899 -0.0068203975 4283857708
-0.00071297213 0.021607514 -0.008663767 4283924263
0.0011193901 0.021748114 -0.0090923924 4283990054
0.0029518083 0.021888787 -0.0095209777 4283924008
0.0047842935 0.022029566 -0.0099495016 4283924263
0.006819088 0.021477383 -0.0096737118 4284055843
0.0092690289 0.019540098 -0.0079919789 4283991074
0.011734992 0.017604098 -0.0063138725 4284251174
0.049800664 0.017719142 -0.012190567 4284447779
0.050344706 0.021305781 -0.016073847 4284121889
0.051660258 0.022826202 -0.017882889 4283863063
0.054308739 0.020906437 -0.01624579 4283732759
0.05805859 0.016237359 -0.011859989 4283864084
0.062393621 0.010196339 -0.0061077783 4283928854
-0.0019301139 0.017165452 -0.0065172557 4283727658
-0.00047010928 0.018698812 -0.0083586043 4283858984
0.0011733957 0.019535623 -0.0094929384 4283924518
0.0030083619 0.019676488 -0.0099221235 4283857964
0.0048433952 0.019817453 -0.010351252 4283923753
0.0066784807 0.019958511 -0.010780325 4283989543
0.0091277063 0.018014614 -0.0091033783 4283990309
0.011592936 0.016071998 -0.0074300584 4284184874
0.047536563 0.016724035 -0.013568471 4284707114
0.048873913 0.018250376 -0.015379402 4284318239
0.049410909 0.021847405 -0.019252773 4283990308
0.050984677 0.022681305 -0.020368952 4283794724
0.053627096 0.020754587 -0.018735416 4283795743
0.057641264 0.015379813 -0.013673026 4283667733
0.062519357 0.0079394318 -0.0065628262 4283667988
-0.0026121587 0.010608569 -0.0022641411 4282019414
-0.00093948096 0.01144959 -0.0034038071 4283527738
0.00034556538 0.013686832 -0.0059492029 4283922734
0.0018085837 0.015224926 -0.0077879359 4283989288
0.0034575611 0.016064428 -0.0089218356 4283859239
0.0053004622 0.016205985 -0.0093528088 4283792938
0.0073452406 0.015650213 -0.0090827215 4283923753
0.0095999017 0.014397696 -0.0081133936 4283990054
0.011658069 0.013843138 -0.0078462977 4284119338
0.013511781 0.013985917 -0.0082795043 4284118829
0.015365519 0.014128778 -0.0087126605 4284380204
0.046103343 0.018651169 -0.018128591 4284445739
0.047688067 0.019487955 -0.019245783 4284189718
0.048478354 0.022402495 -0.022421889 4283992093
0.050044246 0.023237985 -0.023534568 4283792428
0.052946292 0.020611759 -0.021218397 4283792429
0.056953378 0.015218977 -0.01616754 4283792938
0.062644646 0.0056784451 -0.0070208991 4283858729
-0.002382677 0.0076666512 -0.0019802451 4282543184
-0.00089292601 0.0092109144 -0.0038220407 4283594038
0.00096825883 0.0093535744 -0.0042575235 4283857964
0.0026358701 0.010196581 -0.005394212 4283858218
0.0042982213 0.011039313 -0.0065296483 4283793193
0.0057563595 0.012581538 -0.0083637554 4283793193
0.0074055381 0.013423413 -0.0094959196 4283858729
0.0094580241 0.012866132 -0.0092292223 4284055079
0.011515871 0.012309372 -0.0089636967 4284055079
0.013369467 0.012452133 -0.0093968865 4283989289
0.01522309 0.012594979 -0.0098300185 4284054314
0.017291652 0.01203933 -0.0095667858 4284119593
0.019147968 0.012182586 -0.010000395 4284381734
0.021224543 0.011627708 -0.0097388383 4284381479
0.022860607 0.012469389 -0.010867396 4284379948
0.045444645 0.0185146 -0.020613292 4284250153
0.047024146 0.019353177 -0.021727607 4284121889
0.047809839 0.022276122 -0.024896022 4283928598
0.049105067 0.023808099 -0.026690319 4283926558
0.051730081 0.021866977 -0.025062587 4283926303
0.055183217 0.017844353 -0.021388609 4283992349
0.061949223 0.005495511 -0.0095299929 4283992349
-0.00047047436 0.005562406 -0.0028414819 4283529523
0.0015893728 0.0050029717 -0.0025784858 4283857709
0.0028807893 0.007253889 -0.0051154085 4283792938
0.0045485534 0.0080991723 -0.0062504234 4283793193
0.006012287 0.009646222 -0.0080825947 4283793193
0.0078682974 0.0097888634 -0.008516578 4283858728
0.0097243562 0.009931609 -0.0089505017 4283989289
0.011580456 0.010074455 -0.0093843564 4283989544
0.013436589 0.010217395 -0.0098181525 4283989289
0.015292749 0.01036045 -0.010251869 4283989799
0.017363664 0.0098027401 -0.0099907974 4284054823
0.019222517 0.0099461861 -0.010425002 4284120359
0.020861326 0.010790188 -0.011552612 4284120359
0.022272125 0.012333993 -0.013371708 4284120104
0.023897642 0.013177101 -0.014496031 4284120104
0.025745843 0.013320118 -0.014927452 4284120358
0.027594024 0.013463244 -0.015358785 4284185383
0.029442172 0.013606448 -0.015790051 4284251684
0.031526282 0.013050605 -0.015531497 4284119338
0.033615667 0.012495268 -0.015274106 4284119084
0.035227697 0.013337906 -0.016394846 4284185894
0.043207087 0.017546367 -0.021978635 4284247094
0.044529494 0.01908461 -0.023776211 4283989544
0.045841191 0.02062209 -0.025571162 4284121124
0.046354391 0.024250105 -0.029414175 4283924264
0.047901873 0.02508858 -0.030519221 4283925029
0.050515525 0.023140036 -0.028893784 4283925028
0.054768361 0.017013967 -0.023181839 4283990819
0.061801061 0.0039290935 -0.010670325 4283990819
-0.00061297789 0.0040161125 -0.0039682593 4283529523
0.0012559444 0.004159335 -0.0044055739 4283661869
0.0027384497 0.0057119392 -0.0062389541 4283662123
0.0044062957 0.0065594055 -0.0073723402 4283792939
0.0060688853 0.0074065626 -0.008504428 4283792939
0.0081286579 0.0068453699 -0.0082428129 4283793448
0.0099899173 0.0069885068 -0.0086779548 4283858473
0.011851214 0.0071317442 -0.0091130333 4283989288
0.013503343 0.0079784989 -0.010242371 4283989544
0.015573904 0.0074185356 -0.0099829789 4283990053
0.017435282 0.0075620748 -0.01041785 4284055079
0.019079499 0.0084085204 -0.01154511 4284055079
0.020278718 0.010659881 -0.01405479 4284054824
0.021906987 0.011505291 -0.015178179 4284120359
0.023755081 0.011648204 -0.015609646 4284119593
0.025603162 0.011791218 -0.016041035 4284120104
0.027681693 0.011232574 -0.015782971 4284120613
0.029532384 0.011375993 -0.016214818 4284055333
0.031618834 0.010818142 -0.015958462 4283990054
0.033233654 0.011663109 -0.017078262 4283990053
0.035084222 0.011806812 -0.017509857 4284055333
0.036690965 0.01265135 -0.018627619 4284120103
0.038292315 0.013495605 -0.0197441 4284316709
0.039639208 0.015039816 -0.021544237 4284315178
0.040975396 0.016583297 -0.023341797 4284315434
0.042555247 0.01742617 -0.024453048 4283986484
0.044386774 0.017568968 -0.024879765 4283790388
0.045698769 0.01911084 -0.026671484 4283922478
0.046475273 0.022050595 -0.029824514 4283922478
0.048025515 0.022891488 -0.030928537 4283790899
0.050641105 0.020936534 -0.029308431 4283857454
0.054353911 0.016188249 -0.024971662 4283857708
0.062198922 0.00096600875 -0.010451498 4283857708
-4.529953e-06 -0.00035893172 -0.002303998 4283660593
0.0016845204 0.00049212947 -0.003440856 4283595568
0.0027891882 0.0034634359 -0.0066658347 4283661613
0.004459776 0.0043132789 -0.0077982279 4283661868
0.0065218285 0.0037499741 -0.0075388751 4283792939
0.0089912936 0.0017746724 -0.005891487 4283858219
0.010662045 0.0026248433 -0.0070236777 4283858218
0.012121171 0.0041805543 -0.0088479631 4283923754
0.013778705 0.0050299056 -0.0099769142 4283989544
0.015642598 0.0051735453 -0.010412446 4283989544
0.017077889 0.0067276768 -0.012230891 4283924009
0.0189365 0.0068711154 -0.012665031 4283924009
0.020575473 0.0077194832 -0.013789386 4283923753
0.022431431 0.0078629106 -0.014222761 4283923499
0.024287384 0.0080064386 -0.01465606 4284054314
0.02614332 0.0081500709 -0.015089274 4284054569
0.027999237 0.0082938001 -0.015522412 4284054823
0.029855125 0.0084376298 -0.015955459 4283989798
0.031475395 0.0092851073 -0.01707495 4283925028
0.032852065 0.010835622 -0.018879013 4283925028
0.034458935 0.011682302 -0.019995274 4283989799
0.036547586 0.011122718 -0.019740796 4283989799
0.038395256 0.011266407 -0.020171558 4284055334
0.039745089 0.012815274 -0.02196911 4284055334
0.041335765 0.013661053 -0.023081245 4284055078
0.043175239 0.013804395 -0.023509873 4283989799
0.045014624 0.013947841 -0.023938397 4283989544
0.04607537 0.016196489 -0.026409701 4283924773
0.047120083 0.018443935 -0.028877165 4283925539
0.048943218 0.018586393 -0.029301688 4283858729
0.051301207 0.017326791 -0.02836795 4283924519
0.055290576 0.011862855 -0.023365688 4283924009
0.063141525 -0.0034069307 -0.008883182 4283925539
0.00041482225 -0.0040418319 -0.0013484424 4283920694
0.0021119304 -0.003187988 -0.0024855528 4283921714
0.0036109351 -0.0016253591 -0.0043162461 4283857454
0.0052948892 -0.00077231601 -0.0054501267 4283792173
0.0071717463 -0.00062819943 -0.0058890833 4283660848
0.0092494749 -0.0011924095 -0.0056349868 4283791919
0.010925621 -0.00033965334 -0.006766798 4283792429
0.01239036 0.0012208186 -0.0085890498 4283922988
0.014053278 0.0020728 -0.0097176582 4283923499
0.015922368 0.0022168271 -0.010154413 4283923499
0.017577365 0.0030683689 -0.011280971 4283923499
0.019227058 0.0039195903 -0.012406222 4283923499
0.021090876 0.0040635355 -0.012841501 4283923498
0.022954686 0.0042075776 -0.013276703 4283923499
0.024818491 0.0043517239 -0.013711832 4283923243
0.026682282 0.0044959746 -0.014146871 4284054569
0.028776113 0.003934145 -0.013895678 4284055079
0.030409794 0.0047847591 -0.015016717 4283989798
0.031802744 0.0063408054 -0.016821351 4283924774
0.033185005 0.0078961737 -0.018623453 4283925028
0.034797296 0.0087454282 -0.019739274 4283924773
0.03689092 0.0081841014 -0.019487642 4283989544
0.038743787 0.0083282143 -0.019919598 4283989799
0.039850563 0.010586608 -0.022396974 4283989799
0.041695315 0.0107303 -0.022826884 4283989544
0.043539986 0.010874059 -0.023256712 4283989799
0.045897871 0.0096096881 -0.022326469 4283989799
0.047229059 0.011161879 -0.024116065 4283924774
0.048549529 0.012713287 -0.025903054 4283925029
0.050123878 0.013560478 -0.027009357 4283859749
0.052227356 0.013000816 -0.026759341 4283859749
0.055955641 0.0082231984 -0.02244918 4283859749
0.010108724 -0.0062999167 -0.003310482 4284377654
0.01179824 -0.0054439567 -0.0044437787 4284116533
0.013070613 -0.0031678192 -0.0069560902 4284052784
0.014952838 -0.003022898 -0.0073959995 4284052784
0.016623847 -0.0021680407 -0.0085247289 4283987249
0.018503461 -0.0020230971 -0.0089638662 4283987759
0.019949973 -0.00045925379 -0.010778241 4284054313
0.021605069 0.00039467588 -0.011903023 4283989033
0.023254838 0.0012483485 -0.013026521 4283726894
0.025123835 0.0013928972 -0.01346286 4283791919
0.027220028 0.00082893297 -0.01321389 4283988778
0.02886178 0.0016823001 -0.014335277 4283989289
0.030498199 0.0025353096 -0.015455306 4283990053
0.031658925 0.0048039295 -0.017940629 4283924518
0.033279307 0.0056559443 -0.019056801 4283925029
0.034894336 0.006507609 -0.020171599 4283924519
0.036990292 0.005944293 -0.019922152 4283989799
0.038845696 0.006088607 -0.020354699 4283989798
0.04045257 0.0069399439 -0.02146736 4284054824
0.042054057 0.0077909641 -0.022578692 4284055334
0.044157702 0.0072286502 -0.022330729 4283990053
0.046266578 0.0066668466 -0.022083912 4283989544
0.047862485 0.0075177252 -0.023193723 4283989798
0.049191229 0.0090741739 -0.024979316 4283990054
0.051038049 0.0092185251 -0.025409322 4283858983
0.052884765 0.0093629621 -0.025839237 4283858983
0.056889158 0.0038653798 -0.020866863 4283858984
0.017112682 -0.0058582276 -0.0075949603 4284510509
0.019427545 -0.0071362592 -0.006662563 4284314159
0.020671269 -0.0048554279 -0.0091628786 4284184109
0.022337064 -0.0039984398 -0.010288553 4284184618
0.023775881 -0.0024306141 -0.012097679 4283987503
0.025877059 -0.0029964335 -0.011851644 4283856688
0.027529558 -0.0021401979 -0.012973925 4283988779
0.029176716 -0.0012842678 -0.014094878 4283989544
0.030121597 0.0017024688 -0.017261561 4284055079
0.031750087 0.0025571696 -0.018377991 4283990053
0.033610843 0.0027016066 -0.018812003 4283989798
0.03571184 0.002136413 -0.01856545 4283990309
0.037575159 0.0022812597 -0.018999901 4284055079
0.039192818 0.0031355284 -0.020113496 4283989799
0.040556818 0.0046986379 -0.021904424 4284055078
0.042662889 0.0041341931 -0.021658706 4284055079
0.044267021 0.0049877614 -0.022768959 4283989544
0.046121996 0.0051324777 -0.023201074 4283989544
0.047459103 0.0066938512 -0.024985384 4283858728
0.049308572 0.0068383403 -0.025416063 4283924264
0.051157933 0.0069829151 -0.025846647 4283858728
0.053274043 0.0064199157 -0.025602845 4283858983
0.057551507 0.00019768998 -0.01997075 4283858728
0.029031951 -0.0028337575 -0.015223412 4284379693
0.030209625 -0.00055079162 -0.017702922 4284250918
0.032075614 -0.00040604174 -0.018138226 4284186148
0.033941563 -0.00026118755 -0.018573437 4284186403
0.036047544 -0.00082817301 -0.018329687 4284121379
0.037916049 -0.00068290904 -0.018765341 4284121379
0.039539106 0.00017396361 -0.019878546 4284055843
0.041156773 0.0010305457 -0.0209904 4284055588
0.04276906 0.0018867888 -0.022100933 4284186404
0.044375945 0.0027427375 -0.023210121 4284120869
0.045977417 0.0035984032 -0.024318013 4284055079
0.04783218 0.0037432127 -0.024749998 4284055334
0.049686838 0.0038881302 -0.025181867 4283989799
0.051541392 0.0040331185 -0.025613654 4283989799
0.053395841 0.004178226 -0.026045319 4283858728
0.058481909 -0.0041925795 -0.018411962 4283858729
-0.045601856 -0.023985546 0.015030981 4284509743
-0.043927807 -0.022394907 0.013170443 4282546754
-0.042138506 -0.021527763 0.012016387 4283659318
-0.040354285 -0.020660963 0.010863644 4283986229
-0.038444202 -0.020516928 0.010414929 4284640304
0.033559829 -0.0010894872 -0.020374762 4284708133
0.035902686 -0.0023729987 -0.019454673 4284578084
0.037771065 -0.0022277348 -0.019890282 4284448034
0.039639384 -0.0020823739 -0.020325808 4284251939
0.041259795 -0.0012233853 -0.021436643 4284186403
0.043125317 -0.0010780431 -0.02187136 4284186404
0.044484444 0.00049361959 -0.023654323 4284185893
0.045832843 0.002064582 -0.025434764 4284185893
0.047687482 0.0022094101 -0.025866697 4284120613
0.049803164 0.0016418137 -0.025626164 4284120869
0.051660255 0.0017870404 -0.026058512 4284055333
0.054050121 0.00050823763 -0.025148589 4283990053
0.059141546 -0.0078882985 -0.01753623 4283989798
-0.045625005 -0.026300561 0.014575419 4281564239
-0.044070821 -0.023980085 0.012014429 4281434699
-0.042281438 -0.023110811 0.010861968 4281763139
-0.040497143 -0.022241864 0.0097108213 4281959744
-0.038587164 -0.02209786 0.0092621101 4282090303
-0.036677007 -0.021953773 0.0088134175 4282745909
-0.034766633 -0.021809552 0.0083647529 4283137843
-0.032856058 -0.021665219 0.0079161255 4283266873
-0.030662563 -0.022968557 0.0088649122 4283462969
0.049919058 -0.00060854852 -0.026073469 4284382499
0.051778685 -0.00046312064 -0.026506402 4284251938
0.054170676 -0.0017460957 -0.025600251 4284186403
0.059531018 -0.010882806 -0.017338777 4284186659
-0.045648482 -0.028619666 0.014116856 4281954643
-0.044091146 -0.026292462 0.011560031 4281172559
-0.042299043 -0.025420886 0.010408592 4281434954
-0.040512014 -0.024549533 0.009258383 4281370184
-0.038730074 -0.02367853 0.0081094755 4281762884
-0.036820013 -0.023534466 0.0076607885 4282026044
-0.034909766 -0.023390297 0.0072121276 4282026809
-0.032999318 -0.023246001 0.0067635039 4281894718
-0.030947518 -0.023827668 0.0070119714 4282156093
-0.029177863 -0.02295709 0.005866331 4282612289
-0.027413327 -0.022086795 0.0047219703 4281762119
-0.025355678 -0.022667717 0.0049692942 4282219079
-0.023444343 -0.022522856 0.0045208381 4282219843
-0.021378387 -0.023102921 0.0047663869 4282545478
-0.019778255 -0.02150793 0.0029307073 4282741573
-0.04591177 -0.029483166 0.012254362 4281696073
-0.044111829 -0.028608929 0.011102636 4281238603
-0.042316969 -0.027734999 0.0099521698 4281174088
-0.040527206 -0.026861351 0.0088029811 4281239879
-0.038612168 -0.026717041 0.0083530331 4281174853
-0.036696937 -0.026572626 0.0079031019 4281240644
-0.034781512 -0.0264281 0.0074531948 4281305924
-0.032865871 -0.026283439 0.0070033288 4281305668
-0.031091038 -0.025410388 0.0058579659 4281305924
-0.029321317 -0.024537664 0.0047139274 4281305159
-0.027556691 -0.023665216 0.0035711722 4281239368
-0.025499377 -0.024248358 0.0038169129 4281565769
-0.023739744 -0.023376081 0.0026754783 4281958724
-0.021676783 -0.02395859 0.0029200511 4282152268
-0.019922126 -0.023086485 0.0017799539 4282282574
-0.018013109 -0.022941511 0.0013322532 4284182069
-0.045696367 -0.033270229 0.013190747 4282283848
-0.04413281 -0.030929517 0.010642224 4281239369
-0.042335231 -0.030053232 0.0094927484 4281435464
-0.040670242 -0.028445784 0.0076475469 4281109318
-0.038755331 -0.028301518 0.0071975933 4281175109
-0.03670742 -0.028888199 0.0074434103 4281240644
-0.034789447 -0.028743502 0.0069928886 4281240644
-0.033009406 -0.027868051 0.0058479058 4281305924
-0.031234492 -0.026992824 0.0047041541 4281240644
-0.029464681 -0.026117947 0.0035617175 4281239623
-0.027553935 -0.025973391 0.0031132 4281239623
-0.025494281 -0.026558559 0.0033567352 4281565769
-0.02358054 -0.026413571 0.0029076738 4281631049
-0.021512594 -0.02699795 0.0031494601 4281499723
-0.019752581 -0.026123237 0.0020096777 4282021198
-0.017997723 -0.025248844 0.0008712355 4282543949
-0.045243416 -0.038538661 0.015512246 4282282574
-0.043788124 -0.035456385 0.01226877 4281566534
-0.042104509 -0.033843305 0.010422385 4281370693
-0.040558595 -0.031497214 0.007883084 4281435463
-0.038638506 -0.031352591 0.0074318862 4281500998
-0.036718208 -0.031207871 0.0069807181 4281174598
-0.034797724 -0.031063024 0.0065295743 4280979269
-0.032877039 -0.030918043 0.0060784752 4281044294
-0.03109673 -0.030040313 0.0049351314 4280913224
-0.029464785 -0.028430376 0.003101374 4281239369
-0.027405631 -0.029017951 0.003343313 4281173323
-0.02563807 -0.028140832 0.0022031507 4281499724
-0.023724463 -0.027995873 0.0017540986 4281368654
-0.021810684 -0.027850788 0.0013051033 4281564238
-0.019896757 -0.027705606 0.00085612945 4281824848
-0.018141832 -0.026829053 -0.00028069876 4282543693
-0.042957712 -0.042945486 0.016662918 4281957193
-0.041252624 -0.04132643 0.0148147 4281762119
-0.039812136 -0.038236354 0.011581433 4281696583
-0.038392644 -0.035147835 0.0083532045 4281631559
-0.036596943 -0.034267049 0.0072075883 4281304649
-0.034941401 -0.032651369 0.0053713629 4281043784
-0.033020835 -0.032506432 0.004920275 4281173833
-0.031240467 -0.031626556 0.0037785294 4281239369
-0.02946521 -0.030746948 0.0026380764 4281173579
-0.027549412 -0.030602071 0.0021883277 4281303884
-0.025781784 -0.029722776 0.0010497859 4281564239
-0.023868304 -0.029577862 0.0006007487 4281694034
-0.021954667 -0.029432815 0.00015175249 4281498194
-0.019884575 -0.030021336 0.00038978923 4281825104
-0.01796798 -0.029875856 -5.9735961e-05 4282088263
0.013406347 -0.023003999 -0.011746963 4283595824
0.015308622 -0.022857551 -0.012191571 4282154564
0.017210921 -0.022710975 -0.012636097 4282154818
0.018901169 -0.021834936 -0.013754431 4282415685
0.020586122 -0.020959165 -0.014871432 4282415429
0.022483155 -0.020812642 -0.015314454 4283068483
0.024380185 -0.020666029 -0.015757415 4283723834
-0.036593158 -0.047810029 0.017564021 4283197514
-0.035418671 -0.043235939 0.012955937 4282871623
-0.034140933 -0.039401505 0.0090456465 4282087754
-0.032752011 -0.036306273 0.0058314065 4281303119
-0.031103801 -0.034686569 0.004000281 4281238094
-0.029465999 -0.03306758 0.0021717297 4281302608
-0.027693149 -0.032185894 0.0010335548 4281497938
-0.025777321 -0.032040935 0.00058385823 4281889364
-0.017953631 -0.03219546 -0.00052972417 4282872133
-0.016195778 -0.03131428 -0.0016639018 4284639284
0.013464663 -0.025307376 -0.012217516 4283268148
0.015162896 -0.024428781 -0.013336251 4281501254
0.016855847 -0.023550462 -0.014453653 4281696839
0.018755365 -0.023403984 -0.014897441 4281631049
0.02022586 -0.021794695 -0.016684478 4281827399
0.022120092 -0.021648381 -0.017126851 4282479943
0.023574641 -0.020040046 -0.018910034 4282610758
0.025241066 -0.019163173 -0.020020783 4282480709
0.026902163 -0.018286597 -0.021130212 4282677058
0.028557919 -0.017410297 -0.022238355 4283987503
0.030899741 -0.018724736 -0.021341257 4284641324
-0.032939184 -0.048401017 0.014763993 4282806088
-0.032347012 -0.040858362 0.0074212058 4282541653
-0.02946711 -0.035392281 0.0017024139 4280841313
-0.027546268 -0.035247061 0.0012514507 4281234778
-0.025625262 -0.035101723 0.0008005267 4281561943
-0.017781097 -0.035256986 -0.00031958614 4283066444
0.013522606 -0.02761491 -0.012691025 4283268149
0.015223544 -0.026733864 -0.013808783 4281238603
0.016919214 -0.025853161 -0.014925173 4281631559
0.018821241 -0.025706496 -0.015369548 4281304903
0.020508979 -0.024826158 -0.016483905 4281435208
0.022191405 -0.023946118 -0.017596934 4281565513
0.023868524 -0.023066353 -0.018708628 4281435463
0.025762606 -0.022919845 -0.019150801 4281369673
0.027431723 -0.02204043 -0.020260504 4281304394
0.02932312 -0.021893878 -0.020701857 4281434699
0.031444766 -0.02247956 -0.020476732 4281565769
0.033105839 -0.021600422 -0.021584285 4281892678
0.034761578 -0.020721611 -0.022690462 4281828419
0.036650188 -0.020574804 -0.023130814 4282090304
0.039020516 -0.021890927 -0.022243302 4282874428
0.042375561 -0.026131216 -0.018705161 4282809148
0.045270029 -0.028906766 -0.016499603 4283527228
0.011469569 -0.02933659 -0.013392647 4284639793
0.013580166 -0.02992646 -0.013167544 4283135804
0.015283838 -0.029043075 -0.014284244 4281369164
0.017191015 -0.028896142 -0.014729921 4281369929
0.018675292 -0.027277138 -0.016513722 4281173833
0.020577194 -0.027130369 -0.016957985 4281304394
0.022262339 -0.026247937 -0.018069997 4281304394
0.023942169 -0.025365796 -0.019180682 4281369929
0.026060846 -0.025954213 -0.018956833 4281435464
0.027960088 -0.025807161 -0.019400101 4281435719
0.029859312 -0.02565999 -0.01984328 4281436484
0.031528465 -0.024778198 -0.020951118 4281371203
0.033192273 -0.023896705 -0.022057608 4281371203
0.035086095 -0.023749609 -0.022499271 4281240644
0.036741842 -0.022868458 -0.023603747 4281306179
0.039595619 -0.0256561 -0.021395458 4281959489
0.04417393 -0.03357644 -0.014560401 4282024769
0.011323821 -0.030911271 -0.014539924 4284444464
0.013434075 -0.031503331 -0.014316379 4282612543
0.015343737 -0.031356324 -0.014762725 4281435464
0.017253425 -0.031209204 -0.015208992 4281173833
0.018951885 -0.0303238 -0.016322646 4281303883
0.020645032 -0.029438648 -0.017435024 4281303883
0.022549452 -0.029291566 -0.017879782 4281238603
0.024234654 -0.028406825 -0.018990075 4281369674
0.026358297 -0.028997023 -0.018769013 4281369929
0.028038168 -0.028112467 -0.01987789 4281305158
0.029939903 -0.02796511 -0.020321662 4281044548
0.031611774 -0.027080912 -0.021428466 4281175109
0.033278298 -0.026197035 -0.022533949 4281305158
0.035174631 -0.026049729 -0.022976182 4281371203
0.037308738 -0.026638392 -0.022757027 4281240133
0.040169515 -0.0294342 -0.020556947 4281631559
0.046212137 -0.041792098 -0.0097809024 4281566023
0.010977674 -0.031744439 -0.01635539 4283658044
0.013084933 -0.032338966 -0.016132753 4282088519
0.015403263 -0.03367367 -0.015244181 4281565003
0.017523851 -0.03426687 -0.015024508 4281173323
0.019016627 -0.032638561 -0.01680368 4281303884
0.020926207 -0.032491188 -0.017249728 4281368908
0.02261943 -0.031603787 -0.018360347 4281303628
0.024526361 -0.031456392 -0.018805601 4281238603
0.026211606 -0.030569296 -0.019914204 4281304393
0.027891541 -0.029682543 -0.021021435 4281174853
0.029566146 -0.028796095 -0.022127338 4281175109
0.031465057 -0.02864882 -0.022570342 4281305159
0.033131644 -0.027762737 -0.023674186 4281239879
0.035262782 -0.028353926 -0.023456067 4281173833
0.037161585 -0.0282063 -0.023898773 4281173323
0.040982455 -0.033963215 -0.019068714 4281173069
0.010832194 -0.033316303 -0.01750062 4282149464
0.012736212 -0.033169854 -0.017945748 4281430363
0.015051343 -0.034509208 -0.01705968 4281040469
0.017168924 -0.03510483 -0.016840961 4280974678
0.019080997 -0.034957383 -0.017287675 4281171283
0.020993076 -0.034809846 -0.017734326 4281172048
0.022689015 -0.033920031 -0.018843915 4281368654
0.024598453 -0.033772435 -0.019289751 4281238603
0.026729356 -0.034366425 -0.019073684 4281369929
0.028417313 -0.033476885 -0.020181149 4281304393
0.029873153 -0.031846281 -0.021947883 4281239368
0.031777225 -0.031698603 -0.022392094 4281239113
0.033681273 -0.031550806 -0.022836205 4281303883
0.035585281 -0.031402897 -0.023280222 4281369164
0.037726663 -0.031995367 -0.023065984 4281303628
0.041313641 -0.037028905 -0.018908028 4281172304
0.027467165 -0.038920294 -0.017582294 4281627224
0.030285403 -0.04174624 -0.015392564 4281628753
0.032218561 -0.041596439 -0.015843656 4281629773
0.033922471 -0.040703218 -0.016952999 4281695054
0.035389137 -0.039067175 -0.01871879 4281367633
0.037314244 -0.038917627 -0.019167721 4281302608
0.039002113 -0.038025264 -0.020273034 4281367633
0.042603433 -0.04307292 -0.01612993 4281630540
0.039178874 -0.053325798 -0.008721319 4282215763
0.040680282 -0.051682573 -0.010491819 4281889619
0.042171046 -0.050040092 -0.012259692 4281889874
-0.048292 0.023243519 0.042493973 4282536808
-0.046388756 0.023388024 0.042047612 4282077554
-0.042832922 0.025004977 0.039657656 4282732393
-0.047494579 0.027139185 0.034909558 4278269893
-0.043729912 0.027425054 0.034026664 4283058284
-0.054287646 0.019650035 0.041528858 4282406249
-0.053281788 0.025148395 0.035094593 4279127968
-0.051859286 0.027967315 0.0316617 4278470324
-0.049988281 0.028109184 0.031222753 4279584673
-0.047877003 0.026913788 0.032277018 4279781278
-0.046245512 0.028393148 0.03034481 4279059374
-0.055086453 0.022100225 0.035891961 4279914898
-0.053759422 0.025600495 0.031714868 4278601648
-0.05001254 0.02588442 0.030835696 4278600884
-0.048378337 0.027368233 0.028906062 4278271423
-0.046876963 0.029522041 0.026234474 4283312518
-0.055991735 0.025250938 0.029528573 4279651994
-0.054459061 0.027413379 0.02685437 4278733483
-0.057681385 0.021530006 0.031070922 4279521178
-0.056567725 0.026404444 0.025420647 4278734758
-0.054822225 0.027220823 0.024241101 4278668203
-0.052853528 0.02668551 0.024548855 4278799018
-0.05052897 0.024124201 0.027082648 4279060904
-0.049018856 0.026291603 0.024418782 4279060649
