# .PCD v0.7 - Point Cloud Data file format
VERSION 0.7
FIELDS x y z rgba
SIZE 4 4 4 4
TYPE F F F U
COUNT 1 1 1 1
WIDTH 976
HEIGHT 1
VIEWPOINT 0 0 0 1 0 0 0
POINTS 976
DATA ascii
0.021436334 0.032897964 0.0065114768 4288560419
0.023530703 0.032389924 0.0067383396 4288755749
0.025877958 0.031215578 0.0076745907 4288819754
0.028486021 0.029375577 0.0093182055 4288623403
0.031109925 0.027537011 0.010957723 4288819753
0.033494137 0.02636609 0.011884474 4288819498
0.036147062 0.024530182 0.013516513 4288623149
0.037772607 0.025358561 0.012315401 4288688939
0.040446579 0.023524672 0.013942008 4288558124
0.042604193 0.023022719 0.014152785 4288623404
0.04557322 0.020526201 0.016477838 4288754473
0.048291951 0.018696368 0.018092956 4288558379
0.05130047 0.016203426 0.020407796 4288623658
0.054053377 0.01437676 0.022014048 4288689194
0.055146329 0.016536143 0.019401718 4288886054
0.055095591 0.021349818 0.013986641 4288952609
-0.049101643 0.03501524 0.01304133 4288949293
-0.048176602 0.03923364 0.0081529217 4289669668
-0.046534456 0.040062472 0.0069467286 4290912794
-0.044745013 0.040213779 0.0064759748 4290586139
-0.042800382 0.039688244 0.0067385929 4290782233
-0.040692635 0.038486488 0.0077325376 4290847258
-0.038413912 0.03660921 0.0094556911 4290716444
-0.036444895 0.036085941 0.0097120488 4290454558
-0.034635901 0.03623924 0.0092364037 4290062114
-0.032994851 0.037068445 0.0080308458 4289996835
-0.031188093 0.037221689 0.0075558936 4289996578
-0.029381149 0.037375033 0.0070809508 4289996578
-0.027397931 0.036853306 0.0073338309 4290323744
-0.025766686 0.03768196 0.0061310632 4290258463
-0.024140537 0.038510296 0.0049296478 4290192928
-0.021783575 0.036640286 0.0066327108 4290847259
-0.018850774 0.032748975 0.01050681 4290912794
-0.015318349 0.026838334 0.016545735 4290585373
-0.013273448 0.0263223 0.016782746 4289799463
0.022972215 0.026662504 0.010370904 4288430369
0.024840049 0.026823122 0.0098815439 4288493863
0.027202617 0.025645668 0.010810527 4288427564
0.029325737 0.025138075 0.011028334 4288492334
0.031706773 0.023962414 0.011952556 4288427054
0.034353659 0.022119332 0.013581165 4288492334
0.03675843 0.020945892 0.014499302 4288427054
0.038652603 0.021109249 0.014003401 4288557613
0.040546734 0.021272697 0.013507579 4288427053
0.042972539 0.020101257 0.014420434 4288427309
0.045677345 0.018263593 0.01603419 4288558379
0.048397921 0.016427398 0.017643835 4288492843
0.051134299 0.014592618 0.019249454 4288493353
0.053333592 0.014092416 0.019447941 4288755239
0.054421835 0.016258039 0.016841769 4288493863
-0.049109504 0.032818966 0.01268413 4287902774
-0.048327409 0.03773059 0.0070706876 4289865763
-0.04683461 0.039241161 0.0051328903 4290454558
-0.045047887 0.039392184 0.0046628127 4290127903
-0.043260925 0.039543308 0.0041927295 4289997088
-0.041158997 0.038336657 0.0051848153 4290389279
-0.038886286 0.036452256 0.0069045695 4290127649
-0.037085503 0.036604747 0.0064309994 4289866018
-0.035119221 0.036079064 0.0066864351 4290062114
-0.033315383 0.03623195 0.0062121646 4289866020
-0.031340793 0.035707075 0.0064655645 4289866020
-0.02953393 0.035860363 0.0059906086 4289866020
-0.027726874 0.036013734 0.0055156527 4290192928
-0.026276618 0.0375215 0.0035895752 4290258718
-0.025017843 0.039705366 0.0009414237 4290847259
-0.022672191 0.03782779 0.002642489 4290650908
-0.02012416 0.035275176 0.005062866 4290454814
-0.01679872 0.030019479 0.010368855 4290650654
-0.014580958 0.028823601 0.0113312 4290716443
-0.012935393 0.029656073 0.010126635 4289079599
0.023537559 0.023083184 0.01137255 4288561439
0.025657704 0.022572979 0.011589362 4288428329
0.027783144 0.022063304 0.011804844 4288427563
0.029664092 0.022225209 0.011312171 4288492844
0.032049872 0.021045532 0.012231897 4288295729
0.034446191 0.019866899 0.01314889 4288491823
0.036853068 0.018689211 0.01406322 4288492334
0.039010122 0.01818268 0.014270737 4288688939
0.041172422 0.017676685 0.014476948 4288623403
0.043339953 0.01717123 0.014681854 4288492843
0.045781001 0.015996829 0.015587495 4288427564
0.047961626 0.015492667 0.015789099 4288427564
0.050421014 0.014320057 0.016690016 4288231979
0.052338511 0.01448594 0.016188394 4288166954
0.053698264 0.015988965 0.014288395 4288757278
-0.048109844 0.025842693 0.017454747 4286267459
-0.048038282 0.034181669 0.008185464 4289603879
-0.046835698 0.037060909 0.004785548 4290323743
-0.045046434 0.037212092 0.004314757 4290193184
-0.043102413 0.036682013 0.0045741508 4289866274
-0.041310057 0.036833599 0.0041026538 4290324254
-0.039517485 0.036985271 0.0036311494 4290323998
-0.037724696 0.037137032 0.0031596432 4290258464
-0.035436504 0.03524746 0.0048704436 4290258464
-0.033635393 0.035400063 0.004396853 4290323999
-0.031663746 0.034872748 0.0046493066 4289996834
-0.029859617 0.035025757 0.0041750306 4290062369
-0.02823092 0.035858423 0.0029761186 4289931553
-0.02678556 0.037370071 0.0010546427 4290782234
-0.025531501 0.03956008 -0.0015873509 4289996833
-0.02374249 0.039712101 -0.0020574266 4289342759
-0.021208629 0.037149489 0.00036005583 4289081129
-0.018275902 0.033231862 0.0042143697 4289538854
-0.015885696 0.031351678 0.0058989124 4289931808
-0.013867684 0.030828984 0.0061396929 4289735204
0.021979101 0.020003159 0.01215029 4289020439
0.023618305 0.02083873 0.010950129 4289150233
0.025740772 0.020326525 0.011164683 4288231978
0.027868535 0.019814827 0.011377956 4288231469
0.029752024 0.019976951 0.010884617 4288362029
0.031887691 0.019466139 0.011095903 4288492334
0.034538284 0.017610278 0.012713603 4288426544
0.036947247 0.016428396 0.013624095 4288557869
0.039106615 0.015919879 0.013829364 4288492844
0.041008472 0.016084023 0.013331541 4288558379
0.043175682 0.015576359 0.01353489 4288493353
0.045616169 0.014397535 0.014437384 4288363304
0.048067145 0.013219748 0.015337157 4288298789
-0.047311217 0.028566997 0.011482877 4287248954
-0.046688139 0.034192391 0.005165183 4289996579
-0.045348689 0.036395364 0.0025050519 4290323744
-0.043407604 0.035862803 0.0027635423 4290454559
-0.041931845 0.037380792 0.00083690044 4290192928
-0.040306829 0.038214855 -0.00035975594 4290781723
-0.03852468 0.03836567 -0.00082849897 4290847258
-0.036247797 0.036468558 0.00088024978 4290978074
-0.034289852 0.035937767 0.0011345604 4290847259
-0.032496549 0.036089741 0.00066304486 4290258464
-0.030875817 0.036923811 -0.00053220615 4290323998
-0.029260173 0.037757516 -0.0017260769 4289800995
-0.027649619 0.038590871 -0.0029185414 4290651419
-0.026224867 0.040105235 -0.0048313215 4290978074
-0.024443872 0.040256537 -0.0052993195 4290520093
-0.022104867 0.038365252 -0.0036064088 4290192928
-0.019184127 0.034433417 0.00024113152 4290257954
-0.01661402 0.031865239 0.0026425766 4290650909
-0.014410377 0.030659365 0.0036020866 4289734949
-0.012196053 0.029454524 0.0045588138 4289013808
0.023698628 0.018590085 0.010524697 4289150999
0.025823418 0.01807585 0.010737034 4288493863
0.027953481 0.017562196 0.010948011 4288231469
0.029839508 0.017724544 0.010454009 4288231213
0.031977486 0.017211746 0.010663045 4288558379
0.034120735 0.016699493 0.010870765 4288492333
0.036526494 0.015512958 0.011778803 4288427564
0.038682893 0.015002009 0.011983211 4288427564
0.040582009 0.015165914 0.011486105 4288296748
0.042481076 0.015329912 0.010989088 4288561184
-0.046879053 0.024298938 0.013303158 4286136899
-0.046541378 0.031315308 0.0055385558 4288294964
-0.045347512 0.034211297 0.0021540942 4289930534
-0.043712273 0.035048231 0.00095625222 4290388769
-0.042395502 0.037255958 -0.0016928883 4290323999
-0.040934972 0.038777061 -0.0036122007 4290651164
-0.039160818 0.038927149 -0.004078879 4289931298
-0.0368926 0.037022647 -0.0023727883 4290716444
-0.03494288 0.03648892 -0.0021179989 4290651164
-0.033157595 0.036640167 -0.0025874404 4289996834
-0.031717181 0.038159981 -0.0045012347 4290193439
-0.029936783 0.038310979 -0.00496927 4289931553
-0.028334022 0.039145824 -0.0061580688 4290258464
-0.026736371 0.039980303 -0.0073454711 4290323999
-0.025143832 0.04081443 -0.0085314708 4289538853
-0.022813521 0.038915835 -0.0068412949 4290127394
-0.020090491 0.035652898 -0.0037192227 4290127139
-0.017340928 0.032392256 -0.00060401764 4289996579
-0.01475849 0.029816439 0.0017875778 4290126883
-0.012351062 0.027924679 0.0034577763 4289537578
-0.010524426 0.02808032 0.0029781321 4288098104
0.025417991 0.017177336 0.0088993991 4288231979
0.027545094 0.016661208 0.0091095557 4288427309
0.029428374 0.016823314 0.0086162714 4288361518
0.031563379 0.016308073 0.0088244369 4288428074
0.033449277 0.016470589 0.008330605 4288231469
0.03584918 0.015279219 0.009236834 4288428074
0.037999965 0.014765602 0.0094410693 4287578923
-0.046544008 0.029118048 0.0051789051 4287704639
-0.045649149 0.033399455 0.00034786854 4289603624
-0.044324115 0.035614327 -0.0022985907 4290192928
-0.043014675 0.037827909 -0.0049408516 4290520093
-0.041720852 0.040040284 -0.0075789918 4289866019
-0.040119082 0.040876754 -0.0087662414 4288819499
-0.038029209 0.039651576 -0.0077841645 4289342759
-0.03576155 0.037740476 -0.0060828575 4290193184
-0.033817232 0.037204139 -0.0058282716 4290847514
-0.032212064 0.038041186 -0.0070161982 4290193439
-0.030611977 0.038877878 -0.0082027307 4289997088
-0.028839424 0.039028242 -0.0086686797 4290258718
-0.0270667 0.039178696 -0.0091346139 4289866018
-0.025110945 0.038643721 -0.0088827368 4289669925
-0.022778772 0.036738627 -0.0071979896 4289800484
-0.020054325 0.033464819 -0.0040845657 4289408039
-0.017303333 0.030193347 -0.00097804703 4289538599
-0.01471924 0.027608855 0.001406543 4289080364
-0.012702063 0.027079489 0.0016425792 4288753198
-0.01107686 0.027919048 0.00044999365 4287902774
0.02501305 0.016283464 0.0070651686 4287906343
0.027383406 0.015084766 0.0079756221 4288428328
-0.046101257 0.033282667 -0.0021795575 4288359989
-0.045241833 0.037574288 -0.0069914069 4289538088
-0.044101276 0.040483348 -0.010348614 4290453794
-0.04266376 0.042011172 -0.01225535 4290650909
-0.040913522 0.042159144 -0.012715809 4290585373
-0.038670532 0.040239275 -0.01101304 4290323999
-0.036411546 0.038320862 -0.0093144765 4290781723
-0.034306005 0.037092708 -0.0083396873 4290324254
-0.032533891 0.037242834 -0.0088056671 4290258463
-0.030586883 0.036704645 -0.0085533522 4290520349
-0.02881179 0.036855184 -0.009019997 4290389534
-0.026676528 0.035629906 -0.0080528306 4289800483
-0.024530537 0.034405567 -0.0070883771 4289473574
-0.021818005 0.031119678 -0.0039801495 4289539109
-0.019266866 0.028523408 -0.0015936559 4289015593
-0.016694456 0.025929047 0.00078732613 4289211433
-0.014293998 0.024023442 0.0024493085 4288949548
-0.012465075 0.024179121 0.0019689454 4288361009
-0.011429902 0.02708051 -0.0013596052 4287771959
-0.046401612 0.032482378 -0.00397758 4288162618
-0.045696989 0.037479326 -0.0095014051 4289341229
-0.044560924 0.040396709 -0.012850879 4290061349
-0.043128334 0.041928459 -0.014753051 4289996579
-0.04106082 0.040692478 -0.013771804 4289407783
-0.038982563 0.03945747 -0.012793332 4289866018
-0.036227182 0.035458222 -0.0089424439 4290192928
-0.034116901 0.03422609 -0.0079722684 4290127648
-0.031824023 0.032304052 -0.006287436 4289996833
-0.03003864 0.032455347 -0.0067568719 4290258463
-0.028253101 0.03260674 -0.0072262902 4290062114
-0.026107825 0.031377882 -0.0062650796 4289342758
-0.023769423 0.029460024 -0.0045919754 4289016104
-0.021044925 0.026164167 -0.0014951658 4289081384
-0.018481575 0.023560153 0.00088151544 4288885033
-0.016087309 0.021647338 0.0025400883 4288819243
-0.013870038 0.020424973 0.003482732 4288688174
-0.01242451 0.021958996 0.0015779668 4288557359
-0.011584166 0.025557995 -0.0024553714 4287705913
-0.0465509 0.030991871 -0.0050508762 4287964993
-0.045691632 0.035309605 -0.0098429332 4288228154
-0.044863775 0.039624773 -0.014626662 4289995814
-0.043116547 0.039772335 -0.015086444 4290061094
-0.040885843 0.037838161 -0.013390508 4289930534
-0.038475372 0.035211664 -0.010980807 4289866018
-0.035710879 0.031200005 -0.0071422393 4289669668
-0.033590607 0.029964287 -0.0061780298 4289473829
-0.031459592 0.028729564 -0.0052165808 4289473829
-0.029492125 0.02818862 -0.0049729496 4289016104
-0.027519204 0.027648255 -0.0047307359 4288754218
-0.025181733 0.025723634 -0.0030624159 4288688428
-0.022828281 0.023800502 -0.0013982728 4288557613
-0.020274006 0.021186832 0.00097410195 4288492333
-0.01807341 0.019958518 0.0019176407 4288688428
-0.015862107 0.018731147 0.0028584665 4288230193
-0.013832875 0.018196076 0.0030862624 4288492333
-0.012579747 0.020425737 0.00047443435 4288361519
-0.011936404 0.02472657 -0.0042598061 4287902008
-0.043921262 0.03328469 -0.010652129 4288424503
-0.042630412 0.035522856 -0.013269806 4289210669
-0.040389925 0.033582911 -0.011581415 4289864999
-0.037969902 0.030948412 -0.0091808569 4289473063
-0.035030141 0.026228651 -0.0046390062 4289473829
-0.033066012 0.025685066 -0.0043963464 4288885289
-0.030924998 0.024446778 -0.0034408513 4288819498
-0.028947301 0.023904463 -0.003201589 4288558124
-0.026964165 0.023362737 -0.0029637385 4288753963
-0.02479627 0.022126973 -0.0020151297 4288688173
-0.02243565 0.020197809 -0.00035778806 4288753709
-0.020243689 0.01896425 0.00058462005 4288361008
-0.018041 0.017731652 0.0015243273 4288361008
-0.01620739 0.017887484 0.0010425486 4288426799
-0.013988599 0.016656473 0.0019781133 4288492334
-0.013125241 0.02027921 -0.0020448733 4288229939
-0.012288135 0.023899795 -0.006060902 4287050563
-0.043137163 0.027612686 -0.007416436 4287900734
-0.041671917 0.029160235 -0.0093174642 4288491059
-0.039574392 0.027913485 -0.0083540492 4288752943
-0.037302837 0.025969615 -0.0066787596 4288753453
-0.034849346 0.023329239 -0.0042935647 4288754218
-0.032880262 0.022783846 -0.004053887 4288688939
-0.030905716 0.022238966 -0.003815528 4288558124
-0.028925709 0.02169466 -0.0035785967 4288623403
-0.026763797 0.020453896 -0.0026317928 4288688174
-0.024591155 0.019214071 -0.0016877074 4288557359
-0.022589549 0.018671874 -0.0014562467 4288491823
-0.020213746 0.016737521 0.00019214395 4288557103
-0.018196002 0.016196821 0.00041953195 4288491824
-0.016172834 0.015656698 0.00064551178 4288492079
-0.014336556 0.015812818 0.00016307738 4288426798
-0.013279885 0.018750872 -0.0031448929 4287902519
-0.041032031 0.02416853 -0.0068162 4288163894
-0.039082304 0.023619035 -0.0065732864 4288426034
-0.036964051 0.02236969 -0.0056186002 4288557358
-0.034835048 0.021121379 -0.0046667233 4288885033
-0.032863647 0.020573922 -0.0044292789 4288885033
-0.030886792 0.020027045 -0.0041932547 4288427053
-0.028730877 0.018781263 -0.003248265 4288558124
-0.026740484 0.01823571 -0.0030156709 4288557869
-0.024744652 0.017690659 -0.0027843975 4288426544
-0.022743374 0.017146211 -0.0025545247 4288557614
-0.020552509 0.015903749 -0.001618458 4288557359
-0.018537745 0.015360609 -0.0013920059 4288295728
-0.01651755 0.014817987 -0.001166868 4288295218
-0.014876105 0.01567176 -0.0023541292 4288361264
-0.013823926 0.018618133 -0.0056542922 4287705659
-0.040709436 0.020560987 -0.0057564862 4287901754
-0.038752139 0.020009901 -0.0055172425 4288294963
-0.036626518 0.018756758 -0.0045678243 4288491823
-0.034821115 0.018909317 -0.0050428528 4288492334
-0.032847412 0.018359859 -0.0048077358 4288492589
-0.03069751 0.017109074 -0.0038645556 4288557613
-0.028536864 0.015859246 -0.0029240837 4288557359
-0.026541524 0.015311889 -0.0026944596 4288688428
-0.024898082 0.016167507 -0.0038809171 4288361518
-0.023078449 0.016321775 -0.0043593077 4288361008
-0.021074712 0.015775401 -0.0041316841 4288033588
-0.019065559 0.015229579 -0.0039054248 4287771959
-0.042811684 0.01961001 -0.0070791459 4288029508
-0.040860169 0.019056126 -0.0068401159 4288229684
-0.038743205 0.01779779 -0.0058918521 4288295218
-0.03645286 0.015835669 -0.0042363657 4288426799
-0.034477055 0.015284076 -0.0040035499 4288753963
-0.032663666 0.015437353 -0.0044806479 4288688428
-0.030679561 0.014886644 -0.0042498792 4288622894
-0.028690003 0.014336444 -0.0040204311 4288491824
-0.026519202 0.013083186 -0.0030859318 4288557103
-0.025051445 0.014644612 -0.0049772589 4288229939
-0.023413002 0.015502091 -0.0061607496 4287902774
0.036027189 -0.0088816769 0.009100887 4287839534
0.037699305 -0.0080185719 0.007910707 4287578669
-0.040696569 0.016136676 -0.0065041389 4288033589
-0.038734637 0.015581485 -0.0062694252 4288491824
-0.036604829 0.014319919 -0.0053277826 4288557359
-0.034464307 0.01305934 -0.0043889089 4288623659
-0.032648392 0.013212793 -0.0048666978 4288754473
-0.030832306 0.013366349 -0.0053444663 4288295218
-0.029016033 0.013520014 -0.0058222143 4288033589
-0.027023993 0.012967888 -0.0055950293 4287902774
0.025509808 -0.0092214532 0.0084005827 4287579178
0.02815352 -0.011157092 0.0099604847 4288101673
0.030813091 -0.013091307 0.011516341 4288100654
0.032994837 -0.013624478 0.011695732 4287838258
0.03493239 -0.013457563 0.011188335 4287837494
0.036365718 -0.01189192 0.0093114385 4287903284
0.038043208 -0.011026111 0.0081214579 4287643184
-0.041161403 0.016047142 -0.0090068877 4287575354
-0.039045542 0.014779896 -0.0080649741 4287968308
-0.037081107 0.014222775 -0.007832529 4288034099
-0.034946397 0.012957297 -0.0068954392 4287903284
-0.033303328 0.013818983 -0.0080772024 4287050564
0.023898605 -0.012396727 0.009123859 4288035118
0.026061498 -0.012934025 0.0093063125 4288035119
0.028471014 -0.014173243 0.010173456 4288165679
0.030891087 -0.015411388 0.011037883 4288099634
0.033075117 -0.015946548 0.011215041 4288164658
0.034765944 -0.015077662 0.010023092 4287903284
0.0361996 -0.013507593 0.0081494143 4287903283
0.038131714 -0.013340924 0.0076436112 4287708718
-0.041782014 0.016678534 -0.012209713 4286854724
0.0095504038 -0.0065176822 0.00271405 4286857784
0.012333065 -0.0091806389 0.0049747014 4287904559
0.014911637 -0.011135686 0.0065413387 4287577649
0.017506093 -0.013089273 0.0081038931 4288035374
0.019885883 -0.014335785 0.0089751827 4288034863
0.022043083 -0.014875989 0.0091573047 4288034863
0.024205593 -0.015415628 0.0093381191 4288034354
0.025896501 -0.01454499 0.0081474697 4288361519
0.028305436 -0.015788611 0.0090114875 4288099633
0.030481189 -0.016326789 0.0091890777 4287903283
0.032908592 -0.01756857 0.010048374 4288033843
0.03484853 -0.017401431 0.0095403632 4287838004
0.0360335 -0.015123013 0.0069875801 4287707443
0.037711181 -0.014252808 0.0058008498 4288168993
0.008148659 -0.010388035 0.0041393107 4286659139
0.010488082 -0.011642877 0.0050175982 4287706678
0.013060503 -0.013605092 0.0065807821 4287968309
0.01542379 -0.014857683 0.007452962 4287903284
0.017570004 -0.015401226 0.0076361587 4287968819
0.019951846 -0.016651947 0.0085036168 4288034864
0.022111332 -0.017194156 0.0086834813 4288100143
0.024040533 -0.017028484 0.0081778737 4287838259
0.025731534 -0.016155634 0.0069888579 4288099633
0.027899006 -0.016696829 0.0071668802 4288034098
0.03031528 -0.017944101 0.008025757 4288033843
0.032742102 -0.019190285 0.0088819237 4287837748
0.034681901 -0.019023169 0.0083739506 4287641653
0.035867423 -0.016738135 0.0058259638 4287838004
0.0063016005 -0.012849864 0.0041831145 4287247934
0.0086377263 -0.014109481 0.0050588893 4287706679
0.011204001 -0.016078893 0.0066186553 4288099634
0.013564017 -0.017336246 0.0074883262 4288099124
0.015485004 -0.017171729 0.0069845328 4288296239
0.01740605 -0.017007101 0.0064808028 4288165168
0.019557223 -0.017552312 0.0066611292 4288034353
0.021946436 -0.018806685 0.0075234259 4288099889
0.023875507 -0.018641029 0.0070178518 4288034353
0.025804596 -0.018475268 0.0065123523 4288295983
0.027974365 -0.019018475 0.0066881822 4288230704
0.029906118 -0.01885226 0.00618215 4288165168
0.032083798 -0.019394521 0.0063560335 4287903540
0.034018189 -0.019227851 0.0058494834 4287510329
0.035952568 -0.019061077 0.0053430209 4287118905
-0.0049765222 -0.0095338486 1.5358441e-05 4287248188
-0.0026889183 -0.010802489 0.00090011023 4287575608
-0.00039066747 -0.012070116 0.0017821463 4287903284
0.0017095059 -0.012622807 0.0019735778 4287838004
0.0044492036 -0.015316147 0.0042253928 4287772468
0.0067820325 -0.016580489 0.005098612 4288099379
0.0093421601 -0.01855715 0.0066549974 4288099379
0.01126026 -0.018393118 0.0061517926 4287903283
0.013400368 -0.018941801 0.0063331118 4287903283
0.015096646 -0.018064696 0.0051455749 4288099634
0.017242137 -0.018612687 0.0053256573 4288099378
0.019392945 -0.019160133 0.0055044191 4288165168
0.021781573 -0.020418923 0.0063635772 4288295983
0.02371051 -0.020253282 0.0058580367 4288230704
0.025639473 -0.020087529 0.0053525744 4288099633
0.027808877 -0.020632956 0.0055268547 4287968563
0.029497424 -0.01975568 0.0043418882 4287837748
0.031672113 -0.020300437 0.0045149447 4287380279
-0.0090917572 -0.010708448 -0.00081802253 4287574844
-0.0068181381 -0.011982922 6.6985376e-05 4287837238
-0.0043332316 -0.013973195 0.0016376404 4287707190
-0.0022388995 -0.0145288 0.0018287832 4287903794
-0.0001391992 -0.015083801 0.0020185569 4288099889
0.0021744035 -0.016354386 0.0028933482 4288099634
0.0049209893 -0.019055899 0.0051367627 4288230194
0.0072611533 -0.02032404 0.0060047852 4287903283
0.0093954913 -0.020875644 0.0061857989 4287968819
0.011097018 -0.01999614 0.0049983552 4288230704
0.013015043 -0.019832004 0.0044952361 4288034353
0.014933128 -0.019667756 0.0039921971 4287969074
0.016851269 -0.019503389 0.0034892252 4288231214
0.018999077 -0.020053264 0.0036671339 4288230450
0.021152202 -0.02060258 0.0038437294 4287969074
0.023310635 -0.021151315 0.0040190248 4288034610
0.025236819 -0.020985808 0.0035142852 4287903794
0.027403207 -0.021533642 0.0036876639 4287446324
-0.018051282 -0.0078726001 -0.0048111947 4287116354
-0.015631095 -0.0098754652 -0.0032288814 4287771959
-0.0130051 -0.012596864 -0.00096104201 4287902774
-0.010935318 -0.013157193 -0.00076542888 4287968054
-0.009055268 -0.012997415 -0.0012594098 4288164403
-0.0069773495 -0.013556797 -0.0010658232 4288033843
-0.0046936497 -0.014834654 -0.00018673763 4287903283
-0.0023992732 -0.016111527 0.00068968721 4288165168
-9.426102e-05 -0.017387357 0.0015633367 4288099889
0.0022214055 -0.018662211 0.0024343235 4288034353
0.0047586411 -0.020654146 0.0039866222 4287903283
0.0070982277 -0.021926735 0.0048515005 4288230704
0.0090159848 -0.021762859 0.0043482808 4288164914
0.010496087 -0.020163875 0.0024811206 4288165425
0.012408704 -0.020000216 0.0019794172 4287904303
0.014321372 -0.019836452 0.0014777817 4287904814
0.016460869 -0.020389337 0.0016561411 4288166189
0.018376272 -0.020225096 0.0011539683 4288821794
-0.021745153 -0.010464061 -0.004261571 4287050564
-0.020066082 -0.0095836483 -0.0054410016 4287641144
-0.017654739 -0.011593957 -0.0038613947 4287968053
-0.015414417 -0.012880463 -0.0029745707 4287902774
-0.012973793 -0.014888119 -0.0014024619 4287837494
-0.010901727 -0.015450407 -0.0012091547 4288033843
-0.0090191886 -0.015290443 -0.0017038062 4288033843
-0.0069389828 -0.015851829 -0.0015124772 4288099379
-0.0048533902 -0.016412657 -0.0013224799 4288034098
-0.002762422 -0.016972903 -0.0011338033 4288165168
-0.00046061352 -0.018253427 -0.00026256219 4288034353
0.0018518232 -0.019532893 0.00060592964 4288034353
0.0041749068 -0.020811383 0.001471756 4288034353
0.0062952638 -0.021368671 0.0016530547 4288033843
0.0082049668 -0.021205496 0.001151938 4288099889
0.010114744 -0.021042202 0.00065089203 4288231214
0.012024581 -0.020878803 0.00014990196 4288429094
0.013710566 -0.019996036 -0.0010300167 4287644204
-0.023585841 -0.012902383 -0.0042021507 4287644204
-0.021543846 -0.013469968 -0.0040029967 4287707443
-0.020040922 -0.011861924 -0.0058707194 4287903794
-0.01781185 -0.01315384 -0.004984363 4287968563
-0.015572116 -0.014444809 -0.0041007018 4287902773
-0.013132282 -0.016459096 -0.0025333315 4287641143
-0.011060581 -0.017023612 -0.0023415759 4287968564
-0.0085941367 -0.019035403 -0.00078109093 4288099379
-0.0067037083 -0.018874664 -0.0012777466 4288164913
-0.0048131384 -0.018713806 -0.001774352 4288164658
-0.0029224716 -0.018552843 -0.0022709072 4288229683
-0.000826478 -0.019114796 -0.002085086 4288295729
0.0010670274 -0.018953364 -0.0025822166 4288231724
0.0031711087 -0.019514348 -0.002398381 4288166698
0.0050674155 -0.01935244 -0.0028960742 4288429349
-0.023214288 -0.016642738 -0.0032584164 4288561439
-0.02170065 -0.015029501 -0.0051257983 4288035119
-0.019834861 -0.014871541 -0.0056164972 4287903538
-0.017785013 -0.015440498 -0.0054208655 4287706933
-0.015543215 -0.016735632 -0.0045410879 4287903284
-0.013290726 -0.018029783 -0.0036639906 4287837748
-0.011027556 -0.019322868 -0.0027896538 4288034098
-0.008753743 -0.020614941 -0.0019180439 4288033588
-0.0066663399 -0.021180179 -0.00173188 4288164914
-0.004973013 -0.020293418 -0.0029112715 4288361008
-0.0032848418 -0.019407045 -0.0040891785 4288100143
-0.0018068403 -0.01779579 -0.0059463307 4288558123
0.00028360263 -0.018360261 -0.0057606678 4287906088
-0.023722909 -0.016746555 -0.0057576858 4288233254
-0.021857403 -0.016588751 -0.006248401 4288230958
-0.019810684 -0.01716027 -0.0060536917 4287903284
-0.017758556 -0.017731201 -0.0058603641 4287968563
-0.015514702 -0.019030545 -0.0049844347 4288034098
-0.013449103 -0.019600149 -0.0047944356 4287837748
-0.011186529 -0.020897698 -0.0039232634 4287968564
-0.0091075152 -0.021465894 -0.0037366711 4288164913
-0.0074168481 -0.020577352 -0.0049137659 4288165678
-0.0057313293 -0.019689154 -0.0060894378 4288362028
-0.0040509887 -0.018801268 -0.0072636567 4287710248
-0.023879468 -0.018305469 -0.0068801027 4288298533
-0.022192292 -0.01741584 -0.0080552436 4287903283
-0.020148568 -0.017989803 -0.007861454 4287772215
-0.01809942 -0.018563215 -0.0076689553 4287903284
-0.015858769 -0.019867215 -0.0067954883 4287838004
-0.013796188 -0.020439249 -0.0066064 4287381043
-0.011728186 -0.02101073 -0.0064186081 4287316783
-0.024561994 -0.017661277 -0.010052986 4287905068
-0.022526681 -0.018238235 -0.0098587107 4287838004
-0.020485945 -0.018814649 -0.0096657928 4287314744
-0.0184398 -0.01939049 -0.0094742104 4287249718
-0.016202345 -0.020699177 -0.0086031463 4286923574
0.012204833 -0.053809021 -0.0091756461 4287445049
0.014805764 -0.055899758 -0.0077185403 4287379769
0.01764575 -0.058741067 -0.0056108795 4287576118
0.021184314 -0.0638358 -0.001546964 4287903538
0.0083744153 -0.056512911 -0.0086660422 4287705913
0.010531135 -0.057101887 -0.0085204877 4287445049
0.012693189 -0.057690281 -0.0083762221 4287641654
0.015080892 -0.059032563 -0.0075795385 4287641654
0.017702125 -0.061127964 -0.0061325729 4287707188
0.020790402 -0.064729884 -0.0033850223 4287772723
-0.0007654652 -0.054244924 -0.01173425 4287313469
0.0019771233 -0.057112891 -0.0096148476 4287445049
0.0045339316 -0.059221175 -0.0081564523 4287641654
0.0064779446 -0.05905534 -0.0086667761 4287838003
0.008422032 -0.058889348 -0.0091770031 4288164914
0.010581009 -0.059480313 -0.0090336688 4287706679
0.012745321 -0.060070682 -0.0088916384 4287771958
0.015135042 -0.061417166 -0.0080987737 4287771959
0.017758094 -0.063518986 -0.0066571608 4287771959
0.02062235 -0.066375464 -0.004568927 4287640889
-0.0051706322 -0.054656383 -0.013191934 4287706169
-0.0028532147 -0.056014378 -0.012384183 4287968054
-0.00052516162 -0.057371359 -0.011579081 4288360754
0.0022216477 -0.060247678 -0.009467341 4288295728
0.0045761913 -0.061602119 -0.0086690485 4287903794
0.0065226778 -0.061436076 -0.0091800205 4287772468
0.0086812153 -0.06202938 -0.0090383105 4287837748
0.010630473 -0.06186286 -0.0095498227 4287771958
0.013014283 -0.063214287 -0.0087587573 4287706679
0.015188791 -0.063805863 -0.0086209588 4287575608
0.017813645 -0.065914065 -0.0071847369 4287706169
0.020679481 -0.068779156 -0.0051034363 4287705658
-0.0089807585 -0.057346795 -0.012678813 4287836983
-0.0070586801 -0.057183597 -0.013183966 4288099889
-0.0045486242 -0.059309442 -0.011723515 4288427308
-0.0024198554 -0.059908126 -0.011576124 4288164913
-0.00028572232 -0.060506213 -0.01143004 4288426799
0.0018537752 -0.06110378 -0.011285242 4288622893
0.0044115633 -0.063225016 -0.0098369867 4288557614
0.0063578933 -0.063058972 -0.010347914 4287903284
0.0085160434 -0.063654497 -0.010207754 4287706678
0.010465153 -0.063487962 -0.010719206 4288098868
0.012631334 -0.064082593 -0.010580916 4287836983
0.014583182 -0.063915551 -0.01109289 4287378238
0.017424211 -0.066791609 -0.0090117417 4287705149
0.020061433 -0.06890513 -0.0075836335 4287050563
-0.011504434 -0.065404624 -0.007571232 4286790719
-0.010312963 -0.062176239 -0.010704681 4287772979
-0.0087615103 -0.060480926 -0.012522563 4288427563
-0.0070273951 -0.059551779 -0.013683364 4288884523
-0.0045155399 -0.061684009 -0.01222831 4289015593
-0.0021861456 -0.063049749 -0.01143023 4288623404
-0.00024811551 -0.062884822 -0.011939283 4288034608
0.001690004 -0.062719747 -0.012448255 4287838004
0.0036282055 -0.062554553 -0.012957156 4288622384
0.0059842616 -0.063917443 -0.012165718 4288164404
0.0081393868 -0.064515427 -0.012026418 4287510329
0.010085702 -0.064349115 -0.012537133 4287836474
0.012032062 -0.064182684 -0.013047777 4287181888
-0.011852503 -0.066256225 -0.0093922168 4287183419
-0.010662921 -0.063019305 -0.012518626 4287772213
-0.0089235902 -0.062087748 -0.013679236 4287772468
-0.0069965199 -0.061924133 -0.014185697 4288230959
-0.0042873509 -0.064830169 -0.01208403 4288688939
-0.0023495667 -0.064665392 -0.012593109 4288950313
-0.00041169301 -0.064500496 -0.013102133 4288753708
0.0011194609 -0.062801868 -0.014910959 4287902774
0.003258273 -0.063403666 -0.014769197 4287968308
0.0056110993 -0.064771235 -0.013980158 4288883504
0.0075519197 -0.064605549 -0.014489546 4287116864
-0.010825016 -0.064628005 -0.013676707 4288295474
-0.0092756376 -0.062924117 -0.015487533 4287575608
-0.0071587116 -0.063530654 -0.015342109 4287575865
-0.0048411451 -0.064906195 -0.014547616 4287771959
-0.0027108714 -0.065511286 -0.014405545 4288033334
-0.00097632781 -0.06457743 -0.015562873 4289078834
0.00075303763 -0.063643888 -0.01671873 4287836984
-0.011548579 -0.063918859 -0.016787369 4286921279
-0.009437412 -0.064528152 -0.016642209 4287313723
-0.0075132996 -0.064364806 -0.017147906 4287313723
-0.0053940117 -0.06497319 -0.017004646 4287575354
0.063429542 0.017271802 0.026304536 4284122144
0.00461578 0.024271511 0.024917554 4283656769
0.0052064583 0.028423917 0.020088788 4283990563
0.0070794001 0.028584214 0.019597519 4283794979
0.0096172765 0.026750553 0.021268759 4283987504
0.012843885 0.02292487 0.025096349 4284443953
0.057899725 0.023387462 0.017191716 4284638773
0.06038462 0.022234898 0.018099394 4283921459
0.065492801 0.015154347 0.025330056 4283597863
0.0015120283 0.025866771 0.020664424 4283854904
0.0023199916 0.029365001 0.016565811 4283926049
0.0037499517 0.030859014 0.014636007 4283794979
0.0056069493 0.031017927 0.014148907 4283602198
0.0079068281 0.029843094 0.015100346 4283991838
0.010889448 0.026669249 0.01820467 4284185129
0.013898548 0.023497745 0.021302111 4284385303
0.058494046 0.024597624 0.012734032 4283923499
0.062423408 0.020135351 0.017146312 4283859748
0.068145983 0.011711795 0.025752429 4283860258
-0.0023978949 0.023975447 0.020518102 4283528503
-0.00093882158 0.025476085 0.018583775 4283990819
0.00029919669 0.027645873 0.015931882 4283860768
0.0015214682 0.029814441 0.01328414 4283792939
0.0031597614 0.030642578 0.012078681 4283726638
0.0047928616 0.031470347 0.010874643 4283860004
0.0070842505 0.030290425 0.011824944 4283925538
0.0091624744 0.029780379 0.012055577 4284251429
0.01215186 0.026596205 0.015149918 4284314668
0.05529236 0.025496664 0.0092823924 4284707369
0.056893408 0.02632371 0.0080882823 4283795488
0.060228184 0.023171194 0.01109361 4283926559
0.064759217 0.01736917 0.016888026 4283991328
0.071698748 0.0062694252 0.028256398 4283990564
-0.0037880465 0.026440835 0.015066522 4283069249
-0.0023444742 0.027944513 0.013139549 4283924774
-0.00091133639 0.029447328 0.011215416 4283606023
0.00051132962 0.030949382 0.0092940526 4283667223
0.0021391809 0.03177879 0.0080929613 4283729699
0.0041984506 0.03126476 0.0083267828 4283927324
0.006484028 0.030079899 0.0092753479 4283927324
0.0087802298 0.028896071 0.010221138 4284186658
0.011087075 0.027713193 0.011164245 4284251684
0.013862256 0.025190057 0.013532518 4284711449
0.055413131 0.023248814 0.008844343 4284250408
0.057590917 0.022747077 0.0090486938 4284056098
0.060642749 0.020249613 0.011345982 4284121378
0.064007856 0.017088875 0.014335209 4284121123
0.06975849 0.0086108819 0.022891182 4284055333
-0.0031248145 0.028415689 0.0098683788 4283201594
-0.0010687895 0.027898926 0.010101208 4283467048
0.00035421923 0.029405359 0.0081830258 4283796764
0.0019822046 0.030236972 0.0069835531 4283796764
0.0038230717 0.030394444 0.0065006362 4283928088
0.006105464 0.029204911 0.0074467221 4283925283
0.0079517551 0.029363019 0.0069625108 4284056608
0.0097981133 0.029521221 0.0064783497 4283991074
0.01233045 0.027660938 0.0081313597 4283924518
0.055817559 0.020328667 0.009101185 4284250663
0.058573805 0.018489502 0.010696935 4284252704
0.061924592 0.015316516 0.013681619 4284121889
0.065009624 0.012813278 0.015963715 4284121888
0.070473075 0.004974626 0.023801204 4284055844
-0.0034892038 0.027546676 0.0080395425 4282347344
-0.0016460717 0.027704088 0.0075558415 4283793703
0.00019716099 0.027861593 0.007072174 4283924773
0.001825273 0.028695384 0.0058743013 4283925028
0.0038838871 0.028176861 0.0061049564 4283990818
0.005506888 0.02901038 0.0049085477 4283925284
0.0075709261 0.02849249 0.0051379064 4283991074
0.0091887787 0.029325733 0.003942973 4283925538
0.011715062 0.027458305 0.0055926563 4284056099
0.014488302 0.024917485 0.0079483287 4284118319
0.053254209 0.015058249 0.012439216 4284380458
0.05516351 0.015223622 0.011939886 4284119339
0.057356596 0.014718786 0.012136911 4284055078
0.060127925 0.012874328 0.013723823 4284186403
0.063204132 0.010361552 0.016001545 4284120869
0.06542594 0.0098594166 0.016191293 4284054823
0.071480714 0.00065597147 0.025395375 4284054823
-0.0018029772 0.026160577 0.0064451369 4283200829
4.0151179e-05 0.026318057 0.0059614843 4283924264
0.0018833689 0.026475618 0.0054778671 4284055843
0.0037266798 0.026633276 0.0049942946 4283991329
0.0051295199 0.028146928 0.0030882144 4283926048
0.0067447908 0.028982043 0.0018955329 4283928854
0.0085803829 0.029139291 0.0014141696 4283928344
0.010644216 0.028619343 0.0016420484 4283470109
0.013175063 0.026745813 0.0032856474 4283661869
0.015955251 0.02419694 0.0056329118 4283989544
0.049543403 0.012455292 0.012985717 4284314923
0.05145542 0.012620755 0.01248557 4284249899
0.053367354 0.012786284 0.0119855 4284119849
0.055560209 0.012279179 0.01218089 4284054313
0.058041923 0.011100076 0.013069703 4284054823
0.060534075 0.0099219978 0.013955801 4284054568
0.063325629 0.0080728456 0.015532571 4283989289
0.06584131 0.0068969801 0.016412646 4283988779
0.072192267 -0.0030085072 0.026285067 4283988779
-0.0023788027 0.025979443 0.0039096894 4281037919
-0.00032893568 0.025455596 0.0041391971 4283465263
0.001511544 0.025612911 0.0036562877 4283924774
0.0031347051 0.02645071 0.0024630474 4283991328
0.0040925294 0.029328678 -0.00085786171 4283859494
0.0056973547 0.03016508 -0.0020461623 4283857964
0.007747598 0.029641692 -0.0018164376 4283663399
0.010031145 0.028439352 -0.00088044535 4283600413
0.01232532 0.02723798 5.2875839e-05 4283728169
0.01463009 0.026037628 0.00098343007 4284184874
0.042052329 0.014416255 0.0091477474 4284639538
0.044483762 0.013227955 0.010045989 4284247858
0.046925716 0.012040608 0.010941583 4284053803
0.049378149 0.010854304 0.011834468 4284054313
0.051565565 0.010344379 0.012029515 4283988778
0.053758185 0.0098350011 0.012223271 4283923754
0.056236792 0.0086511746 0.013109541 4283923499
0.058725849 0.0074683875 0.01399311 4283988778
0.061225384 0.0062865578 0.014874046 4283923499
0.063735344 0.0051057637 0.015752278 4283857453
0.066547111 0.0032518953 0.017318897 4283857453
0.072902448 -0.0066860504 0.027165454 4283857454
0.00071112812 0.026120575 0.00041906536 4283596333
0.0021093152 0.027642479 -0.0014792811 4283795744
0.0032771863 0.029846 -0.0040829387 4283667223
0.0048742108 0.030683905 -0.0052675577 4283859494
0.0069162063 0.030157607 -0.0050373264 4283858984
0.0091912895 0.028950106 -0.0041023754 4283925539
0.011707347 0.027062176 -0.0024648607 4283992094
0.013540238 0.027219428 -0.0029453356 4284252194
0.016315818 0.024652669 -0.00060995668 4284317219
0.03303289 0.015571363 0.0064960895 4284379184
0.035943177 0.013016928 0.0087966593 4284314669
0.037836835 0.013180297 0.0083009349 4284250409
0.040254619 0.011986233 0.0091993762 4284185128
0.041624032 0.01350731 0.0073097264 4284054058
0.04405228 0.012314327 0.0082055638 4283922988
0.046761025 0.010444276 0.0097936569 4283792684
0.049212899 0.009253554 0.010683401 4283923243
0.05139998 0.0087414384 0.010876904 4283857964
0.054148115 0.0068750679 0.012454896 4283923753
0.056350872 0.0063644871 0.012644439 4283923244
0.059125222 0.0045005605 0.014215711 4283923499
0.061343618 0.0039915144 0.014401295 4283792173
0.064144157 0.002130039 0.015965857 4283857454
0.067251503 -0.00040616095 0.018215764 4283857199
-8.7875873e-05 0.026641699 -0.0028084051 4282940729
0.0013027191 0.028167369 -0.0047015147 4283597099
0.0024632551 0.030376773 -0.007298266 4283861278
0.0040524751 0.031216195 -0.0084791947 4283795488
0.0060862191 0.030686984 -0.0082484614 4284058649
0.0085803159 0.028790498 -0.0066102115 4284058394
0.011320479 0.026211748 -0.0042722868 4284122399
0.013383415 0.025685303 -0.004049005 4284252704
0.015922546 0.023792917 -0.0024223067 4284317984
0.018715631 0.021218967 -9.8058023e-05 4284250919
0.022011299 0.017281383 0.0036226483 4284513569
0.029104806 0.01367069 0.0063486556 4284509998
0.031490423 0.012469146 0.0072518969 4283988014
0.033378746 0.012631893 0.0067574466 4284053549
0.036036745 0.010750443 0.0083535435 4283988523
0.03793294 0.010914043 0.0078571634 4284054314
0.040352784 0.0097158179 0.0087517211 4284120359
0.042254172 0.0098800585 0.0082541229 4284054313
0.044155516 0.010044381 0.0077566048 4283989034
0.046866104 0.0081679374 0.0093392832 4283923499
0.049047649 0.007653065 0.0095325289 4283923243
0.051784508 0.0057790838 0.011108476 4283857964
0.054259427 0.0045861751 0.011989041 4283923243
0.05646449 0.0040736198 0.01217634 4283923499
0.058957722 0.0028824396 0.013052297 4283923243
0.061175782 0.0023712032 0.013236343 4283923499
0.063687265 0.0011818185 0.014107616 4283857964
0.067372762 -0.0027203858 0.017727662 4283792429
0.00049753115 0.028705729 -0.0079139899 4283530034
0.0023088045 0.02886067 -0.0083891433 4283924773
0.0041201487 0.029015707 -0.0088642463 4283990563
0.0061562024 0.02848449 -0.008635777 4283989799
0.0086521655 0.026581548 -0.0070029232 4284120869
0.011393949 0.0239942 -0.0046720738 4284121123
0.013924345 0.022094399 -0.0030480986 4284186913
0.016705815 0.019510586 -0.00072748307 4284186914
0.019032737 0.018299166 0.00018750131 4283990053
0.021851238 0.015718732 0.0024985662 4283923753
0.024447741 0.013824973 0.0041054832 4283988778
0.026814319 0.012617227 0.0050102742 4283923499
0.029191468 0.011410449 0.0059124185 4283858219
0.031830214 0.009520635 0.0075084353 4283858219
0.033977415 0.0089999363 0.0077085821 4283923499
0.036129866 0.0084798224 0.0079073859 4283923498
0.038028583 0.0086436495 0.0074103465 4283989544
0.04018889 0.0081244037 0.0076072356 4283989544
0.042354427 0.0076057091 0.0078028282 4283989544
0.04452521 0.0070874989 0.0079971449 4283923753
0.04697074 0.0058874227 0.0088819163 4283923754
0.049154587 0.0053705871 0.009072925 4283923499
0.05189329 0.0034902021 0.010643448 4283988778
0.054370288 0.0022931099 0.011520187 4284054314
0.056577649 0.0017786026 0.011705264 4283923499
0.058507457 0.0019459501 0.011200723 4284120104
0.060437169 0.0021133944 0.010696287 4284185894
0.062942818 0.00091912597 0.011565858 4284251173
0.066912204 -0.0036774017 0.015863996 4284381734
0.00034323707 0.027189903 -0.0090047084 4282742084
0.0021544024 0.027344834 -0.0094798338 4283792939
0.0048527643 0.024744675 -0.0071443683 4283924518
0.0071234666 0.023523588 -0.0062182937 4283990308
0.00985891 0.020926796 -0.003892405 4284121888
0.012156121 0.01970816 -0.0029731477 4284056354
0.014928624 0.017114725 -0.00065684319 4284121889
0.01748731 0.015210852 0.00095482077 4284056354
0.019824225 0.013995904 0.001863881 4283990054
0.022171743 0.012781925 0.0027702851 4283989544
0.02428692 0.012255948 0.0029768469 4283989289
0.026652928 0.011043776 0.0038784994 4283989544
0.029029513 0.0098325685 0.0047774902 4283923754
0.031667463 0.0079361275 0.0063687703 4283858219
0.033814326 0.0074132197 0.0065673692 4283858218
0.035710327 0.0075767227 0.0060709817 4283858728
0.037865046 0.0070547275 0.0062676193 4283858728
0.040286399 0.0058478974 0.0071552051 4283989289
0.04271828 0.0046420172 0.0080401478 4283989288
0.044893991 0.0041221268 0.0082315141 4284054823
0.047344234 0.0029180683 0.0091117462 4284054824
0.049533036 0.0023994446 0.0092998678 4283989034
0.052001618 0.0011971816 0.010175458 4283989288
0.053926226 0.0013639182 0.0096721547 4284054569
0.05641048 0.00016319752 0.010543787 4284186149
0.05862271 -0.00035302341 0.010726064 4284251429
0.0608401 -0.00086865202 0.010907018 4284708388
0.003313534 0.021681894 -0.0063599264 4283266874
0.0058051758 0.019765232 -0.0047359858 4283858983
0.0085369162 0.017159261 -0.0024158033 4283860003
0.010836147 0.015936311 -0.0015004491 4283924774
0.013145987 0.014714375 -0.00058780424 4283858218
0.015698571 0.012803312 0.0010204418 4283924009
0.018267021 0.010893703 0.0026245946 4283923754
0.020376546 0.01036486 0.0028308472 4283989544
0.022491364 0.009836562 0.0030357791 4283989544
0.024368798 0.0099979974 0.0025438992 4283989544
0.026491564 0.009470582 0.0027468996 4283989544
0.02886758 0.0082549527 0.0036427518 4283923753
0.031504735 0.0063518733 0.0052292934 4283923499
0.033904497 0.0051384829 0.0061190715 4283923499
0.036058903 0.0046141781 0.0063140793 4283923753
0.038218562 0.0040904097 0.006507772 4283989544
0.04038348 0.0035671704 0.0067002205 4283989288
0.042817414 0.0023571476 0.0075812964 4284055079
0.044995427 0.0018352643 0.0077704107 4284055334
0.047447756 0.00062699616 0.0086468635 4284120104
0.049367119 0.0007931143 0.008144808 4284251174
0.051835135 -0.00041355938 0.0090172691 4284709153
0.0069767013 0.01407076 -0.0016438663 4283595823
0.0092753172 0.012843281 -0.00073172525 4283858474
0.011584561 0.011616759 0.00017773919 4283792939
0.013904393 0.010391284 0.0010844627 4283857964
0.016234849 0.0091667734 0.0019885087 4283858474
0.018575884 0.007943321 0.0028898241 4283858473
0.02092753 0.006720826 0.0037884703 4283989544
0.02281012 0.0068826042 0.0032951636 4283989799
0.024935167 0.0063530952 0.0034958413 4283989289
0.026820421 0.006515298 0.003001987 4283924009
0.029201135 0.0052957386 0.0038932646 4283989034
0.031592418 0.0040771477 0.0047818972 4284054059
0.034247242 0.0021691173 0.0063589429 4284054059
0.036662254 0.00095276907 0.0072415108 4284054058
0.038829491 0.00042748451 0.0074315919 4283988778
0.041001968 -9.7252429e-05 0.0076203635 4284053803
0.043179687 -0.00062143803 0.0078078406 4284185639
0.045096416 -0.00045571849 0.0073063457 4284316709
0.047819667 -0.0023572817 0.0088659832 4284642854
0.0077033639 0.009740863 3.3644028e-05 4283068739
0.0097882263 0.0092050396 0.00024270266 4283989034
0.01187842 0.0086697601 0.00045042019 4283857709
0.014202982 0.0074402541 0.0013526389 4283923243
0.016538136 0.0062118135 0.0022521159 4283858474
0.018883899 0.0049843416 0.0031489385 4283858729
0.021003291 0.0044519491 0.0033492958 4283989544
0.023367565 0.0032262988 0.0042413594 4284054824
0.025500193 0.002695255 0.0044384068 4283989033
0.027638128 0.0021647252 0.0046341838 4283989288
0.030028831 0.00094164535 0.0055195512 4283988779
0.032430105 -0.00028046593 0.0064022662 4283922478
0.034841906 -0.0015015118 0.0072822729 4283987759
0.037008822 -0.002029106 0.007470713 4284054059
0.038922928 -0.0018639155 0.0069696801 4284509744
0.0075447299 0.0081840865 -0.0010864865 4283265853
0.0096292496 0.0076460242 -0.00087900274 4283988268
0.012171429 0.0057141483 0.00071697123 4283923243
0.014500692 0.0044807121 0.0016146153 4283923499
0.016840566 0.0032482482 0.0025096042 4283923499
0.019191016 0.0020168275 0.0034018373 4283858474
0.021552064 0.00078641996 0.0042913789 4283858983
0.023923703 -0.00044303015 0.0051782569 4283989289
0.026305903 -0.0016714148 0.0060624098 4284054314
0.028698687 -0.0028988235 0.0069439122 4284053804
0.031102015 -0.0041251928 0.0078226784 4284117554
0.033515915 -0.0053505898 0.0086987996 4284313138
0.035435226 -0.0051851459 0.0081962543 4284704818
0.0057433434 0.0057683252 -0.0010229181 4281821534
0.0080481023 0.0045281127 -0.00012237206 4283331899
0.010363504 0.0032888539 0.00077549648 4283791919
0.012915444 0.0013512485 0.0023639658 4283922989
0.015026115 0.00081342831 0.0025630845 4283923243
0.01737332 -0.00042275712 0.0034527993 4283923754
0.019964993 -0.0023566596 0.00503108 4283989799
0.022336017 -0.0035905875 0.0059147058 4284054569
0.024956776 -0.0055217892 0.007485521 4283988523
0.027351603 -0.006753467 0.0083630653 4284117299
0.030245833 -0.0093797259 0.01061488 4284379184
0.0058024824 0.0035076551 -0.0014504893 4282280788
0.0081093237 0.0022631846 -0.00055374671 4283462969
0.010649841 0.0003179647 0.0010326458 4283987759
0.01343197 -0.0023274235 0.0033066915 4284184619
0.015778579 -0.0035681836 0.0041932343 4284249643
0.01836675 -0.0055090152 0.005767365 4284314158
0.0090509541 -0.0028228201 0.001777933 4283592764
0.011603866 -0.0047735572 0.0033561224 4284051508
0.014172684 -0.0067228712 0.0049302662 4284314158
0.03982126 -0.018727187 0.0043303603 4284246839
0.042014673 -0.019267548 0.0045005372 4283725364
0.04447509 -0.020514581 0.0053451685 4282286909
0.046946004 -0.021760572 0.0061870785 4281893953
0.049961489 -0.024419125 0.0083749769 4281827908
0.054885715 -0.032021564 0.015272784 4281631558
0.037720539 -0.020510931 0.0036739102 4282481219
0.039910983 -0.02105381 0.0038431501 4281959234
0.042365577 -0.022305842 0.00468593 4281828418
0.044569142 -0.022847373 0.0048518991 4281370949
0.047042102 -0.024097551 0.0056899926 4281174599
0.049792379 -0.026055705 0.0071981912 4281174344
0.055252865 -0.035099927 0.015422693 4281173323
0.033437863 -0.021748204 0.0028481288 4282611269
0.035620078 -0.022294212 0.0030177077 4282284358
0.03780755 -0.022839669 0.0031859903 4281892423
0.040000275 -0.02338453 0.0033530043 4281500998
0.042456914 -0.024640743 0.0041919509 4281174088
0.044924054 -0.02589589 0.0050282096 4281305159
0.047137767 -0.026438612 0.0051899655 4281044039
0.049889863 -0.028403159 0.0066927662 4281240388
0.055888314 -0.038897712 0.016236901 4281044038
0.024597332 -0.02116349 0.0010022372 4283788859
0.026758075 -0.021713991 0.001175452 4282481473
0.028924111 -0.022263918 0.0013473686 4281697094
0.031340674 -0.023528527 0.0021930924 4281697603
0.033519901 -0.024077099 0.0023617195 4281566024
0.035453871 -0.023910332 0.0018553836 4281435719
0.037640981 -0.02445798 0.0020221276 4281239368
0.039833337 -0.025005061 0.0021875901 4281304904
0.042547822 -0.026979763 0.0036950288 4281305159
0.045017008 -0.02823909 0.0045274599 4281370438
0.047233008 -0.028783832 0.0046870364 4281239879
0.050253268 -0.031468157 0.0068539744 4281436484
0.057060387 -0.044134792 0.018379565 4281109573
0.022043411 -0.021496583 -0.0010013767 4284116789
0.024670076 -0.02348632 0.00052343495 4282547773
0.026593357 -0.023320947 1.9537285e-05 4281893698
0.029001402 -0.024590712 0.00086408854 4281370694
0.031420015 -0.025859524 0.001705992 4281305414
0.033849161 -0.027127255 0.0025451845 4281370184
0.035788268 -0.026960049 0.0020374944 4281370438
0.03772736 -0.026792724 0.0015299013 4281239368
0.039922006 -0.027341839 0.0016931565 4281435719
0.042638291 -0.029322874 0.0031951619 4281435719
0.04510954 -0.03058644 0.0040238062 4281501508
0.047854755 -0.032564748 0.0055184225 4281501254
0.051946372 -0.038119588 0.010348878 4281436739
0.02187968 -0.023096588 -0.0021523871 4282942768
0.024505522 -0.025092956 -0.00063229725 4281895229
0.026428666 -0.02492759 -0.0011361521 4281502019
0.029078281 -0.026921686 0.00037787389 4281436229
0.031254139 -0.027475011 0.00054402929 4281435463
0.033682689 -0.028747175 0.0013800794 4281239879
0.035621658 -0.028579969 0.00087243598 4281239623
